ply
format ascii 1.0
element vertex 821
property float x
property float y
property float z
property float nx
property float ny
property float nz
element face 0
property list uchar int vertex_index
end_header
-0.42375 0.458975 -0.010163 -0.000230936 -0.00119283 -0.999999
-0.401803 0.139843 0.010163 0.00270897 0.00287048 0.999992
-0.499015 0.357374 0.010163 -0.671808 0.0182138 0.740501
-0.333361 -0.04468 -0.010163 0.000233014 -0.000246684 -1
-0.192025 0.30837 -0.010163 0.000155131 -0.000247192 -1
-0.464403 -0.484282 -0.010163 -0.00219958 -0.0426361 -0.999088
-0.470519 -0.172326 -0.010163 0.00355704 -0.00028522 -0.999994
-0.475851 -0.080791 0.010163 0.0130117 -0.00229214 0.999913
-0.125534 0.401482 0.010163 0.000142234 -0.000144414 1
-0.432376 -0.339205 0.010163 -8.29696e-05 0.000687599 1
-0.003711 0.481598 0.010163 0.633389 0.0514308 0.772122
-0.339959 0.204505 -0.010163 -0.000546088 0.000267322 -1
-0.234224 0.045953 -0.010163 0.000102361 0.00017039 -1
-0.291429 0.229298 0.010163 0.000583649 -0.000133514 1
-0.431079 -0.363732 0.010163 0.000195185 -0.000342687 1
-0.078944 -0.48837 0.010163 0.00633539 -0.117812 0.993016
-0.445107 -0.01392 -0.010163 -0.000536855 -0.000601196 -1
-0.257013 0.001155 -0.010163 0.00170728 -0.000674773 -0.999998
-0.049212 -0.169192 -0.010163 -0.000427518 -0.00053433 -1
-0.157568 0.399961 -0.010163 0.000853674 -0.00027602 -1
-0.020755 -0.351764 -0.010163 0.013837 0.0033861 -0.999899
-0.406446 0.324505 -0.010163 -7.19706e-05 -0.000554148 -1
-0.015139 -0.055343 0.010163 0.132948 0.00728581 0.991096
-0.423263 -0.121455 -0.010163 -0.000453166 0.000283157 -1
-0.403702 0.291349 0.010163 -0.000404994 -0.000482559 1
-0.377382 -0.264866 0.010163 -0.000307797 -0.000471624 1
-0.067358 0.015259 -0.010163 -0.000184106 -0.000598626 -1
-0.383665 -0.243409 -0.010163 0.000549825 -0.000364431 -1
-0.178491 -0.442899 0.010163 -0.000376565 0.000284467 1
-0.457556 0.333541 -0.010163 0.00056076 -0.000832484 -0.999999
-0.227836 -0.129317 0.010163 -0.000418091 0.000314331 1
-0.395424 0.376248 0.010163 -0.00087302 -0.000150953 1
-0.4103 -0.168786 -0.010163 0.000464121 0.000524139 -1
-0.255504 -0.097929 -0.010163 0.000353132 -8.71931e-05 -1
-0.350066 0.37654 0.010163 0.00131289 -0.00124168 0.999998
-0.113506 -0.319966 -0.010163 -0.000398954 0.000372251 -1
-0.279856 0.5 -0.003785 0.0294812 0.938273 -0.344636
-0.488386 -0.346428 -0.010163 -0.125929 -0.00584812 -0.992022
-0.083336 0.068163 -0.010163 -0.000114168 0.000477655 -1
-0.426612 0.158601 0.010163 -6.44204e-05 0.000698569 1
-0.296995 0.045621 -0.010163 6.58671e-05 0.000310008 -1
-0.5 0.345849 0.003097 -0.943763 0.0226165 0.329848
-0.470813 -0.28919 -0.010163 0.00413939 0.00114678 -0.999991
-0.156744 -0.204107 -0.010163 0.000403813 0.000986371 -0.999999
-0.125695 0.021576 0.010163 5.00679e-05 -0.000200272 1
-0.3995 0.382837 0.010163 -1.08991e-06 -0.000688825 1
-0.450067 -0.136384 0.010163 0.000620622 -0.000251134 1
-0.209648 -0.202467 0.010163 5.57899e-05 -0.000916481 1
-0.197697 0.302519 0.010163 -0.000679561 -0.000764574 0.999999
-0.051217 -0.150182 -0.010163 -0.000533549 -0.00054423 -1
-0.5 0.372023 -0.003169 -0.95659 -0.00152353 -0.291433
-0.271678 -0.085163 -0.010163 -0.000606809 -0.000445774 -1
-0.29366 0.145538 0.010163 0.00135294 -0.000479634 0.999999
-0.228194 0.434418 0.010163 -0.00068828 -0.000470842 1
-0.376715 0.431702 -0.010163 0.000429232 -0.000582525 -1
-0.20126 -0.043972 0.010163 0.000450134 -0.000512441 1
-0.070987 0.158633 0.010163 0.00194273 -0.00349803 0.999992
-0.348439 0.460561 0.010163 0.000174129 -0.00223855 0.999997
-0.021317 0.114332 -0.010163 -0.00985695 5.77263e-05 -0.999951
-0.38785 0.16034 0.010163 0.00101235 0.00163212 0.999998
-0.264158 -0.368738 0.010163 -0.000379496 0.000715913 1
-0.493559 -0.092015 0.010163 -0.420786 0.00458585 0.907148
-0.32717 -0.060922 -0.010163 5.72205e-05 5.20186e-06 -1
-0.094013 -0.056412 -0.010163 -0.000802847 -0.000531123 -1
-0.15961 -0.026416 0.010163 -0.00205547 0.00117859 0.999997
-0.285024 0.347746 0.010163 0.000348227 0.0004376 1
-0.351038 -0.296482 0.010163 0.000421524 -0.000113964 1
-0.250853 -0.246371 0.010163 0.00152128 0.00129472 0.999998
-0.148316 -0.384104 -0.010163 0.000206248 0.000760905 -1
-0.011745 0.209111 0.010163 0.230113 0.00416695 0.973155
-0.085053 -0.14294 -0.010163 -0.00174795 -7.05718e-05 -0.999998
-0.047098 -0.187131 -0.010163 -0.000602722 -0.000134277 -1
-0.393714 -0.5 -0.007915 -0.00770447 -0.770456 -0.637447
-0.295086 -0.340263 -0.010163 0.000224558 -0.000375875 -1
-0.099815 -0.143176 -0.010163 0.000809987 -0.000149027 -1
-0.378472 -0.081288 -0.010163 0.000219618 -0.000311715 -1
-0.483321 0.435332 0.010163 -0.0316221 -0.000647966 0.9995
-0.055321 -0.253072 -0.010163 0.000234059 0.000806263 -1
-0.467083 -0.022221 0.010163 0.00298144 -0.000459396 0.999995
-0.087858 0.187714 0.010163 -0.00290454 -0.000135968 0.999996
-0.065953 0.208469 0.010163 0.00185754 0.00344261 0.999992
-0.444536 -0.301771 0.010163 0.000554221 -0.000254495 1
-0.089626 -0.159017 -0.010163 -0.00109182 -0.000320434 -0.999999
-0.405319 0.011228 0.010163 -0.000327477 -0.000559293 1
-0.451661 -0.296474 0.010163 -0.000319926 -0.000506083 1
-0.335317 0.476062 0.010163 1.79838e-05 -0.00765401 0.999971
-0.244093 -0.364237 0.010163 0.000315857 0.000217183 1
-0.040424 -0.5 0.009515 0.0174483 -0.682671 0.730518
-0.263932 0.165896 0.010163 -0.000408427 -0.000154622 1
-0.33218 0.465972 -0.010163 0.000243847 -0.00088589 -1
-0.31042 -0.395936 0.010163 -0.00100238 9.62477e-05 0.999999
-0.294176 -0.110587 0.010163 0.000167847 -0.00037493 1
-0.487325 0.252583 0.010163 -0.0930041 -0.00743969 0.995638
-0.319261 -0.216382 -0.010163 -0.00037988 -0.000440597 -1
-0.353918 0.213116 -0.010163 0.000641162 9.91821e-05 -1
-0.388427 -0.315502 0.010163 -0.000398908 0.000908987 1
-0.024496 -0.200707 0.010163 -0.0025075 -0.00464137 0.999986
-0.064088 0.007539 0.010163 9.35872e-05 -0.000534566 1
-0.097203 -0.370583 0.010163 0.000452169 7.42594e-05 1
-0.098174 -0.007492 0.010163 0.00243558 0.00294141 0.999993
-0.252836 -0.236873 -0.010163 0.000199182 -0.000178473 -1
-0.21966 -0.29489 -0.010163 4.50611e-05 -0.000630379 -1
-0.452941 0.5 -0.009277 0.00751004 0.686048 -0.727517
-0.142271 -0.49488 -0.010163 0.00404538 -0.48495 -0.874532
-0.455672 -0.425569 0.010163 -0.000130717 -0.000125122 1
-0.093918 0.401014 -0.010163 0.000494003 -0.000205676 -1
-0.344491 0.054267 0.010163 4.35965e-05 0.000709534 1
-0.464861 0.478599 0.010163 -0.00174372 -0.0220289 0.999756
-0.291862 -0.184532 0.010163 0.000535147 -0.000699179 1
-0.118133 -0.465388 -0.010163 -0.000162505 0.00339786 -0.999994
-0.044967 -0.305049 0.010163 0.000955309 0.000587463 0.999999
-0.006356 0.454988 -0.010163 0.491008 -0.0145641 -0.871033
-0.490269 0.085909 -0.010163 -0.259761 0.00793157 -0.96564
-0.124873 -0.107178 0.010163 0.00056294 0.00123596 0.999999
-0.120944 -0.155826 0.010163 0.000280653 0.000128065 1
-0.452469 0.227249 -0.010163 0.000179291 0.000240564 -1
-0.266643 0.44302 -0.010163 -0.000398908 0.00104005 -0.999999
-0.435744 -0.034896 -0.010163 -0.000404085 -0.00105613 -0.999999
-0.256502 -0.00755 -0.010163 0.000452163 -8.37116e-05 -1
-0.280278 -0.157832 0.010163 0.000132915 0.000157098 1
-0.358721 0.045064 -0.010163 0.000510406 -0.000656128 -1
-0.085806 -0.114003 0.010163 0.00186106 0.000747679 0.999998
-0.249961 0.318483 0.010163 0.000435965 0.000258854 1
-0.279721 -0.47684 0.010163 0.00474807 0.0170228 0.999844
-0.222475 -0.421948 -0.010163 0.000658307 -0.000811985 -0.999999
-0.449499 0.38081 0.010163 0.000689338 -0.000498603 1
-0.439517 0.126752 -0.010163 0.00019237 0.00040899 -1
-0.45937 0.261354 0.010163 0.0003829 0.00120687 0.999999
-0.362628 -0.353303 0.010163 -0.000571569 -0.000762939 1
-0.003489 -0.110705 -0.010163 0.65625 -0.0141178 -0.754411
-0.5 -0.125411 0.002401 -0.974069 -0.0101348 0.226023
-0.247532 -0.062725 -0.010163 0.000502979 -0.00166451 -0.999998
-0.269345 0.294358 -0.010163 0.000405424 0.000452014 -1
-0.282354 -0.130929 -0.010163 -0.000705425 -0.000168434 -1
-0.323403 0.27163 0.010163 0.00065378 -0.00050354 1
-0.215797 -0.105745 -0.010163 8.39233e-05 -9.67138e-05 -1
-0.097964 -0.450457 -0.010163 0.000324249 0.00102479 -0.999999
-0.131545 0.143013 0.010163 -4.73022e-05 -0.000304667 1
-0.399403 -0.353742 0.010163 -0.000385761 0.000431061 1
-0.114395 0.122579 -0.010163 0.000245314 -0.000620328 -1
-0.355427 0.278381 0.010163 0.000116685 -0.000382816 1
-0.312872 0.305314 0.010163 -0.000449539 -0.000294895 1
-0.01265 0.11345 -0.010163 0.212025 -0.00115112 -0.977264
-0.311937 0.374339 0.010163 0.00024238 -0.00050354 1
-0.41982 0.287123 -0.010163 -0.000466091 7.45747e-05 -1
-0.430604 0.388808 -0.010163 0.00147229 0.00277757 -0.999995
-0.131289 0.485095 0.010163 -0.00782392 -0.00449202 0.999959
-0.118039 -0.5 0.001062 -0.0117661 -0.98413 0.177059
-0.03533 0.499677 0.010163 -0.0302258 0.693847 0.719488
-0.378501 0.028907 -0.010163 -6.5414e-05 -0.000577631 -1
-0.066028 -0.079392 0.010163 -0.000568135 0.000908406 0.999999
-0.234302 0.301779 -0.010163 0.000129191 0.000100708 -1
-0.062423 0.039313 -0.010163 -0.00183286 0.000303469 -0.999998
-0.190506 -0.233889 0.010163 -0.000591914 -0.000168482 1
-0.355891 0.238142 0.010163 0.000106812 0.000615946 1
-0.438433 0.31472 -0.010163 0.000651496 -0.000142506 -1
-0.474241 -0.038235 0.010163 0.00623126 -0.00144425 0.99998
-0.5 -0.036978 -0.005059 -0.874409 0.0286124 -0.484345
-0.037832 -0.039719 0.010163 -0.00169182 0.000564097 0.999998
-0.135044 -0.492529 0.010163 -0.000450714 -0.48007 0.87723
-0.319095 -0.160023 -0.010163 -0.000724247 -0.000196184 -1
-0.064226 -0.30648 0.010163 -0.0013814 -0.000147343 0.999999
-0.111961 0.295158 -0.010163 -0.000610624 5.44957e-07 -1
-0.335433 0.137805 0.010163 0.000112261 0.00031668 1
-0.208752 -0.134373 0.010163 0.000197819 0.000369481 1
-0.267046 -0.276977 0.010163 0.000336834 -0.00224437 0.999997
-0.071454 -0.362054 0.010163 0.000473609 -0.000429594 1
-0.289368 0.121326 -0.010163 -0.000519646 -7.50829e-05 -1
-0.265997 -0.126166 0.010163 0.000265268 0.000629718 1
-0.089143 0.366683 0.010163 -0.000654093 0.000608825 1
-0.299787 0.066285 0.010163 -3.27391e-05 0.00337796 0.999994
-0.242716 -0.186995 0.010163 0.000279744 0.000104777 1
-0.429319 -0.054017 0.010163 0.00259028 0.000492666 0.999997
-0.323459 -0.5 -0.000586 -0.0112086 -0.994651 -0.102678
-0.197381 -0.439706 0.010163 0.000328064 0.000663757 1
-0.349104 0.285649 -0.010163 0.000221252 0.00103601 -0.999999
-0.160548 -0.114091 -0.010163 -0.000519889 -0.00063215 -1
-0.459652 0.148754 -0.010163 0.00226735 0.000384091 -0.999997
-0.427801 0.108551 0.010163 -0.000281761 0.0015353 0.999999
-0.307935 -0.341093 -0.010163 0.000118256 -0.000361204 -1
-0.389265 -0.275628 -0.010163 0.000250596 0.000480945 -1
-0.070379 -0.024419 0.010163 -0.00101878 0.000753275 0.999999
-0.258786 -0.361113 -0.010163 0.00035286 -0.000118255 -1
-0.412244 0.216673 0.010163 -0.000277257 -0.000112506 1
-0.456668 -0.221787 0.010163 0.000783102 0.000777108 0.999999
-0.114063 0.007959 -0.010163 -0.000915527 -0.000174659 -1
-0.178987 -0.026615 0.010163 0.000219218 0.00021464 1
-0.160313 0.276623 0.010163 -0.000236034 -4.76837e-07 1
-0.157744 0.047639 0.010163 -7.41141e-05 0.000596728 1
-0.1026 0.32796 -0.010163 0.000215403 0.000690206 -1
-0.34854 0.013377 0.010163 0.00019253 -0.00138496 0.999999
-0.458108 0.02161 0.010163 0.0019335 0.000543321 0.999998
-0.451991 0.160001 0.010163 -0.0014857 0.000783283 0.999999
-0.108731 0.117349 0.010163 1.03542e-05 -0.000762394 1
-0.406334 -0.324088 -0.010163 0.000599162 0.000118256 -1
-0.49304 -0.472669 -0.010163 -0.363239 0.0133608 -0.9316
-0.134734 -0.100004 -0.010163 -4.32332e-05 -0.000506083 -1
-0.5 -0.277097 -0.001795 -0.955571 0.0112817 -0.294545
-0.370815 -0.024037 -0.010163 0.00204183 -0.00124673 -0.999997
-0.432856 -0.239418 0.010163 0.000274658 -0.000492641 1
-0.438627 -0.338733 0.010163 7.08444e-06 0.000369481 1
-0.457593 -0.320687 -0.010163 -4.76983e-05 0.00136269 -0.999999
-0.107405 -0.386001 -0.010163 0.000186157 0.000911204 -1
-0.030922 0.23046 -0.010163 -0.005932 0.000622548 -0.999982
-0.171991 0.190899 -0.010163 0.000950446 0.000565162 -0.999999
-0.313403 -0.039966 -0.010163 0.000129938 -0.000427484 -1
-0.193438 -0.069124 -0.010163 0.000431878 -0.00090817 -0.999999
-0.008961 -0.439382 -0.010163 0.304988 -0.00445702 -0.952346
-0.5 -0.450235 0.008774 -0.693374 -0.0212008 0.720266
-0.366822 -0.261916 0.010163 -0.00527875 -0.00102246 0.999986
-0.228077 0.061411 -0.010163 6.74724e-05 0.000776529 -1
-0.193376 -0.295869 -0.010163 -6.2561e-05 -0.000893147 -1
-0.15121 0.431375 -0.010163 -0.000700633 -0.000169373 -1
-0.226765 0.317715 0.010163 0.000605447 -0.000906263 0.999999
-0.394155 -0.318042 0.010163 -0.000234933 3.499e-05 1
-0.392842 -0.447948 -0.010163 0.0015885 0.000256538 -0.999999
-0.369676 -0.467202 0.010163 0.000848493 0.00319615 0.999995
-0.400148 0.069112 -0.010163 3.62396e-05 -0.000739779 -1
-0.462689 0.066406 -0.010163 0.00247562 -0.000439474 -0.999997
-0.410741 -0.348448 0.010163 0.000486037 0.000381918 1
-0.227899 -0.108415 0.010163 -0.000677381 8.01086e-05 1
-0.262687 -0.131419 0.010163 -0.000480496 0.00175917 0.999998
-0.225824 -0.491127 0.010163 -0.0251217 -0.31736 0.947972
-0.144672 0.300704 -0.010163 0.00190836 0.00110288 -0.999998
-0.5 0.424521 -0.008289 -0.781668 0.0140391 -0.623537
-0.338149 -0.269368 0.010163 -0.000806723 0.000397351 1
-0.12835 -0.23649 -0.010163 -0.000281779 -0.000278219 -1
-0.282364 -0.10399 0.010163 0.000286579 -0.000564098 1
-0.5 0.005026 -0.001055 -0.967046 -0.00784281 -0.25448
-0.485495 -0.107834 0.010163 -0.0313528 0.00705872 0.999483
-0.481753 0.416031 -0.010163 0.0106358 0.00353035 -0.999937
-0.452237 -0.488842 0.010163 -0.000603826 -0.130291 0.991476
-0.269208 0.353848 -0.010163 2.5068e-05 -0.000234331 -1
-0.484826 0.094415 0.010163 -0.0327344 0.000828768 0.999464
-0.175359 0.476648 0.010163 -0.00219701 -0.00499124 0.999985
-0.268776 0.25051 0.010163 -0.000224813 -0.000860087 1
-0.438484 0.012875 0.010163 0.000515747 -0.000143433 1
-0.32523 0.042481 -0.010163 -0.00183359 -0.000700949 -0.999998
-0.297587 0.5 -0.000781 -0.0306718 0.999522 0.00374736
-0.265702 -0.000872 0.010163 0.00124711 0.00136507 0.999998
-0.39506 -0.016587 -0.010163 -0.00251529 0.000439181 -0.999997
-0.339941 0.058353 0.010163 -0.000192769 7.27336e-05 1
-0.332302 -0.084157 -0.010163 -0.000516158 4.60698e-05 -1
-0.076395 0.385238 0.010163 0.000104731 0.00117215 0.999999
-0.012087 0.446322 -0.010163 0.308626 -0.00886834 -0.951142
-0.049924 0.109049 0.010163 0.000248249 -0.0004472 1
-0.214178 0.341765 -0.010163 -0.000453313 0.000373204 -1
-0.0128 -0.488701 -0.010163 0.24895 -0.151198 -0.956642
-0.443145 -0.393146 -0.010163 0.000522868 9.00268e-05 -1
-0.477598 0.041187 -0.010163 0.0110144 0.00256602 -0.999936
-0.29325 0.5 0.009978 -0.00521645 0.643601 0.765344
-0.109697 -0.145826 0.010163 -0.000644938 -2.39054e-05 1
-0.056729 0.488235 0.010163 0.00567518 0.0989483 0.995076
-0.052217 0.127206 0.010163 -0.000878397 -2.44141e-05 1
-0.194923 -0.031425 -0.010163 0.000191632 0.000211828 -1
-0.303649 -0.5 -0.008898 -0.000213586 -0.715974 -0.698127
-0.221107 -0.486182 0.010163 -0.00341299 -0.0454448 0.998961
-0.140398 0.025486 0.010163 0.000813997 0.000515277 1
-0.406694 -0.414435 0.010163 -0.000597636 0.000840759 0.999999
-0.230597 0.015458 -0.010163 -0.000160534 -0.000265762 -1
-0.406455 -0.230897 0.010163 0.00125649 -0.000342517 0.999999
-0.425691 -0.15441 0.010163 0.00254656 0.00150051 0.999996
-0.158388 0.345256 0.010163 0.000708947 -0.000405532 1
-0.321299 0.259039 -0.010163 0.000437927 -0.000467682 -1
-0.003364 -0.453747 0.010163 0.649736 -0.0771485 0.756235
-0.003237 0.352356 -0.010163 0.68291 0.152538 -0.714399
-0.227449 -0.458011 0.010163 -0.000969949 0.00163167 0.999998
-0.041522 -0.138315 0.010163 -0.00237684 -0.000224773 0.999997
-0.283221 -0.219878 -0.010163 0.000586918 0.000794819 -1
-0.388508 -0.309269 0.010163 -0.000464219 -0.000210689 1
-0.177501 0.122965 -0.010163 -0.000405993 0.000525611 -1
-0.112363 -0.463506 -0.010163 -0.00109423 0.00236775 -0.999997
-0.283136 -0.183478 0.010163 -0.000280108 -0.000504085 1
-0.244444 0.474066 -0.010163 -0.00326622 -0.00721636 -0.999969
-0.120516 -0.458011 -0.010163 0.000394673 0.00223658 -0.999997
-0.248868 -0.037428 -0.010163 0.00280587 0.00209663 -0.999994
-0.432294 0.010676 0.010163 0.000317165 -0.000166212 1
-0.476659 0.469722 -0.010163 0.0100051 -0.00396624 -0.999942
-0.114056 -0.161567 -0.010163 -0.000238699 0.000215138 -1
-0.369877 0.327137 -0.010163 -0.000535965 -7.84738e-05 -1
-0.31678 -0.179211 0.010163 -0.00110383 -0.00389695 0.999992
-0.454135 0.198945 0.010163 -0.000361997 8.97656e-05 1
-0.1666 0.238906 0.010163 0.00133514 0.000331333 0.999999
-0.341703 0.009564 -0.010163 2.08341e-05 0.000638522 -1
-0.451339 -0.440436 -0.010163 0.000829315 0.000167338 -1
-0.093126 0.077464 -0.010163 0.000412804 0.00170762 -0.999998
-0.182363 -0.373538 -0.010163 -0.000434113 -5.11169e-05 -1
-0.047732 0.06625 0.010163 -0.000389099 0.00042216 1
-0.317265 0.21549 -0.010163 -8.33784e-05 -8.7738e-05 -1
-0.145238 0.400512 -0.010163 -0.000110626 -0.000392641 -1
-0.35708 -0.374555 -0.010163 0.000119618 0.000140599 -1
-0.026706 -0.402126 0.010163 -0.00760069 0.000198867 0.999971
-0.284956 -0.5 -0.004949 0.0147946 -0.916314 -0.400188
-0.29355 -0.412345 0.010163 0.000553131 -0.000113896 1
-0.039204 -0.166569 -0.010163 -0.00280352 -0.00119481 -0.999995
-0.026408 0.211773 -0.010163 -0.00812198 0.00108461 -0.999966
-0.451305 0.392979 -0.010163 -0.000889699 0.00251734 -0.999996
-0.476771 -0.359457 -0.010163 0.00863233 -0.00146613 -0.999962
-0.497211 0.205407 -0.010163 -0.549139 -0.00780113 -0.835695
-0.413776 -0.030802 -0.010163 0.00100963 -5.25642e-05 -0.999999
-0.041615 0.170281 -0.010163 -0.00273949 -4.98634e-05 -0.999996
-0.037981 0.414984 0.010163 -0.00278805 0.00185441 0.999994
-0.5 0.195312 0.009971 -0.741436 0.00976259 0.670953
-0.257653 -0.430114 0.010163 0.000734678 -0.000839233 0.999999
-0.218669 -0.20833 -0.010163 0.000258037 0.000704901 -1
-0.275572 0.22369 -0.010163 0.000367678 -0.000253531 -1
-0.186 -0.221709 -0.010163 -0.0008955 -0.00032115 -1
-0.440973 0.446524 0.010163 0.00207356 0.000127883 0.999998
-0.067298 0.483761 -0.010163 0.00301672 0.0450546 -0.99898
-0.362225 0.050539 -0.010163 0.000154553 -0.000502991 -1
-0.05595 0.089297 0.010163 0.000321865 -0.000147343 1
-0.469576 -0.29771 0.010163 0.00205993 -0.000728129 0.999998
-0.038491 -0.237503 0.010163 -0.00594725 -0.000327271 0.999982
-0.055882 0.172627 -0.010163 -0.000768116 -0.000515529 -1
-0.236441 0.494797 0.010163 -0.0168075 0.389382 0.920923
-0.199571 0.472099 -0.010163 0.00312714 -0.00908244 -0.999954
-0.332559 -0.38616 0.010163 -0.00062779 -3.8147e-05 1
-0.119997 -0.217845 0.010163 0.000592368 0.000492641 1
-0.113761 0.47969 0.010163 -0.00493423 -0.0116413 0.99992
-0.471579 -0.185545 0.010163 0.00408257 -0.00248842 0.999989
-0.219878 0.468494 0.010163 -0.00275132 -0.0123058 0.99992
-0.082415 0.469378 0.010163 0.000478468 -0.00420212 0.999991
-0.421022 -0.302264 -0.010163 2.32061e-05 0.000577927 -1
-0.041491 0.13777 0.010163 -0.00212249 0.000699868 0.999998
-0.219105 0.425144 0.010163 -0.000342305 -0.000154622 1
-0.492077 -0.353454 0.010163 -0.286033 0.00714393 0.958193
-0.140512 0.432514 0.010163 0.000341797 -0.000327047 1
-0.024875 -0.172452 -0.010163 -0.011424 0.00072944 -0.999934
-0.5 0.136757 0.004194 -0.901029 -0.00898204 0.433665
-0.100864 -0.202454 -0.010163 0.00118637 -0.00118326 -0.999999
-0.233679 0.493528 -0.010163 -0.0151895 0.363152 -0.931606
-0.203064 0.48856 0.010163 0.00977513 0.128291 0.991688
-0.179031 0.075032 -0.010163 0.000138346 0.00017573 -1
-0.039149 0.358651 0.010163 -0.00387448 -0.00272089 0.999989
-0.124166 0.268354 -0.010163 0.00142969 -0.00089727 -0.999999
-0.102639 0.098853 -0.010163 0.000611714 -0.000126157 -1
-0.098753 -0.474689 -0.010163 -0.00521485 0.0138806 -0.99989
-0.443027 -0.343135 0.010163 -0.000108846 0.000642904 1
-0.413258 0.468442 -0.010163 0.00160435 -0.00193922 -0.999997
-0.216752 -0.086547 -0.010163 -0.000161409 0.000333071 -1
-0.041735 0.181035 0.010163 -0.000845773 0.000100817 1
-0.5 -0.204346 0.006467 -0.822302 3.47652e-05 0.569051
-0.494332 0.137641 -0.010163 -0.406189 0.0155065 -0.913657
-0.469165 -0.276409 -0.010163 0.0029663 0.000963487 -0.999995
-0.274939 0.125668 -0.010163 -0.00052166 0.000127157 -1
-0.167576 0.244858 0.010163 0.0011611 -0.000222206 0.999999
-0.322383 0.5 0.009647 0.0173782 0.711657 0.702312
-0.348368 -0.22057 -0.010163 1.83105e-05 -0.000978597 -1
-0.306136 0.452326 -0.010163 0.000337747 -0.000329825 -1
-0.342171 0.136465 0.010163 -0.00045659 6.69039e-05 1
-0.076306 0.369345 -0.010163 -0.000439235 0.000105177 -1
-0.158104 -0.43429 0.010163 -0.000255054 -0.000849591 1
-0.451694 0.315754 0.010163 0.00144291 0.000706195 0.999999
-0.017899 -0.419333 0.010163 0.0223365 0.00595843 0.999733
-0.030233 0.01525 0.010163 -0.00488275 0.00123104 0.999987
-0.26323 -0.192955 0.010163 -0.000275167 -0.00049235 1
-0.308906 0.267756 0.010163 -0.000274022 -0.000218709 1
-0.418183 -0.06853 0.010163 0.000561014 -0.00129852 0.999999
-0.408131 0.041094 0.010163 0.000531006 0.000642903 1
-0.208543 -0.273741 -0.010163 0.000237056 -0.000260217 -1
-0.307186 0.043891 -0.010163 -0.000189645 0.00025177 -1
-0.250237 -0.371506 -0.010163 -0.000633558 7.3115e-05 -1
-0.5 0.459217 -0.010024 -0.618641 -3.09336e-05 -0.785674
-0.362237 0.075215 -0.010163 0.00172172 -0.00215442 -0.999996
-0.222191 -0.454365 0.010163 -0.00110054 -0.000188192 0.999999
-0.487374 -0.093199 0.010163 -0.0922346 0.00169827 0.995736
-0.419725 -0.488975 0.010163 -0.00850386 -0.199946 0.97977
-0.233505 0.461924 0.010163 -8.71023e-05 -0.000245412 1
-0.154223 0.049926 -0.010163 0.000621498 0.00115469 -0.999999
-0.431247 0.10231 0.010163 0.000701419 0.00201627 0.999998
-0.463866 0.494624 0.010163 0.00197486 0.406844 0.913496
-0.08369 0.334248 -0.010163 -0.000137567 0.000573873 -1
-0.365771 0.357278 -0.010163 4.72069e-05 0.000373602 -1
-0.458992 -0.056717 0.010163 -0.00119301 -0.00246443 0.999996
-0.447589 -0.388926 -0.010163 -0.000497671 0.00026204 -1
-0.061051 0.181994 -0.010163 -0.000134059 7.30242e-05 -1
-0.177951 0.122965 0.010163 0.00306179 -0.00420832 0.999986
-0.327033 -0.150862 -0.010163 0.000744411 -0.000418799 -1
-0.344266 -0.089674 -0.010163 -0.00121498 5.72204e-05 -0.999999
-0.13106 0.469095 0.010163 0.000178185 -0.00452288 0.99999
-0.292065 -0.172234 0.010163 0.00200926 -0.00113966 0.999997
-0.063572 0.235474 -0.010163 -0.000681049 0.0020111 -0.999998
-0.222238 -0.055848 -0.010163 0.000265757 -0.000473785 -1
-0.483826 0.284946 -0.010163 -0.0216923 -0.00684736 -0.999741
-0.127802 0.316512 0.010163 -0.00142347 -0.00125395 0.999998
-0.441917 0.381895 0.010163 0.000493563 0.000301068 1
-0.135797 0.42277 0.010163 -0.000144958 0.000548045 1
-0.465707 -0.050932 -0.010163 0.00332845 0.000270842 -0.999994
-0.081883 0.48782 -0.010163 6.33367e-05 0.108234 -0.994125
-0.131011 -0.279527 0.010163 0.000101089 -0.00105715 0.999999
-0.218592 -0.275462 0.010163 -0.000383504 -0.000395203 1
-0.120238 0.197548 -0.010163 -5.34057e-06 -0.00111847 -0.999999
-0.007818 -0.184251 -0.010163 0.485918 -0.0185417 -0.873808
-0.007254 0.346863 0.010163 0.480731 0.156953 0.862707
-0.241682 -0.239513 -0.010163 3.93207e-05 -6.66105e-05 -1
-0.287567 -0.327326 0.010163 -0.000872294 8.59578e-05 1
-0.206078 -0.108777 0.010163 0.000743866 0.000291188 1
-0.094761 -0.442858 -0.010163 0.000317644 -0.00145414 -0.999999
-0.108255 -0.052178 -0.010163 -0.000396184 -1.36239e-06 -1
-0.338936 -0.267108 -0.010163 -0.000546969 -0.000621795 -1
-0.457456 0.428413 0.010163 0.00182805 -0.0028814 0.999994
-0.026933 -0.093864 -0.010163 -0.00719433 -0.000712376 -0.999974
-0.113206 0.367626 0.010163 0.000166893 0.0008111 1
-0.316011 0.239226 -0.010163 -0.000285149 0.000309308 -1
-0.260943 -0.038051 -0.010163 -0.00154551 0.00371604 -0.999992
-0.476041 -0.269165 0.010163 0.00879915 -0.00250861 0.999958
-0.335687 -0.480642 -0.010163 0.0115357 0.015338 -0.999816
-0.032023 -0.098921 0.010163 -0.00668625 -0.00136512 0.999977
-0.162195 0.11192 -0.010163 0.000894673 0.000346883 -1
-0.011519 0.07477 0.010163 0.193823 0.00150313 0.981035
-0.209964 -0.142937 -0.010163 0.00038743 7.15256e-05 -1
-0.034923 0.389295 -0.010163 -0.00533564 0.00156574 -0.999985
-0.374879 -0.201569 0.010163 0.00282694 -0.00010751 0.999996
-0.181765 0.011324 0.010163 -0.000790498 0.000165642 1
-0.221643 -0.448352 -0.010163 -4.11724e-05 -0.000150615 -1
-0.445817 0.065627 -0.010163 -0.000718337 -0.000216264 -1
-0.273792 0.213831 -0.010163 0.000210302 0.000869816 -1
-0.415053 0.373802 0.010163 0.00073293 0.000289408 1
-0.484136 0.232921 -0.010163 -0.0402206 0.00129709 -0.99919
-0.014754 0.464379 -0.010163 0.0685842 0.000832699 -0.997645
-0.297833 0.395501 0.010163 -0.0001297 0.000233786 1
-0.058806 0.399372 -0.010163 0.000134395 -0.000393794 -1
-0.044493 0.030903 -0.010163 -0.00434284 -0.00338848 -0.999985
-0.02661 -0.196695 -0.010163 -0.00897235 0.000132964 -0.99996
-0.10257 -0.490992 0.010163 -0.00912097 -0.257344 0.966277
-0.214825 0.122144 -0.010163 -0.000110626 -0.000728879 -1
-0.247673 -0.094295 -0.010163 -0.000335966 0.000551224 -1
-0.245812 0.294809 0.010163 6.10351e-05 -0.0010142 0.999999
-0.18818 0.404808 -0.010163 6.35783e-06 -0.000491778 -1
-0.381123 -0.310901 0.010163 -0.000674248 0.000463962 1
-0.033615 0.20559 0.010163 -0.0035556 -0.000683149 0.999993
-0.01064 -0.386425 0.010163 0.345517 -0.00937978 0.938366
-0.306184 -0.061876 -0.010163 0.000207583 -0.000100772 -1
-0.08484 0.017542 -0.010163 0.000280653 -0.000983919 -0.999999
-0.193868 0.059615 0.010163 0.000165304 0.000125631 1
-0.186112 -0.480438 -0.010163 -0.000236783 -0.00169787 -0.999999
-0.391443 -0.209137 -0.010163 0.000205739 -5.0354e-05 -1
-0.462698 -0.386645 -0.010163 0.00238291 0.000607807 -0.999997
-0.216855 -0.224862 -0.010163 -9.85463e-05 6.23067e-05 -1
-0.039193 0.011977 -0.010163 -0.00279595 -0.00110452 -0.999995
-0.141788 -0.359915 -0.010163 -0.000541414 0.000558308 -1
-0.163009 0.387562 0.010163 0.00025286 8.99179e-05 1
-0.390509 0.090749 -0.010163 -0.00148512 0.000235934 -0.999999
-0.0238 -0.027108 -0.010163 -0.006172 0.00465842 -0.99997
-0.028814 0.021681 -0.010163 -0.0087547 -0.00036199 -0.999962
-0.423715 0.169328 -0.010163 -0.000365666 7.38416e-05 -1
-0.006363 0.110483 -0.010163 0.498595 0.00769563 -0.866801
-0.047687 -0.390948 0.010163 -0.000657654 0.000455729 1
-0.113837 -0.339148 0.010163 0.000432528 -0.000277006 1
-0.477229 -0.360161 0.010163 0.0128597 0.00519348 0.999904
-0.29528 -0.141816 0.010163 0.00288465 0.00190221 0.999994
-0.09733 0.405978 -0.010163 0.000763702 -0.000344849 -1
-0.173247 -0.03719 -0.010163 0.000343595 -0.000158582 -1
-0.153176 0.285571 0.010163 -0.000562668 -0.00018692 1
-0.5 0.22372 -0.003643 -0.934351 0.0103 -0.356206
-0.3683 -0.159408 0.010163 0.000113932 -0.000696818 1
-0.21994 -0.235301 0.010163 -0.000431061 0.000426292 1
-0.256546 -0.000963 0.010163 0.000715402 -0.000421377 1
-0.076699 0.245527 -0.010163 0.00125063 6.27957e-05 -0.999999
-0.290358 0.356816 -0.010163 -0.000321706 -0.000138601 -1
-0.353905 -0.279001 -0.010163 -0.000829843 0.000191615 -1
-0.071035 0.34772 0.010163 -0.000178997 -0.000817519 1
-0.144813 -0.478886 0.010163 -0.000274195 0.00901475 0.999959
-0.339741 0.197162 -0.010163 -0.000930309 6.4373e-05 -1
-0.312936 0.222623 -0.010163 1.83105e-05 -0.000322978 -1
-0.389062 0.014236 0.010163 0.000309245 0.000716146 1
-0.34637 0.09104 0.010163 -0.00035553 0.000121562 1
-0.10957 -0.414102 0.010163 0.00140322 0.00217026 0.999997
-0.079887 0.413932 0.010163 0.00070836 0.000302828 1
-0.402302 0.113134 0.010163 0.000270611 -0.00228155 0.999997
-0.129427 0.074603 0.010163 0.000395555 0.000289917 1
-0.291869 0.481698 0.010163 0.00498487 0.0117338 0.999919
-0.197304 0.059838 -0.010163 0.000287294 0.000105143 -1
-0.361442 0.162491 -0.010163 0.000691796 0.000611019 -1
-0.184082 0.428737 -0.010163 -0.000276958 -0.000157216 -1
-0.2173 -0.059404 -0.010163 0.000118801 -0.000670842 -1
-0.062971 -0.485555 -0.010163 0.000435349 -0.0455573 -0.998962
-0.283666 0.262793 0.010163 8.59578e-05 -0.000615946 1
-0.20695 0.445445 -0.010163 -0.000676413 -0.00323097 -0.999995
-0.433033 -0.499354 0.010163 0.000604149 -0.653774 0.75669
-0.361388 0.257133 0.010163 0.000369732 8.0989e-05 1
-0.11227 0.14505 0.010163 -0.000169754 -0.000996907 0.999999
-0.238396 0.257523 0.010163 0.000932965 0.00105449 0.999999
-0.437262 0.274837 0.010163 0.000261034 0.000228337 1
-0.23228 -0.160149 0.010163 0.00446724 -0.000887907 0.99999
-0.280242 0.076533 0.010163 -1.75917e-05 -3.35305e-05 1
-0.222277 -0.454479 -0.010163 7.76563e-05 0.000675746 -1
-0.348939 -0.330182 -0.010163 0.000893998 -0.000591139 -0.999999
-0.111741 0.445446 0.010163 0.000136693 -0.000225703 1
-0.417062 -0.020002 0.010163 0.000784404 -0.00196304 0.999998
-0.39211 0.036003 0.010163 0.000313895 0.000484466 1
-0.379382 -0.117652 -0.010163 0.00155819 -8.58433e-05 -0.999999
-0.488084 -0.189138 -0.010163 -0.0735306 0.00318324 -0.997288
-0.286242 -0.372716 0.010163 0.000385829 -0.000414167 1
-0.103096 -0.256895 0.010163 -0.000122706 0.000581105 1
-0.062051 0.201155 0.010163 0.00616467 0.00392782 0.999973
-0.485782 0.393028 0.010163 -0.0369072 0.00856926 0.999282
-0.5 0.388904 0.003138 -0.910382 0.00452993 0.413744
-0.08957 0.096011 -0.010163 0.000538144 -0.00168855 -0.999998
-0.356784 0.422532 -0.010163 0.000161997 -0.000217183 -1
-0.316737 0.253173 -0.010163 0.000163134 0.000393811 -1
-0.012094 -0.339044 0.010163 0.252937 0.00731777 0.967455
-0.044109 0.19874 -0.010163 -0.00262995 -0.00119018 -0.999996
-0.326165 0.418897 0.010163 -0.000889914 -0.000842503 0.999999
-0.082462 -0.163045 -0.010163 -0.000563229 -0.000276902 -1
-0.289803 -0.492518 -0.010163 -0.000814817 -0.343447 -0.939172
-0.160833 0.180843 0.010163 0.000833784 -0.000281198 1
-0.174234 0.145901 -0.010163 0.000434875 -0.000233205 -1
-0.369497 -0.39487 -0.010163 6.86645e-05 -0.00063106 -1
-0.352487 0.37477 -0.010163 -0.00044087 -0.000127792 -1
-0.499267 -0.271612 -0.010163 -0.622571 -0.00673586 -0.782534
-0.187448 -0.038251 0.010163 7.62939e-06 -0.000665392 1
-0.040449 -0.065122 -0.010163 -0.00133378 0.000131607 -0.999999
-0.457823 -0.334369 0.010163 0.00200271 0.000547135 0.999998
-0.362341 0.233668 -0.010163 0.000392033 0.00124124 -0.999999
-0.102939 -0.5 0.009491 -0.0123399 -0.749614 0.661761
-0.048849 -0.094956 -0.010163 -0.000670432 -0.00118828 -0.999999
-0.023048 -0.11474 0.010163 -0.00806924 -0.00138755 0.999966
-0.180583 0.437733 -0.010163 -0.000302746 -0.00172647 -0.999998
-0.037284 -0.230994 0.010163 -0.00758916 0.000953201 0.999971
-0.373727 -0.43122 -0.010163 -0.00114411 3.93207e-05 -0.999999
-0.5 -0.277711 -0.009445 -0.688248 -0.0190382 -0.725225
-0.142197 -0.399175 0.010163 0.00196856 -0.00137459 0.999997
-0.09905 0.252196 -0.010163 -0.000588481 0.000230408 -1
-0.083344 -0.348666 0.010163 0.000256348 0.000752767 1
-0.276589 -0.010932 0.010163 -0.000501192 0.000685472 1
-0.311177 -0.045873 -0.010163 0.000199538 -5.86876e-06 -1
-0.003906 0.028145 -0.010163 0.737574 -0.00554878 -0.675243
-0.153071 -0.288552 -0.010163 7.4625e-05 -0.0002563 -1
-0.457446 0.062113 -0.010163 0.000326974 -5.25883e-05 -1
-0.436878 0.338777 -0.010163 -0.000432076 -0.000434299 -1
-0.360147 0.107161 -0.010163 0.000158855 -0.000292914 -1
-0.32362 -0.401576 0.010163 -0.00125538 0.000771955 0.999999
-0.367468 0.030555 -0.010163 -4.06901e-06 -0.000262451 -1
-0.351235 -0.013315 -0.010163 0.000216075 -8.61032e-05 -1
-0.191671 -0.364282 0.010163 0.00069224 -0.000863138 0.999999
-0.191486 0.085765 -0.010163 -0.000648753 -0.00029068 -1
-0.40494 -0.417693 -0.010163 0.00238863 -0.000305811 -0.999997
-0.111892 0.126663 0.010163 -0.000318674 0.000524667 1
-0.165759 -0.327854 -0.010163 -0.000683524 -0.000460191 -1
-0.004044 -0.475211 -0.010163 0.737458 -0.0175289 -0.675166
-0.107906 0.324044 0.010163 0.000687391 -0.000693206 1
-0.473811 0.431384 0.010163 0.00684648 -0.00172109 0.999975
-0.451292 0.435436 -0.010163 0.000706672 0.000189543 -1
-0.195163 -0.061044 -0.010163 -0.000218527 -0.00128146 -0.999999
-0.031092 0.22802 0.010163 1.99302e-05 -0.00142931 0.999999
-0.428386 0.248843 -0.010163 -0.000228882 0.000326303 -1
-0.027178 -0.055077 -0.010163 -0.0106467 -0.00265678 -0.99994
-0.096946 -0.071098 -0.010163 -0.0025029 0.00322619 -0.999992
-0.221605 0.378079 -0.010163 -0.000316302 -0.000181516 -1
-0.249775 0.374356 -0.010163 -0.000382996 -0.000185394 -1
-0.309567 0.203594 0.010163 5.0136e-05 -0.000145503 1
-0.46783 0.425365 0.010163 0.000318488 -0.00208815 0.999998
-0.034164 -0.128139 -0.010163 -0.00598075 0.00136916 -0.999981
-0.36642 -0.16163 -0.010163 0.00109066 0.00204643 -0.999997
-0.409647 0.047237 0.010163 0.000369072 4.05312e-05 1
-0.427831 0.299139 -0.010163 -0.000511442 -0.000446319 -1
-0.275469 0.127388 0.010163 -0.000424703 0.00102946 0.999999
-0.033173 0.121517 0.010163 -0.00389448 -0.000549312 0.999992
-0.000406 -0.117497 -0.010163 0.807464 -0.015302 -0.589718
-0.211631 0.458604 0.010163 -0.000296529 -0.000919087 1
-0.253715 -0.23232 0.010163 -0.000449044 -0.000537327 1
-0.483662 -0.440997 -0.010163 0.00622999 -0.00733194 -0.999954
-0.430665 0.332532 -0.010163 -0.000302887 -0.000448863 -1
-0.078599 -0.126939 0.010163 0.000802176 -0.000675746 0.999999
-0.155215 -0.492846 -0.010163 0.00824017 -0.364164 -0.931298
-0.228215 -0.369894 -0.010163 0.000308736 -0.000307973 -1
-0.13229 -0.080466 -0.010163 0.000450952 0.000582559 -1
-0.291798 0.5 0.003362 -0.0169226 0.90273 0.429874
-0.200045 0.213881 -0.010163 -1.33514e-05 0.000274113 -1
-0.141981 -0.4576 -0.010163 -0.000971385 0.000684465 -0.999999
-0.030019 0.393329 -0.010163 -0.00610428 0.000171071 -0.999981
-0.337903 0.463839 -0.010163 0.000634874 -0.00111716 -0.999999
-0.27802 0.401305 -0.010163 0.00186097 0.00129373 -0.999997
-0.247999 -0.10204 0.010163 -0.000436147 7.56582e-05 1
-0.304622 -0.379103 -0.010163 0.00017963 -0.000445693 -1
-0.386752 -0.019882 0.010163 0.000978197 -0.000307355 0.999999
-0.17099 0.002295 -0.010163 0.000416361 -0.00147076 -0.999999
-0.004701 0.33999 0.010163 0.31443 0.37074 0.873891
-0.469033 0.22985 0.010163 0.00328367 0.000427752 0.999995
-0.071477 -0.379092 0.010163 -0.000391993 0.000202574 1
-0.177059 0.224988 0.010163 0.000465901 -0.000970458 0.999999
-0.423995 -0.065326 0.010163 0.00234923 -0.00178672 0.999996
-0.335344 -0.295097 0.010163 -9.6639e-06 -0.000225321 1
-0.215062 0.276785 -0.010163 0.000179584 4.69501e-06 -1
-0.259718 -0.469378 -0.010163 -3.58579e-05 0.00382917 -0.999993
-0.026807 -0.281091 -0.010163 -0.0101362 -0.000655822 -0.999948
-0.314768 0.207206 -0.010163 0.000396983 0.000299835 -1
-0.249899 -0.226998 0.010163 4.30516e-05 -0.00120435 0.999999
-0.150378 0.343047 0.010163 -0.000126648 0.000676473 1
-0.333671 -0.06011 -0.010163 5.39144e-05 5.4423e-05 -1
-0.09992 -0.341431 -0.010163 -0.000142924 -0.000731913 -1
-0.427033 -0.446884 0.010163 -0.000356191 0.00221517 0.999997
-0.415344 -0.220726 -0.010163 -0.000313059 -0.000351206 -1
-0.414272 0.5 -0.000458 0.00952617 0.999586 0.0271579
-0.352851 0.102396 -0.010163 0.000740314 0.000327044 -1
-0.166901 -0.464624 -0.010163 0.000820157 0.00237703 -0.999997
-0.213926 -0.5 0.004557 -0.0157133 -0.923589 0.383061
-0.029009 0.080751 -0.010163 -0.00526735 0.000681924 -0.999986
-0.191026 -0.49268 0.010163 0.0133534 -0.403831 0.914736
-0.42457 0.102559 0.010163 0.000328458 0.000486551 1
-0.297442 0.01077 0.010163 -0.000175631 -0.00193044 0.999998
-0.140255 0.139753 -0.010163 -0.000172206 0.000209536 -1
-0.062961 -0.347144 0.010163 -4.98453e-05 -0.00106862 0.999999
-0.321338 -0.399685 -0.010163 0.000258891 -0.000485229 -1
-0.011688 0.286192 -0.010163 -0.0715748 0.0112642 -0.997372
-0.416886 0.148346 -0.010163 -0.00024959 -0.000720433 -1
-0.403756 -0.147712 -0.010163 -0.00026954 -0.000650247 -1
-0.325931 0.051234 0.010163 -0.000957972 0.000731562 0.999999
-0.47001 -0.429282 -0.010163 0.00439285 -2.45228e-06 -0.99999
-0.438686 -0.097724 -0.010163 0.000920159 0.000885282 -0.999999
-0.409592 -0.287408 0.010163 -0.000750065 -0.000136375 1
-0.194994 -0.126636 0.010163 -0.000481741 0.00129754 0.999999
-0.180993 0.286496 0.010163 -0.000130208 -0.000623576 1
-0.281982 0.45616 -0.010163 0.000474756 -0.000649885 -1
-0.416346 -0.284562 0.010163 -0.000569153 -0.00011851 1
-0.168385 -0.036235 0.010163 -0.00116374 -0.000433858 0.999999
-0.416758 0.169621 0.010163 7.11682e-05 0.000272853 1
-0.067039 -0.282687 0.010163 -0.00182614 0.00248881 0.999995
-0.313299 -0.232733 0.010163 0.000175953 0.000350475 1
-0.470961 0.428828 -0.010163 0.00863157 0.00186779 -0.999961
-0.096891 -0.1944 -0.010163 0.00191002 -0.000222282 -0.999998
-0.095257 0.317131 0.010163 0.0046359 -0.00166221 0.999988
-0.333002 0.201581 -0.010163 -0.000859941 0.000222342 -1
-0.5 0.178755 -0.00968 -0.74942 0.00174919 -0.662092
-0.41203 -0.048331 -0.010163 0.000397902 0.000539046 -1
-0.220381 -0.014866 0.010163 -0.000305721 -0.00106975 0.999999
-0.373454 0.271447 0.010163 7.34328e-05 -0.00143719 0.999999
-0.198141 -0.5 -0.006171 0.012686 -0.841912 -0.539465
-0.282796 -0.128435 0.010163 0.000413622 0.00013079 1
-0.261241 -0.017456 -0.010163 -0.0004043 0.000693726 -1
-0.007728 0.022402 -0.010163 0.600595 0.00170468 -0.799552
-0.319116 0.037629 0.010163 -0.00224951 -0.000168514 0.999997
-0.122177 0.387619 0.010163 -0.000415802 0.000525338 1
-0.443224 0.04245 0.010163 -1.72933e-05 0.000460307 1
-0.105398 0.35 0.010163 0.000617034 0.00045665 1
-0.282333 0.489503 -0.010163 0.0254386 0.153913 -0.987757
-0.48844 0.401378 0.010163 -0.144735 0.00275553 0.989467
-0.304489 0.459194 -0.010163 -0.000316111 -0.00160548 -0.999999
-0.012575 -0.495677 -0.010163 0.246939 -0.470125 -0.847351
-0.167635 -0.078839 0.010163 0.00126648 0.00087411 0.999999
-0.487685 -0.253883 0.010163 -0.105363 0.00425201 0.994425
-0.037481 -0.293734 -0.010163 -0.00390825 5.08622e-05 -0.999992
-0.428395 0.344397 0.010163 -0.00126711 -0.000260671 0.999999
-0.2045 0.256984 -0.010163 0.00023969 -0.000394821 -1
-0.313981 0.020701 0.010163 -0.00138651 -0.00219843 0.999997
-0.072274 -0.158593 0.010163 -0.000212606 0.000798543 1
-0.04251 -0.02854 0.010163 -0.00063467 0.000231743 1
-0.229537 -0.442643 0.010163 -0.00041097 -4.17074e-05 1
-0.340258 0.246779 0.010163 -0.00115509 0.000367737 0.999999
-0.468445 -0.324783 0.010163 0.00276723 9.43074e-05 0.999996
-0.018114 0.342447 -0.010163 0.0284185 -0.00451772 -0.999586
-0.109121 0.195832 0.010163 -7.52901e-06 0.000970538 1
-0.390251 0.274243 0.010163 -7.21858e-05 -0.000833364 1
-0.37931 -0.144196 0.010163 -0.000369145 -0.000360342 1
-0.355708 -0.458984 -0.010163 0.000427246 0.000235149 -1
-0.5 0.42562 0.01007 -0.733485 -0.00510458 0.679687
-0.498241 -0.388232 0.010163 -0.606865 0.00623047 0.794781
-0.151019 0.069564 -0.010163 2.49227e-05 -0.000189209 -1
-0.477522 -0.22844 -0.010163 0.0102134 0.00127557 -0.999947
-0.227242 -0.111358 -0.010163 -0.000316365 -0.000744374 -1
-0.335659 0.172825 -0.010163 -0.000694275 -4.78109e-05 -1
-0.268911 -0.385409 -0.010163 0.00111523 -0.000586434 -0.999999
-0.006151 0.331925 -0.010163 0.137032 0.351927 -0.925943
-0.34115 -0.354383 0.010163 0.000234331 -0.000465393 1
-0.14813 0.426042 -0.010163 -0.000581614 -0.000859069 -0.999999
-0.271573 -0.243239 0.010163 0.000377113 0.00524199 0.999986
-0.327052 -0.334676 0.010163 -0.000229899 0.000439453 1
-0.13736 0.083776 0.010163 -0.000478109 -0.000335693 1
-0.351113 0.275606 -0.010163 -0.000102679 -0.000390053 -1
-0.233854 -0.048664 0.010163 0.000432158 0.00026243 1
-0.33765 0.123684 0.010163 -0.00257029 0.0033598 0.999991
-0.051071 -0.356332 0.010163 0.000218201 -0.000641886 1
-0.401691 -0.332112 0.010163 -0.000858561 0.000514221 0.999999
-0.405202 0.330717 -0.010163 -0.000382996 -0.000541433 -1
-0.278748 0.209892 0.010163 -5.38826e-05 -0.000183105 1
-0.210467 -0.5 0.010074 0.00537993 -0.667885 0.744245
-0.181186 0.422779 -0.010163 5.08626e-06 0.000455538 -1
-0.156054 0.417101 0.010163 0.000650678 -0.000146593 1
-0.232469 0.057696 0.010163 0.00163185 0.000252382 0.999999
-0.477912 0.454247 -0.010163 0.0113911 -0.00108752 -0.999935
-0.24447 -0.011712 -0.010163 -0.000417582 -0.000647227 -1
-0.216016 0.206107 -0.010163 -0.000581888 0.000246488 -1
-0.30058 -0.220482 0.010163 0.00074441 -0.00131007 0.999999
-0.124298 0.486442 0.010163 0.000804637 0.0237511 0.999718
-0.442605 0.193911 0.010163 0.00363082 0.00434316 0.999984
-0.356284 -0.121062 0.010163 0.000516619 0.000343868 1
-0.493637 -0.097916 -0.010163 -0.426347 -0.0158131 -0.904422
-0.163865 0.39856 -0.010163 -0.000110081 -1.33514e-05 -1
-0.389159 -0.20333 -0.010163 -0.000564337 -0.000784635 -1
-0.027319 0.5 0.010111 -0.0258829 0.718123 0.695434
-0.103731 0.321813 -0.010163 0.000273641 6.99361e-05 -1
-0.290744 -0.359429 0.010163 0.000872929 0.000635783 0.999999
-0.396476 0.187063 -0.010163 -0.000274949 0.000842728 -1
-0.024614 -0.212225 0.010163 -0.00729696 -0.000572194 0.999973
-0.207653 0.11788 -0.010163 7.79629e-05 3.40939e-05 -1
-0.122473 -0.356599 0.010163 -0.000174522 0.000139713 1
-0.178857 0.464206 0.010163 -0.00411954 -0.00459205 0.999981
-0.024756 -0.238721 0.010163 -0.0097013 3.81133e-05 0.999953
-0.088389 -0.407659 -0.010163 0.000366861 0.00354424 -0.999994
-0.309696 -0.451582 0.010163 0.000899723 8.7193e-06 1
-0.359049 0.480788 -0.010163 0.000590511 -0.00846697 -0.999964
-0.045608 0.017232 0.010163 -0.000883247 -0.00211275 0.999997
-0.037035 -0.258139 0.010163 -0.00376883 0.00209318 0.999991
-0.299351 0.202027 -0.010163 -0.000124105 0.000136312 -1
-0.5 -0.222897 0.008713 -0.724254 -0.00647034 0.689503
-0.140297 -0.082533 0.010163 -0.000320435 -8.68577e-05 1
-0.064557 0.481994 0.010163 -0.00232084 -0.000370053 0.999997
-0.128083 0.271999 0.010163 0.000557454 -0.000233459 1
-0.127241 -0.485947 0.010163 -0.00144934 -0.0428345 0.999081
-0.087663 -0.070632 0.010163 -0.000737704 0.000278766 1
-0.41825 -0.061218 0.010163 0.00177471 -0.00160276 0.999997
-0.012348 -0.206631 -0.010163 0.303818 0.00117136 -0.952729
-0.182823 -0.357445 -0.010163 0.000344958 0.000107356 -1
-0.147993 0.288251 -0.010163 -0.000781472 -0.00273607 -0.999996
-0.221394 -0.314412 -0.010163 -4.27791e-05 5.12259e-05 -1
-0.463327 -0.127156 0.010163 0.00207927 -0.000118726 0.999998
-0.152546 0.083188 0.010163 -0.000463867 -0.000798034 1
-0.34997 0.206754 0.010163 0.000152588 0.000560985 1
-0.237825 -0.277764 -0.010163 -0.000163269 1.37329e-05 -1
-0.376206 0.263024 -0.010163 0.0015455 0.000167302 -0.999999
-0.050902 -0.463849 -0.010163 -0.000327518 0.00189263 -0.999998
-0.214965 0.102371 0.010163 0.000896747 0.000227708 1
-0.459797 -0.379606 -0.010163 0.00149945 0.000286647 -0.999999
-0.29957 0.455582 -0.010163 -0.000381088 -0.000631714 -1
-0.170614 0.350384 -0.010163 -0.000239152 -0.000349778 -1
-0.437405 -0.021191 0.010163 -0.00153403 -0.000344904 0.999999
-0.47983 -0.229929 0.010163 -0.00475145 0.000898942 0.999988
-0.104327 -0.137776 -0.010163 0.00125095 -5.74929e-05 -0.999999
-0.15911 -0.459383 0.010163 -0.000149863 0.000748225 1
-0.337552 0.310268 -0.010163 -0.000562194 0.000864259 -0.999999
-0.457782 0.113851 -0.010163 0.00102973 2.14577e-05 -0.999999
-0.153428 0.404315 -0.010163 0.000639989 -0.000751495 -1
-0.279589 0.14437 -0.010163 -0.00017039 -0.000274913 -1
-0.12887 0.221948 0.010163 -0.000218528 0.000146048 1
-0.396789 -0.092403 -0.010163 -0.000505594 -0.000323075 -1
-0.315039 -0.025908 -0.010163 -0.000218201 -3.07719e-05 -1
-0.272072 0.104103 0.010163 -4.34288e-05 0.001091 0.999999
-0.044069 -0.415888 0.010163 -0.000116927 0.000887581 1
-0.234245 0.430183 0.010163 -0.000158457 7.21858e-05 1
-0.136998 -0.17962 -0.010163 -0.00149608 0.000426805 -0.999999
-0.269352 0.092065 -0.010163 0.00119858 -0.00126973 -0.999998
-0.096331 0.139273 -0.010163 -0.000184866 9.44871e-05 -1
-0.228287 -0.297015 0.010163 0.00011989 0.000900268 1
-0.17743 -0.092177 0.010163 0.00121164 -0.00118589 0.999999
-0.096153 0.493229 0.010163 0.00458161 0.43326 0.901257
-0.060711 -0.433564 0.010163 0.000815254 -0.00191089 0.999998
-0.286015 0.256516 0.010163 0.000670842 -6.59398e-05 1
-0.091835 0.443107 -0.010163 -0.000246048 -0.000241143 -1
-0.442019 0.360909 0.010163 8.39233e-05 -8.39233e-05 1
-0.35998 -0.408225 0.010163 7.1012e-05 0.000461872 1
-0.363086 -0.38705 -0.010163 1.63487e-05 -0.000313078 -1
-0.494025 -0.123176 0.010163 -0.395536 -0.0222452 0.918181
-0.473563 0.30125 0.010163 0.0119953 3.65183e-06 0.999928
-0.055733 -0.031465 -0.010163 -0.00019455 -0.000184886 -1
-0.161933 0.212472 -0.010163 -0.000592041 -0.00078125 -1
-0.196915 0.067444 -0.010163 6.38095e-05 3.05176e-05 -1
-0.238899 -0.132023 -0.010163 -0.000329825 0.000151121 -1
-0.5 -0.117021 -0.009428 -0.699944 -0.00767569 -0.714156
-0.035261 0.32375 -0.010163 -0.0010329 -0.00127968 -0.999999
-0.063732 -0.057855 0.010163 0.000157492 0.000257765 1
-0.18084 -0.448793 0.010163 -7.33596e-05 0.000241206 1
-0.169082 0.048677 0.010163 -0.000560284 0.000310898 1
-0.074622 0.5 -0.009854 0.00154982 0.635549 -0.772059
-0.444478 0.113433 -0.010163 -0.000107692 0.00050266 -1
-0.42945 -0.192404 -0.010163 0.000355021 -0.000495402 -1
-0.360345 -0.455055 -0.010163 0.000880559 -0.000295321 -1
-0.346277 0.323959 -0.010163 0.000136875 -0.000536085 -1
-0.104835 0.216972 0.010163 -0.00014623 -0.000131607 1
-0.492852 0.016106 -0.010163 -0.382487 -0.00126477 -0.92396
-0.359716 -0.208244 -0.010163 -0.000483449 0.00106786 -0.999999
-0.280619 0.297417 0.010163 0.000256348 0.000142415 1
-0.473869 0.058133 -0.010163 0.00670659 -0.00310444 -0.999973
-0.430142 0.191455 -0.010163 -0.000165621 -0.000972112 -1
-0.456865 0.465492 -0.010163 -0.000400543 -0.00144068 -0.999999
-0.283982 0.050587 0.010163 -0.000273288 0.00188126 0.999998
-0.360802 0.0694 0.010163 0.000566755 7.24792e-05 1
-0.440608 0.210782 -0.010163 0.000413503 -0.000201837 -1
-0.171787 -0.5 0.009696 -0.00425037 -0.745885 0.666061
-0.116901 0.086677 0.010163 -6.98383e-05 -0.00053171 1
-0.5 -0.288626 0.003215 -0.937956 -0.0193102 0.346217
-0.034835 0.447581 -0.010163 -0.00382684 0.00104464 -0.999992
-0.001881 -0.272523 0.010163 0.740838 0.0120173 0.671576
-0.09074 -0.075805 0.010163 -0.000479017 0.00112424 0.999999
-0.394597 0.186991 0.010163 0.000350365 -2.75832e-05 1
-0.402527 0.169254 0.010163 -9.68458e-05 0.00108888 0.999999
-0.460782 -0.186751 -0.010163 0.000735219 -0.000273895 -1
-0.233178 -0.109525 -0.010163 -0.000302723 -0.000144141 -1
-0.29249 0.10166 0.010163 -0.000767794 0.001005 0.999999
-0.403176 -0.170882 0.010163 0.000394004 -0.000610351 1
-0.41451 -0.28148 -0.010163 0.000984778 0.000194843 -0.999999
-0.43781 -0.187811 0.010163 0.0028265 -0.00391123 0.999988
-0.43087 -0.299977 -0.010163 0.000138209 0.000606243 -1
-0.315602 0.122287 -0.010163 0.000159044 3.0811e-05 -1
-0.453479 -0.290661 0.010163 0.000238146 -0.00018583 1
-0.223452 0.407174 -0.010163 0.000462123 0.000174931 -1
-0.431506 -0.118982 -0.010163 -8.63917e-05 -0.000164873 -1
-0.375023 0.360911 -0.010163 0.000344413 0.000558853 -1
-0.435996 0.055278 0.010163 -0.000121117 -0.000240326 1
-0.367566 0.392553 0.010163 -0.000245412 0.000673294 1
-0.394418 0.350981 0.010163 0.000607081 -0.000942775 0.999999
-0.056266 -0.235241 -0.010163 -0.000803266 0.000407083 -1
-0.097877 0.162203 -0.010163 -0.000370026 0.000413748 -1
-0.458523 0.471925 -0.010163 -5.09532e-05 -0.00306782 -0.999995
-0.304 0.33777 -0.010163 0.00183049 0.000844801 -0.999998
-0.275989 0.327475 -0.010163 -0.000469526 6.89824e-05 -1
-0.175007 0.344896 -0.010163 0.000713893 0.000435148 -1
-0.354984 0.257741 0.010163 -0.000534058 0.000292642 1
-0.091154 -0.355235 0.010163 -1.23978e-05 0.000247478 1
-0.122193 0.009903 -0.010163 0.000815729 -0.000723355 -0.999999
-0.069934 0.278624 0.010163 -0.000446613 0.000833364 1
-0.253067 0.49405 -0.010163 0.00212156 0.404302 -0.914623
-0.5 0.201925 0.004999 -0.895574 0.00476383 0.444887
-0.068332 0.151774 -0.010163 -0.000153468 5.98614e-05 -1
-0.093716 0.29748 0.010163 0.00101961 -0.00110844 0.999999
-0.099066 -0.035804 0.010163 0.00322778 -0.00377879 0.999988
-0.05673 0.463432 -0.010163 -0.000554892 -0.000358875 -1
-0.321104 0.067671 0.010163 -0.0012789 0.000723227 0.999999
-0.368198 0.422511 -0.010163 0.000477959 0.000538306 -1
-0.220816 0.321992 0.010163 0.000579834 -0.00054423 1
-0.000898 0.39406 0.010163 0.806402 -0.0405196 0.589978
