0.32164600 0.37090182 0.27314442 0.00161014 -0.00104280 -0.00159487
0.64355046 0.45526242 0.53368324 -0.00017933 0.00027503 0.00015254
0.70081145 0.56694692 0.55799758 0.00029877 -0.00034732 -0.00003173
0.46017852 0.39244080 0.64065850 0.00038375 0.00039946 0.00066345
0.46516237 0.10849036 0.54627401 -0.00244593 -0.00029895 -0.00001157
0.35276374 0.34441093 0.59820443 -0.00092908 -0.00159402 -0.00029992
0.63244647 0.49002728 0.39248791 -0.00027896 0.00020880 0.00019667
0.28615680 0.75556040 0.63627547 -0.00044764 -0.00006444 0.00353884
0.28676590 0.63346291 0.32670146 -0.00152451 -0.00005952 -0.00277680
0.45511708 0.81670004 0.33946159 -0.00015264 0.00021111 -0.00191417
0.47550261 0.42145959 0.40810725 -0.00003780 0.00042436 -0.00049318
0.37345549 0.46957794 0.27863517 0.00075636 0.00080540 -0.00235138
0.61065930 0.76649946 0.61486942 -0.00005110 0.00006887 0.00149592
0.47233582 0.26416072 0.50179976 -0.00088913 -0.00044627 0.00011275
0.69995660 0.34517589 0.61069256 0.00205319 -0.00152771 -0.00026963
0.64118129 0.31818295 0.63861400 0.00051900 -0.00178001 0.00002821
0.72891074 0.86029005 0.59090447 0.00255604 0.00275251 -0.00051261
0.76116359 0.81921738 0.63996190 0.00268332 0.00204990 0.00281854
0.73566192 0.81468427 0.39674607 0.00199888 0.00164501 0.00105629
0.31638807 0.85027528 0.38498470 -0.00279739 0.00255630 -0.00013221
0.37761468 0.35699895 0.55713409 -0.00036032 -0.00074622 -0.00031685
0.28582260 0.59599715 0.39360914 -0.00144039 -0.00014133 -0.00010254
0.54291850 0.29464203 0.51770002 0.00048201 -0.00052354 -0.00011655
0.56437838 0.57055855 0.38682503 -0.00010918 -0.00033714 0.00038135
0.27664500 0.42276487 0.30267048 -0.00184890 0.00029518 -0.00062125
0.61205500 0.39629400 0.70868689 -0.00184720 0.00082968 0.00124437
0.48598638 0.42125639 0.46214473 0.00001151 0.00033256 0.00022461
0.49534041 0.24605036 0.43147889 -0.00011070 -0.00140456 -0.00148541
0.25934935 0.65895790 0.36041060 -0.00328110 0.00003206 -0.00073256
0.54292333 0.18846273 0.58888155 0.00171383 -0.00149247 0.00009344
0.80197483 0.70961326 0.62938625 0.00342644 0.00006204 0.00284883
0.32594433 0.37267900 0.66684628 -0.00273381 0.00074813 0.00048876
0.54302400 0.20995583 0.64261210 0.00186721 -0.00101832 0.00098102
0.75330126 0.63525546 0.40742782 0.00131881 -0.00027750 0.00061231
0.26093054 0.70054519 0.38290632 -0.00272633 0.00009377 0.00065366
0.41835371 0.90083927 0.47895405 -0.00096360 0.00225400 0.00003079
0.77996582 0.38914749 0.38285419 0.00041899 -0.00100804 -0.00114640
0.64165175 0.68599868 0.60872602 -0.00000770 0.00002715 0.00125732
0.61337078 0.41652963 0.38094312 0.00041355 -0.00060589 -0.00029042
0.65279210 0.47832474 0.30512178 -0.00019738 0.00088842 -0.00084334
0.57257921 0.31317842 0.55419743 0.00042370 -0.00038214 -0.00024805
0.86799216 0.36987674 0.40914479 0.00032716 -0.00100611 -0.00077932
0.49903765 0.64488387 0.60899001 -0.00005778 0.00056189 0.00083360
0.61894000 0.81952620 0.62822104 -0.00024053 -0.00037898 0.00187514
0.42498910 0.86200464 0.64136368 0.00046885 -0.00090808 0.00266639
0.32109666 0.58630401 0.63100708 -0.00113990 -0.00098536 0.00196979
0.41346538 0.32277101 0.58534342 -0.00039134 -0.00066016 -0.00015747
0.37331158 0.51350337 0.33834040 0.00051341 -0.00011095 -0.00034377
0.69296259 0.39598656 0.69500345 0.00248943 0.00149523 0.00023983
0.71390152 0.80977726 0.64076364 -0.00108204 -0.00063082 0.00287522
0.25901565 0.43769044 0.34887874 -0.00122156 0.00008528 -0.00126213
0.15145646 0.43020874 0.46528682 -0.00115130 0.00192824 0.00143382
0.59874785 0.42842010 0.57935590 -0.00012934 0.00035616 0.00034736
0.42937779 0.56048954 0.33211476 0.00044863 -0.00104291 -0.00041864
0.66505784 0.30601373 0.39054337 -0.00127589 -0.00100473 0.00037322
0.31506369 0.79680002 0.63900799 -0.00018904 -0.00037592 0.00325062
0.45286372 0.28862917 0.54702842 -0.00072478 -0.00035098 -0.00006164
0.41583493 0.43017864 0.35617968 0.00035057 -0.00054415 -0.00066625
0.45378840 0.35724998 0.67346156 0.00080891 0.00006135 0.00115617
0.72584510 0.49133638 0.50420707 0.00089424 0.00000755 0.00067182
0.69707495 0.31601512 0.68952322 0.00228492 -0.00301135 0.00041174
0.35625070 0.87397307 0.39540783 -0.00124542 0.00253317 0.00120860
0.70986092 0.40200043 0.46555334 -0.00015508 -0.00030893 -0.00014212
0.28270090 0.63318801 0.45052907 -0.00136254 -0.00017533 0.00009315
0.73033559 0.55614489 0.34393206 0.00163703 -0.00082274 -0.00058557
0.65290922 0.88301390 0.46409023 0.00106892 0.00222448 -0.00007825
0.41565806 0.78778118 0.34110108 -0.00014199 0.00006879 -0.00178442
0.50208956 0.71043277 0.60863757 -0.00015602 0.00002408 0.00123636
0.47870076 0.37488505 0.40973955 -0.00018267 -0.00025630 -0.00101531
0.73383117 0.59955013 0.48384050 0.00084049 -0.00031770 0.00011783
0.48222664 0.82450825 0.62751824 -0.00016385 -0.00020676 0.00184503
0.74743187 0.65146816 0.45266217 0.00115461 -0.00018508 -0.00027673
0.42981434 0.34825072 0.53450978 -0.00017039 -0.00037675 0.00004405
0.31476963 0.84872997 0.63686651 -0.00188229 0.00232153 0.00318356
0.28727371 0.58576858 0.43926758 -0.00111083 0.00000631 -0.00013281
0.75025618 0.39150035 0.48710111 0.00013420 -0.00081428 0.00111355
0.45124620 0.78280532 0.61641234 -0.00003243 -0.00000862 0.00151455
0.44191083 0.91882581 0.59707415 -0.00078785 0.00322867 -0.00019386
0.68660498 0.77039087 0.62447685 -0.00020304 -0.00036559 0.00179565
0.37819895 0.41871276 0.32648915 0.00015265 -0.00136547 -0.00041761
0.64265394 0.43045977 0.72000068 -0.00068209 0.00240191 0.00140409
0.69234103 0.70622385 0.61212307 0.00005336 0.00014412 0.00148287
0.59172517 0.89531744 0.33104423 0.00069202 0.00231279 -0.00272226
0.67539537 0.42734721 0.63372189 0.00100491 0.00099838 0.00062884
0.43691352 0.63042831 0.31925660 0.00011012 0.00054091 -0.00138268
0.53620803 0.91718149 0.53063834 -0.00000825 0.00248122 0.00030939
0.60822999 0.61222756 0.62235975 0.00002178 0.00067741 0.00133535
0.33947477 0.31887528 0.30022484 0.00236692 -0.00104258 -0.00160679
0.47024053 0.91725516 0.47370109 -0.00040581 0.00259799 0.00044182
0.72443312 0.31045166 0.29592270 0.00353846 -0.00181434 -0.00164826
0.27273491 0.66012120 0.41077948 -0.00170422 -0.00023896 0.00061160
0.42479643 0.35823634 0.72196150 0.00175352 -0.00093610 0.00219115
0.72865736 0.74293798 0.62657291 -0.00102351 -0.00050076 0.00175664
0.47841960 0.34296507 0.63126957 0.00024928 0.00018097 0.00050032
0.75734383 0.59594077 0.36185503 0.00214683 -0.00092016 -0.00009597
0.68170089 0.34791315 0.44332930 -0.00015324 -0.00052080 0.00041718
0.67088860 0.40608072 0.74885070 0.00161996 0.00228467 0.00372879
0.50772351 0.17100118 0.48645574 0.00150992 -0.00098836 0.00035905
0.43060753 0.31114542 0.66858619 0.00003843 -0.00111413 0.00147696
0.38568828 0.76331705 0.61701286 -0.00000605 -0.00014947 0.00157783
0.56522846 0.61593544 0.30866805 -0.00017668 -0.00002495 -0.00190432
0.34472123 0.68059546 0.61331981 0.00013915 0.00045683 0.00137415
0.47127482 0.57429481 0.40951389 0.00009069 -0.00020131 0.00027737
0.23743266 0.45006666 0.49804956 -0.00173458 0.00052432 0.00133011
0.40022612 0.48420134 0.36402088 0.00028915 0.00028815 -0.00004030
0.47794977 0.07209127 0.51974750 -0.00130101 -0.00423590 0.00097962
0.46941847 0.58291125 0.47845745 0.00020908 0.00005144 -0.00012921
0.74277353 0.74071950 0.32328907 0.00078312 0.00105552 -0.00302800
0.05305431 0.37802967 0.47227824 -0.00336074 -0.00045346 0.00320212
0.67499566 0.39389142 0.56053978 0.00061321 -0.00025386 0.00002482
0.70074165 0.84443885 0.47405562 0.00151010 0.00163869 -0.00040686
0.70349896 0.41677541 0.25695226 0.00168498 0.00084729 -0.00338906
0.50881773 0.76047081 0.61307073 -0.00006134 0.00035143 0.00146352
0.55389613 0.73858565 0.33182260 0.00004162 0.00021508 -0.00162436
0.27428403 0.42534766 0.51926720 -0.00046400 -0.00070850 0.00147423
0.47741023 0.57542932 0.52829301 0.00001913 -0.00010467 -0.00025381
0.78079629 0.65690488 0.62855858 0.00168295 -0.00128548 0.00264079
0.71815538 0.43469119 0.51657367 0.00064994 -0.00027650 0.00076904
0.65495604 0.60616350 0.62162632 0.00009536 0.00042560 0.00140405
0.28513411 0.37099984 0.45602426 0.00024452 -0.00078415 0.00071939
0.64529270 0.53209877 0.46969590 -0.00050209 0.00001909 -0.00006717
0.18457177 0.43480018 0.39133945 -0.00046401 0.00126886 -0.00125099
0.44532752 0.67977738 0.60567224 0.00001607 0.00011585 0.00109190
0.31451526 0.51260811 0.33420178 -0.00066105 0.00014375 -0.00119629
0.77246594 0.46139866 0.44325790 0.00102710 0.00078229 -0.00008867
0.74781674 0.33953309 0.40299708 0.00151740 -0.00112414 -0.00025324
0.57085556 0.43275189 0.36924249 -0.00035796 -0.00020178 -0.00087510
0.56617564 0.91416025 0.42146987 0.00038424 0.00269456 -0.00013850
0.77670836 0.70903999 0.33405209 0.00336822 0.00076604 -0.00236817
0.75938398 0.78787732 0.36471847 0.00353121 0.00110735 -0.00054069
0.19358107 0.44543603 0.43880734 -0.00110618 0.00133235 0.00036543
0.33228999 0.86918366 0.58650041 -0.00188493 0.00283482 -0.00002467
0.45612210 0.24200158 0.55873680 -0.00115231 -0.00072126 -0.00018820
0.66680825 0.81950045 0.63598621 -0.00049495 -0.00051380 0.00237651
0.56861311 0.41049907 0.41531497 0.00005062 -0.00005155 -0.00004602
0.57497025 0.43546715 0.47710583 -0.00009030 0.00028526 -0.00000350
0.26377726 0.69992507 0.63621956 -0.00176304 0.00028485 0.00348245
0.35107258 0.42154229 0.67260140 -0.00148515 0.00131246 0.00070049
0.32308373 0.83258861 0.50031602 -0.00169433 0.00150649 -0.00025443
0.72531813 0.38035434 0.28396675 0.00264220 0.00012394 -0.00103946
0.71957356 0.28333062 0.37159485 0.00211778 -0.00298520 0.00024347
0.31565133 0.59069866 0.58369917 -0.00082682 -0.00067631 -0.00057907
0.57536191 0.84302312 0.63244385 -0.00013060 -0.00041048 0.00209601
0.67021012 0.38392782 0.25622267 -0.00168128 -0.00046279 -0.00279780
0.28762463 0.77352643 0.43345594 -0.00205588 0.00078552 0.00069048
0.49091008 0.12319122 0.44288176 0.00003263 -0.00201405 -0.00303641
0.24185148 0.73376423 0.59550691 -0.00374485 0.00045323 0.00043933
0.76746333 0.69105345 0.50550586 0.00177375 0.00000339 -0.00047938
0.67766601 0.27812001 0.34924880 -0.00155468 -0.00297157 -0.00001747
0.74384403 0.37880090 0.34288639 0.00118657 -0.00061015 -0.00101221
0.43876863 0.73562413 0.60861510 -0.00006303 0.00024145 0.00132586
0.37368691 0.67008823 0.33733252 -0.00012090 0.00033643 -0.00140391
0.48876524 0.92077893 0.57785410 -0.00020391 0.00271526 0.00003784
0.52824861 0.13656577 0.61812258 0.00255203 -0.00131115 -0.00047578
0.60572273 0.55518168 0.59022027 -0.00020482 -0.00070656 -0.00036381
0.58423537 0.91491091 0.58488345 0.00050548 0.00278315 -0.00049137
0.23540877 0.40585220 0.37692308 -0.00098380 -0.00087523 -0.00111631
0.29436952 0.46905777 0.32454079 -0.00120698 0.00030198 -0.00101521
0.31910190 0.68298322 0.33769590 0.00012686 0.00070476 -0.00201292
0.29259235 0.30131522 0.36951452 -0.00188970 -0.00268342 -0.00016639
0.85301352 0.41459945 0.47655511 0.00200607 0.00128465 0.00168091
0.26250690 0.62828392 0.62218237 -0.00227461 -0.00137731 0.00208957
0.26916286 0.72839779 0.52851337 -0.00199627 0.00024031 -0.00046368
0.26204169 0.37260154 0.35428199 -0.00128863 -0.00073163 -0.00079843
0.77635503 0.70762759 0.38085228 0.00282535 0.00063494 0.00093008
0.39959928 0.90758944 0.36412132 -0.00169786 0.00369118 -0.00083734
0.69167453 0.76171631 0.33215252 -0.00064835 0.00009296 -0.00184473
0.14097935 0.41034126 0.37738684 -0.00168649 -0.00014444 -0.00261323
0.35541683 0.34038079 0.39569661 0.00072850 0.00015947 -0.00007400
0.35303244 0.34339729 0.74758744 -0.00171098 -0.00155915 0.00409453
0.61491942 0.41748160 0.62394947 -0.00034651 0.00049496 0.00039669
0.45710993 0.21889195 0.59939593 -0.00120005 -0.00079253 0.00052229
0.65400648 0.89139491 0.37333429 0.00153556 0.00335373 0.00010741
0.46912980 0.60923308 0.61920220 -0.00012957 0.00022800 0.00126192
0.61729425 0.55003363 0.38205525 -0.00036286 -0.00025336 0.00041947
0.53753340 0.92322934 0.60004473 -0.00016352 0.00325557 -0.00018717
0.72592205 0.57670712 0.44337842 0.00066839 0.00001887 -0.00017058
0.36540580 0.43212461 0.55523401 0.00005963 0.00020013 0.00019171
0.69204986 0.84730667 0.32377532 0.00120618 0.00165889 -0.00347747
0.73157775 0.80555785 0.47086424 0.00177314 0.00127275 -0.00027900
0.30004153 0.66288525 0.63320071 0.00065384 0.00031778 0.00268068
0.68705302 0.87797296 0.55411476 0.00137930 0.00252973 -0.00027821
0.38654748 0.37711552 0.74953967 0.00091481 0.00098693 0.00419989
0.67312187 0.64853579 0.61107028 0.00001213 0.00027731 0.00121168
0.71222568 0.34365693 0.25802517 0.00289585 -0.00028692 -0.00371315
0.39538273 0.56228709 0.57185459 0.00002855 -0.00046498 -0.00048042
0.64112443 0.43084085 0.66719198 -0.00015968 0.00112494 0.00045084
0.28940612 0.76409733 0.48388776 -0.00175233 0.00060190 -0.00007529
0.45400354 0.56507981 0.56855690 0.00008597 -0.00036596 -0.00063390
0.68657774 0.47394273 0.52356660 -0.00023958 0.00015161 0.00059760
0.34945035 0.43085709 0.60866916 -0.00067685 0.00089254 0.00074034
0.41891548 0.45983380 0.52528906 0.00015172 0.00020134 0.00005523
0.53700221 0.31702206 0.47057912 0.00060265 -0.00036233 -0.00002976
0.72760361 0.35629228 0.44519025 -0.00002796 -0.00062295 0.00072819
0.57951432 0.33767080 0.67660815 -0.00075921 -0.00015107 0.00141293
0.42797115 0.56660652 0.42697018 0.00017180 -0.00021901 0.00020312
0.73842353 0.63456553 0.31749374 0.00094505 0.00064627 -0.00284796
0.31345049 0.52189618 0.51950902 -0.00022995 0.00008768 0.00081045
0.95232797 0.34666908 0.47795221 0.00381974 -0.00191709 0.00255922
0.39570308 0.89255434 0.42708683 -0.00131187 0.00222874 0.00006650
0.81394655 0.43529025 0.44599602 0.00155333 0.00136075 -0.00027520
0.78254908 0.62064493 0.58307707 0.00253236 -0.00134757 -0.00006671
0.51004237 0.75894415 0.33620173 -0.00005219 0.00064549 -0.00152158
0.91032958 0.36738235 0.48107946 -0.00084686 0.00072780 0.00273974
0.86678779 0.36723748 0.46083921 0.00052879 -0.00221171 0.00094859
0.41033414 0.42911819 0.61242771 0.00028627 0.00045167 0.00055518
0.51615006 0.30062339 0.64248538 -0.00043481 0.00014991 0.00086463
0.41535491 0.46804604 0.41750717 0.00004142 0.00031866 -0.00002065
0.53591698 0.14261690 0.66459334 0.00363342 -0.00188445 0.00153921
0.91233772 0.34492010 0.43909174 -0.00118741 -0.00366163 0.00040273
0.70245093 0.53073472 0.51873082 0.00006987 0.00011657 0.00064417
0.63747972 0.90415889 0.58245790 0.00067091 0.00290532 -0.00043488
0.35987535 0.38812193 0.36808783 0.00010526 -0.00048008 -0.00071452
0.42607346 0.36347991 0.48867661 -0.00021919 -0.00030863 0.00008832
0.39140567 0.86996013 0.33662584 -0.00029137 0.00051533 -0.00368155
0.47688234 0.07615197 0.59839618 -0.00091521 -0.00403679 0.00042560
0.78112811 0.64972687 0.34944341 0.00323740 -0.00035189 -0.00099937
0.31888103 0.82606554 0.44331685 -0.00146229 0.00166215 0.00059555
0.57046729 0.38062587 0.63800871 -0.00052883 0.00057686 0.00049634
0.55226827 0.63068652 0.61328161 0.00027809 0.00030233 0.00095712
0.45286945 0.68174624 0.33426249 -0.00034155 0.00018012 -0.00119028
0.69935745 0.84692895 0.41951913 0.00185785 0.00149958 0.00007168
0.58092964 0.90998006 0.51713401 0.00059876 0.00235666 0.00005108
0.63682085 0.49181497 0.43967289 -0.00030247 0.00023424 -0.00003894
0.70255709 0.37524271 0.65163040 0.00241201 0.00048673 0.00078375
0.55675751 0.61628640 0.47731856 -0.00051022 -0.00008838 -0.00007491
0.49297372 0.07932145 0.47593465 0.00071033 -0.00414627 -0.00215039
0.32917550 0.30099344 0.40150481 0.00014555 -0.00224466 0.00093011
0.76819098 0.75812936 0.52477938 0.00210709 0.00078879 -0.00067392
0.31566516 0.79340011 0.33670571 -0.00143474 0.00111880 -0.00289480
0.41319662 0.81129289 0.62822247 0.00008853 -0.00004548 0.00199984
0.34762725 0.40467790 0.52072144 -0.00033984 -0.00033895 0.00022706
0.62901545 0.56788743 0.62900895 0.00011593 -0.00068720 0.00161415
0.27531773 0.72314507 0.42972082 -0.00201025 0.00038288 0.00049561
0.90852034 0.35435298 0.39145231 0.00060295 -0.00162457 -0.00349826
0.83003634 0.38900024 0.38704351 0.00152465 -0.00062278 -0.00210329
0.56614840 0.27517048 0.58338356 0.00092522 -0.00081600 0.00008173
0.53362274 0.90688711 0.33531150 0.00054203 0.00231178 -0.00272726
0.89419764 0.40046421 0.43738419 0.00223629 0.00246367 -0.00044482
0.60163480 0.64344478 0.31942677 0.00033896 0.00062356 -0.00126195
0.69947654 0.35045150 0.74032050 0.00321069 -0.00120985 0.00335496
0.80279142 0.73480028 0.58892697 0.00362626 0.00168738 -0.00098649
0.95454550 0.35634151 0.41595232 0.00473003 -0.00060168 -0.00215281
0.38011622 0.52462065 0.49247789 0.00045456 0.00021846 -0.00012760
0.35514480 0.86715597 0.52208680 -0.00135006 0.00197009 -0.00031111
0.64394200 0.48410046 0.49423456 -0.00036307 0.00029510 -0.00015237
0.26160276 0.73757774 0.34813288 -0.00309224 0.00094983 -0.00249046
0.72245133 0.61605591 0.62538624 0.00048102 0.00066047 0.00219823
0.40833318 0.30387127 0.62789309 -0.00095387 -0.00108726 0.00024304
0.53953987 0.41833934 0.50395304 -0.00011714 0.00022931 0.00004108
0.56100333 0.40407452 0.59272844 -0.00028583 0.00026132 0.00038408
0.61589003 0.55348110 0.33320251 -0.00045545 -0.00076290 -0.00035872
0.29022518 0.58582181 0.49410933 -0.00106521 0.00009401 0.00054700
0.61094004 0.34633920 0.71370143 -0.00114290 -0.00105272 0.00216570
0.39989239 0.70378202 0.60683364 -0.00026152 0.00030808 0.00126815
0.30331093 0.40894902 0.48118359 0.00011705 -0.00055884 -0.00003752
0.70742440 0.86271799 0.63977778 0.00180772 0.00175238 0.00330690
0.51786727 0.16389245 0.53928763 0.00121314 -0.00136114 -0.00030500
0.30571923 0.31568044 0.26694793 -0.00000990 -0.00252841 -0.00395484
0.49554667 0.12423783 0.68663055 0.00086800 -0.00288020 0.00461884
0.72523117 0.48104334 0.35650432 0.00096454 -0.00007363 -0.00075644
0.68863988 0.27843651 0.30269200 0.00013259 -0.00401192 -0.00174109
0.62176949 0.90187633 0.53830749 0.00082789 0.00238941 -0.00017557
0.44388643 0.42969429 0.57632309 0.00008931 0.00026773 0.00037919
0.29861960 0.29583594 0.31046581 -0.00143041 -0.00392932 -0.00070959
0.64167428 0.67529500 0.32871675 0.00028280 0.00043235 -0.00141564
0.65285277 0.80076557 0.33275542 -0.00019288 -0.00009982 -0.00197738
0.76297951 0.44959906 0.38288432 0.00115780 0.00072093 -0.00052879
0.73231936 0.51197958 0.39626700 0.00093071 0.00027445 -0.00022027
0.40586752 0.59708923 0.30416843 0.00005871 -0.00003014 -0.00241056
0.41241539 0.90418762 0.53128177 -0.00113468 0.00247191 0.00005072
0.48394316 0.17381063 0.44335231 -0.00071026 -0.00024709 -0.00197878
0.32096422 0.44165504 0.53152871 -0.00021017 -0.00008995 0.00067551
0.60708153 0.84590667 0.33215109 -0.00010024 -0.00094119 -0.00220260
0.64522195 0.88006294 0.32768688 0.00095489 0.00221964 -0.00314416
0.29092994 0.54912561 0.39773962 -0.00100079 -0.00003590 -0.00016708
0.51824754 0.58062518 0.39800736 -0.00002096 -0.00028085 0.00040979
0.32770336 0.32869497 0.69820786 -0.00321733 -0.00206949 0.00123244
0.32090828 0.73458421 0.34001958 0.00028628 -0.00028187 -0.00231889
0.37426016 0.87511003 0.46552894 -0.00157563 0.00173593 0.00011217
0.63871419 0.73518521 0.33426917 0.00028912 0.00046094 -0.00161090
0.38983217 0.56954587 0.62782753 -0.00000139 -0.00083247 0.00148300
0.70431703 0.44484746 0.29476324 0.00132531 0.00093948 -0.00095299
0.54766709 0.36032572 0.42985183 0.00031985 -0.00043272 -0.00055666
0.52101636 0.91820621 0.47477576 0.00024557 0.00251214 0.00006990
0.59185141 0.56922483 0.50273049 -0.00011983 -0.00003570 -0.00009360
0.45227608 0.11881925 0.66942143 -0.00337104 -0.00296172 0.00243816
0.48603916 0.41332096 0.53801489 0.00003651 0.00017990 0.00011353
0.57178789 0.56839597 0.55604970 -0.00002688 -0.00025782 -0.00032654
0.45239177 0.17200381 0.60894692 -0.00196361 -0.00072347 -0.00010532
0.76067448 0.68307215 0.41818562 0.00166333 -0.00016897 0.00028650
0.36992168 0.42381147 0.72151780 -0.00113307 0.00223479 0.00231465
0.25781983 0.78979987 0.61131650 -0.00352438 0.00198566 0.00151360
0.50871330 0.10733378 0.52659386 0.00277199 -0.00088790 0.00039090
0.61820555 0.60214728 0.30461165 -0.00004545 -0.00023366 -0.00210711
0.65374351 0.55107695 0.59275240 0.00001776 -0.00077470 0.00002294
0.53577054 0.57823873 0.32553768 0.00031522 -0.00126903 -0.00052993
0.39515561 0.71403635 0.34185746 -0.00023195 0.00025550 -0.00144801
0.46445918 0.77038604 0.33862776 -0.00018405 0.00028250 -0.00163757
0.67285079 0.31436417 0.25842825 -0.00151133 -0.00208985 -0.00355283
0.56844676 0.30092841 0.64984369 0.00021471 -0.00123420 0.00088968
0.30825663 0.71127045 0.62656099 0.00105379 0.00024762 0.00194603
0.10712149 0.40417683 0.47529668 -0.00095086 0.00115571 0.00259640
0.60306811 0.36251503 0.50175446 -0.00010613 -0.00041329 -0.00005120
0.47960827 0.92790878 0.35703409 -0.00015492 0.00415604 -0.00117441
0.33996722 0.75129843 0.62217611 0.00046236 -0.00028236 0.00175206
0.57725233 0.57634902 0.62440991 -0.00031273 -0.00058559 0.00124739
0.52465028 0.21139500 0.52556676 0.00101433 -0.00077887 -0.00041435
0.18242501 0.38128573 0.41751766 -0.00064345 -0.00220663 -0.00085578
0.51980799 0.39688069 0.41243666 0.00015927 0.00013808 -0.00061570
0.34286562 0.38163140 0.32458717 0.00060708 -0.00049069 -0.00047730
0.27831459 0.68401879 0.46552160 -0.00165951 0.00022828 0.00028811
0.22976212 0.45799538 0.39771619 -0.00092985 0.00090300 -0.00085162
0.82242125 0.37817171 0.47050670 0.00048274 -0.00189828 0.00144443
0.49541017 0.84362888 0.33697250 -0.00003114 -0.00013603 -0.00216102
0.45964015 0.91596848 0.53581697 -0.00019134 0.00263087 0.00012357
0.25867236 0.67870110 0.55381882 -0.00200428 -0.00002917 -0.00087311
0.11754985 0.41760734 0.42167258 -0.00222367 0.00176904 -0.00013980
0.61834753 0.46543977 0.33997941 -0.00058325 0.00000350 -0.00045094
0.76938683 0.64603901 0.54429072 0.00141387 -0.00049830 -0.00066135
0.67133230 0.35984331 0.33272865 -0.00092274 -0.00004277 -0.00019347
0.31287006 0.45913142 0.27614513 -0.00131119 0.00146629 -0.00209796
0.59079331 0.90733314 0.46422458 0.00085152 0.00234992 0.00004743
0.64254159 0.38403633 0.43168926 0.00002248 -0.00019997 -0.00044235
0.54794675 0.23530021 0.56647235 0.00113129 -0.00080956 -0.00026914
0.55781972 0.91091907 0.64063269 -0.00043193 0.00212659 0.00317730
0.56524569 0.33776116 0.51504290 0.00019016 -0.00028089 -0.00007043
0.23767363 0.35773620 0.43816066 -0.00088325 -0.00215724 -0.00005065
0.73625809 0.83333534 0.34974462 0.00336809 0.00276639 -0.00112251
0.50476754 0.64889199 0.32341769 -0.00003363 0.00033258 -0.00125582
0.45342791 0.43416953 0.50481462 0.00012972 0.00017284 -0.00001265
0.78883594 0.43598020 0.48632768 0.00112858 0.00052710 0.00149584
0.66358095 0.62137747 0.31137422 0.00027013 0.00093611 -0.00184486
0.24348237 0.66669732 0.59700674 -0.00366885 -0.00001921 0.00013070
0.48142719 0.92210621 0.63968170 0.00024809 0.00318572 0.00263136
0.64606059 0.51031071 0.34567386 -0.00062244 0.00004384 -0.00003601
0.53855795 0.82018268 0.33902174 0.00013817 -0.00005942 -0.00174841
0.57162291 0.68034393 0.32446045 0.00007457 0.00041635 -0.00148020
0.68107402 0.39893946 0.50551862 0.00046712 -0.00031872 -0.00000365
0.59507012 0.38104761 0.44152197 0.00028031 -0.00026465 -0.00027449
0.50706738 0.29231548 0.42243376 0.00061829 0.00012196 -0.00160749
0.65456975 0.34060648 0.59093601 0.00031126 -0.00118647 -0.00052521
0.74835944 0.81694818 0.54360223 0.00198679 0.00174816 -0.00091575
0.52210391 0.25123465 0.49527815 0.00091122 -0.00065536 -0.00003009
0.48305789 0.57168341 0.35988659 -0.00000156 -0.00070700 0.00053976
0.64671177 0.73558158 0.61042386 0.00003227 0.00015119 0.00134869
0.66018051 0.37488028 0.38091397 -0.00031420 -0.00038037 -0.00071093
0.77042049 0.76068878 0.64109266 0.00136694 0.00027620 0.00312417
0.74048281 0.50336057 0.44372657 0.00095000 0.00023865 0.00006592
0.39509729 0.90702766 0.60042673 -0.00109170 0.00359454 0.00006407
0.69416940 0.86572927 0.36790517 0.00221557 0.00291877 0.00022654
0.44913864 0.89550340 0.33585799 -0.00105168 0.00075567 -0.00365691
0.41713688 0.61273056 0.61688137 0.00017265 0.00054486 0.00105980
0.39850584 0.32387453 0.70401561 0.00045306 -0.00217471 0.00159875
0.55588549 0.67978740 0.60872555 -0.00000428 0.00011272 0.00113781
0.34566170 0.87256593 0.34833652 -0.00244745 0.00274387 -0.00252044
0.36236542 0.61172837 0.62894446 0.00027401 0.00090653 0.00179016
0.62266457 0.54743797 0.43102419 -0.00027975 -0.00012695 0.00003606
0.45372146 0.91719258 0.42996946 -0.00080662 0.00274420 -0.00001014
0.27286160 0.32867253 0.33463734 -0.00262940 -0.00100752 -0.00057062
0.74568242 0.58110869 0.59993428 0.00197638 -0.00136684 0.00050721
0.42519516 0.36863026 0.44136220 -0.00041081 -0.00036287 -0.00033255
0.37628216 0.81544447 0.33698255 0.00006603 0.00017693 -0.00251332
0.46800727 0.29519331 0.64214069 0.00004368 -0.00022288 0.00102841
0.48090032 0.21809588 0.64220804 -0.00133616 -0.00064602 0.00060705
0.77264476 0.80146414 0.58209741 0.00314612 0.00148537 -0.00041960
0.38554817 0.65427279 0.60875756 0.00000571 0.00043203 0.00103088
0.60233325 0.45306355 0.43690178 0.00004674 0.00033181 0.00003698
0.53226680 0.41977656 0.45197040 -0.00006733 0.00038326 0.00021356
0.53578359 0.57047242 0.58631206 -0.00001509 -0.00068008 -0.00028944
0.59715950 0.70669955 0.60872984 0.00009212 0.00019450 0.00126478
0.39830503 0.53939837 0.37022743 0.00030518 -0.00041767 0.00023073
0.74536926 0.60516620 0.55895674 0.00044385 -0.00078517 -0.00081841
0.70086646 0.51458311 0.32793498 0.00056626 -0.00019093 -0.00145927
0.65323770 0.40565521 0.29962531 -0.00104000 -0.00123620 0.00004352
0.69532502 0.39571407 0.60520130 0.00164372 0.00053294 -0.00000685
0.60733926 0.90961236 0.63541156 0.00100295 0.00285376 0.00245388
0.37131974 0.62483376 0.32222810 -0.00035453 0.00082746 -0.00149100
0.75087106 0.42519563 0.34400615 0.00138862 0.00011674 -0.00160914
0.35780317 0.30494466 0.35097149 0.00109749 -0.00170974 -0.00095404
0.37501130 0.75815618 0.34263587 0.00006434 -0.00000043 -0.00175069
0.73853832 0.33143559 0.33643508 0.00227832 -0.00072184 -0.00070313
0.53217113 0.40797842 0.55133736 -0.00015706 0.00019115 0.00015885
0.65111387 0.36386862 0.49819547 0.00037738 -0.00085388 0.00004546
0.44788259 0.16487451 0.65908438 -0.00274585 0.00064654 0.00152089
0.54498619 0.57966739 0.50379395 -0.00001709 0.00023246 -0.00036379
0.73268658 0.56988215 0.39646780 0.00089180 -0.00018638 0.00032247
0.62660384 0.86500585 0.64173615 -0.00013428 -0.00061566 0.00313247
0.55123514 0.73663962 0.60894263 0.00016562 0.00029080 0.00127754
0.06960025 0.40014866 0.41233769 -0.00089773 0.00382618 -0.00056040
0.46131885 0.13048595 0.58861279 -0.00231722 -0.00016974 -0.00024949
0.39879367 0.43214566 0.65805501 0.00026397 0.00101388 0.00068884
0.43191710 0.40702406 0.67949170 0.00081080 0.00085208 0.00075551
0.31546530 0.83880991 0.55032754 -0.00202621 0.00158232 -0.00031162
0.15575288 0.37802157 0.46640113 -0.00083076 -0.00253014 0.00139290
0.64638042 0.43390656 0.57620835 0.00005455 0.00040413 0.00035221
0.80509645 0.42815235 0.39559713 0.00139063 0.00147370 -0.00105358
0.42396829 0.56693059 0.50417167 0.00011344 -0.00014413 -0.00019381
0.46716189 0.18553039 0.54385185 -0.00151270 -0.00092057 -0.00011573
0.44403470 0.44067392 0.45503265 0.00000456 0.00030248 0.00007236
0.40299398 0.45956412 0.31607467 0.00118912 -0.00020177 -0.00073249
0.70590925 0.57155067 0.62891906 0.00048312 -0.00105160 0.00216244
0.64512682 0.40340084 0.34572694 -0.00017605 -0.00102467 -0.00064851
0.75923675 0.71188045 0.45595688 0.00176832 0.00019675 -0.00018690
0.36804360 0.55836082 0.52962333 0.00039855 -0.00017855 0.00007429
0.47037745 0.12628993 0.48874286 -0.00275927 -0.00019930 0.00069647
0.27197662 0.35077569 0.27613458 -0.00301160 -0.00095735 -0.00207899
0.27304906 0.76327878 0.38958713 -0.00271552 0.00157227 0.00047196
0.47264817 0.29948640 0.46217152 -0.00103563 -0.00026944 0.00028211
0.28006646 0.50072426 0.38910469 -0.00095090 0.00014151 -0.00048895
0.50894833 0.17416972 0.68804294 0.00042979 0.00008035 0.00365916
0.47636625 0.20640770 0.47945493 -0.00127960 -0.00046381 0.00039989
0.51856065 0.59944206 0.62479961 0.00005648 -0.00038045 0.00150242
0.43909135 0.26772991 0.61421007 -0.00104126 -0.00107888 0.00050414
0.69350570 0.65490347 0.32695389 -0.00007603 0.00079237 -0.00149492
0.52584684 0.84119672 0.63168412 0.00005197 -0.00025980 0.00203334
0.40546158 0.47690997 0.47118708 0.00014915 0.00024608 -0.00011894
0.49906456 0.59668428 0.44211575 0.00016426 0.00007375 0.00034670
0.29428539 0.80997950 0.40285313 -0.00289786 0.00150065 0.00004570
0.60179442 0.31696805 0.59634215 0.00063375 -0.00083502 -0.00005855
0.50782573 0.23954402 0.67761457 -0.00025931 -0.00036473 0.00241755
0.39462250 0.50999713 0.41534173 0.00031952 0.00013612 -0.00001159
0.35457247 0.37625968 0.48342413 -0.00035480 -0.00064593 0.00004484
0.28312358 0.54658860 0.46952811 -0.00109458 0.00006610 0.00009024
0.04545454 0.35831043 0.42707491 -0.00393188 -0.00420612 0.00017621
0.34614840 0.32077152 0.65066081 -0.00135560 -0.00221454 -0.00041078
0.36601394 0.56980151 0.31234100 0.00000413 -0.00076312 -0.00185154
0.42622170 0.42188129 0.40110177 -0.00014830 -0.00008097 -0.00020945
0.29094857 0.48063216 0.51365352 -0.00059916 0.00013626 0.00100576
0.32064721 0.58733946 0.31792739 -0.00087297 -0.00039101 -0.00232342
0.61570644 0.34546757 0.56200856 0.00037129 -0.00050816 -0.00020220
0.79225934 0.69523460 0.55755103 0.00262589 -0.00040831 -0.00091227
0.31967038 0.58059555 0.53591925 -0.00022118 -0.00027688 0.00052167
0.28941330 0.62184650 0.55849200 -0.00096095 -0.00065098 0.00006116
0.67070591 0.89744365 0.62708837 0.00115046 0.00352430 0.00185132
0.66869968 0.87711334 0.51103890 0.00110651 0.00213345 -0.00023213
0.39650965 0.55528557 0.46114078 0.00042813 -0.00011392 -0.00002410
0.72638917 0.53813595 0.47895586 0.00080465 0.00026393 0.00020170
0.44976354 0.56431633 0.61531174 0.00023961 -0.00081222 0.00079043
0.55763435 0.86326212 0.32987139 0.00014563 -0.00096158 -0.00268993
0.64396065 0.44664332 0.27092257 -0.00101819 0.00003729 -0.00245620
0.28092134 0.64298046 0.51543933 -0.00138657 -0.00016758 0.00016105
0.29156053 0.33024552 0.41564870 -0.00110071 -0.00136064 0.00059557
0.50657940 0.09837037 0.63877511 0.00232256 -0.00339992 0.00179006
0.66394240 0.87805665 0.41832811 0.00141461 0.00219090 0.00000178
0.44069308 0.72808743 0.33939320 -0.00029042 0.00032468 -0.00141292
0.57530928 0.79793894 0.61831337 -0.00021481 -0.00007825 0.00153315
0.26401776 0.76538348 0.56132776 -0.00230651 0.00110168 -0.00098300
0.32591376 0.38235098 0.60711670 -0.00214988 -0.00027793 0.00041289
0.37040555 0.88928014 0.56398946 -0.00134666 0.00261562 -0.00017752
0.63178045 0.55675685 0.52632749 -0.00033736 -0.00009344 -0.00014868
0.50892717 0.63269222 0.47569978 0.00021339 -0.00034469 -0.00004766
0.36697549 0.80502808 0.63212633 0.00030868 -0.00025017 0.00225620
0.47897497 0.33025703 0.42747223 -0.00064247 -0.00017522 -0.00075481
0.29102123 0.82997173 0.59980804 -0.00295967 0.00205257 -0.00043312
0.64736730 0.36304909 0.75194365 -0.00172584 -0.00121515 0.00426761
0.04655611 0.37157741 0.38102823 -0.00317298 -0.00075380 -0.00386476
0.71245855 0.31402326 0.42253128 0.00064496 -0.00179280 0.00122183
0.38336077 0.88696843 0.64224106 -0.00140379 0.00184579 0.00320131
0.32290873 0.41529799 0.24805632 0.00054745 -0.00040182 -0.00390820
0.67885798 0.57357258 0.30326334 -0.00033182 -0.00056270 -0.00244630
0.68177545 0.71598947 0.33336362 0.00021521 0.00033814 -0.00166879
0.73319769 0.67119360 0.62086171 -0.00098266 0.00031993 0.00175286
0.26465225 0.50022340 0.47340015 -0.00116089 0.00050360 0.00033047
0.36427602 0.42325926 0.27541694 0.00149216 -0.00149311 -0.00169120
0.48069730 0.87504017 0.64497834 0.00007522 -0.00092066 0.00297826
0.49856141 0.70874453 0.32844180 -0.00010073 0.00023672 -0.00163728
0.41581297 0.40425670 0.72529352 0.00172988 0.00142524 0.00214336
0.59003168 0.77142316 0.33553669 0.00037344 0.00064586 -0.00165024
0.37142155 0.48954150 0.52597487 0.00022747 0.00022104 0.00017111
0.20241871 0.38534597 0.47495401 -0.00095281 -0.00137873 0.00163064
0.71258241 0.84711295 0.52216893 0.00174460 0.00176552 -0.00048043
0.28796843 0.79065710 0.52869755 -0.00201458 0.00126917 -0.00016533
0.72886777 0.68596429 0.32636866 -0.00036480 0.00021973 -0.00237300
0.27885726 0.39993444 0.25884181 -0.00262636 -0.00005390 -0.00301919
0.64898145 0.31833690 0.68502742 -0.00090572 -0.00244943 0.00081728
0.53770638 0.35048977 0.60836172 -0.00040775 0.00022902 0.00026863
0.75399745 0.63959157 0.49811575 0.00140091 -0.00040531 -0.00012484
0.56039375 0.58094525 0.44436121 -0.00021505 0.00010126 0.00019870
0.24746895 0.39659044 0.49214882 -0.00045245 -0.00134839 0.00133279
0.72374612 0.58991003 0.30676129 0.00165464 -0.00033957 -0.00288081
0.53582901 0.25817698 0.63963723 0.00075613 -0.00036023 0.00046358
0.51383406 0.12312570 0.57530808 0.00212445 -0.00125293 -0.00026241
0.23741545 0.47278664 0.44679344 -0.00130445 0.00078458 -0.00009749
0.58004224 0.43681261 0.52384180 -0.00015598 0.00025568 0.00005110
0.76105845 0.75261426 0.40595186 0.00235139 0.00074022 0.00009870
0.47902426 0.39913741 0.59061664 0.00014792 0.00015370 0.00039922
0.43556616 0.90858865 0.64260536 -0.00123772 0.00229501 0.00304787
0.49491373 0.59394795 0.30926332 -0.00032949 -0.00056251 -0.00182076
0.33909225 0.39052451 0.71005571 -0.00304198 0.00121260 0.00157639
0.60193980 0.90773529 0.39086229 0.00099082 0.00293159 -0.00022961
0.51466304 0.92017937 0.41240129 0.00037826 0.00271073 0.00025183
0.74997401 0.76659316 0.44982818 0.00190678 0.00085186 -0.00003214
0.72429401 0.79400736 0.32209903 0.00105943 0.00038250 -0.00358170
0.46111134 0.32949919 0.49803406 -0.00035527 -0.00027970 0.00009664
0.77419388 0.35881197 0.45457074 0.00073754 -0.00195076 0.00061505
0.11226132 0.36788487 0.44539928 0.00001327 -0.00340625 -0.00031972
0.29982349 0.56627584 0.35515171 -0.00147585 -0.00056891 -0.00053476
0.38772938 0.39589095 0.41614309 -0.00024832 -0.00028661 -0.00051955
0.32898521 0.34599349 0.43891677 0.00009434 -0.00084439 0.00040908
