-0.198403 -0.017027 0.163364 
0.032617 -0.125010 0.025895 
-0.227271 0.127952 0.470845 
-0.254618 -0.159671 -0.116457 
0.124004 0.084585 -0.260262 
0.102038 0.110333 -0.091571 
-0.079359 -0.119719 -0.110016 
-0.060291 0.122170 -0.045915 
-0.117577 0.137676 0.395120 
-0.058951 -0.013401 0.131076 
-0.147960 -0.289515 -0.036860 
0.077513 -0.141899 -0.138293 
-0.230633 0.045427 0.328192 
-0.099761 -0.016394 0.195016 
-0.090502 0.482087 -0.041252 
0.252857 -0.226412 0.354047 
-0.159408 0.228670 0.459393 
-0.263105 0.250711 0.032829 
-0.087987 0.199697 0.251879 
0.031305 0.046233 -0.090477 
-0.306599 -0.151711 0.002446 
0.104887 -0.347695 -0.054613 
-0.122049 0.149473 0.148635 
0.043774 -0.149692 -0.141365 
-0.105903 0.270958 0.130815 
-0.033150 0.021546 -0.158960 
0.220280 -0.120851 -0.204807 
0.088595 -0.184841 -0.118144 
0.081281 0.144728 -0.074095 
-0.279712 0.087012 0.019403 
0.121093 -0.195996 0.183591 
-0.221673 0.214518 0.303752 
-0.082541 0.305628 0.406896 
-0.343028 0.131160 0.125754 
-0.107069 0.276582 -0.092134 
0.039980 -0.008209 0.180603 
-0.166130 -0.138755 -0.244399 
-0.127656 -0.317111 -0.140472 
-0.074742 0.366593 -0.182364 
-0.001541 -0.312839 0.057615 
0.048586 -0.164489 -0.078468 
0.169790 0.028070 0.126062 
0.184049 0.044750 -0.109495 
-0.153354 0.466024 -0.037247 
-0.274263 -0.012444 0.105614 
0.158962 0.069094 -0.285587 
-0.036595 0.047106 -0.057905 
0.073460 -0.270343 -0.179680 
0.087389 0.095973 -0.020613 
-0.194205 -0.066469 -0.092303 
-0.007953 0.115783 0.073617 
-0.104133 0.078015 -0.005636 
0.055752 -0.246434 -0.058462 
0.066724 -0.079149 0.105804 
0.049902 0.151023 0.064853 
-0.106723 0.013219 0.039600 
-0.062213 -0.203844 -0.164702 
-0.271539 0.360094 -0.249021 
-0.100086 0.096816 -0.026301 
-0.191968 0.328930 0.207241 
-0.309462 0.130542 -0.087362 
0.134440 0.046343 -0.084896 
-0.053794 0.155698 0.239963 
-0.172245 0.224329 0.284174 
0.066216 -0.089999 0.006005 
-0.022493 -0.119917 0.194814 
-0.257416 -0.257796 -0.118620 
-0.215227 -0.207242 -0.144870 
-0.186406 0.134004 0.215593 
-0.053467 0.188221 0.164934 
-0.032959 0.178557 0.153816 
-0.040194 0.448328 0.218396 
0.143289 -0.191109 0.217509 
-0.113875 0.478060 -0.051881 
0.234166 -0.185935 -0.165406 
0.070333 -0.076523 0.030122 
-0.291616 0.289175 -0.041021 
0.006036 0.193994 0.161865 
-0.084297 0.038091 0.021291 
0.119303 -0.153273 0.309157 
-0.095767 0.451654 0.220707 
-0.093848 -0.192624 -0.249414 
0.064060 -0.123218 -0.123936 
-0.160767 0.340523 0.086948 
-0.159015 0.121881 0.176381 
-0.359293 0.097623 0.069729 
-0.019636 -0.058380 -0.202291 
0.105165 -0.160503 -0.056254 
-0.003168 0.258857 0.199909 
-0.242265 -0.090528 -0.015846 
-0.253336 0.139422 0.425543 
0.145235 -0.216799 -0.023787 
-0.100706 0.137122 -0.134699 
-0.210863 -0.031540 -0.161973 
-0.136031 0.141838 0.131173 
-0.050543 0.254015 -0.140984 
-0.201355 0.232243 -0.146892 
0.179843 0.122125 -0.366832 
-0.105225 0.025333 0.240078 
-0.160025 0.329802 -0.004607 
-0.124705 0.048732 0.075760 
0.040333 -0.205423 0.161856 
0.023805 -0.299742 -0.026864 
-0.161959 -0.022490 -0.112998 
-0.002554 0.291749 0.246840 
-0.344538 0.202780 -0.084092 
0.220012 -0.231284 0.356353 
-0.082563 0.413717 0.221426 
0.123060 -0.093039 0.234102 
-0.385231 0.095685 0.058226 
-0.296811 -0.073234 0.010131 
-0.007707 -0.347380 0.009835 
-0.225587 0.080847 0.200525 
-0.230225 0.177544 0.311612 
0.021495 0.287299 0.087044 
0.245564 -0.087808 0.127167 
0.087221 0.105174 0.091702 
-0.017634 -0.028225 0.163597 
0.225051 0.045922 -0.113472 
0.140112 -0.007352 -0.188303 
0.139462 -0.244311 0.103054 
-0.147863 0.136008 0.022414 
-0.045290 -0.268713 -0.050048 
0.241127 -0.217349 -0.060969 
-0.143362 -0.196449 0.141672 
0.174690 -0.209520 0.130676 
-0.014309 0.153140 0.209449 
-0.266569 -0.137057 -0.109953 
0.166111 0.016479 0.005801 
0.176538 0.047950 -0.103367 
-0.210692 -0.235415 0.084541 
0.018042 -0.357680 -0.060744 
0.013791 0.225409 0.210881 
-0.016541 0.371643 -0.111089 
-0.115126 0.004558 -0.115067 
0.213841 -0.168576 -0.008944 
0.168810 0.095015 -0.179402 
-0.163735 0.136541 0.227435 
0.114613 -0.319552 -0.166250 
-0.085910 -0.279230 -0.058549 
-0.189601 -0.127255 -0.178530 
-0.303358 -0.115660 -0.107292 
-0.037966 0.228451 0.002738 
0.023808 -0.090986 -0.247538 
-0.062148 0.290310 0.388480 
0.067306 0.095608 -0.208990 
-0.153044 0.239799 0.393783 
0.167790 0.134135 -0.339428 
-0.232130 0.299174 -0.143492 
-0.030894 0.085783 -0.125001 
0.016814 -0.261664 -0.216269 
-0.273951 0.129345 0.136195 
-0.195023 0.439092 -0.161969 
0.028245 -0.293280 -0.123600 
-0.160659 0.274257 0.174327 
-0.250651 0.000921 -0.008787 
-0.149825 0.166002 0.330060 
0.200778 -0.247932 0.030474 
-0.198551 0.136871 -0.037059 
-0.184468 0.244228 0.183590 
-0.166118 -0.216532 0.092825 
0.049989 0.098573 -0.190380 
0.051431 -0.089611 0.058922 
0.074060 -0.080123 -0.152164 
-0.180856 0.226468 0.073445 
0.067703 0.040419 -0.043198 
-0.210117 -0.224971 0.021204 
0.192328 -0.097144 0.198437 
0.157744 -0.160343 0.090069 
0.000539 -0.271010 0.081110 
-0.063298 0.165565 0.029751 
-0.134082 0.276622 -0.126890 
0.060599 0.022158 0.049361 
-0.289579 0.175008 0.272170 
-0.264018 0.029203 0.034718 
-0.093103 0.042156 -0.041373 
0.148875 -0.019135 -0.218074 
-0.026652 0.230157 0.022988 
0.260508 -0.051151 0.136503 
-0.134557 -0.070865 -0.226476 
-0.212120 0.143940 0.258996 
-0.282474 -0.161832 -0.065365 
0.026429 0.042261 -0.104220 
-0.084467 -0.170444 -0.239387 
0.087173 -0.155884 -0.218276 
0.215212 -0.250110 -0.000907 
-0.363088 0.090453 0.069219 
-0.298250 0.051645 0.041347 
0.163309 -0.103159 -0.063880 
-0.381596 0.163386 -0.031656 
-0.073706 0.235061 0.176911 
-0.143622 0.193536 0.380372 
0.210688 0.009600 -0.184232 
-0.167362 0.106832 0.181890 
-0.059771 0.323753 0.050383 
-0.222715 0.107554 0.266779 
0.104066 -0.047745 -0.200877 
0.121416 0.031405 0.013424 
-0.112750 0.399770 0.213458 
-0.206732 0.220304 0.346144 
-0.169960 0.123559 0.319327 
-0.050504 0.089859 -0.109952 
0.250293 -0.201637 0.007712 
-0.107642 0.478367 0.079919 
-0.186378 0.070284 -0.113489 
-0.098287 -0.135827 -0.178411 
0.260358 -0.089471 0.102956 
-0.164776 -0.099046 -0.119286 
-0.134224 -0.249049 -0.067125 
-0.175565 0.428294 -0.000684 
-0.183958 0.349147 -0.165083 
-0.062468 0.316639 0.129225 
-0.085363 0.069403 0.291408 
-0.203170 0.182585 0.250660 
-0.108894 -0.175012 0.122415 
-0.251138 0.127121 0.294873 
0.057953 0.081505 0.142595 
0.244682 -0.254544 0.012560 
0.236653 -0.193975 -0.099073 
0.028784 0.073424 0.017432 
-0.159640 -0.059586 -0.207107 
0.052101 0.086502 -0.181003 
0.195806 -0.281717 -0.093966 
0.122740 0.076021 -0.131131 
-0.161922 0.153148 -0.054480 
-0.214893 0.184070 0.451258 
-0.096474 0.092877 0.333572 
-0.010452 0.177174 0.013232 
-0.265689 0.022988 0.235085 
-0.162451 0.483595 -0.102027 
0.171428 -0.011656 0.058147 
-0.245202 0.381135 -0.191357 
-0.372799 0.099978 0.013108 
-0.253291 0.022251 0.057377 
-0.097765 -0.205074 0.092099 
0.021760 -0.141621 -0.162075 
0.107757 -0.312048 -0.181045 
0.017751 0.069415 0.169362 
0.048069 0.094119 0.008891 
-0.199579 0.204559 -0.098405 
0.006921 -0.136558 -0.272149 
-0.251256 -0.131504 0.041084 
0.105597 0.043603 0.159219 
0.034379 0.123685 -0.108522 
-0.141076 -0.034064 -0.159879 
-0.193910 0.119547 0.194912 
0.124590 0.083773 -0.286213 
-0.201399 0.442977 -0.163381 
-0.078328 -0.030224 -0.098732 
-0.036640 0.433053 -0.111111 
0.159900 0.045720 0.070815 
-0.021817 0.222115 0.128053 
0.054954 -0.102835 -0.029567 
-0.044844 -0.089070 -0.144243 
-0.042714 0.444666 -0.081251 
-0.179823 0.078219 0.280488 
-0.054529 -0.163636 0.096973 
0.066756 -0.290806 -0.010861 
-0.078800 -0.344003 -0.116270 
0.214055 0.100515 -0.109309 
-0.133260 0.428557 -0.014586 
-0.043798 0.123971 0.174900 
-0.062220 -0.267063 -0.211148 
-0.196443 0.287440 -0.220346 
-0.262940 0.045937 0.249083 
-0.242923 0.198254 0.078238 
0.007406 -0.190940 0.123144 
-0.286441 0.242672 0.101966 
0.264202 0.004913 -0.022531 
0.230281 -0.104046 -0.070255 
0.099975 -0.327782 -0.067709 
-0.002965 0.034133 -0.226320 
-0.191699 -0.222518 -0.015215 
-0.092455 0.170976 -0.083556 
-0.083820 0.497647 0.140144 
-0.106740 0.010329 -0.113281 
0.222315 -0.213148 -0.131100 
-0.170814 0.375756 0.065704 
-0.116170 0.006916 0.115932 
-0.048140 0.116294 0.109271 
-0.268529 0.207437 -0.179609 
-0.003644 -0.025092 0.172484 
-0.174883 0.114988 0.435748 
-0.009406 0.233960 0.084667 
-0.089289 -0.070291 -0.139191 
-0.058907 -0.225355 -0.077409 
0.077958 -0.164968 0.029601 
-0.110836 0.330824 -0.059016 
-0.255001 0.112328 0.255058 
-0.219497 0.358717 -0.233404 
0.206384 -0.208724 0.346960 
0.310383 -0.084343 -0.084502 
-0.241703 0.123798 0.062609 
-0.120361 -0.012293 0.098686 
0.162690 -0.339051 -0.047795 
-0.175895 0.118206 0.279643 
-0.102775 -0.325157 0.036439 
-0.017801 -0.126284 0.108507 
0.227002 0.012644 0.042438 
0.234194 -0.036306 -0.069506 
-0.325333 0.160401 0.183922 
-0.112377 -0.186004 0.014231 
-0.195978 0.197940 0.294151 
-0.020264 0.112298 -0.037152 
0.020385 0.175367 0.135410 
-0.270595 -0.094215 0.053533 
-0.289461 0.085761 -0.073686 
-0.173839 0.352146 -0.155962 
-0.129498 0.046513 0.092603 
-0.312075 0.204641 -0.006724 
-0.062313 0.186337 0.223513 
-0.021446 0.125724 -0.125538 
-0.080796 -0.146638 0.116120 
-0.192933 0.316863 0.027496 
-0.109281 0.232548 0.361621 
-0.222490 0.032784 0.208850 
-0.180525 0.202962 0.289555 
0.133066 0.084349 -0.268133 
0.225096 0.056428 -0.119926 
0.029988 -0.115506 0.018137 
-0.067990 0.162385 0.173107 
-0.113365 0.180746 0.056965 
-0.153151 -0.099605 -0.124750 
0.052779 0.023970 -0.176844 
0.242088 -0.003009 -0.052447 
-0.152389 0.261200 -0.208552 
-0.043936 0.325944 0.171069 
0.221908 -0.109260 0.094348 
-0.371791 0.083805 0.057171 
0.173162 0.060334 -0.146156 
0.257104 0.114732 -0.404132 
-0.255061 -0.094904 -0.128401 
-0.111779 0.378928 0.094121 
0.206039 -0.210088 -0.006106 
0.016114 0.090794 -0.070116 
-0.179349 0.201030 0.143639 
-0.240885 0.108761 -0.054708 
-0.102884 -0.200914 0.060013 
0.025384 -0.133247 -0.143045 
-0.131310 0.039605 -0.007282 
-0.105730 -0.180969 -0.232546 
-0.125360 0.136269 0.077920 
-0.061375 0.064434 0.027183 
0.086913 -0.075098 0.095101 
-0.073173 0.041785 0.039828 
-0.022588 0.179262 -0.032196 
-0.194036 -0.257997 -0.083264 
0.052146 -0.296644 -0.041308 
0.093066 -0.149415 0.087364 
-0.054734 0.049095 0.097178 
-0.109552 0.410500 0.252051 
-0.168786 0.258671 -0.141405 
-0.232053 0.042810 -0.080407 
-0.008602 -0.009627 -0.233779 
0.155443 0.069682 -0.194918 
0.162194 -0.137313 -0.229048 
0.113836 0.070875 -0.088357 
-0.106405 -0.165490 -0.096552 
-0.268142 0.226090 0.211555 
0.134152 0.030083 -0.266918 
0.242143 -0.237397 -0.136008 
0.047842 0.069372 -0.137248 
-0.227415 0.120004 0.317295 
0.061658 0.012160 0.124029 
0.015105 -0.229548 0.156254 
0.053019 -0.144847 0.174430 
-0.185516 0.028999 -0.068915 
-0.128463 -0.140431 0.129727 
-0.266437 -0.145972 -0.055259 
-0.189957 0.053815 0.108395 
-0.082114 0.113970 0.130240 
0.206990 0.001670 0.030102 
-0.127335 0.169071 0.006815 
0.109212 0.044729 0.123865 
0.255519 -0.062908 0.034133 
0.172075 -0.321657 -0.040746 
-0.064986 0.090273 0.139919 
-0.181621 0.346973 -0.054987 
-0.022663 -0.010130 0.069710 
-0.206537 0.253771 0.038509 
-0.189698 0.290016 0.085317 
0.230994 -0.032049 0.012595 
-0.315961 -0.013190 0.010317 
-0.057795 0.073873 0.150145 
-0.103437 0.397740 0.205639 
-0.137993 0.069251 -0.137621 
0.082905 -0.249309 -0.180003 
-0.063252 0.422542 0.208200 
-0.246296 0.332425 0.004864 
-0.296619 0.214198 -0.017447 
-0.181624 0.273962 0.115507 
-0.230425 0.022993 0.017197 
-0.108395 0.205451 0.247787 
-0.111860 0.204504 -0.029090 
0.102290 0.120355 -0.030585 
0.058335 0.041721 0.150181 
0.154343 -0.132073 0.143535 
0.026939 -0.016939 -0.173639 
-0.229287 0.300526 0.150440 
0.131603 -0.156124 0.117630 
-0.347801 0.237770 -0.123393 
0.224510 -0.218151 0.324774 
0.101444 -0.163519 0.156256 
-0.052901 0.166098 0.235324 
0.179572 -0.084438 0.208845 
-0.279553 0.197747 0.238088 
-0.216219 0.270664 0.160259 
-0.228773 0.299998 0.040971 
0.102142 -0.308732 -0.076117 
0.100478 -0.305825 -0.016654 
-0.132114 0.294122 -0.204127 
-0.025402 0.093354 0.051699 
0.060594 0.001000 -0.133177 
0.278800 -0.080207 -0.085450 
0.035043 -0.297284 -0.029928 
-0.119397 0.222043 -0.180229 
0.175368 0.068043 -0.241109 
-0.308625 0.255796 -0.013278 
-0.308371 0.025292 0.182733 
0.020597 0.232958 0.106182 
-0.015347 0.159251 0.070893 
0.003784 0.353968 0.122424 
-0.144401 0.308738 -0.148886 
-0.326220 0.108470 0.319989 
0.197439 -0.052008 0.012805 
-0.208005 0.271561 0.303857 
0.045643 -0.025353 -0.113624 
-0.287818 0.327616 -0.130277 
-0.107588 0.177765 0.070175 
-0.290030 0.080276 0.399091 
0.013489 0.080716 -0.113026 
0.033216 -0.174430 -0.257949 
-0.100406 0.080686 0.085884 
0.026834 0.153121 -0.057559 
0.106480 -0.083246 0.108212 
0.231700 -0.254090 -0.069329 
0.104556 0.146048 -0.042322 
-0.223204 0.224827 0.131970 
-0.304631 0.207772 0.130312 
-0.203118 0.082949 -0.126385 
-0.219255 0.214336 0.181008 
0.204432 -0.119650 0.192550 
-0.093060 0.148909 0.340153 
0.008284 -0.006532 -0.178363 
-0.083561 0.051743 0.308041 
-0.275017 0.217618 0.209820 
-0.325006 0.270767 -0.110552 
-0.008573 -0.136507 0.057933 
-0.074223 -0.137390 -0.131111 
-0.136768 0.022994 0.179394 
-0.167159 0.092858 0.428270 
0.207315 -0.178733 -0.017687 
-0.146682 0.322668 0.325758 
-0.213101 0.251647 0.252543 
-0.123071 0.396321 0.272009 
0.126161 -0.224899 -0.172809 
-0.072394 -0.115961 -0.185223 
0.011960 0.064059 0.146102 
-0.103057 -0.240317 -0.220123 
-0.120642 0.281267 0.151829 
-0.025964 -0.129065 -0.219126 
-0.304026 0.062633 0.076435 
-0.075040 0.058208 0.146751 
-0.237005 0.336866 0.025651 
-0.226098 0.087774 0.247240 
-0.023586 0.278163 0.066588 
-0.068900 -0.235328 -0.011885 
-0.167677 -0.103149 0.006683 
-0.118018 0.404752 0.267457 
0.027459 -0.083901 -0.224527 
0.149268 0.038498 -0.283874 
-0.089060 0.105596 0.087629 
0.049569 -0.135711 -0.273112 
-0.290937 -0.149661 0.008849 
-0.341312 0.049114 0.007499 
-0.004204 0.245021 0.041604 
-0.301000 0.227408 -0.030922 
-0.211009 0.194228 -0.204316 
-0.108276 0.025780 0.274347 
-0.032960 -0.172475 -0.027351 
-0.128341 -0.256075 -0.066412 
-0.069614 0.405641 0.168370 
0.115444 -0.100522 -0.248077 
-0.170599 0.309162 -0.069874 
-0.269576 0.203328 0.127370 
0.012647 -0.266717 -0.227528 
-0.310766 -0.019857 0.029215 
0.231718 -0.033815 -0.094771 
-0.095517 -0.242867 -0.090098 
0.178713 -0.031735 -0.010833 
-0.318854 0.186624 -0.024184 
-0.129409 0.258115 -0.119509 
-0.112453 -0.003981 -0.216615 
0.159766 -0.245101 -0.129389 
-0.022159 0.285764 -0.050062 
-0.301223 0.269101 -0.021578 
-0.120112 0.277097 -0.216152 
-0.019774 0.259773 0.105680 
0.083848 0.071220 0.135169 
-0.346299 0.065475 0.015403 
-0.324873 0.081229 -0.041372 
-0.036146 -0.237040 -0.245849 
-0.168729 -0.114029 -0.183435 
0.052254 0.053351 0.040802 
0.111271 -0.223628 0.107540 
-0.131085 0.375440 0.031898 
-0.316453 0.201708 -0.033244 
-0.222954 0.030572 0.143255 
-0.293955 -0.021039 0.015312 
-0.024369 -0.054808 0.051886 
0.294561 -0.104313 0.107087 
0.147892 -0.105479 0.039228 
-0.364512 0.099163 0.208238 
-0.184566 0.310678 -0.155388 
0.238391 -0.044173 0.151608 
-0.104081 0.508458 -0.039725 
0.314259 -0.192624 0.012741 
-0.030464 0.069159 -0.058135 
-0.219623 0.168043 -0.087675 
-0.123650 0.054458 0.182198 
-0.129281 0.203666 0.266264 
0.043401 0.004561 -0.147224 
-0.042053 0.367778 -0.011369 
-0.013787 -0.259498 0.015190 
-0.075785 -0.179557 -0.143984 
0.233305 -0.240169 0.360672 
0.137112 -0.180598 0.311074 
0.208101 0.109352 -0.081480 
-0.237401 0.183740 -0.041071 
-0.060209 0.159702 0.275413 
-0.014067 -0.102195 -0.059921 
0.132629 -0.324884 0.021234 
-0.081306 0.031613 0.012807 
-0.194146 0.146629 -0.062259 
-0.051793 -0.344814 0.072340 
-0.254449 0.078587 0.391778 
-0.344935 0.151735 -0.056415 
-0.294382 0.047430 0.344808 
-0.149800 -0.090681 -0.113463 
-0.259765 0.311578 0.005458 
0.190906 -0.076943 -0.141474 
-0.106061 0.004583 0.055417 
0.163672 -0.237489 0.023391 
-0.067566 -0.013182 0.026588 
-0.043639 -0.008236 0.111122 
0.215961 -0.252218 0.014030 
-0.040467 0.054222 -0.007549 
-0.055229 -0.300398 -0.002281 
-0.219015 -0.169325 -0.060247 
-0.057808 0.514322 0.132528 
-0.077559 0.191980 0.144219 
0.271311 -0.124962 -0.003329 
-0.150247 -0.124587 -0.248143 
-0.281027 -0.213462 -0.135803 
-0.102872 -0.291691 -0.152726 
-0.196549 -0.283237 -0.003261 
0.048837 0.062800 -0.142890 
-0.027295 -0.092620 0.063289 
0.261328 -0.195001 0.059121 
-0.185053 -0.163524 0.048800 
-0.279901 -0.121146 -0.114716 
-0.066789 0.111069 0.227346 
0.075617 -0.248536 0.048997 
0.269924 -0.053768 -0.181368 
-0.063750 0.167152 0.158480 
-0.151298 0.280076 -0.107363 
-0.289128 0.137708 0.329706 
0.261390 -0.049015 0.072696 
0.016753 -0.263281 -0.174849 
0.000227 -0.120748 -0.117758 
0.205797 0.004895 -0.164522 
-0.063867 -0.023929 -0.059748 
0.113087 -0.172502 0.031935 
-0.037213 0.327545 0.060668 
-0.158680 0.418475 -0.082037 
-0.183534 0.219148 -0.058991 
-0.135207 0.317104 -0.019415 
-0.154933 0.089635 0.120807 
0.119562 -0.336768 -0.121679 
-0.048422 0.154000 -0.055577 
-0.113863 -0.291475 -0.059752 
-0.038569 0.323721 0.210271 
-0.041374 0.227412 -0.065674 
-0.069612 0.135553 0.183694 
0.101143 -0.016534 -0.256068 
-0.109408 0.101696 -0.107649 
-0.235605 0.138237 0.318716 
-0.085536 0.438277 -0.142847 
-0.121140 -0.192371 0.081083 
0.085071 -0.113737 0.219661 
0.249574 -0.102501 -0.016593 
0.122223 -0.148074 0.092004 
0.154017 -0.196097 0.183557 
-0.078944 -0.286876 -0.022271 
0.124641 -0.068231 0.183377 
0.044517 -0.048036 -0.253609 
-0.113718 0.062100 -0.020098 
0.060602 -0.077078 0.075175 
-0.144880 0.277284 -0.098707 
-0.097028 -0.307568 -0.065958 
-0.070165 0.254500 0.051877 
-0.201440 0.201129 0.476817 
0.029171 -0.079395 -0.087921 
0.115567 -0.059726 -0.018616 
0.115290 0.116868 0.082412 
-0.031069 0.353667 0.041008 
0.083127 0.041286 -0.070523 
0.218720 -0.122736 -0.206246 
-0.131464 -0.103851 0.134954 
-0.112954 0.230169 -0.195029 
0.252522 -0.036431 -0.040979 
-0.144826 0.292101 -0.163655 
-0.170614 0.174430 0.145704 
-0.001729 -0.167810 0.150324 
-0.220049 -0.064410 -0.163498 
-0.143740 0.144248 0.310907 
0.051982 -0.141121 0.045679 
0.080283 -0.243356 0.136965 
-0.247286 0.245288 0.211597 
0.139469 -0.059494 -0.167140 
0.064312 -0.288369 -0.024953 
-0.096108 -0.028987 0.070543 
0.033029 -0.053364 0.025336 
-0.173772 0.267992 0.369306 
-0.092549 0.021317 0.202687 
0.103065 0.015000 0.023009 
0.003494 -0.243793 0.146609 
0.118434 -0.188968 -0.121572 
-0.011723 0.174355 0.072267 
-0.120866 0.396504 0.033408 
0.143947 -0.137411 -0.162505 
0.022612 -0.359955 -0.006363 
-0.044257 0.068960 -0.015175 
-0.028571 0.418921 0.114676 
-0.108434 0.245514 -0.040166 
-0.032274 -0.294415 0.029746 
-0.101002 0.304031 -0.149250 
-0.308761 0.132784 0.012508 
-0.051407 -0.261263 0.094155 
-0.045000 0.185754 0.161171 
0.033058 -0.216998 0.069771 
0.203780 -0.242651 -0.055438 
0.194238 -0.166435 0.261855 
-0.159366 0.077951 0.114952 
-0.158667 0.168323 0.322638 
0.127684 -0.080426 -0.223539 
-0.241647 0.329259 -0.101286 
-0.240438 -0.005091 0.088042 
-0.248572 0.091185 -0.010126 
-0.125245 0.513461 -0.049553 
-0.281337 -0.210740 -0.136753 
0.162640 -0.015867 -0.105385 
-0.039344 -0.357483 -0.118138 
-0.025281 -0.089096 0.159621 
0.092745 -0.304715 -0.066633 
0.119273 -0.101352 -0.191032 
-0.020820 -0.038035 -0.110248 
0.034379 -0.110272 0.070102 
-0.193548 0.216433 0.060568 
-0.152021 0.441289 -0.131973 
-0.074539 0.210062 -0.125386 
-0.029167 -0.054340 0.037055 
-0.163159 -0.277188 0.028763 
0.173634 -0.033194 0.055444 
-0.114745 0.185032 -0.069865 
0.052052 -0.165406 -0.084146 
-0.119430 0.367069 0.189161 
-0.080529 -0.271802 -0.217862 
-0.066630 0.368724 0.200721 
-0.237063 0.253665 0.136522 
-0.186125 0.043266 -0.123439 
-0.321322 0.059222 0.253874 
-0.190768 -0.067892 -0.098087 
-0.175144 0.097754 0.183687 
0.100914 -0.081171 -0.016686 
0.050784 0.049337 -0.188149 
-0.053141 -0.038123 -0.117285 
0.312996 -0.154219 -0.085686 
-0.268959 0.357609 -0.263032 
0.070222 -0.045880 0.123964 
-0.060068 0.031973 -0.129865 
0.237051 -0.013445 0.079790 
-0.218999 0.178250 0.064836 
-0.069536 0.384903 0.241995 
-0.256768 0.062591 -0.029664 
-0.102899 -0.205116 -0.162599 
0.077614 -0.107583 0.167097 
-0.205562 0.225996 0.298253 
-0.311268 0.149740 0.026424 
0.263759 -0.199207 0.052889 
-0.104726 -0.325975 -0.048310 
-0.260101 0.176101 0.374155 
-0.203519 0.070199 -0.108329 
0.000648 0.329113 0.043306 
-0.153008 -0.162220 0.075711 
-0.178222 -0.038537 -0.021234 
0.199067 -0.183000 -0.090144 
-0.070398 -0.004690 -0.069984 
-0.183114 0.185230 -0.043218 
-0.222980 0.043529 -0.113449 
0.159827 -0.124282 0.129036 
-0.208595 0.330428 0.143926 
-0.247709 0.285549 0.052943 
0.011370 -0.197273 0.037827 
0.127699 0.098220 0.097339 
0.128653 -0.319556 -0.003036 
-0.041416 -0.116260 0.112320 
0.103102 -0.124011 0.084588 
-0.358697 0.060398 0.070159 
0.144851 -0.166186 0.065535 
-0.120359 -0.174957 -0.155052 
0.009956 -0.124980 0.087581 
0.019074 -0.020948 0.082126 
-0.085131 0.248776 0.223816 
0.018443 0.015291 -0.067686 
-0.223063 0.246287 -0.178610 
-0.122168 0.200908 0.095362 
-0.187037 -0.062095 0.032028 
-0.090850 -0.243651 -0.082311 
-0.163999 0.106507 -0.020233 
-0.098784 0.066187 0.288414 
-0.336867 0.035168 0.000838 
-0.207893 0.323642 0.164740 
-0.136453 -0.264852 -0.163292 
0.271813 -0.016841 -0.032825 
-0.030991 0.077277 -0.129654 
-0.130023 -0.027924 0.073968 
-0.280963 0.198571 0.235963 
-0.297753 0.240716 0.067002 
-0.004234 0.177609 0.088123 
-0.085518 0.266929 0.196172 
-0.168515 0.188818 -0.154440 
-0.140953 -0.051628 -0.209962 
-0.065640 0.418889 0.118144 
-0.154342 0.350531 -0.111262 
0.250944 -0.175832 0.040111 
-0.248232 0.262353 -0.195976 
-0.057934 0.301782 0.133756 
0.016585 -0.079300 -0.027802 
-0.010854 0.415096 0.157711 
-0.206809 -0.208275 0.048804 
0.192097 -0.122316 -0.189476 
0.255350 -0.243431 -0.121738 
-0.055455 0.227765 0.031556 
-0.295659 -0.016649 -0.065196 
-0.168731 -0.197121 -0.174749 
0.090814 0.128571 -0.139234 
-0.186106 0.298640 0.041361 
-0.148521 0.183652 -0.133022 
0.334906 -0.134705 -0.079738 
-0.079175 -0.194933 -0.044473 
-0.071158 0.270280 -0.167680 
-0.278270 0.213951 0.208016 
-0.011621 -0.090489 0.090559 
-0.065050 0.392025 -0.059912 
-0.134483 0.040520 0.070692 
-0.138827 0.286906 0.078551 
0.115461 0.109272 0.091951 
0.194580 0.056501 -0.318475 
-0.041761 0.184594 0.074373 
0.108992 0.109100 0.035554 
0.010409 0.028364 -0.073375 
0.120585 -0.035530 -0.104801 
-0.025365 0.297913 0.203795 
0.269544 -0.068944 -0.020153 
-0.155763 0.162784 -0.071303 
-0.100254 0.441752 0.178424 
-0.260926 -0.153611 -0.104494 
0.035336 -0.102706 0.214196 
-0.028886 0.123008 0.274050 
-0.193151 0.151257 -0.016222 
-0.011574 -0.265490 0.133446 
-0.029642 0.317013 -0.116554 
-0.151849 0.322006 0.208949 
0.092406 0.095985 -0.242306 
-0.047657 0.357386 0.094415 
0.054643 0.020226 -0.052623 
0.028676 -0.081888 -0.048896 
0.197177 0.067670 -0.051857 
-0.229102 0.033369 0.142615 
0.206786 -0.091070 0.094842 
0.264344 -0.064207 -0.007183 
-0.014986 -0.266263 0.008815 
-0.153002 0.128910 0.092689 
-0.121584 0.058986 0.116787 
0.009238 -0.284989 -0.135122 
0.010378 0.022292 -0.147449 
-0.267520 0.169294 0.274378 
-0.045042 -0.046465 0.152849 
-0.123521 0.166211 0.086015 
0.207840 -0.149947 0.156157 
-0.124545 0.258316 0.389267 
-0.087532 0.066959 -0.035775 
0.157020 -0.121936 0.115417 
-0.228339 -0.225319 -0.176954 
0.292110 -0.132727 -0.135311 
-0.111222 0.049215 0.074372 
-0.039459 0.121430 0.171825 
-0.225182 0.305656 0.151237 
-0.066755 -0.208900 -0.162160 
0.311217 -0.054153 0.040711 
-0.143211 0.177798 0.337708 
-0.115390 0.361667 0.216571 
0.077712 -0.287281 -0.024128 
-0.263046 -0.168065 -0.088005 
0.021232 -0.112259 -0.192227 
0.119616 -0.055641 0.055485 
-0.048156 0.124272 0.284149 
0.215048 -0.013100 -0.085048 
0.253881 -0.251337 0.390472 
-0.144020 0.188435 0.251286 
-0.145008 -0.173918 -0.225704 
-0.159892 0.480533 -0.153884 
-0.136432 0.142024 0.111284 
-0.190334 -0.230860 0.016799 
0.062382 0.017384 0.004527 
0.158931 -0.246465 -0.125222 
-0.254731 0.150047 0.001570 
-0.065154 -0.141371 -0.086318 
-0.244212 0.212989 -0.086441 
-0.205857 0.261105 -0.235218 
-0.139689 -0.190172 0.068111 
-0.217957 0.149071 -0.017532 
-0.341135 0.038287 0.008946 
0.257839 -0.213257 0.084116 
-0.067193 -0.122027 -0.033861 
-0.186079 0.368582 0.094479 
-0.015225 0.111800 0.109961 
-0.061097 -0.083533 0.112478 
-0.236168 0.119929 -0.074580 
-0.171783 0.349026 0.225265 
-0.171367 0.060241 0.273318 
-0.162427 0.099903 0.380188 
-0.059588 0.080363 0.188880 
-0.175397 -0.152802 -0.041899 
-0.211998 0.257755 -0.238045 
-0.148008 0.089185 -0.083945 
0.079343 -0.002180 -0.140966 
-0.259124 0.213922 -0.175526 
0.013118 0.098993 -0.097795 
0.163415 0.014893 0.133751 
-0.323991 0.087265 -0.013562 
0.161637 -0.151267 -0.094343 
-0.015159 -0.025943 -0.176622 
0.181059 -0.124003 0.155611 
-0.332575 0.144024 -0.045845 
-0.189707 0.205393 0.254935 
-0.042257 0.325391 0.210415 
-0.063439 -0.111640 -0.183776 
0.161863 -0.189291 -0.018219 
-0.010127 0.408669 0.202001 
0.038455 -0.272357 0.126233 
0.267579 -0.189419 -0.088095 
-0.029974 -0.018883 0.116819 
0.291019 -0.060545 0.003151 
-0.052647 0.511666 0.160026 
0.131401 -0.320609 -0.094384 
-0.027923 -0.257532 -0.164211 
-0.232591 0.269065 -0.171267 
0.104479 0.060927 -0.051621 
-0.198580 0.199563 -0.125960 
0.003103 -0.246658 0.020918 
-0.068212 0.516410 0.106620 
-0.116122 -0.260448 -0.156012 
0.076588 0.144813 0.057342 
0.087034 0.060648 -0.118856 
-0.190841 -0.234243 -0.015194 
-0.273852 0.075957 0.163128 
0.100670 -0.235627 -0.157513 
-0.225538 -0.112401 -0.145050 
-0.176791 0.292150 0.069902 
-0.049016 0.188859 0.362363 
0.021836 -0.175494 -0.172363 
0.003505 0.364302 0.179779 
-0.062383 -0.084445 0.115883 
0.237279 -0.062561 -0.175304 
0.191483 0.112983 -0.089664 
-0.092682 0.480452 0.071535 
-0.098377 0.092363 0.104433 
-0.259970 -0.105983 -0.080253 
-0.068078 -0.278581 0.105773 
-0.259348 -0.245560 -0.118033 
0.087738 0.003737 -0.160924 
0.024519 -0.091888 -0.255207 
-0.193886 0.197091 -0.071117 
0.070833 -0.075189 0.031096 
-0.273676 0.077050 0.440501 
-0.204798 -0.232892 0.008297 
-0.032348 -0.043345 0.069367 
0.113521 -0.170209 -0.053896 
-0.101723 0.052290 0.151366 
-0.239786 0.313678 -0.077099 
0.129456 0.078719 0.075639 
0.314261 -0.100475 -0.125396 
-0.091080 0.068119 0.283553 
0.322824 -0.219331 -0.030762 
0.156787 -0.221273 0.138919 
-0.307734 -0.092171 -0.019714 
0.057329 -0.042028 -0.162218 
0.127730 0.138549 -0.080108 
-0.157008 0.307063 0.209034 
-0.152080 0.281325 -0.112136 
0.077462 -0.006203 0.002388 
-0.316026 0.200282 0.110204 
-0.165513 0.280855 -0.016913 
0.056410 -0.259163 0.006405 
0.073560 -0.217233 0.163256 
0.127307 -0.115606 0.258101 
-0.196950 0.440536 -0.159651 
0.062294 -0.167299 0.004691 
0.256642 -0.250568 -0.125362 
0.111632 0.115165 -0.120979 
-0.008464 0.100542 -0.123077 
-0.142294 0.316591 0.349080 
0.274237 -0.045674 -0.008879 
-0.285749 0.199401 0.074722 
-0.114027 0.134659 0.343536 
0.026656 -0.096575 0.213161 
-0.316804 0.037023 0.323954 
-0.014951 0.256872 0.278879 
0.194609 0.013634 0.133136 
0.181820 -0.007224 -0.225101 
-0.128805 0.254554 0.218642 
-0.377369 0.094020 0.029310 
-0.108682 -0.105009 -0.136635 
0.179053 -0.242482 -0.053625 
-0.290063 -0.210454 0.011769 
-0.046489 -0.350445 -0.161052 
0.019524 -0.211459 -0.237130 
0.113787 -0.007913 -0.194517 
-0.034321 -0.219745 -0.070184 
-0.055918 -0.242070 -0.123807 
0.211970 -0.040593 0.121446 
0.224795 -0.198643 0.306021 
-0.318517 0.085066 0.101139 
-0.219941 -0.293749 -0.113179 
0.151310 -0.214524 -0.023395 
0.008279 0.032531 0.164720 
-0.070661 0.169484 0.086277 
-0.236208 0.239586 0.123563 
0.331257 -0.183537 -0.010560 
0.187619 -0.035019 -0.011287 
-0.111411 -0.261313 0.002672 
-0.081649 0.265273 0.353938 
-0.006727 -0.296858 -0.038009 
0.042608 -0.315327 -0.176524 
0.028997 -0.036472 -0.064963 
-0.232903 0.186350 0.408992 
0.219344 -0.291790 -0.026858 
0.095744 -0.213288 0.097927 
0.153094 -0.098939 0.225567 
0.263421 -0.214659 -0.058555 
0.237590 -0.093152 0.029205 
0.010541 -0.330997 0.014646 
-0.208686 0.267531 0.266262 
-0.165231 0.443460 -0.004498 
0.092772 -0.067029 0.140755 
-0.083326 0.496044 0.146272 
-0.124134 0.415155 0.217685 
0.182995 -0.106252 0.116122 
-0.080804 -0.120875 0.004070 
-0.267552 0.199125 0.271157 
0.257799 -0.213759 -0.140078 
-0.235586 0.199813 0.397727 
-0.203696 0.244251 0.039983 
0.148278 -0.029527 -0.239717 
0.170085 -0.211089 0.151096 
0.017899 0.114273 0.069245 
0.061995 -0.198716 -0.126799 
0.014802 -0.065150 -0.015362 
-0.223581 0.033532 0.320180 
-0.253633 0.022639 -0.067487 
-0.230703 -0.238155 -0.133693 
-0.354263 0.057387 0.056994 
0.149497 0.059877 0.054510 
-0.077171 -0.098864 -0.218035 
-0.011119 0.250342 0.058916 
0.047490 0.141914 -0.090424 
-0.329272 0.121884 -0.031372 
-0.124697 0.313570 -0.008537 
-0.035190 -0.273574 -0.118323 
-0.088002 0.375719 0.130205 
0.210359 0.085845 0.019384 
-0.216852 0.059590 0.131638 
-0.278946 0.137757 0.085610 
0.203733 -0.126814 0.206413 
-0.209507 0.082205 0.092923 
-0.165162 0.233775 -0.215032 
0.124328 0.003850 0.184243 
0.205202 -0.095672 0.055604 
-0.156445 -0.066582 0.093786 
0.003043 -0.245134 -0.023977 
0.014199 0.026553 -0.145251 
0.190998 -0.106354 0.022677 
0.217459 -0.185443 0.278980 
-0.094472 -0.119901 0.060766 
-0.098501 -0.134898 0.012417 
-0.186666 0.218170 0.439965 
-0.213685 0.193111 0.295489 
-0.013065 0.188382 0.082237 
-0.103668 0.172181 0.053483 
0.346693 -0.132484 -0.058665 
-0.189936 0.102414 0.309595 
-0.356674 0.217559 -0.080599 
-0.032584 0.003803 -0.060411 
-0.091855 0.036940 0.008910 
0.203343 -0.179054 0.114686 
-0.052536 0.412137 0.277471 
-0.163511 0.228839 0.004553 
-0.003527 -0.036765 0.166244 
-0.243283 0.205990 0.278562 
-0.021983 0.349095 0.247803 
0.059226 -0.147820 0.256099 
-0.022100 0.368093 -0.120118 
-0.175509 0.057531 0.277627 
-0.070233 -0.257756 -0.185174 
-0.132549 0.351806 0.339480 
0.029161 0.303561 0.164012 
-0.198361 0.065097 -0.078673 
-0.141221 0.365174 -0.207217 
0.006242 0.315219 0.072726 
0.308347 -0.031795 -0.047793 
-0.215110 0.398026 -0.060457 
0.172546 -0.173872 0.289876 
-0.286743 0.298692 -0.164784 
-0.175323 -0.057721 0.104460 
0.024268 -0.024192 0.063870 
-0.061757 -0.053407 0.018847 
-0.310257 0.226904 -0.136205 
-0.254892 0.221257 0.271600 
-0.111601 0.031073 0.256564 
-0.132823 -0.184601 -0.241400 
0.000641 -0.055494 0.050098 
0.029844 -0.082110 -0.049296 
-0.216550 -0.212124 -0.092810 
0.240396 -0.203670 -0.068668 
-0.173844 0.079463 0.282248 
0.081110 -0.128504 -0.246025 
-0.170489 0.082896 0.387982 
-0.162302 0.140560 0.012169 
-0.242307 0.191967 0.394741 
-0.252171 0.046793 0.154076 
-0.103482 -0.029330 -0.000357 
0.149591 -0.029862 -0.151419 
0.111521 -0.096515 0.041116 
-0.079668 0.376744 0.123759 
-0.119669 0.100882 0.020828 
-0.268268 0.181082 -0.016755 
0.079480 -0.119372 -0.260640 
-0.230331 -0.007742 0.028644 
-0.215644 -0.196467 -0.045463 
0.045414 -0.209050 0.017241 
-0.248297 0.249515 -0.187666 
0.073981 0.046851 -0.106806 
-0.250545 0.094575 0.068128 
0.069429 -0.268246 -0.082944 
0.009911 0.329955 0.181714 
-0.014472 -0.249949 0.126490 
-0.183422 0.275218 -0.216534 
0.212242 -0.094952 0.126630 
-0.155616 0.057927 0.178710 
0.207368 -0.089919 -0.093539 
-0.007108 0.251082 0.005850 
0.234090 -0.126125 -0.085584 
-0.171801 -0.314968 -0.144073 
-0.109074 0.055927 -0.025759 
-0.124187 -0.044068 -0.059344 
-0.106813 0.464160 -0.124631 
-0.131559 0.053531 0.265049 
0.065594 -0.286764 -0.210423 
-0.141964 0.426547 -0.049449 
-0.339871 0.258292 -0.130240 
-0.092393 0.431857 -0.143653 
0.253987 -0.272513 -0.017366 
-0.046697 0.443200 0.267603 
-0.096426 0.116859 0.377031 
-0.134979 0.149566 0.232757 
0.164253 -0.160091 0.263366 
-0.256691 0.109104 -0.108184 
-0.133218 -0.153144 0.066136 
-0.182048 0.150676 0.240698 
-0.279725 0.179962 0.281239 
-0.019120 0.103999 0.090913 
0.205818 -0.114106 -0.205212 
-0.150423 -0.232522 -0.196147 
0.081768 0.092719 -0.031678 
-0.195537 -0.287331 -0.122594 
-0.063091 0.305997 0.068847 
0.243269 -0.053788 -0.107656 
-0.143075 0.074929 -0.090691 
-0.234601 0.239347 0.142365 
-0.066929 0.252763 -0.122405 
-0.096514 -0.041939 0.002184 
-0.150498 -0.089589 0.096645 
-0.278443 0.086069 -0.085847 
0.102204 0.073026 -0.206682 
0.081700 -0.081493 -0.156286 
-0.184486 0.163804 0.070235 
-0.017344 -0.014411 0.077112 
0.092824 -0.034095 -0.250848 
0.148130 -0.199410 0.165620 
-0.181166 0.154450 0.396885 
-0.206642 0.037371 0.061647 
-0.066499 -0.315670 0.014847 
0.236612 0.081935 -0.028614 
-0.231993 -0.121415 -0.076160 
-0.187484 0.060245 -0.052988 
-0.079916 0.039286 0.142784 
-0.237979 0.198998 0.224534 
-0.057664 -0.057117 -0.071401 
-0.240267 0.290784 -0.121705 
-0.209912 0.215766 0.407275 
-0.182503 0.078731 0.380574 
-0.263249 0.083604 0.277370 
0.295130 -0.206089 -0.075651 
0.111593 0.094937 -0.051752 
-0.364759 0.131775 0.120309 
-0.052255 -0.022762 0.135979 
-0.250465 0.255518 0.133989 
-0.210107 -0.232839 -0.047540 
-0.027307 0.086195 0.212827 
0.179761 -0.185145 0.033875 
-0.049319 0.172364 0.142063 
-0.126871 0.268157 -0.090738 
-0.141827 0.484967 -0.151492 
0.081282 0.125330 0.090367 
0.176572 -0.076710 -0.128805 
-0.134277 0.125694 0.040992 
-0.060908 0.449118 0.125134 
-0.104019 -0.199845 -0.115206 
0.061859 -0.115456 0.096187 
-0.232180 0.113946 0.084546 
-0.044671 0.383022 0.051914 
-0.285303 0.181173 0.002204 
0.286165 -0.189905 0.019521 
-0.110091 -0.328383 0.029442 
-0.240542 0.188246 0.134483 
-0.194528 -0.295808 -0.007802 
-0.183372 -0.280452 -0.129268 
-0.258608 -0.137512 -0.069480 
-0.122476 0.297114 -0.024437 
-0.016472 0.394949 -0.106871 
-0.001902 0.328191 0.006857 
0.023753 0.324869 0.166223 
-0.051185 0.328396 0.194179 
-0.269700 -0.056453 -0.078962 
-0.333512 0.045053 0.165042 
-0.234699 0.272310 -0.167274 
-0.012410 0.118046 0.036603 
-0.078473 0.390881 0.122050 
-0.033331 0.410333 0.052350 
-0.095684 0.291071 0.063919 
0.031016 0.110142 -0.088211 
-0.186599 -0.226598 0.014883 
-0.029242 0.191879 -0.089684 
-0.278852 0.363666 -0.212947 
0.206632 -0.176548 -0.004277 
0.151318 -0.000621 -0.201133 
-0.147377 0.450671 0.039759 
0.096268 -0.036668 0.031948 
0.167244 -0.225851 -0.019336 
-0.196009 -0.068238 -0.072710 
0.206946 -0.169009 0.295160 
-0.203692 0.375434 -0.017776 
0.130679 0.057110 -0.129848 
-0.063504 -0.227511 -0.143083 
0.108836 -0.137546 -0.068032 
0.106415 -0.222054 -0.030477 
-0.006481 0.271441 -0.068999 
0.303837 -0.023236 -0.043338 
-0.121728 0.433918 0.095381 
0.253254 0.132862 -0.453504 
-0.226031 0.074354 -0.035931 
0.115425 -0.105044 -0.093367 
-0.277184 0.131219 0.235007 
-0.113696 0.037168 0.031452 
-0.222473 0.309749 -0.039564 
0.211652 -0.238540 0.041664 
0.052136 -0.139843 0.135280 
-0.186998 0.224610 0.374092 
0.117655 -0.124496 -0.216518 
-0.328303 0.191060 0.014897 
0.282529 0.004145 0.052362 
-0.121235 0.345232 0.209368 
-0.075933 -0.101767 -0.148237 
-0.331217 0.178023 -0.001516 
-0.037491 0.447644 -0.068495 
0.071139 -0.210437 -0.026481 
-0.174022 -0.330644 -0.123555 
-0.042430 0.328921 0.064202 
0.158763 -0.241490 -0.039121 
-0.139667 -0.004416 -0.010152 
-0.165159 0.382953 0.033049 
-0.040446 0.357160 0.113470 
-0.107687 0.016936 0.223926 
-0.092331 0.346898 0.270067 
-0.073307 0.084472 -0.152575 
-0.139573 -0.148140 -0.197423 
0.223667 0.048196 -0.107310 
-0.080163 -0.099919 -0.146572 
0.257696 -0.082163 0.044064 
0.264600 0.124816 -0.425787 
0.255617 -0.228454 0.071937 
-0.167499 0.007649 0.126617 
-0.169732 0.375827 -0.229292 
-0.309680 -0.043075 0.005834 
0.031816 -0.132409 -0.003072 
-0.034047 0.265882 0.303952 
-0.322611 0.121199 0.298804 
0.147566 0.011962 0.016057 
-0.309664 0.245008 -0.156884 
-0.169834 0.474896 -0.113397 
0.157265 -0.176952 0.318454 
-0.018626 -0.274486 0.015553 
0.168166 -0.016881 -0.014734 
-0.182906 0.178067 -0.038349 
-0.080155 -0.060116 0.083172 
0.069274 -0.243660 0.143067 
0.016258 0.153803 0.053131 
-0.223126 0.272436 0.059612 
0.065675 -0.064198 0.115645 
-0.235104 0.187170 -0.048519 
0.121424 -0.311590 0.012800 
-0.131626 0.402605 -0.217282 
0.153410 -0.169509 -0.139795 
-0.129922 0.407990 0.028740 
-0.022090 0.197938 0.014027 
-0.138294 -0.235246 -0.085640 
0.038188 0.054513 -0.249548 
-0.230226 0.033553 -0.029716 
-0.249053 -0.277332 -0.052500 
-0.240895 0.206925 0.289332 
0.099486 -0.030154 -0.195808 
-0.152821 0.231610 -0.020447 
-0.079616 0.350073 0.352182 
-0.082888 -0.116885 0.015863 
-0.291696 -0.079538 -0.026788 
0.002810 0.030537 0.133455 
-0.149621 0.105228 0.258239 
-0.122677 0.129739 0.125303 
0.258069 -0.049856 0.138343 
-0.151120 0.319070 -0.145807 
-0.141260 0.240193 0.274252 
0.156569 -0.172705 -0.103287 
-0.085075 0.303053 -0.026363 
-0.193983 0.187268 -0.066464 
-0.232954 0.077226 0.069921 
0.030649 0.078845 0.012641 
-0.054562 -0.038922 0.173442 
0.005490 0.076156 0.016541 
-0.009054 -0.172649 -0.164169 
-0.348820 0.192918 -0.020609 
-0.063296 -0.201801 -0.160906 
-0.139886 0.260853 0.150708 
-0.282301 -0.233811 -0.107394 
-0.011687 0.091058 0.197920 
-0.027836 0.383826 -0.116826 
-0.062361 0.044272 0.136206 
-0.195424 0.128285 0.116365 
-0.034800 -0.249595 0.091115 
-0.114581 -0.304745 0.016336 
-0.263685 0.034871 -0.016926 
-0.053649 -0.111442 -0.136548 
-0.157597 -0.279980 0.027235 
0.126865 -0.170045 -0.099026 
-0.129372 -0.328284 -0.136524 
-0.041918 -0.152557 -0.047016 
0.228225 -0.132625 -0.039816 
0.146746 -0.016668 0.069660 
-0.109424 -0.211318 0.052611 
-0.271840 -0.219280 0.034968 
-0.216820 -0.121540 -0.028039 
0.047468 0.105771 0.123687 
-0.248242 -0.009961 -0.020473 
0.127432 -0.262461 -0.182083 
-0.154632 0.321485 -0.002689 
-0.315955 0.177042 -0.098771 
-0.131595 0.445525 0.109741 
-0.026343 -0.022866 -0.051485 
-0.004911 -0.290908 0.012085 
0.064258 0.025480 0.050488 
-0.017805 0.089277 -0.029362 
-0.083185 0.300661 0.409672 
-0.095968 0.213474 0.106004 
0.020658 -0.036004 0.157540 
0.097306 0.006720 -0.084521 
-0.100906 0.369163 0.019301 
0.082929 0.003986 -0.230085 
-0.209842 0.347686 -0.052421 
-0.050403 -0.264699 -0.024294 
-0.219077 -0.004507 0.301971 
-0.212459 0.297050 0.160781 
0.076961 -0.087495 0.123165 
-0.125790 0.185893 0.317027 
-0.071599 0.162401 0.267372 
0.192795 0.056378 0.073601 
0.170801 -0.180780 0.105823 
-0.261810 0.139232 0.138907 
-0.109012 0.436723 0.213623 
0.285419 -0.060355 -0.152034 
-0.155669 -0.308141 -0.089895 
0.171552 -0.118095 0.008784 
-0.246856 -0.127204 -0.076531 
-0.046902 0.457664 0.027790 
0.173098 -0.275960 0.067117 
-0.115827 0.005141 -0.146379 
-0.170381 0.180006 0.158915 
0.309705 -0.189959 -0.030526 
-0.077879 0.269114 0.141699 
-0.098497 0.072443 0.307609 
0.333973 -0.079097 -0.012385 
-0.288093 0.051158 0.382635 
0.181615 0.020845 -0.076631 
0.190568 -0.197105 0.298035 
-0.231717 0.175429 0.295477 
-0.114367 0.169359 -0.096158 
-0.125119 -0.167626 0.140895 
-0.111398 0.315625 0.157151 
0.010035 -0.255181 0.141285 
-0.157311 0.396791 -0.200076 
-0.022047 0.424832 0.114851 
-0.085870 -0.262639 0.119604 
-0.072472 0.305344 0.300136 
-0.149225 0.326648 0.011550 
-0.080625 -0.024677 0.114373 
0.166736 0.034009 0.054469 
0.245155 -0.220710 0.013368 
0.273886 -0.127559 -0.062084 
0.025543 -0.145778 -0.234525 
-0.003617 -0.194037 0.002631 
0.086313 -0.037109 0.215743 
0.108324 0.091585 -0.288463 
-0.259965 0.257866 -0.033181 
-0.301595 0.079041 0.204663 
-0.198406 0.102227 -0.090226 
-0.016785 0.383274 0.031923 
-0.103840 0.275771 -0.196385 
-0.165927 -0.116269 -0.126859 
-0.091252 0.270687 -0.134603 
-0.248769 0.270750 0.096402 
-0.156046 -0.168183 0.075971 
-0.071886 0.337480 0.151146 
-0.109343 -0.213546 -0.194778 
-0.066332 -0.025894 0.043078 
0.103218 0.041789 0.115268 
0.139952 -0.007114 0.110473 
-0.154899 -0.109033 -0.111642 
-0.175575 -0.154879 -0.002817 
-0.210539 -0.064727 0.040286 
-0.319465 0.126881 0.294713 
-0.136199 0.138828 0.426578 
0.088452 -0.239204 0.059032 
-0.132370 -0.088764 0.116107 
-0.045468 0.502193 0.183155 
-0.275566 0.362860 -0.181331 
-0.070899 0.450492 -0.061679 
-0.185812 -0.250494 0.094651 
0.113079 -0.316797 -0.050170 
-0.211674 -0.271895 -0.089175 
0.105965 -0.068240 -0.248518 
-0.142041 0.283266 0.179050 
0.055294 -0.113133 -0.038093 
-0.117337 -0.075899 -0.225210 
0.068079 -0.262322 0.005437 
-0.273882 0.028808 0.049172 
0.086340 -0.259255 0.068195 
0.242016 0.018289 -0.015147 
-0.205820 0.335473 -0.222609 
0.062741 -0.191681 0.041062 
0.211274 0.063479 -0.319413 
-0.342900 0.055769 0.266708 
-0.157590 -0.178797 -0.146474 
0.059326 0.149097 0.062111 
-0.018946 -0.037824 0.112079 
-0.120061 -0.048678 0.067862 
-0.007028 -0.085743 0.168568 
-0.300069 0.222300 -0.103183 
0.182822 -0.024391 -0.144745 
-0.229397 0.244427 0.061391 
-0.148763 -0.270774 0.007863 
-0.192043 0.293523 0.050245 
0.193901 -0.297962 -0.052687 
0.250721 -0.037926 -0.045220 
0.281189 -0.230172 -0.115226 
-0.131315 0.125489 -0.099532 
-0.109509 0.154338 0.335183 
0.149203 -0.165799 -0.110466 
-0.117685 -0.039576 -0.030557 
0.311788 -0.161019 -0.051180 
0.077717 -0.141266 0.272674 
0.090938 0.134137 -0.097258 
-0.195497 -0.141206 -0.133675 
0.208370 0.039518 -0.068596 
-0.318257 0.086048 0.116623 
-0.128675 0.206101 -0.061324 
-0.220804 0.140932 -0.123697 
0.221636 -0.206096 0.128067 
-0.043689 0.484844 0.229785 
-0.268978 0.131591 -0.063920 
-0.264854 0.240399 0.142796 
0.023936 -0.262337 -0.245821 
-0.331824 0.144021 0.124304 
0.159959 -0.153849 0.091012 
-0.358978 0.156034 -0.086110 
-0.100317 0.160893 0.052518 
-0.262468 -0.147413 -0.156243 
-0.079960 0.044832 0.290367 
0.155673 -0.227466 -0.213256 
-0.193914 -0.011747 -0.050979 
-0.069892 0.440413 0.284078 
0.153399 -0.030818 -0.060116 
-0.216614 0.070770 0.426814 
-0.288892 0.009730 0.064343 
-0.237013 -0.003774 -0.120815 
-0.017941 0.079677 -0.036633 
0.283780 -0.111179 0.131531 
-0.279236 -0.238281 -0.109043 
-0.321859 0.253319 -0.095886 
-0.008825 0.352450 -0.058422 
-0.249291 0.047545 0.247676 
-0.160812 -0.156653 -0.081388 
-0.302747 -0.124778 -0.030536 
-0.327155 0.164870 0.066713 
0.219826 -0.003107 -0.170449 
-0.234157 -0.093473 -0.073188 
-0.165470 0.395382 0.123222 
-0.117886 0.113544 -0.115600 
0.215307 -0.216315 0.388150 
-0.179841 0.245921 -0.215808 
0.011899 -0.068216 -0.257028 
0.044219 -0.256283 -0.124301 
-0.192275 0.029449 -0.030583 
-0.127278 0.294036 -0.157896 
-0.022972 -0.183957 -0.044969 
0.300957 -0.152112 -0.069506 
0.028494 -0.300494 0.009907 
0.013855 0.252235 0.101661 
0.036807 -0.085591 -0.051479 
-0.327824 0.219714 -0.069264 
-0.251911 0.290297 -0.036704 
0.286704 -0.009807 -0.078608 
0.199957 -0.227068 -0.050464 
0.101352 -0.146209 0.192382 
0.164965 -0.132021 -0.129030 
-0.065936 0.303676 -0.015338 
-0.143440 -0.068392 0.054616 
-0.059988 -0.022486 -0.055754 
0.098865 -0.270006 -0.085186 
0.003986 0.304099 0.188197 
-0.301204 -0.061904 -0.082653 
-0.152254 0.289046 0.342011 
-0.028117 0.366409 -0.006146 
0.035799 -0.268812 -0.077398 
0.000262 0.335945 -0.044109 
0.076421 -0.191621 -0.007535 
-0.184940 0.159670 0.013627 
-0.048609 -0.329628 0.075643 
-0.269320 0.163443 0.205861 
-0.118660 0.491190 -0.043664 
-0.204652 -0.036893 0.138795 
-0.311979 0.124996 0.017892 
-0.006057 0.104414 0.173463 
-0.151995 -0.001093 0.109687 
0.201103 -0.007589 -0.008052 
0.039762 0.119176 -0.091461 
0.174163 -0.112549 -0.167701 
0.052815 -0.271259 -0.148143 
-0.101015 -0.000177 -0.205087 
-0.183994 0.355490 0.092556 
-0.024817 0.283556 -0.072961 
0.106690 0.093400 0.019359 
0.225460 -0.199991 0.129855 
-0.176134 0.150037 -0.128431 
-0.181744 0.113933 0.252354 
-0.300809 0.174959 0.114935 
-0.020540 0.111421 0.235269 
-0.075918 0.163717 -0.003336 
0.207382 0.085525 0.038274 
-0.031201 -0.061729 -0.050067 
-0.194232 0.222626 0.050461 
0.075606 0.128602 -0.022822 
0.100204 -0.217594 0.097898 
-0.269655 0.149199 0.284031 
0.197417 -0.054927 0.182129 
-0.237858 0.197474 0.215369 
-0.216001 0.155056 0.482567 
-0.160722 0.353871 0.251587 
-0.170076 0.066482 0.131794 
-0.317287 -0.082433 -0.028013 
-0.024429 0.066378 -0.132561 
-0.137657 -0.151190 0.073019 
0.106617 -0.174019 0.132883 
-0.230517 -0.270802 -0.055972 
0.197510 0.128024 -0.367946 
0.131556 -0.067591 -0.140732 
-0.027362 0.198161 0.036159 
-0.207931 0.112774 -0.067526 
-0.293665 0.267990 -0.166561 
0.204012 -0.111057 -0.159608 
0.098272 0.078893 0.100781 
-0.271186 -0.146494 -0.165778 
0.159158 0.043254 -0.044847 
-0.129568 0.053530 0.261795 
0.062701 -0.258572 -0.075543 
0.254500 -0.272736 -0.064771 
0.062410 0.034330 -0.107631 
-0.301905 0.053030 0.261355 
-0.176490 0.066125 -0.062290 
-0.199851 0.293849 -0.207646 
-0.075989 -0.124516 0.105019 
0.021157 0.048123 -0.261362 
0.241467 0.109661 -0.408193 
-0.036142 0.120704 0.287028 
0.243963 0.073510 -0.030736 
0.048879 0.093392 0.025287 
-0.125378 0.205130 -0.165383 
-0.170519 0.240923 -0.216540 
0.275334 -0.261952 0.385746 
0.160901 -0.059018 0.034559 
-0.300045 0.220916 -0.028967 
-0.060431 0.211895 0.182437 
-0.209202 0.226297 0.087272 
-0.143990 0.451569 0.049429 
-0.124488 -0.150815 -0.191574 
-0.037199 -0.142997 -0.000323 
0.077588 -0.207504 -0.112607 
0.316181 -0.081112 0.072370 
0.088966 -0.028861 -0.113971 
0.254119 -0.000599 -0.081048 
-0.085121 0.099107 0.131865 
-0.186411 0.091489 -0.006577 
0.323146 -0.111528 0.070246 
-0.086697 -0.315179 -0.073747 
-0.030278 0.326679 0.201691 
-0.269148 0.318127 -0.038564 
0.051502 -0.113645 -0.162160 
-0.171373 0.230612 0.140022 
0.198104 -0.162687 0.251835 
-0.242295 0.007565 0.056690 
-0.150055 0.362890 0.265422 
0.224261 0.119214 -0.369480 
-0.032490 -0.192367 -0.035311 
0.090253 0.046608 0.040032 
-0.145372 0.399850 -0.155047 
0.228362 -0.051775 0.031748 
0.065272 0.045453 0.055179 
0.202409 -0.148061 0.236906 
-0.091341 -0.027744 -0.076670 
-0.191322 -0.219465 0.056575 
-0.042300 -0.120006 0.164895 
-0.103779 0.349694 -0.095268 
-0.348580 0.087774 0.204692 
0.154582 -0.039072 -0.084237 
-0.092773 -0.064202 0.098666 
0.087928 -0.106367 -0.243303 
-0.141023 0.146860 0.431486 
0.046481 0.116030 0.109887 
-0.176273 -0.183408 -0.012300 
-0.390096 0.119205 0.060133 
0.305488 -0.023549 0.038060 
0.072282 -0.094622 -0.005574 
-0.285673 0.185573 0.106983 
0.115073 -0.064757 -0.250946 
-0.093663 0.221813 0.039563 
0.110077 -0.201131 -0.037390 
-0.317684 0.161948 0.112707 
0.221936 -0.247038 0.004143 
0.262199 -0.003390 0.064533 
-0.242144 -0.003780 0.086127 
-0.149282 0.364378 -0.055377 
0.310333 -0.065878 -0.006598 
0.230571 -0.048546 -0.180942 
-0.256509 0.007725 0.061861 
-0.013337 -0.351317 0.016115 
-0.211479 0.367682 -0.150823 
-0.201543 0.256750 0.260528 
-0.045860 -0.072221 0.078791 
0.250790 -0.188733 0.006103 
-0.202473 0.065738 0.315894 
-0.043890 0.258537 -0.140327 
-0.323263 0.109343 -0.027689 
0.113160 0.047590 -0.083183 
-0.254214 0.266818 -0.035708 
-0.251905 -0.266985 -0.046092 
-0.180480 0.011773 -0.134170 
-0.225105 0.326412 0.095098 
-0.043030 -0.018025 -0.045518 
-0.210536 0.237855 -0.018400 
-0.237598 0.112537 -0.064209 
-0.039086 0.283267 0.342435 
0.063925 0.109973 0.021069 
-0.086999 -0.139361 -0.080230 
-0.193657 0.289960 -0.157448 
-0.113136 0.156443 0.179688 
0.190065 0.104925 0.011396 
-0.045284 0.113715 -0.129644 
-0.059308 -0.264309 0.007577 
-0.101963 0.254503 0.048840 
0.099270 0.020592 -0.171930 
-0.011767 0.090019 0.197520 
0.077113 -0.147133 -0.184760 
0.025047 -0.302475 0.097472 
0.245194 -0.189298 0.123219 
0.114296 -0.226290 -0.231050 
0.167710 -0.019263 -0.098646 
0.290727 -0.063218 0.035016 
0.004363 -0.245474 -0.073377 
-0.104858 0.158426 0.169485 
-0.284063 0.091062 0.139214 
-0.220600 0.247608 -0.227392 
-0.306016 0.287392 -0.165840 
0.075007 -0.142036 0.279057 
-0.188660 0.447034 -0.097411 
0.144691 0.125197 -0.028857 
0.211061 -0.203108 -0.191310 
-0.096335 -0.221378 -0.210338 
-0.180825 0.046574 -0.052330 
-0.021664 -0.037704 -0.176826 
0.201451 -0.126227 -0.213806 
0.279349 -0.083486 -0.077206 
-0.000595 -0.162039 0.153570 
0.013452 -0.096290 0.085082 
-0.271993 0.196673 0.076841 
