ply
format ascii 1.0
element vertex 800
property float x
property float y
property float z
property float nx
property float ny
property float nz
element face 0
property list uchar int vertex_index
end_header
0.403648 -0.22932 -0.405098 0.571502 -0.813581 0.107104
0.0892313 -0.247988 0.812297 0.0443328 -0.919788 0.389903
0.392518 0.150135 -0.634628 0.892929 0.243383 -0.378737
0.438341 0.272 -0.7042 0.551401 0.774077 -0.311065
0.419291 0.117091 0.172153 0.944496 0.326978 0.0318247
0.425155 -0.159833 -0.407467 0.862486 -0.502998 -0.0557716
-0.241083 0.0724834 0.869093 -0.455443 -0.487336 0.745033
0.368054 -0.292641 -0.392575 0.153552 -0.970867 0.183952
0.509256 0.229082 -0.501489 0.822159 0.569223 -0.00635821
-0.430292 0.18644 0.774633 -0.829205 0.465722 0.309067
-0.115882 0.280715 -0.864469 -0.117679 0.87721 -0.465461
0.353498 -0.128719 0.52262 0.770916 -0.626431 -0.115206
0.140674 0.101772 0.919691 0.125043 -0.511682 0.850027
-0.419354 -0.179242 -0.466817 -0.829294 -0.558212 0.0258957
-0.157011 -0.287971 -0.810678 -0.179896 -0.958674 -0.220414
-0.114662 0.202856 -0.902716 -0.229969 0.466261 -0.854233
-0.464248 0.113152 -0.420119 -0.990761 -0.134685 0.015874
0.0424475 0.131717 0.94815 0.0125743 0.331946 0.943215
0.431821 -0.128801 -0.29696 0.930251 -0.351539 -0.105136
-0.4062 0.0344098 -0.274451 -0.991094 -0.130367 0.0271326
-0.394709 0.140231 0.705829 -0.913778 0.354318 0.198668
-0.302578 -0.185452 -0.539005 -0.329448 -0.943843 0.0249905
-0.452486 0.0183452 0.112869 -0.991934 -0.125505 0.0177805
0.175956 -0.227589 0.140672 0.112967 -0.993599 0.000160812
0.241131 -0.214592 0.238152 0.0346996 -0.999392 -0.00339809
-0.413422 0.0795875 -0.343644 -0.993165 -0.116518 -0.00691419
-0.0177272 -0.213796 -0.710749 -0.000438889 -0.999999 0.00159252
0.0690964 0.278738 -0.860903 0.0545807 0.882974 -0.466237
-0.214781 -0.00391205 0.906534 -0.285877 -0.495544 0.82019
-0.00364498 -0.234283 -0.343732 -0.000247232 -0.999999 0.00116592
-0.447632 -0.0219572 -0.22831 -0.984756 -0.1704 0.0349063
-0.393475 -0.251764 0.16434 -0.437307 -0.899307 0.00307105
0.45245 0.0175986 -0.392076 0.993142 -0.113816 0.0267531
-0.496047 0.19906 0.580754 -0.897465 0.43832 0.0493206
-0.355083 -0.12126 0.543063 -0.918766 -0.377385 0.11597
-0.0776714 -0.233761 -0.180487 -0.0472955 -0.998881 0.000446361
-0.302386 0.127039 0.855882 -0.620463 -0.451598 0.641159
0.036946 -0.195838 0.678061 0.018095 -0.9933 -0.11414
0.381112 -0.273783 0.305755 0.347808 -0.910232 0.224739
0.141486 -0.230919 0.35311 0.0993055 -0.995004 0.0102546
0.44324 -0.0516117 -0.45457 0.96078 -0.270177 -0.0624926
0.270796 -0.0312719 -0.81376 0.488011 -0.0798751 -0.869175
-0.0988375 -0.233185 -0.422038 -0.0607957 -0.998126 -0.00688349
0.064246 -0.234007 0.0728179 0.0370818 -0.999312 0.000327017
0.357584 0.16234 0.809961 0.69252 0.5519 0.464567
-0.347847 -0.145885 -0.0294974 -0.547127 -0.829422 0.112746
0.419549 -0.176219 -0.483983 0.836879 -0.546914 -0.0227832
-0.383821 -0.0696633 -0.432699 -0.933602 -0.355893 -0.0415592
-0.354049 -0.136721 -0.263946 -0.676415 -0.72566 -0.126015
-0.00731095 -0.234248 0.383498 -0.00145792 -0.999806 0.0196623
0.0445416 -0.0134788 -0.885685 0.0923822 -0.025463 -0.995398
0.412722 0.0746695 0.326679 0.982178 -0.176536 0.0645078
-0.423025 0.142262 0.182972 -0.756593 0.653629 0.0183441
-0.400602 -0.234911 0.405724 -0.484687 -0.849373 -0.208914
-0.243229 -0.21354 0.424157 -0.0488176 -0.998722 -0.0130934
0.1788 -0.131711 0.757589 0.208634 -0.805161 0.555146
0.386139 -0.0627903 -0.141555 0.982544 -0.184441 -0.0242815
-0.309375 -0.0778535 0.724706 -0.764276 -0.277814 0.58198
-0.0838006 -0.29544 -0.82442 -0.0845514 -0.979501 -0.182836
0.306766 -0.185878 -0.385847 0.324449 -0.945868 0.00812887
0.375872 0.0680797 0.711549 0.899552 -0.30798 0.309766
0.239182 0.153493 0.911077 0.458174 0.462128 0.759286
0.061963 -0.234031 -0.241019 0.0362757 -0.999341 0.00082984
0.00654496 -0.233273 0.452767 0.00105419 -0.998657 0.051802
0.427144 0.0307139 0.681642 0.934869 -0.275166 0.224286
0.449241 -0.00877315 0.173344 0.987958 -0.151047 0.0335274
0.331535 -0.0666547 0.807999 0.630669 -0.286571 0.721203
-0.188935 0.118333 -0.856248 -0.302658 0.0441261 -0.952077
-0.207118 -0.198326 0.625913 0.086918 -0.995491 -0.0379854
-0.0645532 -0.0467314 0.921764 -0.100225 -0.450217 0.887276
0.429283 0.184984 0.0592323 0.525366 0.850655 0.0194166
-0.412737 -0.0752412 0.661178 -0.957236 -0.192453 0.216014
0.469814 0.279904 0.688971 0.493999 0.862733 0.107966
-0.101248 -0.221452 -0.663027 -0.052944 -0.997596 -0.0447227
0.251635 -0.0337017 0.878052 0.378044 -0.396705 0.836485
-0.185033 -0.226283 -0.229259 -0.11577 -0.993276 0.000578022
0.423505 -0.166504 0.178927 0.909262 -0.411585 -0.0619631
-0.0182282 -0.227273 -0.64115 -0.00569174 -0.996656 -0.0815115
0.512527 0.201752 -0.374152 0.89848 0.43172 -0.0796981
-0.340894 -0.0167908 -0.686699 -0.781659 -0.117324 -0.612571
0.150105 -0.230239 0.25481 0.0954754 -0.995432 -0.000148501
-0.335671 -0.28807 0.624365 -0.189241 -0.979265 0.0723053
0.421748 0.133487 -0.120861 0.74539 0.665152 -0.0443368
-0.344803 -0.15011 0.0445843 -0.550838 -0.833361 0.0456919
-0.33476 0.227436 0.876786 -0.472995 0.789493 0.391122
-0.110719 -0.120615 0.884212 -0.153871 -0.259115 0.953511
-0.276972 -0.190686 0.563622 -0.12629 -0.991987 -0.00343192
-0.246177 -0.213123 -0.0892555 -0.147219 -0.988394 0.0374687
0.446774 0.265139 0.137745 0.403151 0.915131 0.00217452
-0.472843 0.280404 0.315118 -0.428471 0.903545 0.00438603
0.391708 -0.0421525 0.330625 0.987496 -0.108124 0.114723
-0.431322 -0.131317 -0.111338 -0.950013 -0.303745 0.0722119
0.0548727 -0.233231 -0.546695 0.0319425 -0.998342 -0.0478787
0.193926 0.251246 -0.8826 0.187896 0.743694 -0.641572
-0.389604 -0.0499244 -0.284954 -0.966612 -0.256232 0.00234722
-0.00372286 -0.151578 -0.881224 -0.0458508 -0.22335 -0.973659
-0.447135 -0.0259724 -0.0161461 -0.986423 -0.158965 -0.0412292
-0.269393 -0.0344061 -0.757216 -0.591686 -0.0321978 -0.805525
-0.251978 -0.211371 0.191265 -0.218189 -0.975878 -0.0074882
0.241419 -0.100061 0.854582 0.376147 -0.295968 0.878018
0.0381448 -0.16274 -0.798928 0.109689 -0.78273 -0.612619
-0.512515 0.201431 -0.226913 -0.914991 0.400045 -0.0524972
0.435616 -0.10778 0.0937711 0.99409 -0.107437 -0.0155382
0.420183 0.123143 -0.319955 0.87495 0.482556 -0.0400201
-0.361122 -0.29643 -0.521059 -0.151909 -0.978382 -0.140326
-0.409778 0.0574691 0.421233 -0.995402 -0.0759065 0.0584182
-0.10211 0.280781 1.04984 -0.0690172 0.807532 0.585772
-0.413606 -0.173171 0.546199 -0.903529 -0.420243 0.083856
0.217225 -0.205756 -0.651538 0.0142181 -0.997937 -0.0626016
-0.467192 0.134868 -0.125909 -0.985651 -0.148349 0.0805306
0.428057 0.186058 0.780397 0.830138 0.428739 0.356446
-0.188996 -0.0893404 -0.794016 -0.353807 -0.0733261 -0.93244
0.429852 0.189075 -0.403411 0.564508 0.823281 -0.0594959
-0.348063 -0.145712 0.331054 -0.642553 -0.746415 -0.173176
-0.424991 -0.160299 0.149061 -0.829405 -0.557065 0.0420261
0.297684 -0.159205 -0.780715 0.529057 -0.424253 -0.734921
0.421862 0.145556 -0.47895 0.809516 0.581677 -0.0796012
0.148225 -0.207203 0.831033 0.15342 -0.802721 0.576283
-0.24998 -0.212023 0.326958 -0.1523 -0.988278 -0.0105501
-0.0181877 0.162875 0.964718 -0.0549332 0.660089 0.749176
-0.320376 -0.175701 -0.196841 -0.375844 -0.920148 -0.109862
-0.450194 0.132414 0.657972 -0.984185 -0.144279 0.102779
0.33155 -0.0106619 0.746072 0.760482 -0.296877 0.577521
-0.307024 0.0452003 0.877516 -0.606711 -0.424087 0.672349
-0.386249 -0.00245887 0.766793 -0.809557 -0.230371 0.539951
0.405894 -0.100119 -0.646531 0.927523 -0.18796 -0.323067
0.297029 0.254741 1.01345 0.440008 0.580242 0.685356
-0.433026 0.211399 0.323863 -0.495078 0.868847 -0.00161178
0.103473 0.191127 -0.83379 0.143412 0.725973 -0.672604
0.0595429 0.0497128 -0.839754 0.179521 -0.0102628 -0.983701
0.180451 0.120412 -0.812269 0.270636 0.0383194 -0.961919
0.486268 0.226955 0.737455 0.785018 0.557842 0.269369
-0.47355 0.183643 -0.433054 -0.881839 0.470875 0.0252439
-0.0168771 -0.150077 0.759298 -0.00861297 -0.954142 0.299231
-0.370038 -0.0289282 -0.621619 -0.935476 -0.132764 -0.327504
-0.433805 0.200412 0.875277 -0.891268 0.208725 0.402586
0.284661 -0.176187 -0.647428 0.433373 -0.889972 -0.141909
-0.327701 -0.169144 0.113786 -0.51666 -0.855933 -0.0209939
0.0389985 0.265686 1.08 -0.0510273 0.703065 0.709292
-0.409151 0.0525165 -0.0451199 -0.993621 -0.107865 -0.0328897
0.477222 0.281153 0.283754 0.435381 0.90002 0.020154
-0.104591 -0.108443 -0.816902 -0.264555 -0.134582 -0.954934
0.392583 -0.241769 0.511696 0.443433 -0.872477 -0.205309
-0.0222856 -0.234283 -0.114309 -0.00865236 -0.999963 0.000154457
-0.0445646 -0.148333 -0.808767 -0.101878 -0.666232 -0.738753
0.450157 0.207833 0.844615 0.832445 0.318608 0.453348
0.374978 -0.0627554 -0.57259 0.944171 -0.22515 -0.240519
0.163325 -0.204545 -0.700803 0.0276062 -0.989227 -0.143763
-0.485882 0.20274 -0.624625 -0.837442 0.420326 -0.349308
-0.282097 0.28064 -0.814608 -0.280699 0.823236 -0.493448
-0.0682184 0.196999 1.05301 -0.0422815 0.332193 0.942263
0.166378 -0.22863 0.0664888 0.104308 -0.994544 0.00163692
0.394116 0.200042 -0.731431 0.72244 0.431553 -0.540224
0.457131 0.0560592 0.202942 0.988465 -0.137493 0.0635109
-0.407441 0.0417756 0.167948 -0.982263 -0.183361 0.0392083
0.413028 0.0766903 -0.0775024 0.982538 -0.168979 -0.0778774
0.285901 -0.197851 0.371895 0.22438 -0.969503 0.0985806
0.434625 0.222272 -0.139157 0.479831 0.876944 -0.0270565
0.312934 -0.179998 -0.504973 0.405471 -0.913462 -0.034351
-0.457176 0.0565182 -0.210783 -0.98353 -0.180517 0.00905417
0.43293 -0.0822049 0.546107 0.968385 -0.249205 -0.0113045
0.203871 -0.223137 0.394449 0.12748 -0.991285 0.0332222
-0.421141 0.129732 -0.248838 -0.94784 0.308703 -0.0793809
-0.235465 -0.0494935 -0.832506 -0.43489 -0.0312587 -0.899941
-0.51108 0.223732 0.508768 -0.824806 0.564034 0.0395153
0.0849471 -0.233607 0.00118961 0.0550026 -0.998486 0.000481102
-0.348928 -0.144166 -0.415879 -0.677887 -0.732311 0.064727
0.450508 0.00264534 0.341284 0.99272 -0.108019 0.053286
-0.471862 0.169384 0.00864128 -0.934826 0.355099 0.00234747
-0.255104 -0.210276 -0.163346 -0.116964 -0.993091 -0.00948227
0.0148031 -0.0459511 0.924718 -0.0267526 -0.381102 0.924146
0.0214887 -0.234284 0.185909 0.00905349 -0.999959 -0.000798892
0.446617 -0.0299011 0.264331 0.99248 -0.0714902 0.0993587
-0.479702 0.28088 -0.108136 -0.42701 0.90392 0.0242956
0.379613 -0.0831919 -0.308868 0.949163 -0.302678 -0.0864609
-0.0434066 0.236937 1.00071 -0.0542651 0.823763 0.564331
0.282921 0.127405 -0.813879 0.469299 -0.0304125 -0.882515
-0.411945 -0.206353 0.249376 -0.732767 -0.680452 -0.00617134
0.367367 -0.293593 -0.188443 0.252901 -0.967374 0.0151405
0.373435 -0.130055 -0.702804 0.864597 -0.160691 -0.476079
-0.42454 -0.162309 -0.379017 -0.803135 -0.595333 0.0235102
-0.347266 -0.0498911 -0.751216 -0.715718 -0.0553608 -0.696192
0.378227 -0.0874532 0.276963 0.971512 -0.16134 0.173589
-0.0130497 -0.234284 0.10694 -0.00475085 -0.999989 -0.000205855
-0.438215 0.243471 0.0905772 -0.449357 0.893347 -0.00316833
-0.405848 0.032018 0.349734 -0.990567 -0.136433 -0.0127617
-0.261573 0.090519 -0.7728 -0.458958 -0.102851 -0.882485
-0.398455 -0.234898 -0.509256 -0.54786 -0.835147 0.0487835
0.244855 0.0432183 0.851374 0.416141 -0.452067 0.788963
-0.0260289 -0.0234476 0.865786 -0.0722121 -0.39889 0.914151
0.376609 -0.280847 -0.11371 0.270001 -0.944886 -0.185178
0.373117 -0.097549 0.45946 0.907402 -0.419598 -0.0236586
0.512558 0.230397 0.133465 0.75688 0.652613 0.0350604
0.055092 -0.215866 -0.699791 0.0791968 -0.995726 -0.0475101
-0.472433 0.280333 -0.331834 -0.418196 0.908143 -0.0196751
0.366815 0.254851 0.852538 0.43138 0.839194 0.331155
0.385013 -0.0663479 -0.409897 0.964634 -0.26337 -0.0108602
-0.191723 -0.153702 0.848872 -0.235892 -0.471007 0.850004
0.25321 -0.210954 -0.0906433 0.0764099 -0.997044 -0.00799181
0.263648 -0.287677 0.714922 0.130229 -0.987087 0.093276
0.0514515 -0.249907 -0.854932 0.192646 -0.887005 -0.419655
-0.10126 -0.233098 0.265372 -0.0597552 -0.998211 0.00192008
0.0770351 0.0486635 0.960042 0.0516867 -0.489679 0.87037
0.066894 -0.174021 -0.873455 0.19473 -0.519253 -0.832139
-0.332477 0.280765 0.947004 -0.38581 0.81514 0.432085
0.176426 -0.227522 -0.00301392 0.11301 -0.993589 0.00321461
-0.00615696 -0.234283 -0.416109 -0.0042428 -0.999985 -0.00332746
0.202929 -0.27418 0.761946 0.117462 -0.967012 0.226032
0.00503456 -0.271022 0.797221 0.0407506 -0.962281 0.268988
0.242558 -0.160587 0.689953 0.152842 -0.96901 0.194057
0.326152 0.0695023 0.800988 0.696226 -0.415109 0.585623
-0.341894 -0.148822 0.755782 -0.687179 -0.409644 0.599981
0.283228 0.202699 -0.765872 0.348506 0.757161 -0.552495
0.369978 -0.103319 -0.488194 0.926967 -0.356386 -0.117135
0.42003 0.122019 0.02972 0.97986 0.199193 0.0140441
0.247768 -0.212674 0.312892 0.0916645 -0.995524 0.0229913
-0.389674 -0.0498328 -0.0595356 -0.980111 -0.198191 -0.0101369
0.416563 -0.192363 -0.212856 0.779889 -0.625903 -0.0043859
-0.365315 -0.295803 0.246507 -0.237387 -0.971393 -0.00658685
-0.38986 -0.259181 0.0832972 -0.426494 -0.903405 -0.0442932
0.42461 -0.057933 0.627161 0.978099 -0.170171 0.119851
-0.230024 -0.190691 -0.818838 -0.405045 -0.606685 -0.684012
0.50092 0.273468 0.363914 0.490217 0.871482 0.0143515
-0.0796875 -0.195903 -0.750524 -0.0618184 -0.972879 -0.2229
0.340632 -0.155165 -0.303979 0.519093 -0.854078 -0.0330828
0.395236 -0.236268 -0.540358 0.595131 -0.800464 -0.0712533
0.212632 -0.169569 -0.831868 0.385887 -0.445189 -0.808021
0.510236 0.254503 0.199518 0.622413 0.782685 -0.00245162
-0.173118 -0.227897 0.327273 -0.129395 -0.991562 0.00784165
0.318304 0.049279 -0.785702 0.652996 -0.0813323 -0.752982
0.103992 -0.0996892 0.804392 0.139584 -0.356152 0.923944
-0.449708 0.277608 0.653934 -0.467904 0.877371 0.106233
0.0936626 -0.233374 -0.0717498 0.052799 -0.998605 0.000715118
-0.04615 -0.225208 -0.864107 -0.0814936 -0.754787 -0.650888
-0.342205 -0.240909 -0.699319 -0.444541 -0.870883 -0.209633
-0.345811 -0.293009 -0.618944 -0.185981 -0.98243 0.0155909
0.51256 0.204164 -0.131531 0.894775 0.440929 -0.0704183
0.423648 0.146207 0.34089 0.692075 0.720061 0.0504404
0.0992878 0.280091 1.04137 0.0415766 0.844527 0.533897
0.25209 -0.211347 -0.00481551 0.0492708 -0.998723 0.0111876
-0.385366 -0.266815 -0.145296 -0.340118 -0.934756 0.102723
-0.326208 -0.109009 -0.66787 -0.83734 -0.3149 -0.446878
-0.409608 -0.21362 -0.190881 -0.580435 -0.811337 -0.0694831
0.378543 -0.277512 0.383123 0.315339 -0.90754 0.277366
0.261499 -0.185813 0.615918 0.0272145 -0.999629 0.00110345
0.407772 0.0435762 0.146844 0.9935 -0.111019 0.0251503
-0.42264 0.142253 0.450018 -0.691136 0.722048 0.0312705
0.356722 -0.294347 -0.569772 0.224744 -0.963558 0.145076
0.482488 0.280421 -0.442902 0.480091 0.874555 -0.0683097
0.120657 -0.232243 -0.151729 0.0782872 -0.996931 -0.000166092
-0.336283 -0.0848169 0.794767 -0.613589 -0.26021 0.745519
0.451158 0.049594 -0.527158 0.984069 -0.0903198 -0.153138
0.455964 0.280951 -0.610864 0.482222 0.864423 -0.142248
-0.438802 -0.0845796 0.409416 -0.974756 -0.220735 -0.0335826
0.266054 -0.205427 0.458868 0.253479 -0.967216 0.0155378
-0.365813 -0.295327 -0.211886 -0.141632 -0.971514 -0.190004
-0.380823 -0.0482192 0.567102 -0.981812 -0.154933 0.109731
-0.295082 -0.143642 0.667897 -0.504937 -0.799075 0.32637
0.355528 -0.205881 -0.700911 0.675558 -0.645361 -0.356554
-0.394072 -0.0312696 -0.359377 -0.964245 -0.255456 -0.0705283
-0.27363 -0.281341 -0.747957 -0.25506 -0.93182 -0.258179
-0.411294 -0.208655 -0.105745 -0.59106 -0.790122 0.162342
0.0903092 -0.233492 -0.431042 0.0520606 -0.99862 -0.0069616
-0.0865705 -0.0721125 0.828437 -0.172068 -0.32831 0.928765
-0.378009 -0.0163609 0.629786 -0.975859 -0.153609 0.155253
-0.254862 0.207153 1.03661 -0.242822 0.320168 0.915713
0.416797 -0.191554 -0.0683474 0.792668 -0.600891 -0.102988
0.463376 0.279901 0.604152 0.492503 0.869608 0.0349629
0.41525 -0.134075 0.597788 0.946767 -0.319808 0.0368149
0.454342 0.0331323 -0.0366344 0.988184 -0.150352 -0.0297587
0.44754 0.170668 0.70714 0.93351 0.267613 0.238626
-0.419172 -0.112995 0.601383 -0.974614 -0.158954 0.157675
-0.457177 0.0565566 0.0312433 -0.99558 -0.093825 0.00421223
-0.438347 0.280125 0.761707 -0.481789 0.860918 0.163397
0.213591 0.0914415 0.947648 0.309032 -0.514755 0.799704
0.0901937 0.197532 1.05905 0.023126 0.203708 0.978759
-0.43561 0.229437 0.0172949 -0.455768 0.889782 -0.0237401
-0.265097 -0.246803 0.755601 -0.257759 -0.905274 0.337697
-0.307935 0.0460232 0.807121 -0.667636 -0.352041 0.655995
-0.426444 0.184691 -0.496109 -0.623019 0.778117 -0.0798798
-0.254216 -0.210588 -0.238273 -0.179117 -0.982853 -0.0437896
0.250936 -0.0272554 0.807704 0.469905 -0.349452 0.8106
-0.155502 -0.0586764 0.825703 -0.160061 -0.441426 0.882907
0.4493 -0.00852624 -0.234381 0.986969 -0.141734 0.0761823
0.124088 -0.0413316 -0.872736 0.231812 0.013335 -0.972669
0.177291 -0.227398 -0.0987408 0.108246 -0.994123 0.00132575
-0.49224 0.199129 -0.54846 -0.892846 0.418481 -0.166433
-0.400266 0.254345 -0.6527 -0.470461 0.833382 -0.290069
-0.512515 0.222148 0.262447 -0.879266 0.475287 0.0315253
-0.388919 0.251912 0.806315 -0.477625 0.850614 0.219841
0.499816 0.219855 0.659924 0.84822 0.520857 0.0960768
0.510076 0.205225 0.53374 0.881498 0.458027 -0.11477
0.106407 0.117514 -0.827017 0.280857 0.0718623 -0.957055
-0.0623849 -0.234026 0.201417 -0.0322374 -0.99948 -0.000795291
-0.450122 0.00566506 0.446468 -0.992018 -0.106632 0.0673037
8.42617e-05 0.264343 -0.907798 0.00434795 0.78737 -0.616465
-0.47334 0.280582 0.47005 -0.445752 0.894602 0.031511
0.261536 -0.208025 -0.434664 0.133168 -0.991079 0.00532302
-0.299654 -0.190382 -0.389267 -0.290198 -0.954066 0.0744533
0.471909 0.169462 0.193718 0.884842 0.465502 0.0190095
-0.401029 0.0473624 0.570222 -0.979372 -0.178234 0.0951968
-0.0404362 0.201785 -0.91138 -0.0978851 0.540422 -0.835681
0.512539 0.19926 0.367708 0.95077 0.297448 0.08695
0.466063 0.125963 -0.0663234 0.989196 -0.137026 -0.0521132
0.419117 0.11818 0.443342 0.976857 0.201259 -0.0724277
-0.37606 -0.164456 -0.685833 -0.804754 -0.460654 -0.374391
-0.418641 0.268628 0.889395 -0.615128 0.690702 0.380195
0.364727 -0.29651 0.239081 0.0530134 -0.998204 0.0279096
0.401402 -0.0327243 0.71986 0.904974 -0.207121 0.371649
-0.0659451 -0.214911 0.838815 -0.0418208 -0.811888 0.582313
-0.269832 -0.137563 -0.720079 -0.509975 -0.636682 -0.578413
-0.457715 0.0709102 0.476064 -0.991451 -0.113224 0.064849
-0.17603 -0.150445 -0.850061 -0.302086 -0.300544 -0.904664
-0.37806 -0.278787 -0.0755641 -0.157281 -0.958744 0.236797
0.00240803 -0.234284 0.269351 0.00346384 -0.999992 0.00200607
0.299207 -0.0931506 -0.715286 0.752582 -0.0910935 -0.652168
-0.330306 0.219341 0.994092 -0.549192 0.364642 0.751947
-0.189402 0.00444026 -0.805458 -0.38618 -0.0538983 -0.920847
-0.416614 0.0999987 -0.172759 -0.974951 -0.211768 0.0680013
-0.166477 -0.220588 -0.838839 -0.204522 -0.74572 -0.634092
0.364547 0.163807 0.879843 0.719599 0.181567 0.670232
-0.368949 -0.108356 0.433528 -0.946794 -0.317905 -0.0501792
-0.0934019 -0.0167435 -0.879359 -0.203679 -0.0606599 -0.977157
-0.42925 0.185048 0.242787 -0.55312 0.833099 -0.00200345
-0.271696 0.222756 -0.773974 -0.323134 0.801708 -0.50284
0.343916 -0.282069 -0.648504 0.472814 -0.880951 -0.019304
-0.138401 0.0637281 -0.824361 -0.272683 -0.0326892 -0.961548
0.322998 0.280725 -0.789606 0.323248 0.833539 -0.448022
0.501031 0.273404 -0.374487 0.522603 0.85008 -0.0651903
-0.391623 -0.0423761 0.197323 -0.967009 -0.250387 0.0469127
-0.00332843 0.209628 1.08626 -0.0989211 0.110936 0.988892
-0.509539 0.25725 -0.27601 -0.649349 0.759549 -0.0378415
0.0782201 -0.23348 0.415707 0.0413264 -0.998529 0.0351062
-0.429925 -0.137932 0.0536425 -0.812249 -0.583006 0.0188302
0.445004 -0.0433697 -0.0643759 0.97067 -0.217331 -0.102794
0.445158 -0.0422012 -0.315053 0.987707 -0.145721 0.0565623
0.0112196 -0.234283 -0.0524146 0.000575065 -1 0.000507525
-0.233974 -0.216647 -0.394312 -0.187991 -0.981854 0.0249515
0.402883 -0.231201 0.0699195 0.500308 -0.865846 0.00170834
-0.437431 -0.0962701 -0.0259769 -0.942312 -0.3347 -0.00478118
-0.0178356 -0.234283 -0.270874 -0.00947235 -0.999955 0.000810551
0.0900717 -0.213148 0.618397 0.0291191 -0.995797 0.0868384
0.342869 0.113354 -0.770501 0.67234 -0.0883968 -0.734945
0.36032 -0.126558 -0.173748 0.816174 -0.577663 0.0128586
0.479263 0.280948 -0.147155 0.410611 0.911552 -0.0216971
-0.178135 0.0556522 0.943679 -0.206927 -0.514021 0.832444
-0.0935442 -0.164844 -0.870585 -0.177297 -0.360942 -0.91558
-0.383708 0.225721 0.946984 -0.638206 0.37262 0.673682
0.399629 -0.00431335 -0.105172 0.978508 -0.185915 -0.0892034
0.437126 0.238198 0.327143 0.446378 0.894563 0.022433
-0.315672 -0.179448 -0.0825853 -0.347615 -0.929848 0.120608
-0.246528 -0.129594 0.728124 -0.441342 -0.719052 0.536825
-0.388839 -0.0530413 -0.141487 -0.993289 -0.113323 -0.0231239
-0.00599248 -0.177346 0.864167 -0.0452838 -0.536133 0.842918
-0.354268 -0.294108 0.545487 -0.109546 -0.99393 0.0101622
-0.0966536 -0.220393 0.58157 -0.0211666 -0.996157 0.0849937
0.430116 0.190908 0.402583 0.568335 0.82278 -0.00532248
0.000590101 -0.234283 0.0258483 0.000262737 -1 0.000326602
-0.438515 -0.089499 -0.3211 -0.926526 -0.374665 -0.0342952
-0.198895 -0.0832744 0.879181 -0.189657 -0.411708 0.891362
0.143927 -0.0855711 -0.812435 0.336175 -0.149025 -0.929935
-0.360362 0.175325 0.812734 -0.688594 0.623859 0.369646
0.426197 -0.155184 0.254546 0.927819 -0.337535 0.158816
-0.0889124 0.127256 -0.82699 -0.241772 0.0689201 -0.967882
-0.0703125 -0.233797 -0.498469 -0.0395024 -0.998911 -0.0248087
-0.328897 0.202951 -0.822724 -0.49387 0.435478 -0.752629
-0.364705 0.0893358 0.752543 -0.849997 -0.304673 0.429744
0.202734 0.0429872 -0.849623 0.305633 -0.0227715 -0.951877
0.354515 -0.192722 0.709071 0.619935 -0.694079 0.365971
-0.455059 0.0645455 -0.503686 -0.97323 -0.21004 -0.0933127
0.444876 0.0178103 0.570235 0.967178 -0.251232 0.0380723
0.0242021 -0.234258 -0.479437 0.00616649 -0.999871 -0.0148204
0.245739 -0.213265 -0.362294 0.171362 -0.985151 0.0106493
-0.404011 -0.2277 0.320489 -0.564852 -0.797432 -0.212238
-0.188303 -0.225815 0.246948 -0.148848 -0.988859 -0.00134005
0.0457 0.163468 1.01354 -0.0364537 0.0411232 0.998489
-0.407898 -0.208685 0.484643 -0.712809 -0.693167 -0.106877
0.431143 -0.128077 0.426074 0.943865 -0.316547 0.0944303
0.421596 -0.155528 0.510866 0.914636 -0.380967 -0.1353
-0.294896 -0.0393528 0.849953 -0.502166 -0.336243 0.796724
-0.40384 0.101755 -0.69871 -0.81566 -0.182308 -0.549056
-0.386631 -0.132799 0.693379 -0.883558 -0.263739 0.386998
0.149178 -0.00237656 -0.819915 0.303654 0.0160685 -0.952647
-0.404943 0.0317693 -0.458744 -0.977928 -0.205587 -0.0372963
-0.166149 -0.22865 0.0966454 -0.116516 -0.993188 0.00124816
-0.397643 0.0855769 0.64382 -0.971975 -0.208808 0.108002
-0.414752 -0.172717 -0.549778 -0.899334 -0.436839 0.0192138
-0.48079 0.19902 0.661187 -0.84748 0.509417 0.149241
0.492166 0.278447 0.0849516 0.44004 0.897716 0.0216902
0.42035 0.12422 -0.23361 0.818244 0.574771 -0.010748
0.420201 0.123125 0.262178 0.82599 0.555977 0.0928957
-0.337209 0.18662 -0.722576 -0.512467 0.66916 -0.538147
-0.167481 -0.172578 -0.757798 -0.179984 -0.83744 -0.516043
-0.486677 0.279896 -0.185702 -0.422058 0.906529 -0.00846853
-0.300467 -0.189979 0.281807 -0.345347 -0.938215 -0.0220976
0.421501 -0.174845 0.109206 0.848994 -0.527355 -0.0332586
0.366006 -0.29513 0.167897 0.108628 -0.993774 -0.024755
0.353969 -0.137026 0.387182 0.732216 -0.664933 0.14739
0.32321 -0.173508 0.15512 0.292672 -0.954706 -0.0536586
-0.0223628 -0.23327 -0.553114 -0.0123274 -0.998665 -0.0501557
0.406685 -0.221537 0.239473 0.531891 -0.84174 0.0925522
-0.40565 -0.127371 -0.634057 -0.922599 -0.254225 -0.290139
0.437448 -0.0964394 -0.370944 0.952786 -0.302351 -0.0279729
0.132539 -0.230479 -0.542934 0.0869265 -0.995368 -0.0410737
0.340417 -0.0593378 0.694826 0.878999 -0.217401 0.424379
-0.512508 0.211002 0.348407 -0.902677 0.428014 -0.0444699
-0.307672 -0.185349 0.377866 -0.31207 -0.937271 -0.155358
-0.170363 -0.0472928 -0.859392 -0.287487 -0.0238005 -0.957489
0.427512 0.17943 0.483546 0.581216 0.812947 -0.0361413
0.127505 0.0681384 -0.873031 0.256045 -0.0446529 -0.965633
0.388124 -0.194378 0.634445 0.730145 -0.683281 0.00380372
-0.141727 0.245923 0.992192 -0.096099 0.837089 0.53856
0.40354 0.0177692 0.0475059 0.98412 -0.175412 0.0271708
-0.34023 -0.134662 -0.745677 -0.706682 -0.298404 -0.641526
-0.426137 0.179495 0.522092 -0.601529 0.797026 0.0539604
-0.0633078 -0.234016 0.332579 -0.032068 -0.99944 0.00959678
0.210864 -0.221949 -0.28826 0.125585 -0.991735 -0.0262667
-0.373032 0.108654 0.841554 -0.713452 -0.463014 0.525932
0.0528706 -0.234127 -0.13037 0.0320286 -0.999487 0.000331164
0.383795 -0.268493 -0.460885 0.458182 -0.886184 -0.0689053
-0.450965 0.00600193 0.210487 -0.981621 -0.186234 0.0416805
-0.288866 -0.209606 -0.774207 -0.478979 -0.653165 -0.586476
-0.424557 0.235693 -0.566802 -0.497138 0.847921 -0.184074
-0.2987 -0.175621 -0.614904 -0.380108 -0.919688 -0.0984426
-0.446719 -0.0279184 0.364273 -0.969629 -0.238034 -0.0562097
0.00799862 -0.0759783 -0.886562 -0.0528909 -0.0873303 -0.994774
-0.435921 -0.105703 -0.236944 -0.957111 -0.283628 -0.0591115
-0.449988 -0.0016535 0.298937 -0.984814 -0.163341 -0.0588397
-0.173253 -0.227255 0.43279 -0.0865248 -0.99586 0.0278654
0.437953 0.242056 -0.21482 0.449617 0.893158 -0.0106847
0.379478 -0.00438342 0.636883 0.946436 -0.233161 0.223372
0.25424 -0.297377 -0.749462 -0.0391804 -0.936886 -0.347432
-0.223563 0.280528 1.01168 -0.161582 0.822494 0.54534
0.00171984 0.0501441 -0.887688 -0.0105968 -0.021241 -0.999718
0.467079 0.187441 0.592726 0.824354 0.566045 0.00575547
0.440743 0.252543 -0.315642 0.441998 0.895421 -0.0534746
0.364413 -0.296924 -0.270501 0.0712615 -0.991751 -0.106544
-0.0256514 -0.210619 0.632561 0.0413654 -0.998713 0.0293445
-0.335195 0.0859439 -0.712458 -0.736301 -0.206038 -0.644522
0.188135 -0.212556 0.578142 0.0201386 -0.999172 0.0353525
0.430247 0.19171 -0.068655 0.515923 0.856559 -0.0114307
-0.51096 0.230173 -0.473551 -0.838851 0.543449 -0.0314959
-0.0383826 0.00641956 -0.841642 -0.138188 -0.0211084 -0.990181
0.380404 0.0797715 -0.639955 0.905165 -0.158836 -0.394268
-0.0123577 -0.285081 -0.838994 0.0852437 -0.948338 -0.305597
0.220799 -0.214931 0.512543 0.0795393 -0.995609 0.049363
0.454104 0.0311941 -0.137637 0.984647 -0.159563 -0.070786
-0.21932 0.144316 0.91576 -0.355522 0.407241 0.841284
0.293307 -0.187914 -0.572561 0.310829 -0.948459 0.0617272
0.512559 0.221678 0.264098 0.872394 0.485849 0.0536584
-0.437296 0.239187 -0.382601 -0.461552 0.886908 -0.0190898
0.187355 -0.165328 -0.755348 0.177918 -0.83246 -0.524743
-0.348878 -0.127906 -0.574709 -0.786124 -0.61616 -0.0485381
-0.15235 -0.211554 0.827332 -0.153796 -0.768979 0.620498
-0.0493014 0.240843 -0.841646 -0.0596 0.866812 -0.49506
-0.431717 -0.12829 0.302521 -0.913649 -0.388206 -0.120586
-0.137987 0.197643 -0.826182 -0.161464 0.776336 -0.609288
-0.425743 0.160797 -0.380986 -0.65545 0.755235 -0.00230702
0.434504 -0.11405 -0.0840198 0.984014 -0.124263 -0.127572
0.369911 -0.107639 0.141062 0.955937 -0.290811 -0.0401723
0.141416 -0.0488191 0.835797 0.242379 -0.347804 0.905696
0.471894 0.169314 -0.256452 0.902423 0.43017 -0.0242313
-0.459148 0.241171 0.824132 -0.718407 0.624188 0.307051
-0.418699 0.113513 0.00712958 -0.997058 0.0683915 -0.0346015
0.0580063 -0.234073 0.339039 0.0359176 -0.999321 0.00822696
-0.473864 0.28058 0.141205 -0.409742 0.912181 -0.00601572
-0.241679 -0.191687 -0.671584 -0.157218 -0.981288 -0.111157
0.111682 -0.190923 0.684713 -0.0324376 -0.998651 -0.0405558
0.409094 0.0520333 -0.250815 0.988417 -0.129254 0.0795278
0.414017 -0.20075 -0.291326 0.743475 -0.66226 -0.0930457
-0.394758 -0.0705497 -0.680781 -0.88544 -0.140045 -0.443151
-0.432846 -0.122937 -0.0927816 -0.93233 -0.345988 0.105129
0.0219613 0.109458 -0.826988 0.0366108 0.00288959 -0.999325
0.074375 -0.227716 -0.628566 0.0421035 -0.995339 -0.0867639
0.0720355 -0.0891523 -0.828686 0.164675 -0.101866 -0.981074
0.389395 -0.189977 -0.640153 0.841422 -0.5232 -0.13517
0.105617 0.109467 0.98276 0.0815961 -0.512848 0.854593
-0.512509 0.234223 0.0997543 -0.742307 0.669926 -0.0134011
0.413288 0.125539 0.584199 0.95057 0.309427 0.0259247
-0.0139594 0.123424 -0.88738 -0.0603648 0.0966555 -0.993486
-0.387815 -0.233732 0.570736 -0.61152 -0.781223 0.125438
-0.417794 0.11745 -0.475117 -0.985161 -0.169903 -0.0243185
0.33217 -0.125119 -0.637885 0.835807 -0.497103 -0.233057
0.244253 0.184833 0.97677 0.393495 0.427732 0.813761
-0.181538 -0.111304 0.776726 -0.29081 -0.464464 0.836482
-0.425049 0.156016 0.368172 -0.679431 0.733736 -0.00228147
-0.43317 0.00237201 -0.600001 -0.958726 -0.194985 -0.206943
-0.420327 -0.179085 -0.256922 -0.752931 -0.636386 -0.167654
0.16832 0.145389 0.986432 0.249955 -0.247635 0.936055
0.0875035 -0.233552 -0.35882 0.0472266 -0.998884 0.000536543
-0.454817 0.037367 -0.387315 -0.987878 -0.152085 -0.0311005
-0.512296 0.237006 -0.386907 -0.781289 0.619992 0.0720944
0.434751 -0.091135 -0.512191 0.929927 -0.340977 -0.13773
0.365627 -0.116633 0.0489031 0.940683 -0.337482 0.0349422
0.447429 0.0986865 -0.588066 0.964547 -0.115831 -0.237135
-0.175345 -0.227646 -0.455814 -0.108839 -0.994006 -0.0102524
0.0597724 -0.15311 0.753354 0.0468041 -0.963285 0.264371
-0.375359 -0.0945998 0.0108235 -0.811783 -0.583897 -0.00853566
-0.399176 0.0352714 -0.542333 -0.962865 -0.216431 -0.161394
-0.429031 -0.141877 0.220516 -0.879581 -0.470468 0.0706939
-0.366627 -0.294069 0.37426 -0.17745 -0.966819 -0.183776
-0.448053 -0.0185539 -0.309197 -0.982632 -0.183923 0.0246206
0.0951806 -0.121939 0.885895 0.114572 -0.392692 0.912506
0.186728 -0.226047 -0.445713 0.107828 -0.994137 -0.00807152
-0.383171 0.0596664 -0.625624 -0.906107 -0.218283 -0.362384
0.51256 0.218304 0.0470813 0.819065 0.57175 0.0472696
-0.0879644 -0.233541 0.130869 -0.0485873 -0.998819 -0.000455307
0.459972 0.0867071 -0.465897 0.993438 -0.0834537 -0.0782126
-0.300015 -0.190214 -0.00263422 -0.322733 -0.945448 0.0443993
0.115174 -0.232546 -0.29323 0.0664277 -0.99779 0.00149745
0.404828 0.0345342 0.48268 0.978728 -0.204378 -0.0179467
-0.22704 -0.218323 0.036003 -0.219743 -0.975557 0.00105586
-0.437728 0.0257076 0.629033 -0.980133 -0.171827 0.099074
0.37751 0.0144254 -0.723573 0.831266 -0.10778 -0.545326
0.450773 0.00384265 0.0976039 0.989262 -0.145393 0.0148982
-0.436832 -0.0918083 -0.474122 -0.96588 -0.250831 -0.0645021
-0.0935938 0.193147 0.973865 -0.0591175 0.751123 0.65751
-0.341893 0.162718 0.902931 -0.728169 -0.000708326 0.685397
-0.192698 0.204698 -0.884183 -0.203025 0.450174 -0.869554
-0.358947 0.0270027 -0.747155 -0.691229 -0.136156 -0.709693
0.0107022 -0.234283 -0.189515 0.00110129 -0.999999 0.000711543
0.465401 0.120928 -0.176961 0.974622 -0.223663 -0.00930165
0.191362 0.197158 1.03127 0.315641 0.333408 0.888375
0.368939 -0.288383 0.454666 0.249208 -0.966996 -0.0530525
-0.156897 -0.229649 -0.379172 -0.0986902 -0.995118 0.000169875
-0.205623 -0.222914 -0.296235 -0.171735 -0.98512 -0.00678378
0.479769 0.280549 0.533739 0.490207 0.871536 -0.0110246
-0.438243 0.23777 -0.722442 -0.669598 0.573618 -0.471806
0.239593 -0.0881099 0.771282 0.507725 -0.299223 0.807886
-0.387246 0.206053 -0.778719 -0.669254 0.338257 -0.661576
0.241903 -0.213683 -0.507544 0.132186 -0.990997 -0.021255
0.389014 -0.052442 -0.239446 0.993081 -0.0981594 0.0644519
0.512558 0.201599 -0.304004 0.907696 0.413662 -0.0705042
0.103905 -0.0405278 0.91981 0.111411 -0.351609 0.929494
0.458008 0.0629147 -0.336877 0.987707 -0.1469 0.0534257
0.42272 -0.169931 0.0166922 0.877452 -0.479538 0.0109756
0.406541 0.0359405 0.249894 0.983451 -0.140499 0.11439
0.249565 -0.212159 -0.222615 0.133288 -0.990531 -0.0329076
0.167417 -0.133889 0.865889 0.271508 -0.367117 0.889668
-0.163747 -0.181153 0.692051 0.012462 -0.999182 0.038466
-0.447238 -0.0251452 -0.108319 -0.990138 -0.137794 -0.0252766
-0.445907 -0.0129033 -0.500453 -0.963288 -0.24923 -0.0998026
0.325915 -0.170801 -0.114775 0.408589 -0.91205 -0.0349239
-0.469736 0.280855 -0.524379 -0.47108 0.875334 -0.108968
-0.407506 0.0100023 -0.673804 -0.875292 -0.164626 -0.454711
0.51256 0.199378 -0.0355635 0.902709 0.428335 0.0405639
0.0928178 -0.233404 0.203954 0.0571298 -0.998366 -0.0010814
0.347169 -0.134957 -0.560842 0.740198 -0.668981 -0.0676081
-0.45967 0.28055 -0.609431 -0.508811 0.834686 -0.21074
0.212774 -0.217722 -0.574938 0.0864702 -0.996162 -0.013558
-0.512515 0.223824 -0.143373 -0.78836 0.615127 0.010396
-0.465122 0.119126 -0.310135 -0.995919 -0.0900185 -0.00653743
0.402573 0.221702 0.925036 0.640416 0.467762 0.609151
-0.174943 -0.217102 0.562416 -0.0173041 -0.99895 0.0424178
-0.425716 0.0719848 0.714597 -0.916879 -0.232892 0.324181
0.400874 -0.120388 0.665706 0.937605 -0.202421 0.282706
-0.331968 0.130546 -0.781017 -0.614138 -0.00394575 -0.789189
0.406992 0.0391135 0.398622 0.987287 -0.156757 -0.0262809
-0.404402 0.0233 -0.16159 -0.989044 -0.146593 0.0173716
-0.133869 -0.228206 0.497673 -0.0648379 -0.995011 0.075824
0.23816 0.0373201 -0.783522 0.429277 -0.0555403 -0.901464
-0.383795 -0.0749896 0.734095 -0.83793 -0.247606 0.486379
-0.403872 -0.228684 -0.307064 -0.503009 -0.84819 -0.165997
0.442239 0.269507 -0.542533 0.472739 0.878097 -0.0739138
-0.0859882 -0.233583 -0.345288 -0.0448838 -0.998992 0.000372098
0.442698 0.258225 0.448434 0.465714 0.884852 -0.0121176
0.403223 0.106281 0.79177 0.829319 -0.319562 0.458378
0.441852 0.102547 0.674216 0.948939 -0.262615 0.174783
0.281559 0.096027 0.916974 0.510162 -0.485892 0.709679
-0.412669 -0.204594 0.0200338 -0.624354 -0.78114 -0.00138305
0.407234 -0.220489 -0.135897 0.655421 -0.755206 -0.00935313
0.364453 -0.296883 -0.043985 0.0832528 -0.996461 -0.0116037
0.316562 -0.266364 -0.71519 0.277597 -0.882711 -0.379159
0.471864 0.16919 0.289444 0.921523 0.380982 0.0751508
-0.194295 -0.28057 0.758819 -0.0552831 -0.986677 0.153009
0.43487 -0.11204 -0.212733 0.94627 -0.285806 0.151286
-0.300519 -0.188646 0.463933 -0.23883 -0.967504 -0.0830498
-0.365063 -0.296158 0.0284387 -0.444343 -0.895779 0.0117655
-0.25802 -0.117497 -0.814904 -0.503008 -0.13047 -0.854377
0.267532 -0.101312 -0.810848 0.476816 -0.162636 -0.863827
0.393515 0.0241992 0.766927 0.84799 -0.324733 0.418882
-0.402305 -0.232537 -0.401067 -0.5197 -0.82801 0.210502
-0.393706 -0.0332824 0.111249 -0.977077 -0.206289 0.0525822
-0.259123 0.163518 -0.828206 -0.363398 0.249905 -0.897491
0.440045 -0.0228436 -0.547255 0.9558 -0.205273 -0.210496
0.335532 0.241884 -0.730717 0.360925 0.846044 -0.392356
0.482881 0.280437 -0.0728872 0.430625 0.902255 -0.0222912
0.439825 0.250181 0.219437 0.450952 0.892438 0.0140451
0.431413 -0.130046 0.320354 0.929717 -0.266626 0.254043
-0.0914402 -0.201627 0.659047 0.0537188 -0.995305 -0.0805152
-0.419019 0.115579 0.116646 -0.997378 -0.0669795 0.0273859
-0.0808847 -0.233692 -0.0583381 -0.0449284 -0.99899 -7.7761e-05
0.286597 -0.111699 0.716685 0.674004 -0.523642 0.521074
-0.443374 0.0791271 -0.595074 -0.946543 -0.243504 -0.21157
0.41926 0.117386 -0.40986 0.998074 -0.0510293 -0.0352856
-0.476567 0.281051 0.385139 -0.43196 0.901863 0.00738455
0.14338 -0.190732 -0.854077 0.328306 -0.608085 -0.722806
0.37022 -0.259691 0.586542 0.445968 -0.89502 -0.0071561
0.0858595 0.201757 -0.907088 0.132909 0.473709 -0.870594
-0.417991 0.00248371 0.694923 -0.94672 -0.190113 0.25996
-0.446358 -0.0315747 -0.417741 -0.966721 -0.241132 -0.0854752
0.512159 0.238286 0.427192 0.712714 0.697691 -0.0725664
-0.130575 -0.267325 0.789168 0.0157154 -0.966776 0.255142
-0.401648 0.0205604 0.501027 -0.982792 -0.147344 0.111398
0.428461 0.179248 0.130792 0.534232 0.845048 0.0221399
0.392323 -0.0396371 0.11299 0.986689 -0.16222 -0.011419
-0.286783 -0.197346 -0.316359 -0.26933 -0.963018 -0.00755878
-0.463176 0.105222 0.399133 -0.995762 -0.0855372 0.0337773
-0.0671417 -0.23357 0.42528 -0.0353388 -0.998765 0.0349226
0.36211 -0.104983 0.754063 0.786997 -0.255908 0.561379
0.121233 -0.294092 0.76239 -0.00685543 -0.997836 0.0653971
-0.135348 0.00698572 0.870683 -0.156615 -0.483079 0.861456
-0.387211 -0.207192 -0.630426 -0.679753 -0.707656 -0.192769
-0.429041 0.188291 -0.67234 -0.766131 0.45823 -0.450632
-0.456993 0.0550416 -0.0979827 -0.989437 -0.144455 -0.012168
-0.419436 0.118348 0.286276 -0.999222 -0.0384029 0.00896896
-0.442484 -0.0197582 0.541856 -0.978762 -0.15264 0.136846
-0.471565 0.167229 0.100671 -0.938437 0.345011 -0.0174351
-0.43308 0.211777 -0.131904 -0.478322 0.878006 0.0177181
0.316734 -0.17861 -0.193538 0.312636 -0.949861 -0.00472494
-0.28295 0.169357 0.950166 -0.496093 0.100415 0.862443
0.0871964 -0.225659 0.548575 0.0385596 -0.991909 0.120957
0.391141 0.260313 -0.770829 0.49167 0.693214 -0.526987
-0.505628 0.199062 0.163799 -0.920641 0.390391 0.00388212
0.396183 0.0643301 0.628283 0.95162 -0.259133 0.165136
0.243063 -0.214034 0.0777374 0.0662866 -0.997798 0.00244455
0.251123 0.256612 0.959571 0.291712 0.81867 0.494655
-0.281338 0.104316 0.920806 -0.468945 -0.504028 0.725291
-0.44787 0.266606 -0.242965 -0.402271 0.915007 -0.0306771
0.40023 -0.23769 0.146335 0.50197 -0.862976 -0.0574363
0.30443 0.168006 0.935686 0.646861 0.17158 0.743056
0.344575 -0.0494669 -0.754085 0.714268 -0.110336 -0.69112
0.322395 -0.174286 0.315358 0.433806 -0.886008 0.163713
0.343187 -0.152195 -0.342107 0.626598 -0.777137 -0.0585917
0.0197864 -0.22238 0.578558 0.0195193 -0.990835 0.13366
-0.0671439 0.110046 0.987542 -0.0205558 -0.47286 0.880898
-0.458115 0.0644878 0.253432 -0.990124 -0.139563 0.0133188
0.468506 0.279647 -0.00273852 0.418791 0.908072 0.00452923
0.456811 0.203198 -0.691652 0.860994 0.207881 -0.464193
0.423801 0.28094 0.81793 0.477723 0.833831 0.276599
-0.0314647 0.1734 -0.82699 -0.0413758 0.767641 -0.639543
-0.387842 -0.056732 -0.21334 -0.974697 -0.219625 -0.0416061
0.402067 0.00928689 -0.179658 0.989413 -0.143536 -0.0214241
0.391629 -0.0425251 0.221601 0.996573 -0.0806186 0.0185274
0.206807 -0.222702 -0.162927 0.108834 -0.99402 -0.00888283
0.252065 0.28107 -0.82402 0.199345 0.869436 -0.452044
0.096186 0.186373 0.970128 0.0577896 0.728044 0.68309
-0.506509 0.199052 -0.32187 -0.944667 0.328002 -0.0044678
0.391682 -0.255627 -0.330079 0.37789 -0.924085 -0.0571571
0.324849 -0.171866 -0.0122752 0.433563 -0.901059 -0.0107965
0.355485 0.131177 -0.694884 0.805807 -0.0327283 -0.591274
0.151456 -0.230132 -0.229444 0.099572 -0.99503 -0.000308764
0.421071 -0.119573 -0.580335 0.960156 -0.242618 -0.138698
0.184738 -0.191169 0.660138 -0.00835404 -0.998605 -0.0521401
-0.361714 -0.120197 -0.493481 -0.863358 -0.504584 -0.0027106
-0.337304 -0.126917 0.610707 -0.868078 -0.453727 0.201426
-0.238569 -0.00161179 0.82983 -0.427684 -0.432703 0.793634
0.0650032 -0.18783 0.855434 0.0580658 -0.64131 0.765082
-0.379019 -0.0851843 0.348818 -0.9347 -0.330405 -0.13103
0.25824 -0.151335 -0.719782 0.435313 -0.704215 -0.560877
-0.485763 0.228009 0.739691 -0.837933 0.517537 0.173275
0.423368 0.198534 -0.543589 0.624582 0.774315 -0.101658
0.425505 0.00192685 -0.627012 0.923276 -0.130457 -0.361307
0.351124 0.222679 0.977858 0.605879 0.408089 0.682916
-0.422703 0.201408 0.614225 -0.573166 0.815648 0.0787316
0.257025 0.191473 -0.830477 0.288924 0.487116 -0.824161
-0.0698184 -0.233929 0.0184852 -0.0391698 -0.999233 -0.000168501
0.282132 -0.199711 -0.290541 0.215917 -0.975368 -0.0451247
-0.429735 0.188434 -0.299126 -0.532482 0.845787 -0.0332706
-0.006839 0.0673701 0.916733 -0.00427021 -0.496212 0.868191
0.411906 -0.206148 0.331946 0.62994 -0.730285 0.264309
-0.369562 -0.290506 -0.31905 -0.36583 -0.927336 -0.0788475
-0.441287 -0.0704276 0.153926 -0.949209 -0.304398 0.0796508
0.315363 -0.155648 0.778984 0.596372 -0.477186 0.645472
0.340193 0.0924129 0.870479 0.623196 -0.421166 0.658973
0.438726 -0.0881518 0.190735 0.992517 -0.11739 -0.0336211
-0.175194 0.198559 1.05888 -0.113346 0.223124 0.968178
0.49931 0.239657 -0.57378 0.868156 0.493408 -0.0534173
-0.0328121 -0.115463 0.894311 -0.12405 -0.337732 0.933032
0.328729 -0.115487 0.654234 0.749355 -0.57529 0.327884
0.230345 0.267098 1.0409 0.291603 0.731453 0.616396
0.428119 -0.146804 -0.151858 0.951829 -0.304281 -0.0378719
0.18018 0.00422155 0.921574 0.263762 -0.469449 0.842643
0.452118 0.195048 -0.614977 0.888289 0.391467 -0.2402
-0.504666 0.268201 0.0134539 -0.517816 0.855392 -0.013073
-0.23956 -0.214712 -0.484412 -0.107258 -0.99422 0.0047426
-0.512515 0.215074 -0.0360874 -0.869096 0.491143 0.0587514
-0.28947 -0.292176 0.687094 -0.125922 -0.984761 0.119958
0.368933 -0.0788527 0.579556 0.9737 -0.226402 0.0254861
-0.0627826 -0.284648 0.780658 0.05033 -0.994299 0.0940011
0.447582 -0.014071 0.453564 0.973665 -0.227543 -0.0141374
-0.0918471 0.0786903 0.916682 -0.0490092 -0.508747 0.85952
0.397885 0.231608 -0.646859 0.515249 0.827664 -0.222463
0.206775 -0.0812858 -0.844243 0.372006 -0.0731843 -0.925341
0.167525 0.267868 1.00277 0.175194 0.834866 0.52183
0.458029 0.0792901 0.500777 0.98211 -0.183989 -0.0401106
-0.0385112 -0.227736 0.538848 -0.0227752 -0.994926 0.0980017
-0.14167 0.114168 0.978404 -0.122156 -0.498083 0.858482
-0.383664 -0.0570272 -0.518802 -0.967472 -0.236569 -0.0896213
-0.430484 -0.122604 0.479804 -0.978055 -0.191862 0.0812193
0.312839 -0.181766 0.0730949 0.251967 -0.967522 0.0203437
-0.444163 -0.0494011 0.0510446 -0.978316 -0.205888 0.0225317
0.356791 -0.13228 -0.39135 0.685255 -0.725043 -0.0688304
-0.433213 0.213244 0.421669 -0.498233 0.866698 0.0244439
-0.373284 -0.223079 0.640523 -0.604259 -0.778452 0.169951
-0.168782 -0.205167 -0.695605 -0.0765825 -0.996976 -0.0131709
-0.253123 -0.0673258 0.779314 -0.516933 -0.311139 0.797479
-0.0108896 -0.0851957 0.823431 -0.130443 -0.349797 0.9277
0.395234 -0.0265576 -0.00745588 0.985322 -0.170494 -0.00847948
0.31602 0.25751 0.915138 0.360815 0.842652 0.399688
-0.152423 -0.227085 -0.578404 -0.0882126 -0.994927 -0.0483634
-0.371374 -0.104318 0.166168 -0.804543 -0.591962 0.0478779
0.389055 -0.0518855 0.408141 0.966001 -0.252764 0.0543288
-0.473589 0.280581 -0.428963 -0.443072 0.895891 -0.0326544
-0.320537 -0.175711 0.186955 -0.483013 -0.87443 0.0455028
-0.110468 0.0046368 0.937324 -0.0719229 -0.499236 0.863476
0.389989 -0.0367182 0.506346 0.971659 -0.234518 -0.0296705
-0.122106 -0.232161 -0.120957 -0.0799462 -0.996799 -0.00113077
0.457578 0.0594554 0.03137 0.987683 -0.156144 0.0101132
-0.428541 -0.087197 -0.567102 -0.972702 -0.219343 -0.0757609
-0.186694 0.168086 0.991513 -0.216572 0.212121 0.952943
0.102663 -0.29128 -0.824119 0.217586 -0.965068 -0.145948
-0.475732 0.281052 0.540267 -0.461749 0.885896 0.0444592
0.358922 -0.129004 -0.0665826 0.754197 -0.653243 -0.0667818
0.175981 0.183434 -0.861531 0.25787 0.45993 -0.849687
0.119464 -0.125997 -0.869687 0.273703 -0.197231 -0.941375
-0.227504 0.218153 0.949315 -0.247345 0.771811 0.585771
0.486537 0.279921 -0.256334 0.440294 0.897414 -0.0280841
0.403571 0.01822 -0.316193 0.991536 -0.120272 0.0488919
-0.401462 0.00583916 0.0368758 -0.993321 -0.115308 0.00407305
0.439086 -0.0861856 -0.00330548 0.984944 -0.171177 -0.0241561
-0.256856 -0.112229 0.841187 -0.384985 -0.356545 0.851271
0.322587 -0.174128 0.227717 0.3016 -0.953246 0.0189389
0.186117 -0.293463 -0.794548 0.0655222 -0.98018 -0.18696
0.421783 0.26993 0.742149 0.440225 0.877048 0.192325
-0.218027 0.280103 -0.847553 -0.162753 0.853266 -0.495428
0.341246 0.00701653 0.831085 0.675204 -0.374822 0.635301
-0.151147 -0.230153 0.0198299 -0.101578 -0.994827 0.000389154
-0.204853 0.213793 -0.80544 -0.19743 0.806767 -0.556909
0.227835 -0.190197 0.815246 0.341482 -0.629689 0.697769
-0.394887 -0.0270755 0.414761 -0.980591 -0.194698 0.0230867
0.399985 -0.238393 -0.016608 0.494012 -0.869154 -0.0228836
-0.358244 -0.130221 0.259095 -0.708869 -0.704976 -0.0226455
-0.294275 0.025704 -0.801552 -0.546832 -0.113824 -0.829469
0.352447 -0.0417574 -0.658092 0.884185 -0.123164 -0.450609
0.330333 -0.165391 0.459308 0.607142 -0.794429 -0.0161731
0.424619 0.236549 0.647498 0.509065 0.858097 0.0672452
-0.409839 0.220709 0.712845 -0.556104 0.818357 0.145054
-0.162386 -0.229056 -0.0589356 -0.116706 -0.993166 -0.000885963
0.342876 0.211595 -0.81404 0.530004 0.429216 -0.731348
0.146561 -0.227833 0.488 0.0927001 -0.993171 0.0708387
-0.414043 0.120271 0.567202 -0.991571 0.0866044 0.0963688
-0.483772 0.280305 0.221191 -0.443597 0.896189 -0.0081709
0.395564 0.0504958 -0.577373 0.940471 -0.133468 -0.31257
-0.421308 0.130807 -0.0727019 -0.831109 0.555928 0.0142244
0.33975 -0.254293 0.671919 0.347105 -0.928026 0.135224
0.266186 -0.232501 0.766446 0.261802 -0.900495 0.347229
-0.391401 -0.04324 0.272247 -0.958532 -0.28472 0.012308
0.398989 0.00320843 -0.487586 0.979259 -0.177631 -0.0974656
-0.358377 -0.129771 -0.139525 -0.700361 -0.713777 0.00394692
-0.343598 -0.151575 -0.335238 -0.557278 -0.828082 -0.0609978
0.284069 -0.190104 0.544406 0.221027 -0.974742 -0.03202
-0.436636 0.236108 0.189504 -0.447545 0.894256 -0.00309189
-0.429148 -0.141689 -0.172912 -0.91106 -0.411224 -0.0294033
0.0685936 -0.0357019 0.855299 0.0423761 -0.357312 0.933023
-0.0323291 0.278496 1.06736 -0.0928209 0.768423 0.633175
0.170396 -0.228195 -0.348447 0.117001 -0.993131 0.000799308
0.463188 0.103906 0.0970852 0.978552 -0.202171 0.0395334
-0.36623 -0.292038 0.455951 -0.138416 -0.981836 -0.129768
0.122187 0.0340448 0.888294 0.117878 -0.455549 0.882372
-0.247104 -0.188185 0.807252 -0.363909 -0.592088 0.719029
0.408069 -0.213613 0.444729 0.69235 -0.721401 -0.0152575
0.246703 -0.212982 0.157804 0.0615375 -0.998042 -0.0111932
-0.453118 0.14961 -0.591248 -0.947884 0.0885988 -0.30605
0.434303 0.229158 -0.470456 0.497859 0.865087 -0.061326
-0.0408938 -0.0644304 -0.836886 -0.12572 -0.0652768 -0.989916
-0.307264 -0.0178389 0.770202 -0.662846 -0.27176 0.697698
-0.0861717 0.0585152 -0.880993 -0.17039 -0.0365172 -0.9847
-0.424834 -0.159076 0.39406 -0.837403 -0.514231 -0.185264
-0.230154 -0.212783 0.512039 0.0673504 -0.997717 -0.00497731
-0.304135 -0.187086 -0.468754 -0.343345 -0.938703 0.0308495
-0.365875 -0.295238 -0.413684 -0.0935841 -0.985246 0.143292
0.0307578 0.236699 1.00128 -0.0120387 0.829672 0.558121
-0.0985615 -0.233195 -0.261035 -0.0609036 -0.998143 0.00133075
-0.241951 -0.209588 -0.577747 -0.0716349 -0.997256 -0.0186782
-0.0854662 -0.132482 0.77557 -0.0361932 -0.767848 0.639608
-0.512382 0.211407 0.423184 -0.911415 0.411367 -0.0100235
-0.337529 0.270812 -0.743288 -0.341135 0.857385 -0.38538
0.153166 0.245067 -0.823653 0.135192 0.865112 -0.483016
0.0643916 0.129102 -0.884008 0.181259 0.124419 -0.975533
0.364875 -0.296412 0.0374495 0.131624 -0.991088 0.0205094
-0.432506 0.207765 -0.0603955 -0.509033 0.860643 0.013412
0.278204 -0.226935 -0.776531 0.329661 -0.779561 -0.53255
-0.456971 0.274972 -0.0382662 -0.412371 0.911016 0.000587082
-0.430958 0.196967 -0.223818 -0.510991 0.859199 -0.0257908
-0.132635 -0.23158 0.199234 -0.0865233 -0.996249 -0.00119201
-0.34182 -0.214157 0.710313 -0.558629 -0.732461 0.389147
0.11247 -0.18903 -0.755699 0.165955 -0.940666 -0.295983
-0.24456 -0.213589 0.110152 -0.234537 -0.971967 -0.0165227
0.512462 0.23553 -0.194652 0.716123 0.69785 0.0131788
