9.753940 82.114601 26.982100 
-31.841400 -10.081300 16.287500 
14.470900 -6.650780 3.812730 
0.748762 72.680603 36.864799 
-21.549801 -6.221960 3.632370 
-21.356199 -6.221960 3.881070 
14.252100 -6.221960 3.881070 
34.196602 -6.221960 3.516860 
-30.983801 -10.189700 16.316799 
-6.054910 -2.791410 44.189999 
34.518501 -5.793140 3.881070 
-30.126101 -10.408100 16.316799 
-40.482800 -5.364320 3.881070 
14.042100 -5.744690 3.881070 
34.196602 -5.364320 3.477660 
-40.566299 -31.093399 9.884520 
2.892850 58.529598 38.752102 
29.884501 -35.381599 24.464300 
15.187500 -10.081300 16.316799 
34.196602 -4.935500 3.607760 
34.408001 -4.935500 3.881070 
25.191401 -34.952801 29.070999 
14.169900 -34.952801 24.464300 
29.999100 -34.952801 24.464300 
34.265701 -4.506690 3.881070 
14.290000 -34.523998 24.464300 
-40.438301 -4.077870 3.881070 
30.337200 -34.523998 24.167999 
-40.417801 -3.649050 3.723510 
-33.556702 -9.652500 16.028500 
-19.405701 -4.020040 3.881070 
-19.405701 -3.649050 3.642090 
2.464030 75.420700 35.613602 
-40.417801 -3.220230 3.625820 
-40.558701 -3.220230 3.881070 
1.177580 72.680603 36.841099 
-32.663101 -9.652500 16.316799 
-18.874201 -3.220230 3.881070 
23.904900 14.361300 18.316999 
-40.553101 -2.791410 3.881070 
-21.412100 -31.093399 9.884520 
14.222300 -33.666302 24.464300 
-18.475201 -2.791410 3.881070 
-23.265100 -9.782520 16.316799 
-19.405701 60.244900 33.910198 
-22.836201 -9.668750 16.316799 
11.786000 -2.362600 3.881070 
12.563300 -4.077870 18.889700 
-18.119200 -1.933780 3.592710 
22.411800 50.382000 26.608400 
11.559500 -1.933780 3.881070 
14.899800 -9.652500 16.055799 
34.317902 -1.933780 3.881070 
11.469200 -1.504960 3.612340 
11.252400 -1.504960 3.881070 
14.165900 -33.237499 24.464300 
29.278999 -9.652500 16.316799 
-18.879400 60.244900 34.327099 
11.040400 -1.076140 3.686960 
16.186199 -31.462400 9.884520 
-33.556702 -9.223690 16.272699 
33.767799 -1.076140 3.622390 
34.056900 -1.076140 3.881070 
-16.832800 -0.647325 3.879820 
-18.976900 60.673698 34.177200 
10.623000 -0.647325 3.881070 
30.212700 -33.237499 24.464300 
33.832901 -0.647325 3.881070 
29.908400 -31.093399 9.811500 
1.606390 72.680603 36.819000 
33.499401 -0.218506 3.881070 
14.042100 -32.808701 24.168100 
-39.988998 0.210313 3.738310 
10.114400 0.210313 3.881070 
-21.978600 -9.353320 16.316799 
30.199400 -32.808701 24.464300 
-21.549801 -9.223690 16.114201 
33.338902 0.016629 3.881070 
9.924880 0.639132 3.881070 
32.910099 0.639132 3.714420 
-40.649799 -30.664600 9.884520 
14.042100 -32.379902 24.068100 
-39.829498 1.067950 3.881070 
-39.560101 1.496770 3.770800 
15.016300 -9.223690 16.316799 
30.337200 -32.379902 24.275101 
24.333799 14.361300 18.298901 
-15.453200 1.496770 3.881070 
-4.825880 58.958401 38.629501 
-39.371899 1.925580 3.881070 
-39.131302 1.925580 3.609830 
-15.240600 1.925580 3.881070 
-18.630100 61.102501 34.327099 
14.563400 -31.522200 24.464300 
10.611600 60.244900 37.129002 
30.337200 -31.883699 24.464300 
-14.938500 2.354400 3.881070 
8.971670 2.354400 3.881070 
-14.688700 2.783220 3.872860 
15.988000 61.102501 34.327099 
8.896300 2.783220 3.528890 
8.698510 2.783220 3.881070 
14.663900 -46.102100 28.752501 
8.500630 3.212040 3.881070 
32.481300 2.899740 3.881070 
-21.549801 -9.020210 16.316799 
-38.702499 3.640860 3.509320 
-38.932701 3.640860 3.881070 
30.434000 -31.093399 24.464300 
22.514200 50.810902 26.608400 
32.173901 3.640860 3.881070 
-38.702499 4.069680 3.550500 
-38.895100 4.069680 3.881070 
-41.275398 -25.947599 17.429501 
-20.692200 -8.794870 16.025299 
14.706400 -8.794870 16.316799 
8.038670 4.498500 3.813090 
14.470900 -30.235800 24.113100 
30.766001 -30.235800 24.217600 
16.450600 42.234501 28.752501 
29.908400 -8.794870 15.899900 
-13.115500 4.927310 3.881070 
6.752210 4.927310 3.717140 
29.714899 -8.794870 16.316799 
14.470900 -29.806999 24.060400 
31.460300 4.927310 3.881070 
-38.273701 5.171290 3.881070 
-38.095699 5.356130 3.881070 
30.766001 -29.806999 24.218599 
30.464899 -29.806999 24.464300 
-3.110600 5.249680 3.881070 
-2.681780 5.161550 3.881070 
-2.252960 5.137260 3.881070 
5.894580 5.137860 3.881070 
16.186199 61.531300 34.092701 
-39.238098 -34.523998 19.318501 
31.368601 5.356130 3.881070 
-37.844898 5.550750 3.881070 
1.606390 72.440903 36.900101 
-11.687000 5.784950 3.730370 
30.403799 -29.378099 24.464300 
-20.692200 -8.366050 16.308599 
-3.968240 5.580790 3.881070 
4.900960 5.784950 3.881070 
2.035210 72.680603 36.787701 
14.072900 -8.366050 16.316799 
31.194799 5.784950 3.682140 
30.766001 -30.235800 9.684290 
30.766001 -28.949301 24.109900 
-18.341200 61.960098 34.327099 
-4.872680 6.213770 3.881070 
22.397400 -46.102100 28.752501 
-4.397060 5.859150 3.881070 
14.773900 -28.520500 24.464300 
-20.947901 -29.806999 9.884520 
-36.987202 6.447350 3.881070 
-36.558399 6.642580 3.557620 
-35.271999 -7.937240 15.984900 
-5.254690 6.528860 3.881070 
0.319943 6.338480 3.881070 
-34.843102 -7.937240 16.231400 
-3.539420 58.958401 38.803398 
31.194799 6.213770 17.539101 
-36.558399 7.071400 3.685010 
-36.754398 7.071400 3.881070 
-9.971690 6.915240 3.881070 
12.326800 -26.111300 17.603201 
30.319799 -28.091700 24.464300 
1.443680 7.071400 3.881070 
2.464030 7.071400 3.755010 
2.040960 7.071400 3.881070 
13.176600 -51.676701 29.181299 
2.892850 6.812330 3.881070 
30.337200 -27.662901 24.365700 
-36.511600 7.500220 3.881070 
2.892850 72.680603 36.696602 
-9.542880 7.153690 3.881070 
-9.114060 7.284600 3.881070 
-7.827600 7.339130 3.881070 
-7.827600 7.500220 3.609480 
-7.398790 7.350450 3.881070 
2.464030 55.098999 39.144299 
-6.969970 7.314140 3.881070 
22.596100 51.239700 26.608400 
-3.968240 73.109398 36.549801 
30.337200 -7.937240 15.991200 
-18.548100 62.389000 34.088402 
15.328600 -27.233999 24.362900 
-35.271999 -7.508420 16.264099 
15.757400 62.389000 34.247898 
-35.271999 8.357850 3.633330 
29.908400 8.354610 3.881070 
30.224701 -27.233999 24.464300 
29.572901 8.786670 3.881070 
-34.843102 9.023420 3.881070 
-34.642799 9.215490 3.881070 
-2.252960 58.958401 38.904999 
-19.834499 -7.778350 16.316799 
-18.976900 -7.509890 16.316799 
-3.539420 73.109398 36.609100 
28.193100 9.644310 3.712490 
28.412500 9.644310 3.881070 
28.621901 9.493980 3.881070 
13.453300 -7.508420 16.316799 
15.757400 -26.376400 24.320299 
28.193100 9.949540 3.881070 
-3.110600 73.109398 36.641499 
-32.639198 10.501900 3.881070 
2.892850 75.682297 35.381001 
30.766001 -7.508420 16.046400 
-32.156502 11.359600 3.881070 
26.906700 11.359600 3.657780 
30.337200 -26.376400 24.240400 
26.477800 11.788400 3.709440 
-24.010401 -34.523998 19.318501 
10.182800 81.890198 27.037201 
-31.412600 12.015800 3.881070 
-35.271999 -15.656000 19.309999 
-30.983801 12.293800 3.881070 
-30.555000 12.522800 3.881070 
-30.126101 12.646000 3.859990 
-20.827600 -28.949301 9.884520 
14.899800 -28.949301 9.520550 
13.444400 -7.079600 16.316799 
2.237590 -2.791410 40.330601 
-29.697300 12.770400 3.881070 
-29.268499 12.856600 3.881070 
29.080099 10.501900 18.889700 
-10.829300 82.543404 26.822100 
-36.129601 -6.650780 15.948800 
-28.410900 13.407100 3.881070 
-35.798000 -6.650780 16.316799 
-27.982100 13.503700 3.596020 
14.691900 -28.949301 9.884520 
-27.124399 13.932500 3.598190 
-26.695601 13.932500 3.535990 
-17.895300 -6.650780 16.316799 
33.245800 -25.947599 17.603201 
-26.266800 14.361300 3.849890 
-25.837999 14.361300 3.546880 
22.688601 52.097301 26.608400 
22.885000 14.361300 3.881070 
20.360901 22.508900 10.313300 
16.296600 -24.661100 24.464300 
17.472700 70.795799 29.181299 
21.760799 14.790100 3.485080 
21.187500 -44.559299 10.716700 
22.333000 14.790100 3.881070 
14.899800 -45.673199 28.531900 
16.545099 -24.232300 24.464300 
-23.265100 15.218900 3.669270 
19.616800 15.218900 3.564880 
20.045601 15.218900 3.803760 
-18.119200 63.246601 34.182598 
21.760799 15.096800 3.881070 
-17.690399 -6.461440 16.316799 
-23.693899 15.244500 3.881070 
-17.409300 -6.221960 16.316799 
2.892850 55.098999 39.134998 
21.332001 15.223600 3.881070 
-1.824150 58.958401 38.878899 
-22.959000 16.076599 3.881070 
-41.083302 -28.091700 9.884520 
-22.407400 16.934200 3.607370 
-22.635700 16.934200 3.881070 
13.184500 -6.566480 16.316799 
31.194799 -6.515590 16.316799 
-20.757099 -28.091700 9.884520 
29.908400 -4.077870 18.667000 
-21.978600 17.791901 3.543690 
19.187901 17.791901 3.748650 
29.050800 -44.426300 10.742200 
26.049000 -21.921000 25.750799 
17.043900 -23.374701 24.275900 
14.354200 -28.091700 9.884520 
-16.832800 -5.905350 16.316799 
18.666401 18.649500 3.881070 
29.479601 -44.586498 10.742200 
12.119100 -5.793140 16.316799 
-21.121000 19.507099 3.658070 
31.623699 -28.426701 9.884520 
18.135900 19.507099 3.881070 
18.330299 19.138700 3.881070 
-20.692200 20.364799 3.796410 
12.326800 -6.040420 16.316799 
-20.263300 20.364799 3.473100 
22.189699 -45.695900 28.752501 
31.623699 -5.793140 15.985700 
-19.405701 20.793600 3.514590 
-15.975100 -5.546620 16.316799 
17.621401 20.793600 3.881070 
-20.263300 20.890699 3.881070 
-19.834499 21.036301 3.881070 
16.615000 21.222401 3.490790 
17.043900 21.222401 3.678050 
-30.355000 15.647800 18.460899 
17.472700 21.038099 3.881070 
11.856200 -5.364320 16.316799 
31.398199 -5.364320 16.316799 
-17.778099 63.675400 34.327099 
15.757400 63.675400 33.992100 
17.043900 21.450399 3.881070 
1.589420 -3.220230 43.332298 
16.186199 21.768400 3.881070 
16.615000 21.654499 3.881070 
-17.690399 22.508900 3.769220 
-36.296700 -4.935500 16.316799 
14.899800 22.508900 3.472090 
15.064000 22.937700 3.881070 
17.472700 -22.517000 24.297199 
11.040400 60.244900 37.188301 
29.908400 -22.517000 24.449301 
14.470900 23.366501 3.612400 
-17.618601 64.104202 34.327099 
15.328600 64.104202 34.250801 
22.618500 -45.673199 28.494600 
1.177580 58.958401 38.698101 
14.042100 24.224100 3.692970 
-16.832800 25.081800 3.725180 
11.592900 -4.935500 16.316799 
13.613300 25.081800 3.498730 
31.623699 -4.935500 16.092699 
14.042100 24.700600 3.881070 
-16.669300 25.939400 3.881070 
13.613300 25.939400 3.491540 
13.900600 25.939400 3.881070 
-12.973400 67.963600 35.339901 
-16.563999 26.368200 3.881070 
15.328600 64.532997 34.161201 
14.028100 27.225901 3.881070 
-16.403999 27.256201 3.881070 
15.300300 -45.244400 28.752501 
16.849100 77.826401 25.322001 
22.189699 -45.244400 28.576900 
-16.235201 28.512300 3.881070 
14.270900 28.512300 3.881070 
32.070499 -27.662901 9.884520 
-16.224899 28.941099 3.881070 
-14.738700 -4.506690 16.316799 
-16.403999 29.798800 3.777600 
17.043900 44.005798 29.181299 
11.346100 -4.506690 16.316799 
15.155900 29.798800 3.881070 
-17.261600 30.463900 3.881070 
29.908400 -21.659401 24.201300 
15.328600 30.656401 3.757560 
-9.971690 52.189899 37.757702 
11.040400 12.217200 26.660601 
15.623800 31.514000 3.881070 
-36.987202 -4.077870 16.296700 
-20.536800 -27.233999 9.884520 
15.757400 31.942900 3.519890 
15.937000 31.942900 3.881070 
-18.239500 32.800499 3.881070 
16.186199 32.415100 3.881070 
18.759100 -21.230600 24.361000 
16.271500 32.800499 3.881070 
-18.464300 33.229301 3.881070 
-14.475900 -4.077870 16.316799 
29.479601 -21.230600 24.267700 
16.391800 33.658100 3.881070 
-19.891600 34.086899 3.881070 
1.606390 58.958401 38.784000 
18.330299 34.515800 3.824640 
32.052502 -4.077870 15.898100 
-17.261600 78.134903 25.322001 
18.759100 -20.801800 24.184401 
-19.981800 34.944599 3.881070 
-20.068001 35.373402 3.881070 
19.187901 35.040401 3.881070 
19.359100 35.373402 3.881070 
14.014600 -27.233999 9.884520 
-20.263300 35.652599 3.881070 
32.306099 -27.233999 9.884520 
-17.261600 64.961899 34.303101 
-21.864901 37.088699 3.881070 
-24.911200 54.241402 26.608400 
19.282301 37.088699 3.881070 
-23.474199 -47.817299 18.889700 
19.616800 37.569500 3.881070 
29.050800 -20.801800 24.370600 
15.757400 -44.890301 28.752501 
-22.854500 38.375099 3.881070 
-20.469101 -26.805201 9.884520 
-23.457001 39.232800 3.881070 
-23.265100 38.976898 3.881070 
20.903200 38.985001 3.881070 
21.080700 39.232800 3.881070 
21.332001 39.668400 3.881070 
21.509300 40.090401 3.881070 
-24.347200 40.519199 3.881070 
-29.697300 15.974800 18.460899 
21.670500 40.519199 3.881070 
22.093700 41.376900 3.881070 
-25.050600 41.805698 3.881070 
11.469200 60.244900 37.079899 
-4.825880 55.527802 39.087200 
22.328800 41.805698 3.881070 
23.047300 42.530602 3.881070 
-37.243500 -3.220230 16.316799 
-1.395330 5.532950 36.042400 
-25.534700 43.092098 3.881070 
-25.409100 42.754101 3.881070 
24.108101 43.520901 3.881070 
-26.340599 43.949799 3.881070 
21.332001 -44.815601 28.620701 
-25.837999 43.531200 3.881070 
24.333799 43.732498 3.881070 
28.621901 -20.372999 24.329500 
-20.535500 -26.376400 9.884520 
-1.824150 73.109398 36.741600 
30.337200 44.352001 3.881070 
30.766001 44.333801 3.881070 
26.049000 44.595200 3.881070 
26.477800 44.664600 3.881070 
26.906700 44.696999 3.881070 
27.335501 44.710999 3.881070 
27.764299 44.684200 3.881070 
-37.416100 -2.791410 16.166599 
31.623699 44.540901 3.881070 
32.052502 44.640598 3.881070 
32.481300 44.726501 3.881070 
32.910099 44.757999 3.881070 
33.767799 44.876801 3.881070 
34.196602 44.921200 3.881070 
34.625401 45.025501 3.881070 
22.503500 54.241402 26.608400 
35.054199 45.236198 3.459010 
20.045601 -19.944099 24.121201 
35.981602 45.665001 3.881070 
20.474400 -20.158600 24.464300 
20.474400 -19.944099 24.257500 
-33.127899 46.093800 3.877020 
36.340698 45.864799 3.881070 
36.769501 45.995201 3.881070 
-4.381620 -3.649050 54.910400 
-24.980301 54.670200 26.527399 
32.543701 -26.376400 9.884520 
-33.556702 46.120899 3.881070 
15.328600 65.390701 33.944500 
-32.699100 46.127300 3.881070 
-32.270199 46.223999 3.881070 
-31.841400 46.330799 3.881070 
-29.268499 46.207100 3.881070 
38.055901 46.135101 3.881070 
38.484798 46.287300 3.881070 
-12.973400 -2.759860 16.316799 
28.193100 -20.326799 24.464300 
38.913601 46.593399 3.881070 
39.172001 46.951500 3.881070 
20.903200 -19.938400 24.464300 
-37.843102 47.380299 3.881070 
-37.416100 47.136299 3.881070 
40.628899 47.380299 3.698690 
41.057701 47.380299 3.641170 
-16.832800 65.819504 34.260700 
20.903200 -19.515301 24.037500 
14.899800 65.819504 34.170101 
21.332001 -19.515301 24.101200 
21.332001 -19.929701 24.464300 
-38.736000 48.237999 3.881070 
-33.556702 -53.086601 10.313300 
41.486500 47.889301 3.881070 
-39.131302 48.636600 3.881070 
41.915298 48.312099 3.881070 
-16.490900 66.248299 34.327099 
42.772900 48.666801 3.721500 
42.377499 48.666801 3.881070 
2.892850 58.958401 38.795300 
3.321670 58.958401 38.751202 
42.772900 48.836399 3.881070 
43.201801 48.685600 3.881070 
24.333799 -19.535500 24.464300 
-1.395330 73.109398 36.741299 
-40.303101 49.953201 3.881070 
3.750490 58.958401 38.701500 
44.871799 49.953201 3.881070 
32.052502 -2.443140 16.316799 
-37.416100 -1.933780 16.064301 
45.092800 50.810902 3.881070 
-37.249401 -1.933780 16.316799 
-41.155998 51.239700 3.881070 
45.141300 51.239700 3.881070 
-12.544600 -2.200680 16.316799 
45.249298 52.097301 3.881070 
4.179310 58.958401 38.691399 
14.042100 -25.947599 9.552100 
45.345798 52.409100 3.881070 
27.335501 -19.792700 24.464300 
45.611599 53.383801 3.881070 
32.648300 -25.947599 9.884520 
-42.453800 53.812599 3.881070 
45.664799 53.812599 3.881070 
-42.745499 55.098999 3.881070 
45.659199 55.098999 3.881070 
-42.763802 55.527802 3.881070 
45.701900 55.527802 3.881070 
-42.699402 55.956699 3.881070 
-42.436001 56.814301 3.881070 
45.657501 56.814301 3.881070 
-42.561901 57.243099 3.548360 
-42.389400 57.243099 3.881070 
45.566502 57.243099 3.881070 
-39.373199 4.069680 10.313300 
-42.306900 58.529598 3.881070 
14.337300 66.677101 34.327099 
-42.181599 58.958401 3.881070 
45.345798 58.958401 3.623390 
-16.403999 67.105904 34.065498 
-4.825880 -2.030080 52.337502 
44.903198 59.387199 3.881070 
-20.744900 -25.518801 9.884520 
23.047300 -19.086500 24.214300 
9.325120 -1.504960 15.985900 
-41.594898 60.244900 3.881070 
9.495760 -1.504960 16.316799 
-28.233299 16.505400 18.460899 
-13.831100 60.673698 37.015999 
-37.527901 -1.076140 16.316799 
14.470900 67.105904 34.098900 
-41.275398 60.750999 3.881070 
-41.578499 -25.090000 9.884520 
-41.094002 61.102501 3.881070 
-41.275398 61.531300 3.496870 
-40.955200 61.531300 3.881070 
-12.115800 -1.395330 16.316799 
-11.932300 -1.076140 16.316799 
40.435902 61.531300 3.881070 
-4.397060 59.387199 38.661701 
-40.798599 61.960098 3.881070 
40.200001 61.674801 3.881070 
22.189699 -44.815601 28.386101 
25.191401 -19.499001 24.464300 
26.049000 -19.280199 24.464300 
-40.417801 62.817799 3.567250 
-3.968240 55.527802 39.170399 
38.484798 62.691299 3.881070 
26.477800 -19.350901 24.464300 
-39.560101 -34.095100 18.936800 
36.769501 63.107300 3.881070 
36.537201 63.246601 3.881070 
37.198299 62.963001 3.881070 
37.627102 62.909801 3.881070 
35.889599 63.675400 3.881070 
36.340698 63.377602 3.881070 
20.903200 16.218300 18.460899 
-21.549801 -0.647325 24.153500 
35.054199 64.048599 3.881070 
-37.779202 64.532997 3.881070 
-15.681700 67.534798 34.327099 
-3.539420 59.387199 38.772598 
33.338902 64.403099 3.881070 
33.767799 64.332802 3.881070 
-22.836201 -0.218506 24.351500 
-36.485600 64.961899 3.881070 
31.194799 64.961899 3.577920 
31.194799 64.948601 3.881070 
-37.593399 -0.647325 16.316799 
-35.271999 65.390701 3.551160 
-35.271999 65.137604 3.881070 
-0.966514 73.109398 36.752899 
-34.843102 65.136398 3.881070 
-34.414299 65.390701 3.479590 
-21.121000 -0.218506 24.325899 
33.080299 -25.090000 9.884520 
22.969000 55.527802 26.608400 
-20.692200 -0.218506 24.294100 
-20.263300 -0.218506 24.255301 
9.154480 -0.647325 16.316799 
29.479601 65.222298 3.881070 
29.908400 65.050903 3.881070 
30.337200 64.986801 3.881070 
30.766001 64.988197 3.881070 
-29.697300 65.537498 3.881070 
-29.268499 65.686501 3.881070 
19.187901 -0.218506 24.204500 
19.616800 -0.218506 24.172400 
-20.692200 -24.661100 9.860830 
14.042100 67.387703 34.327099 
28.621901 65.896698 3.881070 
-1.089550 -5.364320 53.624001 
-28.093599 66.677101 3.881070 
23.223301 -51.676701 27.466101 
26.477800 67.516800 3.881070 
-39.321400 -34.095100 19.318501 
32.481300 -0.647325 16.091801 
-28.254400 67.963600 3.881070 
14.470900 67.534798 33.952499 
-28.616100 68.821198 3.881070 
25.786501 68.821198 3.881070 
32.278099 -0.647325 16.316799 
-28.781700 69.250000 3.881070 
20.474400 -0.218506 24.149401 
-27.817699 16.934200 18.460899 
-28.820999 70.107697 3.881070 
-15.546300 67.963600 34.228100 
-24.362400 55.956699 26.608400 
-28.638901 70.536499 3.881070 
23.904900 70.965302 3.463760 
-24.025700 -34.095100 19.318501 
-24.122700 0.210313 24.172001 
-23.693899 0.210313 24.274200 
-27.982100 71.324402 3.881070 
-27.553200 71.669800 3.881070 
-27.339399 71.822899 3.881070 
-41.754299 -24.232300 9.884520 
33.391701 -25.090000 17.603201 
23.047300 71.531898 3.881070 
-26.266800 72.427597 3.881070 
-25.837999 72.622002 3.881070 
23.047300 55.834202 26.608400 
22.268900 72.680603 3.881070 
-25.409100 72.816399 3.881070 
-24.122700 73.293198 3.881070 
-23.693899 73.382599 3.881070 
13.763600 67.963600 34.327099 
-37.576698 0.210313 16.316799 
-23.218500 73.538200 3.881070 
21.332001 73.721298 3.881070 
-27.553200 17.194401 18.460899 
-22.419100 74.395897 3.881070 
-0.537695 73.109398 36.749699 
20.545601 74.395897 3.881070 
-21.978600 -0.063935 24.464300 
13.755700 -24.232300 9.884520 
-21.790300 75.253502 3.881070 
33.161800 -24.232300 9.884520 
19.534000 75.253502 3.881070 
-20.692200 75.892502 3.881070 
8.512730 0.210313 16.316799 
-2.681780 59.387199 38.841702 
17.578501 76.111099 3.881070 
17.901501 75.936897 3.881070 
-0.108876 73.109398 36.751598 
17.222799 76.539902 3.881070 
-0.108876 72.728996 36.900101 
-19.405701 76.968803 3.473560 
-19.634001 76.968803 3.881070 
-10.400500 0.487410 16.316799 
-20.687201 -23.803499 9.884520 
-19.332199 77.826401 3.881070 
-27.350500 17.363001 18.460899 
16.796000 77.826401 3.881070 
-18.976900 78.255699 3.881070 
-18.609600 78.683998 3.881070 
18.759100 0.210313 24.359900 
-15.117500 68.821198 34.072300 
19.187901 0.210313 24.366600 
20.474400 0.210313 24.311001 
20.903200 0.210313 24.257000 
-17.714399 79.541702 3.881070 
23.130699 56.385502 26.608400 
15.502200 79.541702 3.881070 
15.328600 79.781601 3.881070 
-17.261600 80.221901 3.881070 
33.199001 -23.803499 9.884520 
-2.252960 59.387199 38.896900 
-14.650200 68.821198 34.327099 
-9.971690 82.972198 26.765600 
-16.516300 81.256897 3.881070 
13.613300 81.093803 3.881070 
0.319943 73.109398 36.730701 
14.042100 80.944099 3.881070 
-15.546300 81.962898 3.881070 
-15.117500 82.065903 3.881070 
-9.619400 1.067950 16.316799 
-25.409100 0.639132 24.271099 
12.755700 81.828300 3.881070 
13.184500 68.821198 34.169998 
-14.286600 82.972198 3.881070 
12.326800 82.864304 3.881070 
13.051300 -51.247898 29.181299 
-24.980301 0.639132 24.372101 
1.177580 73.109398 36.680599 
9.307460 67.963600 35.613602 
32.480900 1.067950 16.316799 
-13.605000 84.258698 3.881070 
-1.824150 59.387199 38.882900 
10.885300 84.687500 3.881070 
23.128401 56.814301 26.608400 
-12.824000 85.116302 3.881070 
-9.240330 1.496770 16.316799 
10.611600 85.116302 3.521330 
10.448200 85.545097 3.881070 
17.391500 44.807400 29.181299 
-12.126200 85.973999 3.881070 
-21.121000 68.235802 29.181299 
7.686120 1.496770 16.316799 
9.753940 86.402802 3.516480 
9.753940 86.278099 3.881070 
32.481300 1.496770 16.287500 
-11.258200 86.543098 3.881070 
-14.328600 69.250000 34.327099 
14.087200 -23.374701 9.884520 
11.529800 69.250000 34.327099 
8.896300 87.017097 3.881070 
8.581170 87.260399 3.881070 
-9.542880 87.454201 3.881070 
2.035210 73.109398 36.630501 
33.338902 -23.585400 9.884520 
-8.685240 88.117996 3.676940 
-18.976900 0.639132 24.194901 
7.609850 87.910698 3.881070 
18.330299 0.639132 24.407000 
6.323400 88.510902 3.881070 
-37.416100 1.925580 16.257500 
6.752210 88.355598 3.881070 
-24.867201 57.243099 26.608400 
-14.259900 69.678802 34.170799 
3.750490 88.937401 3.881070 
-8.806020 1.925580 16.316799 
4.179310 88.621902 3.881070 
4.608120 88.555298 3.881070 
-6.112330 89.261902 3.881070 
23.139200 57.243099 26.608400 
-5.683510 89.358200 3.881070 
20.045601 0.586057 24.464300 
31.775900 -34.095100 19.318501 
33.478401 -23.374701 9.884520 
3.321670 89.369400 3.881070 
20.903200 0.639132 24.368401 
-5.254690 89.411102 3.881070 
7.379680 1.925580 16.316799 
2.464030 89.694199 3.881070 
2.892850 89.577499 3.881070 
-2.681780 89.938797 3.881070 
-2.252960 90.033997 3.881070 
-1.824150 90.068901 3.881070 
0.748762 89.929901 3.881070 
-41.772400 -22.945900 9.884520 
-46.421200 -53.391998 3.907920 
32.410099 1.925580 16.316799 
-37.416100 2.354400 16.173201 
-43.419498 -53.556198 4.309880 
-42.990700 -53.541401 4.309880 
-42.561901 -53.509102 4.309880 
-42.133099 -53.472801 4.309880 
21.760799 0.639132 24.125401 
-20.806200 -22.945900 9.884520 
-35.271999 -53.542198 4.309880 
-34.843102 -53.653099 4.309880 
-34.414299 -53.751801 4.309880 
-33.985500 -53.794899 4.309880 
-5.991730 -2.791410 43.332298 
22.189699 -53.394402 4.309880 
14.230700 -22.945900 9.884520 
22.618500 -53.391998 4.252130 
23.047300 -53.417198 4.309880 
29.003799 -53.391998 4.309880 
20.859301 -44.386799 28.752501 
29.479601 -53.529999 4.309880 
29.908400 -53.613998 4.309880 
30.337200 -53.663200 4.309880 
32.910099 -53.503799 4.309880 
33.338902 -53.418900 4.309880 
-1.395330 59.387199 38.828499 
-18.976900 1.067950 24.293100 
-47.443298 -52.963100 4.309880 
-40.417801 -53.267899 4.309880 
-39.988998 -53.231602 4.309880 
-39.560101 -53.179199 4.309880 
-39.131302 -53.140701 4.309880 
-38.702499 -53.125900 4.309880 
-36.129601 -53.314800 4.309880 
-32.270199 -53.239498 4.309880 
-32.022900 -52.963100 4.309880 
20.903200 -52.963100 4.070650 
9.753940 67.963600 35.381901 
-25.129900 57.671902 26.608400 
24.762600 -53.314400 4.309880 
25.191401 -53.230900 4.309880 
25.620199 -53.123100 4.309880 
6.950670 2.354400 16.316799 
28.193100 -53.141998 4.309880 
28.193100 -52.963100 4.102040 
28.621901 -53.272900 4.309880 
33.767799 -53.301300 4.309880 
34.196602 -53.128300 4.309820 
-54.139999 -52.711300 4.309880 
-53.711102 -52.676102 4.309880 
-41.804501 -22.517000 9.884520 
-53.089001 -52.534302 4.309880 
-47.939499 -52.514702 4.315080 
20.213499 -52.534302 4.309880 
20.903200 1.067950 24.440100 
26.477800 -52.882801 4.309880 
26.906700 -52.827599 4.309880 
-20.957001 -22.517000 9.884520 
14.470900 -22.517000 9.695790 
-55.172798 -52.105499 4.309880 
-52.853500 -52.468201 4.309880 
-52.424702 -52.325901 4.309880 
-51.995899 -52.156200 4.309880 
-31.765800 -52.105499 4.309880 
22.189699 1.067950 24.171400 
34.926201 -52.125599 4.257890 
-55.078701 -51.676701 4.309880 
-51.567101 -51.955502 4.309880 
-48.374699 -51.675800 4.330120 
23.476101 1.067950 24.041300 
20.270201 17.791901 18.460899 
20.072500 -51.676701 4.309880 
9.753940 14.361300 26.908800 
-48.621201 -51.430698 3.927220 
-48.495899 -51.247501 4.082900 
-48.366600 -51.249001 4.349780 
-32.031799 -51.247898 4.309880 
20.045601 -51.247898 4.297850 
-54.997601 -50.819000 4.256730 
-26.344500 1.496770 24.464300 
-41.872299 -22.088200 9.884520 
-50.071701 -50.744999 3.992750 
-49.841099 -50.930000 4.292180 
34.289101 -50.816299 4.304760 
-54.997601 -50.390202 3.977220 
-54.807098 -50.390202 4.309880 
-49.804001 -50.593102 4.093150 
-49.433102 -50.544899 4.257560 
-18.976900 1.496770 24.336700 
5.894580 2.705460 16.316799 
-41.946899 -51.084801 -1.920760 
-41.924198 -51.088699 -1.562400 
-42.083401 -51.377602 -1.838640 
27.837200 -49.896702 3.918560 
28.125601 -49.947800 3.851080 
16.615000 -43.958000 28.454000 
-12.544600 70.244904 34.327099 
34.153301 -49.953999 4.311000 
-21.073299 -22.088200 9.884520 
-31.744900 -49.532600 4.309880 
20.045601 -49.532600 4.276660 
17.901501 1.496770 24.291201 
-26.695601 18.220699 18.158600 
-20.581400 45.236198 29.181299 
-53.650002 -49.103802 4.309880 
-12.115800 70.211700 34.327099 
-51.487499 -49.113800 4.032010 
9.753940 67.666298 35.613602 
-31.987600 -49.103802 4.309880 
21.332001 1.496770 24.374701 
20.004200 -49.103802 4.309880 
-7.827600 2.850900 16.316799 
27.057501 -49.088501 4.295390 
33.891399 -49.094002 4.297080 
-53.282299 -48.905602 4.309880 
-52.853500 -48.776798 4.309880 
-52.424702 -48.674999 4.167610 
22.189699 1.496770 24.304701 
-49.974998 -49.150600 4.390210 
-49.423100 -49.633999 4.643600 
-47.002201 -48.755798 4.263190 
23.047300 1.496770 24.237301 
-32.312801 -48.674999 4.309880 
4.573940 3.212040 16.316799 
28.621901 -48.674999 4.100060 
22.289200 -51.247898 29.181299 
-27.124399 1.925580 24.190399 
5.036940 2.971340 16.316799 
-46.597698 -48.230000 4.342680 
-32.699100 -48.246101 3.933520 
-32.529400 -48.246101 4.309880 
10.611600 67.963600 35.523102 
32.046101 3.212040 16.316799 
33.487400 -48.246201 4.309620 
34.294998 -22.088200 9.884520 
-46.217800 -47.842499 4.340120 
20.176100 18.220699 18.460899 
-7.167640 3.640860 16.316799 
28.621901 -48.183800 4.309880 
28.896900 -47.817299 4.309880 
23.112000 58.958401 26.608400 
4.179310 3.409540 16.316799 
-1.824150 73.538200 36.549099 
-18.548100 1.925580 24.114300 
32.065601 3.640860 16.316799 
25.226101 -47.388500 4.309880 
-25.639400 59.387199 26.608400 
21.396799 -44.175400 10.776800 
-45.563599 -46.989799 4.309880 
-45.563599 -46.959702 3.940940 
21.332001 -43.958000 28.706200 
-32.852501 -46.959702 4.309880 
18.000799 1.925580 24.464300 
24.513300 -46.959702 4.309880 
2.892850 3.965990 16.316799 
2.035210 59.387199 38.903900 
29.479601 -47.312099 4.309880 
29.908400 -47.150799 4.309880 
21.763700 1.925580 24.464300 
14.591100 -21.659401 9.884520 
-33.105999 -46.530899 4.309880 
3.321670 3.784550 16.316799 
12.785000 -33.666302 19.318501 
23.904900 -46.530899 4.258890 
22.618500 1.925580 24.411200 
23.047300 1.925580 24.343500 
23.476101 1.925580 24.256500 
30.766001 -46.732300 4.309880 
23.904900 1.925580 24.135900 
-27.553200 2.354400 24.185101 
-33.511600 -46.102100 4.309880 
14.899800 -21.659401 9.534270 
21.760799 -46.459000 4.309880 
34.233501 -21.659401 9.884520 
-44.107101 -45.673199 4.309880 
-1.395330 73.538200 36.558701 
-34.063900 -45.673199 4.309880 
-19.129400 2.354400 24.464300 
-42.202000 -21.230600 9.884520 
-6.182690 4.498500 16.316799 
-34.414299 -45.375500 4.309880 
-42.990700 -44.980499 4.309880 
-13.402200 60.673698 37.129398 
-38.702499 -45.089100 4.309880 
11.898000 70.536499 34.171600 
-35.728802 -44.815601 4.309880 
-35.271999 -44.998001 4.309880 
-34.843102 -45.158298 4.309880 
15.757400 2.354400 24.174200 
-40.417801 -44.386799 4.133920 
-39.988998 -44.386799 4.249650 
16.186199 2.354400 24.273899 
-39.560101 -44.760399 4.309880 
-40.846600 -44.364799 4.309880 
-21.240299 -21.230600 9.884520 
-25.726601 59.816002 26.608400 
-30.555000 -32.808701 4.226160 
16.615000 2.354400 24.443600 
-29.268499 -32.971199 4.309880 
-0.966514 73.538200 36.567402 
22.189699 -43.958000 28.407801 
-30.983801 -32.379902 4.246050 
-37.416100 4.927310 16.215099 
14.655100 -47.817299 18.889700 
-28.839701 -32.379902 4.167690 
-26.266800 18.649500 18.125700 
23.092800 59.816002 26.608400 
-28.238199 -32.379902 4.309880 
-16.832800 78.683998 24.927000 
12.904800 -24.661100 17.603201 
-30.126101 -31.951000 3.895980 
1.400500 4.927310 16.316799 
-28.839701 -31.951000 4.048820 
9.147740 16.076599 27.037201 
23.047300 2.354400 24.444099 
-11.541200 70.965302 34.327099 
-37.302502 5.356130 16.316799 
23.476101 2.354400 24.348801 
24.333799 2.354400 24.112600 
-25.766701 60.244900 26.608400 
-32.699100 -31.495199 4.309880 
-27.982100 -31.093399 3.954260 
-27.553200 -31.093399 4.045050 
20.103100 18.649500 18.460899 
17.152599 -43.529099 28.752501 
-27.124399 -30.664600 3.966900 
-26.695601 -30.664600 4.053240 
-27.982100 2.783220 24.278900 
32.052502 5.356130 16.224899 
-36.987202 -30.235800 4.266700 
-27.124399 2.467820 24.464300 
-33.127899 -30.235800 4.007640 
-33.417702 -30.235800 4.309880 
12.966200 -50.819000 29.181299 
-36.987202 -29.806999 4.010300 
23.047300 -34.632301 10.742200 
-36.558399 -29.806999 4.184940 
-4.397060 -1.848570 52.337502 
-34.843102 -30.000500 4.309880 
-34.843102 -29.806999 4.129220 
-34.414299 -29.927799 4.309880 
14.470900 -36.667999 25.432899 
-39.686199 -33.237499 19.318501 
-25.837999 -29.806999 4.068270 
-37.219101 5.784950 16.316799 
-38.273701 -29.378099 4.108000 
-38.497799 -29.378099 4.309880 
-12.115800 71.394096 33.962601 
33.365799 -24.661100 17.603201 
-5.005470 5.784950 16.316799 
-25.409100 -29.378099 4.205770 
33.467300 -20.801800 9.884520 
-38.273701 -28.949301 4.025480 
-38.273701 -28.520500 4.083470 
-38.536400 -28.520500 4.309880 
-37.844898 -28.520500 3.881740 
-25.409100 -28.520500 3.910930 
-24.980301 -28.520500 4.129510 
11.898000 71.394096 34.123600 
-24.551500 -28.091700 4.187710 
0.853531 5.784950 16.316799 
-38.273701 -27.662901 4.237320 
14.899800 2.783220 24.155300 
-11.749600 71.822899 34.327099 
-38.273701 -27.233999 4.057980 
-38.468498 -27.233999 4.309880 
-24.171000 -27.233999 4.309880 
31.903900 5.784950 16.316799 
-21.549801 -20.554001 9.884520 
16.186199 2.663550 24.464300 
3.750490 59.387199 38.864498 
-38.702499 -26.886999 4.309880 
22.189699 -43.529099 28.530500 
26.049000 -26.805201 4.022860 
15.328600 -20.518499 9.884520 
26.477800 -26.805201 4.213830 
-4.556350 6.213770 16.316799 
23.047300 60.673698 26.602100 
0.593980 6.213770 16.316799 
33.915199 4.069680 10.313300 
11.469200 71.822899 34.223801 
24.333799 -26.506500 4.309880 
23.904900 2.783220 24.310900 
24.333799 2.783220 24.187599 
-39.131302 -25.947599 4.130330 
31.760000 6.213770 16.316799 
-6.112330 -2.378270 40.330601 
24.762600 2.783220 24.040300 
23.904900 -26.338400 4.309880 
23.904900 -25.947599 4.072480 
24.333799 -25.947599 3.993980 
24.762600 -25.947599 3.990280 
-36.958000 6.642580 16.316799 
27.335501 -26.108700 4.309880 
27.335501 -25.947599 4.111330 
27.764299 -26.039801 4.309880 
-25.837999 19.078300 18.093201 
-25.611401 19.078300 18.460899 
-22.949301 -24.232300 17.603201 
23.047300 -25.518801 4.307390 
-11.702300 72.251801 34.327099 
11.040400 72.251801 34.255600 
23.476101 -25.518801 4.114880 
-39.560101 -25.090000 4.144230 
-42.305199 -19.944099 9.884520 
0.319943 6.482420 16.316799 
-22.966900 -25.090000 4.309880 
-27.982100 3.111990 24.464300 
-39.560101 -24.661100 4.054470 
31.623699 6.642580 16.269300 
-22.880199 -24.661100 4.309880 
22.983999 61.102501 26.608400 
21.677099 -24.661100 4.309880 
-40.175301 -24.232300 4.309880 
-18.548100 2.848370 24.464300 
-39.560101 -24.232300 3.968860 
15.651300 -19.944099 9.884520 
4.179310 59.387199 38.858200 
-40.663799 -23.803499 4.309880 
-3.110600 6.987180 16.316799 
-39.988998 -23.803499 3.996830 
-2.818460 7.071400 16.316799 
-22.768999 -23.803499 4.309880 
-25.756701 61.531300 26.608400 
-40.936699 -23.374701 4.309880 
-13.831100 12.646000 26.741400 
-40.417801 -23.374701 3.886830 
-22.836201 -23.374701 4.235570 
29.479601 -23.374701 4.185530 
33.323799 -24.232300 17.603201 
-40.846600 -22.945900 4.069920 
-41.029099 -22.945900 4.309880 
-12.115800 72.680603 33.948200 
16.615000 -43.100300 28.398800 
-40.846600 -22.517000 4.083610 
-41.012199 -22.517000 4.309880 
-15.975100 3.212040 24.223301 
-22.907000 -22.517000 4.309880 
22.941200 61.531300 26.608400 
-40.846600 -22.088200 4.081340 
-40.998699 -22.088200 4.309880 
-23.265100 -22.088200 3.991790 
-23.031700 -22.088200 4.309880 
20.903200 -22.088200 4.115580 
21.332001 -22.088200 3.993770 
30.298000 -22.088200 4.309880 
25.414400 -43.958000 10.742200 
-41.116699 -23.803499 17.603201 
21.332001 -21.659401 3.938120 
15.328600 3.212040 24.285400 
30.313801 -21.659401 4.309880 
-41.459702 -21.230600 4.309880 
-41.275398 -21.506001 4.309880 
20.903200 -21.230600 4.187570 
21.332001 -21.230600 4.018770 
31.334999 7.500220 16.316799 
30.337200 -21.230600 4.294970 
-39.131302 4.477310 10.313300 
23.596500 3.212040 24.464300 
21.332001 -20.801800 4.163240 
23.904900 3.212040 24.386000 
10.611600 72.680603 34.282299 
24.333799 3.212040 24.250500 
21.177401 -20.372999 4.309880 
31.124500 7.929040 16.316799 
-28.839701 3.640860 24.255301 
31.194799 -20.553101 4.309880 
31.490200 -20.372999 4.309880 
21.170500 -19.944099 4.309880 
30.827600 8.357850 16.316799 
-36.163898 8.786670 16.316799 
32.052502 -19.944099 3.884890 
32.189301 -19.944099 4.309880 
20.950899 -19.515301 4.309880 
32.481300 -19.679100 4.309880 
-42.404701 -19.086500 9.884520 
-42.057899 -19.086500 4.309880 
-16.056299 3.640860 24.464300 
32.816700 -19.086500 4.309880 
-42.042000 -18.657700 4.309880 
-24.551500 -18.657700 4.039500 
-24.340500 -18.657700 4.309880 
11.040400 72.680603 34.050900 
-25.650000 62.389000 26.608400 
-42.133099 -18.342600 4.309880 
-15.875200 78.683998 25.322001 
-24.439899 -18.228901 4.309880 
23.047300 62.389000 26.209101 
-42.376400 -17.800100 4.309880 
-24.551500 -17.845800 4.309880 
-11.258200 73.109398 34.258598 
20.474400 -17.800100 4.027420 
-3.110600 55.527802 39.237099 
-35.987999 9.644310 16.316799 
33.767799 -17.371201 4.008860 
33.621899 -17.371201 4.309880 
-42.561901 -16.942400 4.195940 
30.527700 9.644310 16.316799 
10.182800 73.001701 34.327099 
28.561899 -43.100300 18.889700 
33.723202 -16.942400 4.309880 
-42.561901 -16.513599 4.196570 
-35.828098 10.073100 16.316799 
33.867401 -16.513599 4.309880 
19.949100 19.507099 18.460899 
10.611600 73.109398 34.054100 
24.333799 3.640860 24.287600 
-26.085899 -16.084801 4.309880 
-42.402901 -15.656000 4.309880 
-2.035410 -3.220230 53.624001 
-26.213100 -15.656000 4.309880 
19.211500 -15.656000 4.309880 
33.029900 -19.086500 9.884520 
30.337200 10.501900 16.245199 
19.034901 -15.227100 4.309880 
-15.546300 3.944860 24.464300 
34.196602 -15.227100 4.193900 
22.840300 62.389000 26.608400 
18.833401 -14.798300 4.309880 
34.196602 -14.798300 4.237480 
-5.992860 -2.362600 43.332298 
-24.980301 19.935900 18.120800 
-41.594299 -14.369500 4.309880 
-14.688700 4.069680 24.117701 
-41.521599 -13.940700 4.309880 
-42.478802 -18.657700 9.884520 
-26.027599 -13.940700 4.309880 
14.899800 4.069680 24.141800 
18.231800 -13.511900 4.309880 
-25.488400 63.246601 26.608400 
0.748762 73.538200 36.557598 
15.442100 4.069680 24.464300 
34.086800 -13.511900 4.309880 
18.082199 -13.083100 4.309880 
33.948002 -13.083100 4.309880 
-41.806000 -12.654200 4.309880 
24.333799 4.069680 24.266899 
24.762600 4.069680 24.131100 
-41.856701 -12.225400 4.309880 
-25.837999 -12.225400 4.065030 
-25.641001 -12.225400 4.309880 
-34.555302 12.217200 16.316799 
17.757099 -12.225400 4.309880 
33.338902 -11.796600 4.264350 
-15.117500 4.324820 24.464300 
10.182800 73.538200 34.045700 
-41.865898 -11.367800 4.309880 
-10.829300 73.967003 34.080299 
33.205101 -11.367800 4.309880 
-41.833698 -10.939000 4.309880 
-25.059999 -10.939000 4.309880 
17.122400 -10.939000 4.309880 
33.095600 -10.939000 4.309880 
19.843399 19.935900 18.460899 
33.071800 -10.510100 4.309880 
-10.400500 73.841599 34.327099 
-34.414299 12.646000 15.993300 
-24.211599 -10.081300 4.309880 
29.050800 12.646000 16.086300 
-23.991100 -9.652500 4.309880 
16.421700 -9.652500 4.309880 
-2.252960 4.368120 24.464300 
-41.275398 -23.374701 17.201300 
-1.395330 4.133310 24.464300 
16.186199 -9.305690 4.309880 
33.338902 -9.223690 3.974120 
33.586498 -9.223690 4.309880 
-41.518600 -8.794870 4.309880 
9.325120 73.967003 34.203899 
-41.405399 -8.366050 4.309880 
-22.836201 -8.562070 4.309880 
32.754700 -18.657700 9.884520 
-22.640100 -8.366050 4.309880 
0.748762 4.229980 24.464300 
0.748762 4.498500 24.060400 
-41.246899 -7.937240 4.309880 
1.177580 4.351060 24.464300 
-42.547699 -18.228901 9.884520 
-41.080200 -7.508420 4.309880 
14.470900 4.498500 24.068001 
-22.176100 -7.508420 4.309880 
28.193100 13.074900 16.058800 
14.899800 4.498500 24.226500 
26.049000 -44.033100 10.742200 
-21.978600 -7.079600 4.099210 
27.943600 13.074900 16.316799 
14.635800 -7.079600 4.309880 
34.553600 -7.079600 4.309880 
28.621901 12.712200 16.316799 
14.470900 -6.801690 4.309880 
32.663200 -18.228901 9.884520 
-33.556702 13.343700 16.316799 
34.690300 -6.650780 4.309880 
16.729601 -17.800100 9.884520 
34.625401 -6.221960 4.085570 
34.747002 -6.221960 4.309880 
-40.656898 -5.793140 4.309880 
-20.692200 -5.808250 4.309880 
-42.447201 -17.371201 9.884520 
34.765701 -5.793140 4.309880 
-40.553799 -5.364320 4.309880 
-20.263300 -5.439580 4.309880 
24.333799 4.498500 24.234900 
-40.501900 -4.935500 4.309880 
-29.697300 4.927310 24.118200 
-19.834499 -4.935500 4.242110 
-29.268499 4.927310 24.325500 
13.303200 -4.935500 4.309880 
-19.405701 -4.522590 4.309880 
2.318410 -2.362600 40.330601 
-9.971690 74.395897 34.247101 
12.938600 -4.506690 4.309880 
-33.127899 13.533100 16.316799 
-14.259900 4.927310 24.367100 
-22.620899 -17.371201 9.884520 
12.755700 -4.243770 4.309880 
34.474400 -4.077870 4.309880 
-40.682598 -3.649050 4.309880 
-40.732300 -3.220230 4.309880 
-32.541801 14.361300 16.316799 
-18.548100 -3.220230 4.184520 
19.705400 20.364799 18.460899 
12.075000 -3.220230 4.309880 
-24.122700 20.608801 18.460899 
-18.119200 -2.791410 4.227780 
-3.110600 4.784890 24.464300 
26.971901 14.361300 16.316799 
-32.510399 14.790100 16.316799 
-24.122700 20.793600 18.139700 
11.629300 -2.362600 4.309880 
5.894580 59.387199 38.654800 
34.662300 -2.362600 4.309880 
-40.417801 -1.933780 4.196690 
24.333799 15.218900 16.297701 
-42.258202 -16.942400 9.884520 
22.618500 64.532997 26.320299 
34.575199 -1.933780 4.309880 
-40.417801 -1.570110 4.309880 
34.469501 -1.504960 4.309880 
8.896300 74.076599 34.327099 
-40.431099 -1.076140 4.309880 
-23.192101 -16.942400 9.884520 
16.615000 -16.942400 9.746380 
34.354000 -1.076140 4.309880 
6.752210 52.526100 37.614799 
-40.446899 -0.647325 4.309880 
14.042100 4.927310 24.123400 
-3.968240 -7.937240 52.759399 
14.899800 4.927310 24.383499 
22.327600 64.961899 26.608400 
-16.403999 -0.218506 4.018770 
26.049000 14.961100 16.316799 
10.205400 -0.218506 4.309880 
32.856300 -16.942400 9.884520 
-15.813000 0.210313 4.309880 
9.986070 0.210313 4.309880 
-42.133099 -16.567301 9.884520 
11.469200 67.963600 35.547199 
9.802030 0.639132 4.309880 
33.338902 0.639132 4.182050 
19.528200 20.793600 18.460899 
23.794300 15.647800 16.316799 
25.191401 15.285700 16.316799 
24.333799 4.927310 24.201700 
-31.841400 15.810200 16.316799 
33.445702 1.067950 4.309880 
2.313160 -1.933780 40.330601 
-39.923401 1.496770 4.309880 
33.429298 1.496770 4.309880 
-1.395330 -5.439380 37.328899 
-39.700001 1.925580 4.309880 
-31.412600 16.117001 16.316799 
-14.791100 1.925580 4.309880 
32.841099 -16.513599 9.884520 
-42.133099 -16.084801 9.836350 
-39.131302 2.354400 3.966540 
-12.973400 68.392403 35.204201 
-24.122700 -16.199200 9.884520 
33.126598 2.354400 4.309880 
14.671800 -36.667999 25.750799 
-15.546300 79.262398 25.322001 
-14.259900 2.766800 4.309880 
6.752210 74.824699 34.102299 
-14.259900 3.212040 4.084940 
-24.551500 -15.812100 9.884520 
23.047300 -42.671501 28.471399 
8.382450 3.212040 4.309880 
21.196600 20.793600 10.313300 
-13.831100 5.356130 24.378700 
-13.402200 5.356130 24.144199 
8.215310 3.640860 4.309880 
-30.555000 16.620701 16.316799 
32.605400 3.640860 4.309880 
8.038670 4.069680 4.211050 
2.464030 5.044070 24.464300 
17.043900 -42.636902 28.752501 
16.288900 -15.656000 9.884520 
32.330200 4.069680 4.309880 
9.325120 5.356130 24.114100 
7.609850 4.426990 4.309880 
9.753940 5.356130 24.045401 
-29.268499 16.849800 16.316799 
-38.702499 4.893550 4.309880 
12.755700 5.356130 24.140499 
5.894580 4.927310 4.196610 
13.184500 5.356130 24.184200 
-42.216599 -15.227100 9.884520 
6.323400 4.668610 4.309880 
13.613300 5.356130 24.217699 
-38.354099 5.356130 4.309880 
-38.273701 -40.098598 18.687599 
22.189699 16.753700 16.316799 
-11.687000 5.321050 4.309880 
-2.252960 5.148430 4.309880 
-1.824150 5.165930 4.309880 
-1.395330 5.237130 4.309880 
-1.053700 5.356130 4.309880 
5.036940 5.356130 4.257310 
7.641300 74.824699 34.327099 
-4.397060 59.816002 38.779301 
-24.465500 -15.227100 9.884520 
-37.836399 5.784950 4.309880 
-11.258200 5.570770 4.309880 
24.333799 5.356130 24.198799 
-0.537695 5.656490 4.309880 
16.186199 -15.227100 9.815320 
13.000900 -50.390202 29.181299 
4.394810 5.784950 4.309880 
-29.697300 5.784950 24.196699 
-29.268499 5.784950 24.390301 
-27.982100 17.526600 16.316799 
-4.825880 6.185290 4.309880 
-24.410400 66.248299 26.608400 
31.194799 6.213770 4.013480 
27.927401 -37.096901 27.037201 
19.384001 21.222401 18.460899 
-37.212002 6.642580 4.309880 
-10.400500 6.241160 4.309880 
0.319943 6.262510 4.309880 
0.748762 6.580610 4.309880 
-12.973400 5.784950 24.151600 
20.830500 18.220699 16.316799 
2.035210 6.642580 4.303720 
-24.439600 -14.798300 9.884520 
3.321670 6.373070 4.309880 
-5.923010 -1.933780 43.332298 
-8.311850 75.253502 34.327099 
-26.875799 18.649500 16.316799 
-9.114060 6.967620 4.309880 
20.584299 19.078300 16.316799 
-8.685240 7.031750 4.309880 
16.046400 -14.798300 9.884520 
-8.256420 7.062070 4.309880 
-5.683510 6.772520 4.309880 
1.177580 6.729840 4.309880 
-26.266800 19.306000 16.316799 
-26.066900 19.507099 16.316799 
5.894580 75.032204 34.327099 
8.467490 5.784950 24.258801 
-7.398790 7.128340 4.309880 
-0.906979 -5.364320 37.328899 
32.669201 -14.798300 9.884520 
-12.544600 68.392403 35.438801 
-36.129601 8.357850 4.264420 
-5.254690 -12.100800 57.483299 
-3.539420 59.816002 38.889400 
30.146900 8.357850 4.309880 
30.337200 7.998010 4.309880 
10.611600 5.784950 24.372000 
-25.672100 19.935900 16.316799 
-35.271999 9.215490 4.306590 
-3.539420 -7.937240 52.740898 
27.335501 -44.043499 10.742200 
20.401100 19.935900 16.316799 
-33.985500 9.644310 4.064070 
-41.997601 -14.369500 9.884520 
28.845900 9.644310 4.309880 
29.050800 9.484300 4.309880 
20.474400 20.364799 15.917500 
28.507601 10.073100 4.309880 
20.317600 20.364799 16.316799 
-24.980301 20.718901 16.316799 
-33.044800 10.501900 4.309880 
20.208700 20.793600 16.316799 
28.087299 10.930800 4.309880 
-24.225000 66.677101 26.608400 
-32.699100 11.034700 4.309880 
32.627701 -14.369500 9.884520 
13.268100 -23.374701 17.603201 
24.333799 5.784950 24.210300 
26.906700 11.788400 3.977360 
27.335501 11.788400 4.295870 
-7.398790 75.421204 34.327099 
-6.969970 75.420403 34.327099 
-6.541150 75.682297 34.053200 
-30.983801 12.499900 4.309880 
-30.555000 12.646000 4.139820 
-24.551500 21.222401 16.214800 
-30.126101 12.867100 4.309880 
-29.697300 12.983900 4.309880 
-29.268499 13.074900 4.280240 
-6.541150 75.365799 34.327099 
-28.839701 13.074900 3.985250 
-24.311399 -13.940700 9.884520 
-24.122700 21.651199 16.162701 
-28.839701 13.403600 4.309880 
-29.166300 6.213770 24.464300 
15.884600 -13.940700 9.884520 
-22.566099 22.080000 18.460899 
-28.410900 13.932500 4.254360 
-6.589100 -7.937240 54.910400 
-12.973400 6.213770 24.363800 
23.476101 13.932500 4.028560 
19.898701 21.651199 16.316799 
5.465760 75.435402 34.327099 
-26.695601 14.361300 4.056160 
19.187901 22.080000 18.361799 
5.173410 75.682297 34.327099 
-26.249901 14.790100 4.309880 
-9.114060 82.972198 26.748600 
3.973530 6.213770 24.464300 
23.047300 14.689900 4.309880 
23.476101 14.383700 4.309880 
-24.122700 15.218900 3.964980 
19.689800 22.080000 16.316799 
27.764299 -44.096298 10.742200 
-20.755199 46.093800 29.181299 
8.038670 6.213770 24.249800 
-23.693899 15.642600 4.309880 
8.467490 6.121760 24.464300 
-5.254690 76.111099 34.269402 
20.045601 15.647800 4.105040 
20.430599 15.647800 4.309880 
-9.114060 82.736298 27.037201 
6.442750 52.526100 37.757702 
20.159201 16.076599 4.309880 
10.182800 5.852450 24.464300 
-23.134100 16.505400 4.309880 
11.040400 5.894830 24.464300 
-22.836201 22.619301 16.316799 
28.193100 -44.153099 10.742200 
-22.853100 17.363001 4.309880 
-9.971690 64.532997 37.647900 
19.823500 17.791901 4.309880 
-22.407400 18.220699 4.150650 
-24.222300 -13.511900 9.884520 
-2.681780 -5.100750 37.328899 
-4.825880 -7.508420 52.749401 
-6.112330 76.539902 33.956299 
19.203199 18.649500 4.309880 
-5.683510 76.539902 34.057301 
-21.978600 19.078300 4.136320 
15.803900 -13.511900 9.884520 
-21.549801 19.507099 3.999100 
-41.031799 -22.945900 17.603201 
18.563000 19.507099 4.309880 
13.184500 5.965380 24.464300 
17.043900 -41.384998 28.535999 
21.675600 67.105904 26.608400 
-38.273701 -42.671501 18.677401 
17.901501 20.364799 3.989090 
-40.740898 -13.083100 9.884520 
18.330299 19.969500 4.309880 
-20.692200 21.008699 4.309880 
-20.371099 21.222401 4.309880 
22.189699 -31.951000 28.962799 
-19.834499 21.222401 4.090440 
-19.405701 21.222401 3.926420 
-23.855499 67.534798 26.608400 
18.706499 24.224100 16.316799 
-22.313101 24.652901 16.316799 
-18.548100 21.651199 4.042140 
-24.122700 -13.246600 9.884520 
-18.119200 22.080000 4.109260 
18.455299 25.081800 16.316799 
16.186199 22.080000 4.195050 
-22.061501 25.510599 16.316799 
16.615000 22.043800 4.309880 
15.757400 22.505600 4.309880 
-22.182501 22.508900 18.460899 
-21.666201 25.939400 16.316799 
18.004101 25.939400 16.316799 
15.465900 22.937700 4.309880 
-17.690399 23.795300 4.150680 
15.692200 -13.083100 9.884520 
14.470900 23.795300 3.891910 
-29.156601 6.642580 24.464300 
-21.233801 26.368200 16.316799 
14.899800 23.849001 4.309880 
-23.039600 -22.945900 17.603201 
-17.408100 24.652901 4.309880 
22.618500 -31.951000 28.956499 
14.413900 24.652901 4.309880 
-17.116100 25.510599 4.309880 
-12.544600 6.642580 24.381800 
14.042100 25.510599 4.071780 
14.237800 25.510599 4.309880 
32.481300 -13.083100 9.694380 
18.072201 26.797001 16.316799 
14.268100 26.368200 4.309880 
-16.832800 26.494400 4.309880 
-20.925699 27.225901 16.316799 
-5.519190 6.642580 24.464300 
-16.578699 27.654699 4.309880 
14.328500 27.654699 4.309880 
-16.403999 28.083500 4.104090 
-35.788399 8.357850 17.603201 
14.368600 28.083500 4.309880 
-20.826500 27.654699 16.316799 
-16.506300 28.941099 4.309880 
18.049801 27.654699 16.316799 
-16.403999 29.369900 4.086300 
-16.544100 29.369900 4.309880 
-40.585499 -12.654200 9.884520 
-6.112330 76.968803 33.971001 
15.328600 30.227600 3.985850 
15.465200 30.227600 4.309880 
-17.690100 30.656401 4.309880 
-18.119200 31.514000 4.303370 
-5.254690 76.968803 34.145599 
-4.825880 76.968803 34.220798 
-23.915701 -12.654200 9.884520 
-20.783501 28.083500 16.316799 
