-34.815990 -9.425824 6.761533 
18.611429 -45.245861 35.616821 
-39.913960 6.379722 14.192190 
7.030809 23.165710 -21.987160 
33.393589 -16.335369 -12.052090 
32.247551 -11.136510 16.191299 
1.938797 -12.126040 -33.077709 
-28.434389 10.015640 -22.028620 
4.624365 48.862751 5.046923 
21.533541 51.365108 14.619520 
-15.525550 -37.978180 31.158640 
-31.505270 -17.996099 -23.048361 
-2.928686 2.147432 -31.527250 
-26.746120 5.877438 -25.648939 
25.705820 -13.224130 29.771420 
35.666080 -48.251751 6.749517 
-13.316760 -32.238590 -40.072880 
-12.156030 36.077820 -21.732599 
-33.154800 12.175090 -0.673817 
-21.074881 -41.814758 30.415171 
-16.563869 -2.442436 -34.512741 
32.719212 1.245530 9.035897 
25.801960 9.210237 -14.223570 
20.022619 -33.549591 40.908272 
-17.497480 -2.037048 38.959080 
-29.713751 -15.373370 -33.532600 
39.477421 -37.708340 -6.146257 
-37.191841 -20.805349 19.068781 
-12.613990 -34.898380 35.960121 
-26.954901 49.784771 12.501200 
13.873840 29.004950 -15.659200 
-38.949268 -6.316935 5.056696 
-18.700121 13.482250 34.573170 
12.281710 22.011641 35.834419 
0.450590 41.887371 31.784620 
-14.045890 -9.188982 38.554340 
-37.084110 18.129061 17.696871 
-9.880463 36.280399 38.196690 
37.255360 -25.148979 -30.976740 
-1.515955 38.333752 40.176861 
-19.370279 32.249851 36.552021 
0.286116 -30.849501 -33.136372 
20.082500 -43.173908 35.923080 
29.727539 23.634710 20.423590 
-29.814920 -44.818161 29.416969 
31.388670 -4.138147 -16.315769 
-41.698528 -51.970051 17.216721 
-9.920789 50.345989 -3.631089 
36.334801 -25.573120 -1.138669 
-24.113251 49.298092 15.704230 
-33.179279 -46.230679 0.791111 
15.778870 4.397714 -24.399630 
33.293190 -17.327400 11.266820 
-34.255749 17.377020 10.577590 
-0.990511 -23.699671 -36.004311 
-21.281919 30.433960 27.242121 
34.278049 -29.016569 -33.258259 
24.449499 23.443590 -13.681720 
27.746630 -15.484730 -26.968130 
35.412628 -29.824120 -15.327930 
38.517208 -47.003288 6.553615 
28.134150 -25.757469 28.494329 
25.113569 14.391320 21.833120 
-28.453890 26.358589 26.707750 
-12.753450 47.592571 33.047359 
5.747519 -40.513409 -39.125858 
-31.256981 -46.174671 -19.665350 
30.328291 28.946079 -0.101487 
-18.236231 -21.965549 -38.489609 
-22.510340 9.466546 -21.010851 
-38.579762 22.150089 12.553710 
27.031050 23.137251 10.899040 
20.555080 -14.855220 34.513401 
20.450439 -9.285944 33.017960 
-36.658661 10.062530 -8.311429 
30.696569 -19.904949 0.699143 
30.043240 9.135513 -6.223780 
14.405810 -39.231831 39.598740 
16.977060 40.401970 21.703421 
24.430220 40.183079 9.187555 
31.568211 26.981960 0.695206 
-37.198738 -25.600470 17.830490 
-15.633030 28.839911 40.985168 
-24.043539 29.219431 -9.126762 
23.195221 21.580870 -8.272455 
10.140540 16.397100 38.779400 
7.596791 -42.134300 -38.866661 
28.533409 -31.028730 30.404280 
27.744520 19.885420 7.826037 
-2.793148 -51.836288 36.093151 
24.518049 3.547454 26.044279 
-3.322998 47.582500 -10.012560 
12.955470 15.740870 37.097530 
-34.139160 -12.526350 30.856979 
22.996700 -17.761589 -27.993490 
-32.365471 -37.614159 -40.614151 
-10.281590 -36.124378 36.150200 
38.430260 -37.651081 -0.319372 
32.715919 -14.680700 -9.661361 
30.928770 17.177601 17.038040 
-25.046080 -10.071600 -29.110600 
35.766399 -35.936211 -11.888240 
4.319952 46.639641 10.095990 
-9.222515 39.985619 -21.975161 
14.628690 48.974178 11.999030 
19.194309 25.202650 -19.523211 
-37.379520 -31.956619 17.929911 
10.394520 44.390518 9.333215 
-4.071116 41.863750 30.625650 
27.033701 -6.984530 23.506180 
32.414009 24.724529 2.453079 
30.248800 -40.702122 28.936430 
-14.179180 46.392941 -2.850645 
-5.601315 -31.193180 32.603401 
-19.195980 40.568741 26.300671 
35.187450 3.476951 -12.959480 
35.699890 -26.118191 -26.810881 
14.508640 -18.450630 -28.647739 
-34.872681 -29.337320 33.202000 
28.460489 5.644450 7.367588 
16.029011 -28.677990 -35.383179 
-8.139386 -37.601238 36.315220 
17.303820 30.723330 -17.971050 
27.534389 -15.220110 24.630171 
-31.316080 -24.803020 29.816759 
-10.888010 -17.612860 -31.834560 
-12.510880 22.046610 37.046070 
-37.995289 -26.592131 -4.807063 
22.847170 22.170280 22.376419 
22.324129 41.517620 23.121691 
19.973419 -3.405626 -30.048849 
21.360479 -6.908968 37.329498 
22.703329 38.972931 -3.880428 
34.514950 -40.190071 27.686871 
5.825808 -37.409470 38.308620 
27.144520 20.678370 -2.422760 
19.803579 51.808960 10.715820 
36.533890 -38.673649 -13.552050 
24.325979 26.258841 19.640459 
34.452320 -46.465660 32.349178 
-35.660450 2.554501 -16.696899 
2.780215 50.921341 -5.000567 
-37.112888 -44.777679 13.392810 
-32.212311 40.578201 16.482800 
-34.260540 -49.586151 14.822760 
-22.638500 14.561600 30.340460 
-42.432819 -40.620911 22.945230 
-37.115730 -46.745930 15.010140 
37.611519 -9.270188 -18.972179 
-40.121792 -31.110170 8.006728 
-35.622959 -34.986111 -27.893101 
36.309250 -27.490850 0.615937 
26.620230 -1.419764 23.275049 
-40.022961 -50.617359 5.121609 
34.197170 -23.014620 9.492590 
8.605517 -26.154140 -30.946760 
28.370970 11.884160 6.788844 
28.964670 -29.698250 24.694040 
-28.349180 -31.865850 -41.223141 
-26.429310 33.445042 -11.213050 
7.614367 5.791239 42.406929 
13.950870 18.871630 -26.567560 
32.140160 -6.331615 14.841520 
-2.782045 44.181709 4.589814 
-31.784731 49.184929 12.067840 
21.866501 51.705189 12.031870 
15.533920 27.486980 -14.572380 
-2.243469 10.079750 42.157669 
30.465151 -26.225300 -28.966120 
-13.978300 24.888849 36.551208 
-9.892733 25.477289 37.779678 
-9.848320 47.331772 13.353050 
-6.939217 -7.698309 35.045341 
12.854770 53.210678 -2.375276 
31.058270 -10.326990 -3.836322 
-16.044500 22.747339 -19.285080 
-8.272357 46.609619 21.791140 
31.967621 -33.651852 35.397869 
26.127710 3.606969 23.158751 
7.421676 9.256784 -24.541510 
-5.719049 38.072411 -24.757059 
4.660999 47.871590 -20.699671 
41.363380 -43.642288 -13.043490 
-2.722108 3.317090 41.448990 
-14.063290 29.062920 -17.605820 
-32.101170 -13.342290 -15.944580 
-1.287689 16.894581 -29.006220 
-27.022150 3.096343 35.352600 
27.298719 47.348560 16.059919 
-35.318878 -3.129815 -20.584351 
-34.353050 -30.377251 -2.060344 
15.547610 43.403221 -1.500960 
-38.329639 14.970010 5.336932 
32.290890 13.999670 -9.146319 
-18.275869 37.549999 28.631010 
-1.007600 -50.073360 36.545361 
31.980200 -7.644847 17.002081 
7.355237 17.570181 40.204220 
34.185020 -18.119280 -14.856530 
32.347099 -14.938510 18.263161 
-16.517920 16.326441 40.514938 
17.774000 23.992470 -22.217360 
-1.518898 -41.762371 -34.597149 
-19.826050 25.777519 30.523260 
-35.580151 -31.645889 27.414030 
-24.202591 -0.795266 -30.867750 
-3.820167 30.343941 -26.643511 
34.237019 -13.264070 3.252947 
23.720360 -20.758801 39.219910 
0.427322 36.393620 -24.784189 
1.832899 53.266609 -19.099880 
17.225929 -36.610100 40.252689 
-21.392210 30.563780 34.558540 
-7.940181 -30.402559 32.364441 
-5.662787 14.915530 42.087070 
32.793800 -3.840565 9.180870 
-38.466808 -34.569210 -4.828260 
32.983990 -36.178082 3.916053 
-35.815319 -31.904440 7.778855 
29.747379 -21.114269 34.460949 
34.945862 -47.602772 30.015610 
-11.227920 -38.325321 31.596781 
19.886761 38.900631 25.776331 
21.621161 18.311590 -21.447060 
31.203920 26.156269 11.206810 
-34.160660 -43.421749 -4.802847 
4.643486 45.578430 -21.676661 
-37.683640 -3.867241 -3.271266 
29.345770 -14.958920 5.811771 
3.270647 45.606159 13.186520 
34.214409 6.028024 0.651749 
13.719860 -0.561835 -25.501989 
-6.080659 34.754829 42.922691 
-32.185242 -0.739089 -11.798910 
-5.668097 -37.580700 -35.711048 
30.884251 -9.241136 28.664419 
-29.616529 -6.326313 27.668520 
31.118670 3.518680 20.831421 
6.061402 -26.447330 34.854481 
-40.500179 -6.701285 14.857610 
0.456577 39.689259 32.969860 
16.100710 -22.229710 41.602879 
13.005040 -12.653790 37.370098 
26.822220 -25.742439 38.254211 
-40.690250 -13.359730 15.177850 
9.681738 38.325340 -21.812510 
21.407829 31.548969 -11.714960 
-33.727989 48.566090 4.848295 
19.954020 13.071620 32.856171 
39.974400 -41.874088 -3.813101 
-22.099520 39.675690 -4.969583 
-27.705299 -2.366728 28.902201 
20.358509 -21.711029 -33.428612 
12.964600 14.830120 -27.516920 
27.023020 24.518379 0.792618 
17.434681 50.369740 20.833349 
-35.078812 29.686489 -5.014726 
-35.369511 -6.120696 -21.656090 
-20.429819 21.911100 30.917311 
-37.240490 21.532459 0.684366 
29.480989 -45.438568 35.979401 
-18.281210 -53.550049 28.772829 
-32.755379 0.719650 -22.873489 
23.358191 16.841770 -11.793230 
13.769750 29.030270 27.403641 
-29.786570 -53.024719 26.468300 
29.615330 -23.362610 10.520440 
32.225101 24.737909 4.914782 
-38.292801 -38.096149 -7.217140 
7.179071 -15.644930 40.862659 
-34.331589 -50.203678 7.734152 
14.719460 52.958939 -0.811060 
-33.544849 6.427840 0.465729 
-31.232691 29.049761 -1.970194 
-31.271629 34.392738 20.173149 
-5.652652 31.917620 42.961571 
-34.007660 40.015141 14.088450 
-3.958537 30.697540 -21.715990 
16.633640 14.969520 29.096649 
30.287781 -34.060188 19.324921 
21.799141 -11.300230 32.616219 
24.395809 37.352039 16.209789 
24.333120 6.344012 -18.565109 
23.419010 -22.457899 34.614941 
-37.252048 -10.798140 -7.733180 
33.018730 -6.518646 8.423096 
33.292061 -33.872028 -0.971086 
-20.523211 31.141211 -11.160390 
-37.640511 -26.725679 21.918921 
29.921921 31.103210 1.039535 
13.563470 -24.699980 36.462311 
-9.734003 14.607200 37.014198 
30.382540 35.658501 9.708321 
-3.773254 -29.560980 32.975010 
22.761780 -0.406619 28.808050 
12.979170 50.265141 -7.671203 
27.566259 18.082861 9.797750 
-37.023090 24.969721 15.393210 
-18.088770 -11.886390 37.775860 
15.240590 -7.974971 41.443050 
22.839220 -41.759220 -31.572090 
25.121611 21.380840 19.650990 
-14.241820 -43.320030 -41.467789 
-37.636230 12.003990 -0.544230 
-16.804399 -20.603201 32.375301 
-35.125568 -22.150320 31.791830 
11.824120 -38.353851 39.248341 
-37.581749 -11.784080 -5.009452 
-7.035892 53.156239 -15.372690 
14.443260 -34.938011 -37.221828 
21.712999 -41.532639 40.407600 
-36.183491 -6.074690 17.383089 
-2.030016 14.830410 37.870461 
-38.073841 2.383639 0.845858 
8.605619 -9.660794 41.779339 
-34.213039 -20.610390 0.683867 
-16.856819 -50.480831 34.930561 
-11.187140 -8.187057 34.437180 
20.378361 26.572571 23.199200 
11.297600 24.281340 35.893581 
-27.457399 9.962781 -16.432501 
-34.734570 2.782279 -19.144449 
-31.274220 -47.660751 29.039200 
7.531158 -35.567638 -33.423260 
-32.690090 -34.428890 33.719002 
-22.706129 -20.813080 31.866720 
18.641911 -45.504280 39.784721 
37.132549 -13.087180 -22.971340 
-12.674650 19.108250 -23.503361 
35.292221 -50.434101 26.070450 
-1.162118 1.409214 41.483849 
-23.963900 22.247299 -12.960180 
11.468020 0.272766 41.755440 
-33.406590 -52.263741 24.735149 
-37.003078 -47.911160 19.819710 
-36.634930 39.063728 7.607920 
-30.631390 -43.666210 -41.577961 
21.515381 -41.817211 -37.296181 
-41.619270 -37.511040 16.370050 
-21.342131 -9.373473 -31.151060 
-29.909161 -39.179699 -34.446369 
14.598510 -4.265030 -30.596239 
27.354660 4.850193 14.927630 
-33.515171 -48.650360 -0.522916 
-11.338920 -29.056160 36.523392 
2.892748 44.719620 34.991329 
-30.080000 29.967890 23.371960 
-4.109532 14.908820 -25.110689 
-6.865888 41.575291 30.832670 
8.873578 -13.156210 -28.077379 
28.897671 -2.456668 30.058281 
-1.814696 14.504630 -29.454491 
-11.324330 46.498909 -4.462485 
10.199340 43.344440 24.666960 
-9.462716 47.894829 10.951700 
0.562655 -49.047451 32.051430 
-41.909069 -30.576309 20.539841 
29.065920 1.133708 28.850510 
-34.276852 -6.073359 3.922283 
-34.928139 -31.938000 -31.664560 
0.708039 -27.536711 -32.218891 
-10.817430 32.175739 -24.733150 
-17.652510 40.132740 -15.057830 
16.330799 -30.552040 40.706570 
-27.433001 -8.644401 -26.325830 
4.427780 -24.120029 -30.865231 
0.119028 -5.940330 36.295670 
8.684732 43.507519 14.796080 
36.253990 -42.423550 19.327110 
35.949230 -27.022690 -32.467659 
-27.159519 20.073750 -17.749439 
30.019470 -29.145399 36.517750 
-36.956982 -13.684640 -10.599680 
-27.483360 -31.844009 -37.211521 
-20.859289 -9.036191 33.297352 
-0.117638 -47.213909 36.906910 
-3.105805 46.642101 23.379379 
-30.372511 3.539860 -23.681000 
-32.495670 -31.519541 -17.504551 
-32.279549 -32.248829 -20.230450 
1.555207 -53.417549 35.908009 
-17.715151 30.256800 31.819019 
-25.678341 14.575390 -21.960810 
-32.921322 32.132210 18.688101 
-41.027031 -18.028839 22.743999 
-34.220619 -9.688252 3.106035 
-36.988338 -8.076030 26.062429 
-26.840851 -37.567120 34.313782 
-41.250751 -32.315380 14.985440 
-35.419708 0.701747 12.250910 
-8.526821 -8.161339 -29.590919 
4.717242 12.212490 -24.395969 
-6.489516 -27.405090 32.772640 
-2.100463 -16.327499 -34.452839 
0.223340 48.214951 31.021730 
31.320499 -23.602921 -0.266584 
-36.921959 -29.186649 -14.769130 
-26.689911 40.506340 16.372730 
-31.656269 -6.287794 -27.433460 
21.477390 45.504230 9.071431 
-6.743488 -47.628170 31.980261 
-8.486547 30.174669 -26.766371 
1.302966 -23.483850 38.834190 
17.130381 20.440029 -24.919720 
32.712181 -39.729740 11.058560 
-7.107186 -34.767979 -39.693001 
25.979580 20.377119 17.480539 
3.386608 2.702938 -26.052950 
-36.587860 10.829440 20.897289 
-41.237068 -29.779680 15.530600 
4.560617 -3.507625 41.802212 
22.997931 23.484591 27.775949 
-25.605270 2.542855 -21.985371 
3.027480 -5.541813 -27.390400 
-18.353550 0.802298 34.582169 
17.518049 -34.111729 40.520969 
-41.560390 -53.329010 20.528879 
22.982559 -37.497189 40.829121 
-32.659649 16.526831 -2.025006 
16.136589 2.968188 38.354149 
27.061420 -7.879460 -24.674129 
15.873000 21.927151 33.345928 
21.763250 -3.470246 36.112640 
10.422190 42.841808 30.813801 
37.123440 -32.481621 1.173478 
-32.038670 -47.036480 -14.678720 
-8.447502 40.701752 42.541241 
-2.202752 47.773640 31.282970 
-26.530100 31.806709 27.508780 
29.513870 13.228500 -2.117730 
-18.421320 42.701801 16.319691 
-5.655150 50.228600 -18.720610 
20.162809 28.948469 28.401640 
-18.458281 -28.944120 -40.066460 
-2.770676 53.626751 -11.285150 
33.719490 11.681860 1.891961 
8.940611 37.102509 33.807781 
-9.000785 45.543209 -19.120609 
17.157551 -17.736349 -32.837769 
-27.843760 -46.327549 29.554140 
33.496712 16.172449 1.502883 
-9.789771 43.333080 -19.787840 
-5.612811 48.969231 1.836515 
-7.273918 20.624041 -24.233709 
10.729250 -42.509220 38.775440 
27.550301 -26.256620 -29.285509 
31.738720 -23.980289 31.849819 
-1.221951 -33.875771 33.062302 
30.034410 -29.319559 14.814990 
-10.581640 34.914249 -23.536289 
-15.606120 6.636552 35.491749 
35.672729 -31.480650 -33.489700 
10.018620 43.620098 16.994301 
9.974797 9.602719 35.202782 
0.509484 -51.119518 30.716511 
-37.109131 -33.397820 -14.815540 
-5.302432 42.358269 17.588131 
32.101841 19.330730 8.802551 
-14.239400 38.176960 33.625679 
7.421246 -17.136311 -28.964291 
-24.119570 48.372490 22.245350 
-29.912100 -51.359749 32.604229 
27.840611 14.995810 9.195078 
29.250071 -1.039174 3.558257 
9.809334 44.764881 6.769398 
29.877729 14.263800 23.113779 
30.005110 33.440170 3.178634 
-33.973389 -27.573280 -3.853068 
-24.315411 23.861309 25.485470 
-35.607368 43.986889 5.320366 
-9.924629 -43.944080 -39.035000 
-21.095610 -30.929649 35.438740 
7.527165 36.028740 29.632610 
1.439409 -37.232639 -34.622471 
-18.578590 -36.351330 -41.626541 
8.994857 9.689691 -28.864401 
31.615561 -26.505529 -33.188202 
-16.985760 -24.161730 -38.840260 
28.526510 -32.958591 38.786491 
7.270032 21.986919 39.128490 
1.465304 37.712410 -19.716921 
-33.927361 7.952977 3.729589 
-1.206000 -31.413450 -38.041088 
33.189491 -0.314814 6.519333 
39.277939 -44.885860 -16.283131 
3.079895 43.267620 -22.793949 
13.088990 -10.148500 37.316730 
-12.387020 46.632469 20.595989 
10.312040 -3.840621 -26.352510 
24.934870 -25.219629 -29.358231 
-12.625310 46.430840 27.040430 
17.237650 -15.835490 -27.952169 
-23.965050 47.870892 8.192989 
8.494573 31.212690 -24.687450 
33.218021 -6.875715 -24.466320 
-28.018681 32.117790 17.749041 
-39.228062 7.727655 9.208362 
30.089781 -51.838440 30.226931 
3.009130 -24.917950 -35.775669 
-9.897610 -3.465309 35.165150 
-34.733231 -36.911011 -1.523805 
6.592598 35.843330 -18.853500 
-33.927990 -23.851629 33.380619 
7.231430 13.379690 35.983742 
-21.823589 -27.696890 31.219200 
-35.531410 -37.700939 32.930939 
0.074081 -33.753700 -33.906670 
-39.836891 -19.509781 8.937687 
32.296631 -15.473090 -30.394609 
-15.726590 18.963020 35.904301 
-2.758873 17.635750 -24.449499 
-31.156160 12.150840 27.738819 
25.788059 0.161581 -28.107750 
-38.969009 16.129440 10.584360 
-41.096230 -22.198980 16.267811 
1.450573 -35.034710 33.398880 
-30.383909 -41.162991 33.542721 
-7.060120 -45.967281 36.060310 
26.956461 5.305757 17.926420 
34.849960 -30.987619 14.845030 
27.053379 -19.318939 29.669531 
27.624660 -0.860264 14.020110 
18.922840 19.278910 -16.171740 
-32.796921 34.436901 -5.042446 
-29.436729 0.794430 -19.159269 
-38.470409 -39.216610 24.660839 
24.444550 -27.711941 40.358799 
-4.156702 -12.162470 -33.996319 
23.639900 -27.823370 35.875809 
3.273211 -49.267570 31.871050 
34.229031 -48.563251 8.763551 
5.867034 4.942355 37.811501 
34.219460 -25.774130 12.590010 
-21.650970 -19.831499 -34.238770 
-30.014259 15.848220 -10.698470 
7.612482 -20.243311 -34.067329 
-35.191250 4.924773 16.207251 
34.218769 -42.355282 30.996250 
28.818439 2.288036 5.618404 
-17.136360 47.598530 -11.088260 
-32.647579 49.726460 9.708730 
2.617832 -31.722321 -33.072609 
26.004580 -13.429020 -26.817261 
0.152761 30.662081 -21.390240 
-37.292801 -28.251450 18.000111 
-2.460250 28.659910 -22.158409 
35.203701 -41.906849 -28.751419 
-22.610041 33.347069 -14.634680 
-34.270660 25.516870 19.049530 
-27.052990 -14.127020 -35.011509 
30.978640 1.952519 -4.881394 
28.530121 -4.859024 31.126101 
30.166010 -6.414530 -20.182819 
-38.425190 0.674609 21.612900 
12.573130 11.815570 32.848541 
-14.838000 33.422939 -20.986320 
4.836071 44.073631 6.002099 
-9.700625 34.261688 -18.295031 
18.614910 33.224579 -14.360800 
-20.871071 -11.587370 -32.067699 
20.041580 -32.910561 -31.432449 
-9.879661 41.590851 26.963400 
1.472540 39.140110 37.988159 
-24.195471 26.340231 24.812960 
19.949249 33.258259 27.407070 
-17.911270 -20.372030 36.806530 
-35.789829 -8.571329 12.823810 
1.503949 47.808411 -9.811982 
-36.981850 -45.479858 31.926390 
31.450380 -37.200821 15.480570 
22.413940 -11.787430 -26.853279 
-31.049740 9.250202 -12.274750 
19.848780 -17.858700 -32.691490 
-40.670650 -46.392010 7.760321 
26.684910 -51.629711 33.020309 
12.324560 31.728460 -15.718550 
2.965824 16.212891 42.665649 
-21.210581 -12.007270 -36.817410 
27.092649 19.519621 12.034170 
35.772179 -41.876801 -34.593071 
-18.187780 -39.485008 -37.301262 
-38.487709 -11.774620 2.051434 
-32.884800 -33.463631 -14.788200 
-25.397961 44.075668 10.032710 
-37.041119 13.476800 19.431730 
3.125665 30.230709 -21.060369 
-36.543751 7.872743 -9.814758 
26.156931 17.708151 17.761980 
-31.010090 -45.709709 -33.640079 
10.910980 8.374728 40.331379 
-37.780521 1.255264 -1.921417 
-14.044210 26.847290 -18.745729 
-34.819370 22.058161 19.497610 
-7.059788 -2.304271 40.198669 
-37.763500 30.190941 10.562690 
-37.305710 -31.968670 -12.676610 
7.230440 -12.785590 41.210300 
28.515631 -3.571884 7.929906 
32.420170 -29.871269 -0.792272 
-19.876440 24.997721 37.999321 
28.048830 5.235531 28.813150 
27.901831 46.701550 13.368350 
-9.346775 41.218689 -14.864460 
-35.619091 16.279881 20.380911 
-33.620380 -25.846670 -5.865545 
-33.961319 13.758510 -14.804120 
-29.624210 10.504750 22.854490 
0.774627 34.255562 34.452599 
28.347549 -23.706591 -33.075409 
26.595070 23.455620 13.309490 
27.457960 46.420250 10.674210 
-32.641159 -37.132679 33.533699 
24.578421 -20.195049 33.055302 
-1.030755 -42.004650 -40.088860 
34.223900 -29.393930 17.667160 
23.563141 -7.875222 30.277121 
18.076151 38.413891 -2.239475 
19.288380 -21.003151 41.563370 
-11.863100 9.009725 -31.768749 
-39.993320 -49.192619 2.941043 
1.715877 19.189421 -28.152010 
-23.699539 1.565027 32.197609 
40.935692 -33.246262 -18.481050 
9.666047 46.065521 29.974760 
8.665824 -7.931706 -31.626921 
-12.856030 6.921009 40.375580 
20.959299 19.261370 -13.361150 
31.027340 9.110842 19.265100 
27.118570 -23.803511 -28.830030 
21.719910 6.915647 -27.680040 
-15.556960 34.466549 33.130459 
-3.248811 37.932949 -24.901581 
30.895050 3.456129 -10.037790 
4.962505 42.867962 17.551840 
-5.507794 54.102699 -13.401990 
11.372700 -19.860781 36.581501 
-35.526192 -8.720928 -21.854980 
-34.733849 -2.410196 7.205214 
-0.445571 4.091182 41.856689 
36.845501 -23.679319 -4.858697 
-14.507510 3.195763 -33.186649 
-38.328289 -10.933130 25.047850 
2.555781 35.273830 33.116989 
-24.741430 -21.790251 -34.626289 
16.561220 -4.978850 40.093250 
-7.050803 -28.197870 -38.140621 
23.205429 28.427731 20.349079 
26.321819 21.925280 15.381460 
-20.573919 5.298939 -24.679621 
4.752112 37.573971 -19.052820 
34.196960 -41.514839 4.495695 
31.426300 -15.034980 28.858299 
-42.408970 -42.997589 21.988411 
-15.982940 21.240879 40.836971 
-38.137791 -10.074710 -0.324322 
9.576801 -32.126221 34.983120 
4.336156 48.669720 29.196659 
33.312550 -19.597589 13.198860 
4.303246 40.793869 30.046980 
-16.811701 -4.883591 38.773239 
-9.895403 47.084019 37.444321 
-12.940690 -10.510480 -35.339359 
-1.273572 -7.936494 35.813671 
10.814430 7.291748 35.240231 
13.012380 -38.323589 -32.824440 
23.805111 0.656342 -22.916500 
-26.972969 8.745831 33.940079 
-32.118271 29.124750 0.866233 
-7.340603 -10.286040 -29.739170 
8.668711 -33.551350 -37.362572 
-36.244240 -17.287230 -18.062771 
-34.046429 -5.878641 29.286751 
-19.152790 -4.436435 33.979210 
-35.326260 -30.442320 -28.914249 
-20.915541 -28.638350 -40.298420 
-22.705530 -54.555969 30.457729 
30.740709 -22.286989 1.866572 
-32.585701 -3.584550 -9.175293 
-12.607850 -19.218870 -36.972530 
18.632259 31.632959 28.766710 
14.291240 25.419081 -17.705290 
-1.124545 -6.532249 -28.102949 
18.736191 26.095100 30.186800 
-40.729469 -28.805670 12.373190 
-19.881750 -22.650021 -34.650990 
35.419220 -38.853680 20.827209 
-34.477470 2.143380 19.037640 
-22.038000 43.869350 6.311049 
-17.989031 -2.312963 34.350700 
4.397277 5.622553 -25.488260 
-16.992319 -27.600479 -35.208839 
-33.806641 20.595270 8.162926 
-32.865002 -16.295450 26.518700 
19.987249 -14.527930 -27.579010 
1.413607 -0.807686 41.615990 
12.074630 -48.999470 32.905510 
-14.132590 42.058250 31.778090 
-7.494266 47.608810 9.539964 
-1.273056 -2.163583 41.069420 
9.869080 -10.875010 -27.581680 
23.345711 -32.918789 -35.614929 
9.906202 30.573271 -19.024611 
28.529739 -20.892950 17.826300 
-28.808969 17.936840 28.938351 
22.021231 37.581131 24.623070 
37.501740 -39.074741 7.327548 
-36.738461 0.328078 -10.366240 
28.292280 9.394492 7.838045 
20.006170 37.104809 -9.425153 
19.006451 -12.132690 -31.683729 
-18.294479 -48.459648 34.655910 
28.207621 2.624672 9.161654 
-14.171590 -53.614128 29.383520 
24.390110 19.625750 -16.682850 
-33.405140 -30.302719 29.110460 
12.899690 48.624771 13.725580 
-32.733158 -26.476549 34.189369 
33.519611 -6.307636 5.426496 
26.215630 -32.929031 -35.262081 
-29.759199 49.997860 1.505175 
-7.466702 11.975490 41.607910 
18.547951 -3.422776 38.391312 
-41.268631 -30.854321 26.067301 
29.381479 -15.032000 33.105251 
-35.823250 -28.126381 -24.526060 
13.110280 48.092400 -9.672292 
-29.651970 27.893999 24.608049 
13.873090 24.143360 28.651939 
-15.534390 45.733219 -0.889234 
-25.307211 -46.333519 29.814100 
-9.727221 40.636089 37.720329 
7.864352 41.184750 33.119690 
-5.648753 20.666109 37.970329 
0.051838 8.045737 37.757332 
-3.406952 -39.520340 -34.538780 
-1.370605 -0.444441 36.721291 
-16.921360 -38.994221 35.302799 
-42.244560 -47.480782 19.086349 
-4.735229 34.025921 37.901779 
32.868000 -18.514999 -25.286320 
25.269470 -23.608480 33.461559 
23.963640 40.711639 15.924220 
35.343159 -33.503792 -11.990530 
-32.373638 8.654175 -19.182100 
18.719070 23.543619 25.243429 
26.999680 10.522480 15.859810 
-18.422810 15.972100 34.512630 
26.724930 29.063190 23.484301 
24.119829 3.373812 -27.835279 
-38.721409 -22.905500 1.268487 
-19.250561 -4.733901 38.444439 
0.397834 42.521080 16.243870 
20.354660 -37.795761 40.563808 
7.586497 -51.980049 37.469749 
-5.064090 11.421990 41.887150 
-7.307593 29.977280 -21.536209 
38.656261 -33.302090 -6.040211 
19.381109 12.785670 -26.685579 
2.169546 0.651520 37.370640 
32.838039 -22.938271 -27.530560 
11.638660 -48.835770 38.444908 
7.225852 -10.483280 -27.739969 
-32.421600 -17.500280 -13.422100 
-8.459236 25.129141 42.357510 
-31.047859 -32.659199 34.104851 
29.828230 -29.276239 -29.649570 
-20.698059 27.499001 28.922310 
2.843467 23.208941 41.596088 
15.712040 19.393339 34.188301 
15.541360 -43.335041 -35.429691 
14.406970 -22.266850 -29.467819 
31.579121 10.176440 15.237560 
18.034189 -14.285770 35.971500 
-4.087347 -10.465810 -29.217369 
28.826469 -23.357260 17.796150 
-31.252359 -29.224911 -38.585861 
13.160980 45.516251 6.757946 
-33.607521 -48.117790 6.696609 
-5.038876 34.012039 -20.714279 
32.590401 -17.572260 18.256250 
30.029610 6.548891 -9.230756 
-28.197149 41.608410 -5.240642 
-23.236441 22.367270 27.281549 
0.091755 42.573311 28.839170 
14.747430 -53.441010 36.069901 
22.804449 19.425180 -10.582080 
34.919941 -32.622601 16.805460 
31.119829 0.602904 22.193480 
-17.058821 3.323223 -33.163059 
14.354120 10.196710 32.022949 
-25.292959 -50.433640 33.456020 
-18.516951 -41.910210 30.715429 
-41.613560 -51.939968 28.917210 
-33.756062 -18.994610 -2.412585 
31.490311 28.905849 7.098211 
-12.586770 -29.991920 -39.454948 
-25.206511 -47.979580 33.706520 
-35.010609 -47.576111 11.820640 
-5.081907 -17.877510 -35.270020 
-24.196899 13.148840 -17.627270 
-41.017101 -46.128342 10.348520 
12.824510 -18.133051 -33.183270 
-12.804260 18.955799 41.341679 
-11.099580 -33.430019 -40.014809 
17.808411 14.722630 -20.541210 
28.565359 -52.505932 38.817829 
-26.942249 -52.307640 32.973980 
-26.209049 42.648979 -6.241211 
-32.272530 20.567690 -2.383174 
-22.759939 -31.958500 -37.165119 
-38.489948 -44.634628 26.818569 
-23.323481 39.082111 21.461800 
-37.489071 -42.011139 -14.588540 
-33.111431 -16.096840 -6.856361 
40.600941 -36.839191 -13.407060 
-31.829920 -24.868719 -36.166519 
31.514650 -44.648640 26.165440 
32.365429 -2.785224 12.025540 
-32.882641 -36.140911 -15.306500 
-11.295380 22.035601 -28.723631 
7.381905 -13.650570 -32.704460 
-19.774639 35.387470 27.486549 
25.539909 37.520302 10.810680 
19.376890 22.479231 -13.117950 
-36.322392 -31.599470 -20.998489 
-17.066980 46.855301 -2.434154 
-19.755239 19.053600 32.522049 
9.338943 28.811239 -25.101530 
21.549070 26.223080 28.112040 
-31.952850 37.634121 -4.086764 
-11.367800 11.931600 36.555618 
5.619751 -19.159149 -29.573580 
-15.180800 11.475000 -25.414049 
-38.006630 -47.689308 -11.051800 
-34.676289 18.598761 20.878910 
-29.835461 -41.331009 -42.796200 
28.533649 -15.892860 12.454670 
35.807510 -3.949862 -18.149530 
16.487869 -41.634972 -31.994659 
7.037453 -18.282961 35.965778 
-39.801128 -39.144550 30.216089 
-35.843140 34.016281 13.714660 
5.734663 -0.592893 42.248940 
-34.168900 -49.078060 -11.758940 
-2.641834 -43.908249 -36.831718 
-15.052470 46.841801 18.209980 
27.022320 -34.517040 40.122089 
-26.997490 -34.125870 -37.923069 
31.714390 -46.400570 20.439600 
-31.292299 14.556190 26.831800 
11.633410 -27.634821 -35.564659 
23.441320 -23.316719 40.012932 
27.438520 -20.367050 36.348621 
35.062050 -34.836929 -9.144460 
4.400774 -28.189939 -31.932480 
22.898550 -45.068310 36.272720 
-39.568119 4.724411 10.785350 
1.571909 -33.529129 -38.185291 
21.334080 3.521962 -23.277830 
-36.941780 -8.253721 -10.000260 
-24.830360 39.555611 19.228210 
-36.667160 -54.615231 28.028000 
9.860238 49.491508 -13.024470 
12.670060 43.614670 -14.339270 
25.090731 21.226339 -14.510320 
-1.313277 22.046341 38.079479 
0.013033 -21.620230 -30.861601 
19.160999 12.528910 -20.523220 
-22.880489 16.167219 36.820339 
-34.324440 -3.588379 4.500274 
30.907021 -30.591311 9.660682 
-24.946640 28.120230 23.273460 
18.619600 44.204750 19.108400 
-39.173840 13.659340 10.912920 
21.159580 18.911160 24.635111 
-37.924259 -45.320412 -11.803530 
32.179199 -32.420750 3.410944 
-20.919910 -1.745814 33.822311 
11.375300 29.661560 34.403069 
0.188234 25.980539 -27.038380 
12.469290 -46.049259 38.771820 
-0.605719 -1.990162 -27.290850 
-5.511839 -44.038368 -36.129639 
20.279751 -39.670479 -37.414021 
28.506950 19.001711 0.677926 
24.171270 26.242081 -11.910610 
-15.689960 42.541142 29.062710 
1.578727 13.509620 38.063068 
38.756870 -19.079920 -15.192890 
-33.871960 -15.182670 31.751780 
-35.009640 -51.728989 19.116270 
33.873371 -48.711411 35.701931 
34.147541 -18.540701 -30.436430 
-41.227940 -24.919241 24.426910 
5.870619 -7.082927 37.099140 
18.558109 -23.419411 -33.945820 
35.663818 -18.279240 -2.144704 
3.159728 10.826500 42.773739 
-36.631790 -37.431759 -20.319599 
-39.502041 -1.337363 20.573380 
-25.285101 1.761864 37.310360 
-34.020649 19.889549 10.669620 
30.934450 -16.789650 -1.724425 
25.107380 27.497190 17.659950 
-32.746971 -5.786668 23.823721 
25.090851 -26.348810 34.435390 
32.991989 -9.928608 -26.808689 
-4.184238 -11.858130 34.885330 
38.815720 -25.330770 -12.732090 
17.795700 -31.975700 36.459850 
-2.822758 39.108791 35.415230 
-21.212040 -29.960390 -36.463280 
-1.309400 -13.536140 35.104790 
23.018770 9.201991 31.691410 
33.556679 -36.042530 0.391204 
-10.898470 -44.875069 31.501030 
-29.740170 -21.228701 -36.254082 
-27.629280 33.846432 -3.502845 
31.373310 6.176357 17.963461 
-14.191070 42.507969 16.686831 
-22.393709 -21.856220 -38.967838 
16.171030 -28.952181 36.492199 
-26.904131 16.297110 31.854839 
22.295549 40.688278 17.738230 
-28.688110 35.763809 23.270420 
-3.707302 -35.670429 -34.955540 
-41.252590 -20.106819 17.628790 
10.029890 12.076880 34.526871 
-38.701981 -8.385543 3.620248 
-39.945370 -51.918598 9.048560 
-14.940110 -9.537038 33.886002 
9.707799 -53.450550 32.866711 
24.327169 -47.597710 35.477901 
-25.573959 15.049670 26.591370 
28.916910 -19.271299 12.117420 
16.768440 -20.610359 -28.927450 
35.340309 -27.714991 6.362848 
-2.643835 -24.382200 33.592609 
10.712800 -24.800989 -30.399269 
-31.144930 -33.432590 -29.704800 
-22.350660 2.373745 -24.761240 
-15.575260 50.428249 -0.318262 
40.064571 -34.666210 -12.222860 
18.128361 37.517639 21.795820 
-32.787029 27.321690 3.617821 
15.709960 50.014252 22.818029 
-4.272245 -26.207640 33.180470 
-19.974051 12.477990 -27.611401 
30.282869 -20.259081 3.143066 
18.876060 43.296612 3.239031 
34.200470 -15.601800 4.143325 
-37.302921 -23.379471 21.852030 
-3.969941 -0.028394 -32.022091 
15.759540 -16.418900 37.156651 
-24.143780 31.344299 -7.896806 
-23.157600 46.067310 2.014368 
27.447510 38.857052 3.395965 
22.348040 -23.934311 -29.296980 
-0.843702 38.079048 34.370480 
-31.169531 -26.197321 -28.752541 
7.379613 -40.023010 -33.039589 
38.753658 -28.206949 -10.567650 
-32.485870 -0.732625 -9.348635 
26.217970 7.798317 -23.244301 
-42.147591 -37.576969 20.761950 
-17.332319 -0.173614 -28.992149 
-33.666031 -17.127920 -30.486799 
-31.727961 20.914801 -4.772049 
32.759739 -36.763691 6.287300 
-22.514839 39.145401 -11.467150 
39.265629 -30.468330 -11.447750 
-23.423679 50.894550 3.564730 
31.023350 -2.499527 24.666189 
14.438010 46.917530 4.096725 
-26.548189 -1.950689 -23.493219 
32.802490 -51.559231 29.518400 
10.077940 44.011600 22.303049 
-11.005400 -44.042801 -36.300850 
38.436440 -44.755638 7.661329 
-24.071590 -22.468660 35.950630 
0.530926 -15.289380 -33.841801 
-32.849442 7.122074 -3.896579 
-11.389240 -26.211340 -33.889858 
24.345341 -34.845661 -31.310089 
21.692711 27.265829 -14.635230 
29.297640 -23.564199 13.649220 
-19.923531 7.826865 -23.914551 
-5.703434 43.390442 12.067630 
-32.006210 -19.449320 -18.579760 
-4.164470 46.181980 27.503731 
-22.557369 6.320909 38.566051 
35.437550 -44.461842 -7.541942 
-38.995682 3.504113 6.704540 
27.063850 -2.257366 20.113140 
-8.938696 -23.293850 37.343410 
-32.008888 5.760647 -10.523330 
4.950687 33.368179 37.510971 
15.604390 35.459290 -16.684000 
-31.943130 22.970490 -2.791279 
14.173310 16.901211 -21.859240 
-9.358631 47.165581 15.768510 
34.136349 -14.216270 -15.581480 
-36.854630 2.360979 -8.974653 
3.396068 37.614109 37.254250 
-40.032749 -16.117121 24.042830 
-9.895352 -51.910870 35.230450 
11.995600 2.842700 -29.655840 
-29.687599 19.968330 19.697201 
2.893168 37.837399 -24.096800 
34.290119 -22.550791 -31.796160 
22.494829 28.809099 -12.316050 
23.295959 -29.696289 -30.464050 
-31.160379 -7.639470 33.136440 
-31.286301 -2.750404 -26.027060 
14.252880 40.863140 -5.801816 
-41.235851 -48.888481 29.828791 
-9.765977 -26.066681 -38.057930 
30.599890 -47.722061 26.054779 
23.190760 25.507360 -5.077142 
-4.892495 45.731979 7.756288 
12.967580 27.640800 -17.786730 
15.985300 41.819511 -11.271450 
-2.590195 -6.304060 -32.769192 
-22.992559 40.676498 28.958700 
12.307560 40.099041 -17.512871 
-32.096008 -2.950425 -13.213230 
33.182980 20.166090 0.680580 
22.574369 -14.951370 -27.491699 
-37.665562 -37.681171 26.384260 
0.619185 2.677335 -26.412081 
11.487670 53.431530 -4.381919 
25.887251 14.206420 -18.853340 
24.296789 -39.633282 40.759972 
8.270689 -7.663611 37.384430 
-32.550560 20.015841 23.395830 
-36.195080 -40.214668 -24.442390 
-2.672814 40.598969 40.180309 
36.878651 -28.033430 -1.841995 
-17.781059 30.959169 -13.579990 
-28.543921 -1.167357 34.630180 
-40.265911 -33.728199 7.969501 
-36.127102 -41.911949 7.848113 
-34.832531 -37.831558 -32.992378 
28.461981 -33.648071 32.637020 
27.071501 3.181496 30.232599 
21.449190 23.218130 -18.055920 
20.399490 -9.112229 38.579319 
-24.117100 29.098301 31.519131 
-22.602341 6.506207 32.349689 
31.361811 1.525798 19.439810 
-18.687799 -7.862270 33.676800 
3.053824 -25.185221 38.938400 
-42.237549 -33.575909 23.354879 
-28.900009 -16.246340 -29.003880 
-25.554461 37.051071 -3.516033 
-21.310650 48.348419 17.158340 
-5.573011 47.229660 37.387730 
-37.561249 3.720546 -3.402092 
-15.586070 -53.230541 34.535061 
34.785580 -46.346149 -0.184405 
-18.476509 6.013762 -31.727631 
-17.469311 -10.780380 -31.757021 
-32.672020 -27.640240 29.276640 
-24.504271 39.331390 27.507080 
-22.720520 -17.331160 -38.043228 
-37.873489 28.106010 9.094481 
4.301286 43.143909 27.460649 
30.593161 21.686741 17.100750 
-27.976311 -34.297829 -41.795238 
-31.883070 40.491100 -2.620740 
-16.154421 -36.034870 -41.272652 
6.603757 26.063280 -21.432180 
32.796280 -48.530479 15.271360 
-37.846809 4.376768 -0.650801 
-22.668631 41.429611 21.348459 
-22.732750 43.324089 19.585600 
34.231682 -27.554979 14.866920 
21.372120 22.332460 -10.419370 
-12.663290 18.860069 -29.388620 
-34.238522 6.297313 5.547994 
5.974730 18.278820 -23.135780 
-26.943180 -50.350460 26.694500 
17.193541 18.115841 -25.803209 
7.184731 34.645451 35.727692 
30.193670 -3.843484 -26.310711 
-38.447220 -17.930349 0.717549 
-29.407850 -29.718241 -40.154861 
-4.251994 -30.579060 -38.300400 
5.107841 -17.459160 -33.709049 
-39.891998 -28.821020 7.117761 
28.583330 19.272820 24.242210 
-14.177430 -30.029320 -35.273918 
-17.793770 49.343498 2.198193 
26.518520 26.731030 12.229050 
-26.895611 24.549509 29.359619 
-2.502928 10.351570 -25.651140 
20.338560 -33.462860 -36.067310 
29.948410 7.131621 -0.702248 
28.474060 28.787041 -3.300586 
23.041000 22.987579 -16.058840 
30.531420 -42.861698 30.195080 
-32.646709 7.723003 19.819189 
-18.030161 -42.246208 -35.920090 
17.128780 34.849789 23.321211 
3.075787 27.653749 35.013199 
29.236160 -41.994011 -35.835480 
-40.610840 -33.458061 10.406680 
30.959660 9.962214 -14.733980 
-36.355701 33.510811 1.281635 
11.466370 47.041889 28.357910 
-2.367566 -53.860958 34.770618 
15.984730 44.936089 0.451674 
-2.547150 1.852974 -26.988199 
-28.323971 42.680050 1.674129 
4.363881 48.951660 -11.980760 
42.606499 -41.843712 -26.070560 
-37.279701 -23.329660 -9.508203 
-40.525150 -43.768700 6.985825 
5.409658 -49.930210 37.472111 
13.142810 51.793980 4.513110 
-24.096180 -40.477741 -36.290588 
3.414193 39.977982 36.459221 
-36.154652 42.319538 8.300753 
14.935300 41.720081 28.208099 
15.732900 16.384010 -26.772650 
-36.003120 35.920940 1.034563 
-2.428307 44.198200 38.692230 
-35.568829 -6.281423 19.900970 
-34.564911 10.721890 15.470720 
31.094780 4.395122 -18.992319 
-19.013100 23.946609 32.058189 
-35.711990 -0.182089 -17.660879 
1.901474 42.557289 18.305531 
18.829990 21.492550 -22.682461 
15.235520 -4.796088 -26.099279 
-3.860691 -33.388641 32.713009 
-28.533421 49.265060 15.541490 
21.427210 -40.120461 36.322151 
-14.236090 9.377748 35.928131 
-25.543341 12.887280 34.543510 
7.578130 33.621620 30.342699 
32.128288 -3.868675 14.249200 
-39.673328 -9.541657 9.244473 
30.187880 9.025160 -3.346319 
32.983219 2.646248 -17.489450 
36.937302 -48.755619 14.849230 
41.352509 -29.218220 -24.479330 
14.862570 -33.940311 -32.197189 
-36.819439 -32.610439 32.049259 
9.112901 31.286160 35.430191 
-27.012100 -2.375205 -29.476940 
-2.652346 49.495949 -13.404580 
-1.366439 -1.239288 -31.794121 
24.294230 -7.765011 35.385632 
-22.645920 -50.483089 33.853661 
28.631010 -31.437340 -34.612030 
28.160540 -5.125711 10.652650 
3.793846 7.466939 42.656681 
-16.957239 10.889870 -30.507860 
6.860378 -4.478437 42.039829 
-42.627941 -44.160721 24.207741 
28.840340 -24.948740 19.730209 
13.609640 39.764019 29.799080 
-17.330549 25.920601 40.270470 
28.990620 -31.334379 26.608459 
4.333682 48.044788 25.204710 
-7.806491 -15.941750 33.855572 
29.304150 -50.473541 40.003361 
-1.317002 47.403709 -22.157730 
22.817900 -18.154711 -32.545109 
2.917798 -42.682571 33.375141 
30.116699 -4.204768 28.870211 
-35.704269 -23.419760 9.594485 
5.615448 -30.651409 38.819691 
-14.846390 46.272331 36.334541 
29.963949 3.827770 26.495310 
-31.081150 7.423864 -21.039829 
26.791460 44.211788 18.607670 
11.449890 43.939739 14.353740 
-21.407480 0.716335 33.675900 
26.159439 31.539579 23.221861 
8.796722 -12.319940 37.006359 
27.124359 14.691110 -16.709270 
-30.413910 -33.326691 -34.425861 
-38.417679 -13.508960 25.622761 
-17.217060 13.026050 -23.341061 
17.124809 -22.207960 37.141708 
-23.629551 16.321430 -16.421181 
-18.499371 -44.435410 30.631559 
-15.687580 -1.876441 -29.604000 
26.871799 -50.742550 39.930882 
-24.977510 27.243601 -15.844110 
-41.267990 -26.216110 16.521990 
-27.067770 -46.048321 33.606270 
-38.218590 -13.339530 0.107143 
30.337509 -16.577709 1.063910 
-17.048170 23.528509 34.433601 
-19.663860 38.035011 26.659760 
-31.599369 -0.592391 -24.667490 
33.313438 2.027718 5.721170 
-36.734982 -29.352699 14.671540 
-32.892570 -3.893953 -6.774045 
-27.005350 -11.764800 -33.910770 
-11.276820 -12.219290 33.928848 
29.908590 -47.432831 40.182831 
18.573179 31.228930 -15.893620 
8.204967 -5.455995 -31.261169 
-36.937580 -40.431751 13.380150 
28.735750 25.314230 -5.718886 
-22.925409 33.540138 24.054819 
-39.999599 -15.244260 10.590790 
25.773180 -10.403930 -26.104120 
-9.401735 -49.151649 35.583111 
27.506260 24.997999 5.978109 
-36.122391 40.508072 4.806296 
-12.525560 46.192001 -9.151525 
-4.492652 46.144901 30.213470 
41.829891 -36.624840 -21.799709 
33.663780 -33.883720 27.238279 
-14.649170 16.376841 -29.505770 
10.864890 30.615179 -24.282030 
-39.788368 -38.934151 3.168286 
17.823980 -41.841061 39.922741 
24.355129 -53.058842 36.747551 
3.474431 54.409081 -13.917440 
-34.147018 -49.739491 -6.839809 
-9.837818 24.054510 -28.378811 
-5.100794 -47.625530 36.209679 
8.461716 17.747530 -22.883410 
17.847050 21.523729 26.442499 
9.306279 -44.620621 38.404709 
23.569031 38.818371 23.083570 
-33.117451 27.477280 6.606843 
-34.140961 7.162751 17.837959 
36.458920 -44.787151 -16.252489 
-13.977470 -33.791302 -36.111259 
22.811710 -37.762661 -31.652430 
-39.286301 -12.069660 6.535879 
-33.164219 21.906160 21.912230 
7.221363 -2.156602 37.680161 
-22.601980 24.722771 27.354361 
3.196793 13.339200 42.783379 
15.280880 -39.050690 -31.931959 
28.363331 -45.521271 40.452229 
22.832251 -48.744709 33.780418 
-4.935084 44.195801 -16.626671 
22.457939 -35.807350 36.792961 
-30.121651 -42.004669 -25.821251 
20.025640 43.829411 5.448472 
21.209490 26.032539 -7.720853 
-0.915169 -15.685840 39.419350 
11.720450 13.428730 38.519001 
-20.032120 42.990120 13.494390 
-32.058510 -26.636150 -20.405199 
12.061860 -45.002041 34.668350 
20.436380 48.093090 1.265919 
11.872670 5.315218 -29.257111 
-21.070959 -47.323429 34.317860 
-35.521950 -29.905359 6.350084 
20.025410 39.217491 19.871349 
38.426140 -13.678590 -20.930490 
-19.483150 -28.772421 35.774330 
-33.629539 -2.312622 -0.536849 
-16.729340 43.233768 10.140130 
26.760210 3.527438 -17.310129 
32.284088 -16.261820 20.439070 
16.395510 27.542530 -21.393141 
25.981730 -15.755350 30.237530 
-35.678959 -43.397881 4.713417 
1.618466 34.096378 -25.117060 
24.120859 -13.578930 37.053631 
-3.851998 22.526850 38.230000 
22.880699 46.037109 12.467800 
-36.570980 37.106590 5.127960 
-29.536119 -13.037260 -32.526581 
1.774895 23.970470 -27.223709 
-13.073570 -19.417990 37.342800 
-35.556770 -10.937440 11.089060 
36.390041 -40.764309 16.764429 
32.082142 9.306607 12.003160 
-33.463718 12.751380 1.690151 
-34.326038 -26.244850 -32.991711 
-9.828583 -32.013939 32.047089 
-20.028780 50.433319 -6.607336 
-15.638980 6.195850 -27.257080 
-9.924576 47.372051 34.893490 
33.735168 4.745950 -14.507520 
-33.446220 24.733870 7.846599 
-25.606581 42.470181 24.699610 
-25.430990 -30.926920 34.965969 
0.985988 34.709389 -20.390921 
-34.048550 28.562700 -7.005032 
8.642329 -4.690361 37.599400 
-14.234760 -36.330570 -36.829960 
-33.044540 -10.663750 -6.283047 
-19.996849 -27.897301 -35.795719 
-25.482210 24.370960 -10.470080 
24.614559 23.553490 -4.404411 
-6.885162 19.041941 -29.260000 
32.585232 -6.206650 -10.689500 
38.569611 -20.098579 -25.860840 
-23.112801 36.529190 -12.385730 
-36.181000 -32.168751 10.226690 
-16.720350 -19.115129 -37.646820 
11.987580 28.213289 28.878160 
32.481831 -37.690239 9.570727 
-34.752300 -47.588268 28.363770 
-36.926060 -40.478809 -18.800440 
0.767420 15.474650 -28.940290 
-16.382509 21.139099 -26.016121 
-8.521805 -29.111401 36.823132 
32.086231 -19.570450 25.742809 
0.086357 17.186609 -24.155100 
-12.423710 43.336418 -17.662560 
6.382762 -36.376411 34.128880 
-37.266701 -29.174141 -11.917280 
-40.313499 0.924911 16.546869 
-2.723198 30.426590 37.607010 
1.728555 -3.587941 -31.714890 
-5.451968 5.746558 36.795750 
5.494279 -5.167519 -27.041901 
7.973687 16.822029 -27.782330 
-23.992531 24.480970 33.048889 
26.424520 6.173630 20.966061 
32.120338 -0.354037 13.488560 
-38.981510 -29.109909 1.039493 
-27.065571 3.506948 -26.546570 
-38.282001 -24.961740 -2.075278 
26.112450 -7.551487 27.282301 
8.197562 40.289902 -21.945440 
-19.204870 46.241982 -10.231740 
11.274240 51.931599 2.143983 
38.596550 -42.103279 -33.372181 
7.354230 3.238055 42.508259 
26.556299 -3.550383 24.584101 
-22.785509 -32.768211 35.129768 
33.466110 -23.303640 16.400290 
-9.552727 -28.478010 -38.616440 
11.276730 27.232250 -25.109390 
-30.804871 8.231469 29.334740 
33.107891 -13.608260 9.717113 
5.982590 -33.668880 -33.143791 
-29.094090 -48.940319 28.843639 
-35.460381 -17.819469 30.450001 
-36.170959 22.130659 -5.648432 
28.768370 22.759800 22.946520 
-1.163239 42.145882 26.668840 
-4.195203 -3.456933 35.945278 
24.441031 -4.200024 -24.620489 
-19.072630 -28.595860 31.386690 
-18.288469 37.866711 -15.730000 
5.909852 45.004169 2.698336 
31.356039 -36.658630 37.384731 
-34.109619 7.581886 -17.773081 
-4.256804 53.018951 -17.830130 
-13.771290 52.683540 -5.380206 
0.114769 -7.892981 40.587769 
11.288060 -36.528370 -37.719139 
-35.686939 -17.905081 10.650090 
-21.078489 -6.418823 38.046650 
39.081718 -14.911850 -18.857809 
-33.166512 -7.405134 -4.923699 
33.415741 -29.022600 23.902361 
-16.382509 23.497540 -24.795080 
-34.779339 -32.237320 33.332088 
7.237533 49.893711 2.137676 
27.994610 40.401859 18.448420 
-38.319401 -54.477081 25.699640 
-6.613184 -31.610310 -38.903591 
-28.968910 -11.838030 -26.557791 
-26.959841 -24.904860 35.405109 
-32.263741 -24.501600 -17.525030 
-15.422170 18.769329 -27.961470 
-8.493505 6.380185 -27.178640 
14.100710 33.036030 -20.344450 
-36.990742 -48.282711 -13.888400 
16.451040 11.629300 35.760109 
-35.621201 -41.886669 28.710320 
-14.279130 27.292620 36.256561 
-39.937611 -34.565479 5.648317 
-34.937351 -29.485319 -31.163231 
-14.208910 38.023071 40.846291 
-26.092291 -33.448071 30.364830 
-27.113319 26.909639 -14.090380 
-29.215460 -26.015240 34.996262 
-16.412411 32.080601 32.888180 
-13.442230 -6.706890 -30.309320 
17.120871 1.893287 -29.374760 
13.956530 49.316780 17.684839 
12.723420 21.636610 30.118910 
12.587580 18.765421 -21.861481 
-38.134781 -1.524628 22.656340 
0.584873 -40.515011 -34.035049 
-37.064789 -20.334030 -10.687060 
3.254025 47.573200 33.157162 
25.871929 40.331169 2.152450 
-36.346420 -8.452159 16.653311 
-31.312889 -17.290871 28.485970 
-38.489521 -1.980138 2.883024 
-34.119122 17.500919 13.140870 
-27.060061 34.847542 18.078791 
6.353950 -20.211479 40.146290 
-36.008831 -44.247250 7.031894 
-6.123998 15.958790 -29.736349 
27.199699 5.179773 -15.357110 
-37.584869 -31.052570 -10.199990 
41.749649 -35.377899 -31.491381 
3.206505 25.253349 35.446751 
-30.494761 26.513969 16.277590 
21.877979 13.573300 -24.494061 
-4.913117 35.164619 -25.668289 
-26.060570 19.119909 24.724760 
-34.461681 46.107819 10.462840 
5.872733 52.820530 -5.336091 
21.401680 35.205441 20.020941 
-7.049871 42.195549 20.469530 
-35.258980 3.548908 11.894610 
21.199221 -27.771549 41.431320 
-38.456692 -32.286930 30.189240 
32.147160 -30.251060 -29.602051 
-27.230391 -40.775230 -34.887428 
-36.593380 -44.926102 10.941480 
-19.289030 29.069290 30.228189 
12.951270 -12.225970 -32.078220 
-33.855659 -48.565689 9.539212 
19.303980 47.499229 22.889660 
-11.332310 -24.220350 32.516109 
-2.589134 46.309929 -17.256109 
36.016369 -32.011650 7.551689 
-39.894779 -6.382284 21.447531 
-35.203732 -52.634109 21.856430 
-5.991974 53.188290 -9.066865 
31.211281 -19.090651 31.555321 
37.160431 -36.497650 -19.556030 
2.999685 -6.532617 36.696430 
16.013390 43.777050 -9.555120 
8.821128 -7.625739 -27.103399 
38.442390 -40.104889 2.478135 
-40.134670 -40.162830 5.298308 
-32.690651 -12.720110 -9.992694 
-14.148450 -29.029560 36.249081 
27.257931 -9.416615 -30.375179 
-3.847325 45.287041 -2.066795 
11.432460 44.065331 19.928080 
30.415569 -31.968470 15.511800 
18.145660 9.889005 35.034931 
28.907749 -48.240520 30.688480 
-19.925610 -16.380550 32.604191 
0.068842 24.846331 37.351311 
17.894270 12.299970 28.908060 
8.752294 12.884080 40.580601 
-38.300449 -43.359791 31.688589 
-38.119160 -43.213459 -10.174990 
-14.190970 -6.204731 38.912109 
0.103624 48.944939 3.259805 
-27.070101 3.579881 28.121500 
-33.018349 -44.788582 -36.787251 
34.295860 -40.007980 -35.443432 
-12.249670 37.263000 -14.726560 
17.105631 -0.764572 38.651539 
-31.740410 -10.642630 -18.430740 
-12.747840 3.502384 -28.207331 
31.576269 -31.554581 6.146641 
-8.103891 -13.053180 -30.388189 
-32.245190 -29.066031 -19.409090 
-25.705040 47.692921 -3.646384 
18.844959 -10.423970 34.485489 
-11.320710 29.250040 42.134319 
8.568841 -24.067751 -34.939091 
23.489500 36.169628 4.042254 
-9.943806 -41.672329 35.912922 
27.467661 -43.735081 36.805870 
1.848134 25.841600 41.604969 
17.555700 50.519859 11.979950 
8.147694 35.774860 -23.598129 
-19.754959 -1.963158 -34.155239 
-21.894871 -35.394932 -41.774120 
-13.622690 41.189449 -17.864731 
30.517450 -38.343651 21.980160 
35.297829 -25.788639 -16.936069 
-1.387046 34.850700 -25.363880 
15.723980 45.918129 26.026770 
-35.571190 -46.324249 -25.133480 
17.513010 -34.086189 -36.509960 
5.075929 47.539749 12.989920 
14.874940 26.050171 27.414770 
6.671674 14.805790 41.359852 
-4.052456 -46.580891 32.397751 
-39.013031 -38.884239 -2.348465 
0.513039 -42.880161 33.020931 
-32.507111 -50.300152 32.300159 
37.518379 -29.716150 -3.501857 
-35.542480 -39.008350 28.683571 
26.855200 -30.984301 34.262779 
-38.519291 -27.331011 -1.385419 
37.677200 -46.556351 -4.753701 
14.356350 40.306740 -14.728410 
37.452240 -48.183990 10.661080 
16.988710 -53.266960 34.323299 
-18.838150 27.204029 38.632271 
-20.709410 12.043610 33.133430 
-32.516491 -47.991199 -18.620661 
-32.772881 9.240618 26.520500 
6.500217 6.899706 -25.041599 
-31.326559 -17.666389 34.721149 
