9.550290 -23.872618 -4.487300 0.142567 -0.521540 -0.841232 
-11.418995 -16.020847 1.598742 -0.661455 0.089609 -0.744613 
11.386113 36.265575 2.299594 -0.063034 0.993676 0.092926 
-1.804899 -13.505731 12.829077 -0.729536 -0.338143 0.594505 
23.273699 -19.494478 8.188460 0.021375 -0.286045 0.957978 
16.974571 34.655869 -8.301586 0.794054 0.589789 0.147065 
8.387181 15.795618 -5.800002 0.848034 -0.529914 -0.005411 
18.429148 34.183090 -8.938725 0.662619 0.742256 -0.099960 
5.139931 31.688227 -18.478745 -0.034201 -0.947129 -0.319025 
2.673725 34.921375 9.613987 -0.078247 0.995541 0.052680 
-7.454033 33.882263 15.046112 -0.113561 0.986403 0.118802 
-11.362971 -33.982063 17.717403 0.734828 -0.581991 0.348303 
0.391842 36.405651 -19.934717 -0.207244 0.810829 -0.547363 
-26.177069 -22.789116 -14.147027 -0.793627 -0.346061 0.500398 
5.709519 -0.258747 -4.137356 0.644807 0.413364 -0.642926 
-4.024495 7.867144 -12.165448 -0.007157 0.334154 -0.942491 
-7.123796 24.469643 16.609848 -0.607963 0.236628 0.757884 
14.339099 -7.764400 1.368210 0.593368 0.766592 -0.245460 
-10.142764 -30.201307 8.471354 0.018881 -0.584317 -0.811306 
-6.202808 -25.947407 -3.765279 -0.100856 -0.555023 0.825698 
-13.993035 -9.870508 1.669193 -0.488007 0.102596 -0.866789 
-10.213926 12.096063 16.352917 -0.507949 -0.822458 0.256028 
-17.131121 -25.985130 6.293417 -0.401042 -0.235808 -0.885189 
3.193865 35.127148 8.327297 -0.064947 0.991504 0.112698 
-19.836857 -10.414991 10.298272 0.656096 -0.027272 0.754185 
10.294095 -11.227570 -5.696965 -0.369424 0.041977 -0.928312 
-19.269672 8.198406 0.708200 -0.966581 -0.253543 -0.037916 
11.127125 -20.773849 -5.536958 -0.043081 -0.888785 -0.456296 
-10.366492 35.261051 -3.100917 -0.008469 0.991257 0.131675 
-2.710633 -25.732115 -10.067743 0.503486 0.092397 -0.859049 
-18.358511 21.393791 10.035422 -0.797019 0.170279 0.579453 
-15.905417 -33.285229 -22.124889 0.258417 0.902268 -0.345156 
-20.047377 30.229876 3.245836 -0.212997 0.727577 0.652123 
-10.061233 5.816526 -12.186595 -0.037557 0.254078 -0.966454 
15.471243 20.067503 -0.906772 0.782259 -0.110650 -0.613047 
-13.523911 -31.784643 -10.106128 -0.168708 -0.785609 0.595278 
-8.419883 27.883554 -18.376535 -0.731633 -0.291776 -0.616101 
-26.508331 -28.927338 21.141567 0.631175 0.304743 0.713267 
-15.993064 -30.354132 -16.118690 0.154449 0.927922 -0.339272 
-5.004477 -3.183159 -11.564727 -0.072106 -0.483999 -0.872093 
-7.608630 32.401436 -13.024024 -0.513668 0.768979 -0.380547 
2.630032 -23.463907 -3.212981 0.135971 -0.968426 -0.208956 
7.901624 -15.558880 11.914949 -0.152142 -0.038453 0.987610 
-11.916644 12.776364 15.079293 -0.539718 -0.767913 0.344985 
-26.387867 -6.981130 -10.378352 -0.876759 -0.297536 0.377844 
-12.472406 12.061001 12.843823 -0.315313 -0.808158 0.497452 
-20.657158 26.072720 5.478423 -0.311258 0.148164 0.938704 
-20.492655 -32.965942 -24.822210 -0.029956 0.867002 -0.497404 
-4.950923 11.521895 21.686012 -0.449469 -0.533240 0.716682 
-13.954639 -34.887512 -18.383144 0.238355 -0.954192 -0.180845 
-20.051962 -9.210992 4.165740 -0.569627 0.088493 -0.817126 
-9.706573 -29.341961 -13.488969 0.136306 0.788316 -0.599982 
-13.329629 -32.456871 -18.866268 0.079196 0.867169 -0.491677 
-21.422043 -9.090794 5.137779 -0.570769 0.234474 -0.786921 
-31.314392 -23.258120 20.187643 -0.913387 0.365377 0.179513 
4.950914 11.541645 12.545190 0.776055 -0.559047 0.291900 
18.154648 24.387255 -0.478399 0.644199 -0.679635 -0.350861 
-16.727217 -3.074856 9.561568 0.242706 -0.233846 0.941493 
-23.796047 -4.355138 7.671206 -0.614437 0.125812 -0.778870 
-28.282595 -29.586145 22.210499 -0.096875 -0.182919 0.978343 
-9.472213 9.867714 -9.696344 -0.462457 0.419427 -0.781162 
9.663303 25.767733 14.511061 0.152033 -0.907370 0.391875 
-10.966815 -33.888355 -14.611199 0.204722 -0.932529 0.297453 
13.873286 28.702991 15.726648 0.922848 -0.181997 0.339454 
-7.011434 -15.140823 -5.505969 -0.033363 -0.806577 -0.590186 
-24.556025 -25.459253 11.303320 -0.614651 -0.409049 -0.674450 
13.542494 19.375162 11.799218 0.128370 -0.637304 0.759845 
19.900106 -8.071615 -2.331893 -0.428971 0.749259 -0.504574 
-10.778993 12.961076 -11.852986 -0.406783 -0.836178 -0.367879 
-25.870537 -1.779193 -10.010342 -0.860969 0.008345 0.508588 
23.381384 -18.038895 -5.337838 0.359828 0.017403 -0.932856 
5.963717 20.343615 2.523733 -0.122841 -0.987202 -0.101700 
-9.158106 -8.148279 -7.867922 0.291742 0.258500 -0.920904 
13.164089 19.101099 -3.803063 0.554702 -0.790156 0.260691 
-16.658083 20.803400 -6.554383 -0.757289 0.270062 -0.594626 
-28.845518 -22.800386 20.223543 0.019021 0.319221 0.947489 
-7.770925 34.469536 5.834527 -0.055162 0.993765 0.096894 
-15.543309 -1.852654 -6.782096 0.400962 -0.144221 -0.904671 
-3.438511 -9.890039 11.301672 -0.673433 -0.549074 0.494981 
-0.207157 5.394474 -7.045321 0.564694 -0.790788 0.236169 
10.200731 37.125011 -7.926231 -0.102036 0.988988 0.107194 
-12.929667 34.245281 4.260906 -0.026922 0.993384 0.111636 
-25.411209 -20.715498 15.075614 0.465991 -0.293532 0.834680 
-16.260096 33.679226 7.378655 -0.229049 0.958198 0.171446 
17.544006 24.628702 -6.159011 0.893297 -0.371092 -0.253597 
7.097477 6.462371 -1.551525 0.629081 0.461168 -0.625764 
-21.741362 29.151064 2.402707 -0.820418 0.209008 0.532194 
-30.355122 -5.454139 12.960072 -0.515247 0.459725 -0.723307 
0.672750 22.038992 11.149320 -0.332611 -0.942674 0.027116 
6.125131 23.442860 18.861134 0.296871 -0.612584 0.732536 
-15.664289 24.611166 -4.197588 -0.757649 0.552356 -0.347666 
-22.570766 -11.604117 11.710345 0.510882 -0.041728 0.858637 
-26.845705 -24.893660 13.361860 -0.713691 -0.378143 -0.589622 
13.438575 36.943947 -4.158185 -0.062998 0.987895 0.141755 
-25.857668 -23.558359 -19.822594 0.602743 0.427124 -0.673992 
19.905935 -8.425592 -3.245236 -0.270383 0.777387 -0.567946 
-2.727151 35.519413 -2.584188 -0.053200 0.993815 0.097475 
-6.860382 10.521329 17.371979 -0.434279 -0.900632 -0.016232 
16.661747 35.306473 -9.667779 0.411974 0.911076 -0.014756 
11.476198 20.880291 -9.298010 0.011653 -0.259580 -0.965651 
-17.998625 -35.420483 -20.203798 -0.236272 -0.969397 0.066674 
14.347867 24.529709 -10.473970 0.690618 -0.178856 -0.700755 
-18.741220 7.066033 -0.306893 -0.868414 -0.368850 -0.331370 
-26.871344 -6.053936 10.096952 -0.502965 0.276617 -0.818846 
-31.188868 -16.542183 -18.336351 -0.955842 0.165957 0.242538 
-16.701557 6.640109 7.338229 -0.815673 -0.334086 0.472297 
-11.882118 -27.012487 -10.775578 -0.070489 0.838956 -0.539615 
-25.516655 -23.060598 -13.488157 -0.676790 -0.496119 0.543895 
-17.515903 -35.328365 -18.529558 -0.322500 -0.909126 0.263597 
5.166033 34.995556 10.608016 -0.019246 0.995602 0.091687 
5.068425 2.198025 8.900536 0.216547 0.015155 0.976155 
-16.947264 34.441177 -1.658049 -0.177667 0.978956 0.100399 
9.090432 -5.625661 -5.082571 0.962694 0.266898 -0.044553 
-2.534738 36.150326 -7.618519 -0.007434 0.994807 0.101510 
4.104649 24.731998 -13.632489 -0.126797 -0.492316 -0.861132 
6.042620 13.353101 0.578381 0.867494 0.320073 -0.380798 
4.899530 5.270173 -3.611029 0.343955 0.055379 -0.937352 
7.770145 25.397135 14.918536 0.414620 -0.847019 0.332639 
5.022062 -10.364693 -7.818526 0.848146 0.286590 -0.445549 
-12.742702 0.324832 9.870863 -0.110100 -0.159517 0.981036 
11.554342 37.377399 -9.252864 -0.123887 0.988032 0.091900 
-9.269205 -21.721617 7.847944 0.346753 0.445882 0.825198 
8.885899 36.122280 1.843518 -0.096871 0.995249 0.009742 
-15.441970 -34.396168 -15.243111 -0.165176 -0.882220 0.440914 
-14.973294 -30.840536 15.313442 -0.071641 0.830203 0.552839 
-15.695716 -8.067038 2.128061 -0.377960 -0.239036 -0.894431 
-14.504493 -32.776749 18.213497 0.436292 0.753191 0.492293 
-22.947243 -30.866579 -17.087887 -0.587193 -0.691158 0.421314 
24.910654 -19.464687 -4.541768 0.529755 0.499362 -0.685564 
-22.179129 1.044278 -7.466842 -0.611520 0.369423 0.699693 
-28.982380 -23.216486 15.031038 -0.783781 -0.372408 -0.496991 
0.444601 22.816864 -15.306436 0.204021 0.558763 -0.803841 
-27.187592 -20.527002 11.293422 -0.683747 -0.365356 -0.631668 
6.171171 26.351540 21.015406 0.629446 -0.740219 0.236374 
8.350326 2.985145 -1.208984 0.784988 0.059821 -0.616616 
-3.821567 -4.065842 15.737603 0.049856 -0.216349 0.975042 
-14.482036 -34.886673 -15.386889 -0.108175 -0.938944 0.326623 
14.141490 19.750755 -3.397393 0.533437 -0.701046 0.473265 
-28.456017 -23.466024 14.370194 -0.743087 -0.342785 -0.574735 
-15.106407 -28.099401 13.015124 0.328707 0.480106 0.813295 
3.872531 -16.367689 -5.799171 0.010749 -0.137328 -0.990467 
-24.458120 -19.985760 7.722505 -0.585587 -0.503184 -0.635526 
2.416096 9.485648 15.087611 0.542055 0.216980 0.811847 
-9.698674 -32.913139 -13.677519 0.278034 -0.920034 0.276107 
-22.180006 -30.084745 -14.473428 -0.660990 -0.654566 0.366929 
30.363928 -19.846870 2.728949 0.412891 -0.480711 0.773588 
-18.368193 -0.343423 10.087048 -0.178073 0.470952 0.863999 
-8.010621 -11.767011 -7.352364 0.045678 0.860651 -0.507143 
-19.383629 16.823984 -2.291816 -0.939000 0.056789 -0.339196 
-0.976386 -14.497781 12.720294 -0.037057 -0.592501 0.804717 
-23.192322 -20.000744 -15.681478 0.727698 0.416713 -0.544799 
18.360617 35.452217 -4.483595 0.853080 0.420265 -0.309244 
-29.217735 -20.350933 13.916643 -0.813639 -0.275260 -0.512078 
-27.322475 -17.494879 -11.955909 -0.785297 0.050356 0.617068 
-30.677860 -23.519619 17.892502 -0.871607 -0.284688 -0.399067 
-5.372048 35.702374 -13.833620 -0.393800 0.570754 -0.720529 
-28.583439 -30.916910 21.741970 -0.580220 -0.259453 0.772029 
0.053723 -18.143913 -6.343492 0.000885 0.561396 -0.827547 
-6.118402 36.130375 -9.630084 -0.005103 0.997569 0.069500 
-21.323536 2.509960 9.756733 -0.273505 0.942918 0.190003 
-16.854343 30.964609 -10.235069 -0.582444 0.375093 -0.721155 
-13.686383 5.633552 -11.018759 -0.702584 0.508604 -0.497692 
-6.852634 -6.085073 9.579944 -0.681241 -0.728915 -0.067775 
-30.257631 -19.468628 14.952253 -0.787323 -0.352303 -0.505969 
-9.034633 35.341900 -5.109286 -0.078961 0.995485 0.052681 
-17.096447 -18.953468 -10.676313 0.312154 -0.197835 -0.929205 
-8.984357 -31.292255 10.009731 0.239061 -0.900133 -0.364156 
-13.886427 8.598339 10.253723 -0.337785 -0.225202 0.913885 
-17.266903 30.136524 5.162670 -0.879280 -0.474435 0.042158 
15.101231 23.909681 -4.236659 0.401275 -0.324484 -0.856556 
-23.833052 -36.959507 25.422920 -0.013917 -0.920007 0.391656 
-23.552292 -28.614117 -21.834793 0.642980 0.414947 -0.643736 
9.085860 -9.239855 10.078474 0.983538 0.172763 -0.052971 
-25.968716 -31.701050 16.411051 -0.661468 -0.518485 -0.541879 
20.227852 28.570147 2.568914 0.407058 0.330660 -0.851450 
-15.832505 6.182008 8.207312 -0.592240 -0.409909 0.693705 
-27.373177 -22.587482 -15.766442 -0.733688 -0.425778 0.529543 
-6.540984 19.370251 -15.630830 -0.383081 0.715653 -0.584028 
-30.153400 -19.023197 -16.345417 -0.566179 -0.815594 0.119365 
2.703391 13.703959 -2.203859 0.512548 0.311480 -0.800172 
4.073592 8.222340 12.331817 0.887269 -0.409343 -0.212583 
-16.192541 -35.477760 -17.834667 0.115790 -0.977283 0.177510 
-19.771801 -16.626486 10.468713 0.410633 0.122841 0.903488 
5.724187 36.338615 -3.670876 -0.087352 0.990329 0.107784 
-0.444591 3.823393 -4.919510 0.506643 0.726776 -0.463799 
-25.902857 -16.904177 14.740355 0.466040 0.081900 0.880965 
-19.546373 24.986301 5.968630 -0.074235 -0.020900 0.997022 
7.129432 36.070438 -18.699240 0.357213 0.709997 -0.606880 
10.677537 34.687622 18.331470 0.237196 0.874072 0.423953 
-6.097783 29.659674 -20.205288 -0.540654 -0.034325 -0.840544 
-7.666965 -16.016392 7.663095 0.226251 -0.949305 0.218246 
-17.333849 3.959003 -0.014221 -0.868285 -0.439979 -0.229127 
15.388339 -9.223898 8.391550 0.371881 0.654108 0.658671 
13.535557 31.674612 17.409307 0.815098 -0.032039 0.578437 
5.269062 -16.111387 11.057969 0.135615 -0.424928 0.895011 
29.827690 -12.184067 2.693780 -0.429432 0.730145 -0.531486 
19.893854 26.511480 -3.294981 0.899889 -0.423105 -0.105743 
18.552671 36.367722 4.003709 0.601607 0.792824 0.097467 
18.457548 -16.078966 -5.958828 -0.361678 0.225154 -0.904707 
8.028666 18.528347 4.345086 -0.367639 -0.850644 -0.375827 
-8.822189 -24.334612 -7.874425 0.044219 0.541247 -0.839700 
7.407712 35.176594 10.493112 -0.098652 0.988568 0.114019 
-24.524677 -26.159748 -13.860528 -0.749395 -0.368973 0.549788 
-30.680391 -15.828636 -19.867373 -0.148406 0.932108 -0.330380 
13.959922 18.813923 -4.756643 0.688885 -0.716960 0.106802 
10.705782 37.456951 -10.172458 -0.102290 0.991282 0.083047 
-9.746225 -20.893627 -7.022163 0.356889 0.115939 -0.926924 
-18.117094 20.703867 10.322541 -0.843748 0.178757 0.506098 
-7.161554 20.396305 17.084980 0.333799 0.612543 0.716498 
4.050559 -7.324735 14.757016 0.082386 -0.206875 0.974892 
-8.083941 22.743813 15.574520 0.542634 0.506614 0.669993 
-1.736277 19.484968 11.654397 0.972068 0.173662 0.157877 
-0.935409 -13.201138 13.163117 0.247791 -0.562472 0.788813 
2.629120 35.751801 0.345065 -0.040498 0.993467 0.106692 
3.238627 8.360361 -3.365945 0.506981 0.058605 -0.859963 
-2.714175 -20.166044 8.969234 -0.583313 0.555347 0.592736 
0.950285 8.840541 -4.803687 0.824603 -0.077787 -0.560339 
-6.701952 -25.903166 -10.039660 0.011708 0.653645 -0.756711 
-9.900600 -15.083197 -5.748208 0.228286 -0.467306 -0.854114 
0.334628 13.161794 -10.192462 0.681076 -0.653084 -0.331085 
-11.853595 -33.466785 -19.693964 0.650834 0.346905 -0.675331 
-12.484372 -34.453964 -19.407915 0.268807 -0.956144 0.116325 
16.230650 35.575462 -8.299106 0.792345 0.507604 -0.338421 
33.085823 -10.892699 0.352330 0.636712 0.691934 -0.340331 
-16.556982 1.902845 2.595999 -0.935156 -0.350341 0.052394 
-2.631091 35.452293 -0.695221 -0.083280 0.986735 0.139350 
-27.434481 -19.709259 10.986624 -0.635432 -0.566798 -0.524373 
-18.214903 -16.820248 9.789609 0.371897 0.116695 0.920910 
6.628028 -0.474429 -3.825888 0.206920 0.621116 -0.755910 
20.998552 -17.708969 8.365289 0.423150 -0.368626 0.827683 
21.075565 -24.090631 0.674191 0.087158 -0.974226 -0.208057 
12.785313 36.541142 -1.133519 -0.106342 0.989971 0.092995 
-13.607398 -33.157993 -20.851675 0.163131 0.919279 -0.358210 
10.319376 36.236958 1.207388 -0.085503 0.995818 0.032175 
-7.283080 -6.093658 -6.257758 -0.664733 -0.559218 -0.495384 
21.569725 -9.995271 5.292587 0.307766 -0.950777 0.036105 
8.263792 30.606279 -14.210505 -0.204300 -0.951316 -0.230779 
-2.470105 -10.903133 11.505362 -0.631864 -0.500412 0.591892 
-0.002793 34.900421 9.077955 -0.077403 0.996650 0.026425 
-27.128569 -28.466812 -22.506935 -0.687554 -0.716766 0.116258 
-24.995346 -4.667524 8.676662 -0.644114 0.096850 -0.758773 
15.287561 36.426643 3.945355 -0.065194 0.997687 0.019267 
-15.214846 -14.187840 2.361089 -0.300460 -0.294991 -0.907031 
-2.569192 9.534695 17.073074 0.202095 -0.906237 -0.371339 
-29.936258 -15.798994 -15.678140 -0.880675 -0.093309 0.464441 
17.888628 35.735336 -5.161894 0.823443 0.442589 -0.355044 
3.709052 9.450306 10.666785 0.803768 -0.305416 -0.510566 
-5.208851 22.174458 -15.542893 -0.651696 0.411595 -0.637089 
-5.139331 -15.284489 8.670321 0.198030 -0.674684 0.711046 
-17.213606 -26.449148 -12.845779 0.438037 0.383964 -0.812831 
5.351925 35.514385 6.646016 -0.050466 0.986170 0.157867 
-6.624633 -30.506325 -11.117856 0.542874 -0.836382 0.075852 
5.767852 5.108377 8.513245 0.417256 0.094598 0.903852 
20.044111 -16.788696 8.779083 0.144642 -0.097489 0.984670 
-28.845930 -30.925213 19.908297 -0.724702 -0.599170 -0.340297 
9.188510 7.555282 2.846241 0.971521 0.216331 0.096685 
-14.385872 -0.167705 9.495028 -0.049703 -0.061773 0.996852 
22.577980 -18.149361 8.263299 -0.200324 0.143058 0.969229 
-7.729597 29.721214 17.870693 -0.195111 -0.781465 0.592658 
-21.998856 27.853954 3.524974 -0.834558 0.362832 0.414567 
-9.628655 22.303574 -12.124881 -0.352897 0.534152 -0.768209 
-10.948400 6.316597 14.679789 -0.816972 0.261687 0.513884 
18.834782 26.581068 0.903792 0.879387 -0.277459 0.386903 
-5.883315 32.492477 19.982685 -0.412234 0.148396 0.898911 
-13.810678 25.147205 -5.867904 -0.535127 0.327515 -0.778700 
3.682780 23.810425 18.693687 0.385732 -0.914810 0.119724 
28.404240 -3.598984 0.828982 0.000723 0.978944 -0.204126 
-1.510385 19.041265 21.797335 -0.108320 0.360876 0.926302 
-1.804153 -13.411909 -7.334123 -0.528624 -0.302534 -0.793114 
-11.875957 -10.033401 -8.108562 -0.500848 0.304129 -0.810344 
0.170601 -24.198936 4.622540 0.320422 -0.930041 0.179870 
-13.865520 12.443949 12.385722 -0.601137 -0.687560 0.407302 
5.906965 9.500507 6.028221 0.511630 0.435569 0.740618 
-12.276163 -29.363949 13.259756 -0.008801 0.947050 0.320965 
-6.452713 5.618546 -12.249762 -0.040489 -0.138030 -0.989600 
-21.811140 -34.260735 14.885345 -0.429685 -0.667828 -0.607764 
-14.538013 -35.407673 -21.018936 0.071004 -0.990809 -0.115135 
-13.564760 -30.751410 8.713271 0.030093 -0.684211 -0.728662 
-22.677591 -33.026005 -21.803675 -0.748145 -0.637733 0.183235 
-20.651100 -18.595594 5.142982 -0.547682 0.119238 -0.828147 
15.895338 25.063042 10.626671 0.512534 -0.636454 0.576398 
9.448296 3.392649 6.179003 0.624275 0.170694 0.762328 
17.998146 -8.530506 1.526536 -0.232827 0.972415 0.014198 
2.196064 -24.439394 5.253119 0.115526 -0.981972 0.149615 
-9.515465 -3.709127 8.710191 -0.301603 -0.485165 0.820762 
-17.767876 -28.000767 13.780389 0.282319 0.529624 0.799872 
14.032562 -20.638905 7.832705 0.719518 -0.122921 0.683509 
17.486368 -10.262386 6.324706 -0.257814 0.795933 0.547743 
-3.298850 1.011285 -10.809566 0.410661 0.366673 -0.834811 
-26.007059 -4.404775 -10.393843 -0.817014 -0.327330 0.474703 
3.498107 34.764133 11.989859 -0.060544 0.996142 0.063531 
-23.477015 -28.699337 -13.789010 -0.747713 -0.501146 0.435636 
4.316013 8.387546 7.699027 0.546844 0.508199 0.665353 
3.786873 26.205982 21.964809 -0.304688 0.098448 0.947351 
11.549599 -1.359535 -4.168303 0.676964 0.409793 -0.611383 
-6.614810 -12.658295 -8.064554 0.034791 0.159647 -0.986561 
-3.122726 -22.699963 -7.554106 -0.561734 0.555406 -0.613171 
5.592840 -13.197736 10.955935 0.792129 0.169912 0.586227 
11.974993 23.778193 -11.397928 -0.269836 -0.560067 -0.783271 
-7.537372 31.321026 19.038244 -0.467924 -0.138589 0.872835 
-24.564501 -9.182404 12.821509 0.623490 0.118294 0.772830 
14.884265 28.468826 -11.474724 0.652381 -0.346208 -0.674195 
-5.981201 25.299519 -14.765800 0.422090 -0.906554 0.000813 
-28.067593 -12.314567 10.637063 -0.682907 -0.126437 -0.719480 
-10.233117 34.230446 5.781132 -0.016688 0.995242 0.095993 
-31.597866 -5.757690 14.891660 -0.957933 0.077278 0.276392 
-11.449207 19.422815 -12.848684 -0.405919 0.357415 -0.841120 
-13.014077 35.212795 -5.413621 -0.069861 0.995087 0.070154 
-16.605835 4.505854 9.413827 -0.049683 0.470439 0.881033 
34.043720 -11.541258 -0.214279 0.377399 0.806098 -0.455825 
-12.981871 -22.020452 -8.814487 0.398236 0.192544 -0.896847 
2.338833 -6.991415 15.110760 0.159730 0.218891 0.962587 
1.742430 13.069370 19.224125 0.960580 -0.199629 0.193477 
-19.089321 -5.228951 9.736815 0.462548 -0.051351 0.885106 
-24.904247 2.434254 10.953183 -0.570927 0.743189 -0.348873 
-20.538210 -31.106144 -13.816681 -0.547478 -0.703583 0.453033 
-1.163375 36.335045 -8.233702 -0.016348 0.992580 0.120490 
11.420801 17.359024 -1.454667 0.010688 -0.999911 0.008035 
0.296811 -24.555548 4.143312 0.376182 -0.900096 0.219804 
-1.732844 -10.451965 12.446035 -0.554017 -0.373989 0.743772 
-22.375145 -13.319242 -13.764454 0.770590 0.404847 -0.492229 
4.282464 6.823257 -3.579828 0.391886 0.452076 -0.801282 
-5.061997 -5.591529 14.709800 -0.313807 -0.700689 0.640749 
2.060794 -14.902915 11.460490 0.174438 -0.412246 0.894217 
10.176507 17.742344 3.719274 -0.239653 -0.893490 -0.379791 
-14.987711 18.297991 14.690826 -0.810765 -0.050624 0.583179 
-10.172229 32.174854 -14.157582 -0.087388 0.970466 -0.224855 
-5.107763 16.968231 -17.595753 -0.011806 0.367648 -0.929890 
22.050898 -22.928343 -1.693384 0.055726 -0.883908 -0.464329 
-23.126907 -20.534344 -16.767405 0.667066 0.488866 -0.562167 
-4.143841 -28.400942 9.911271 0.620054 -0.748408 -0.235409 
27.391342 -14.269496 -3.701292 0.101853 0.517722 -0.849465 
14.212457 -26.703291 -4.622645 -0.948622 -0.161524 -0.272078 
-15.505344 0.356458 0.040733 -0.826322 -0.429338 -0.364501 
-17.574945 2.060566 -8.082234 0.365298 -0.003902 -0.930883 
8.551271 25.513592 -10.530832 0.798112 -0.148372 -0.583954 
-9.334437 -21.688118 3.577876 -0.055491 -0.347991 -0.935854 
9.600813 17.241310 7.313604 0.180617 -0.975704 -0.124015 
3.844572 12.135776 8.515983 0.622123 -0.504230 -0.598929 
9.677892 36.063995 2.690856 -0.008880 0.999214 0.038631 
6.145106 35.238792 9.833485 -0.095571 0.992879 0.071117 
-18.364731 -25.898640 -14.065295 0.557486 0.478520 -0.678401 
-6.439161 -1.286441 16.313396 0.175991 -0.128172 0.976012 
13.805475 -21.162689 7.916321 0.495928 -0.505928 0.705756 
-23.090368 -9.307491 -13.921282 0.668969 0.390115 -0.632685 
-20.907629 -9.896526 4.553861 -0.479939 0.299182 -0.824712 
5.728378 -24.237175 -3.195067 -0.237662 -0.928272 -0.286055 
-25.181683 -28.780289 19.675749 0.594238 0.310260 0.742038 
7.696778 27.475498 -14.095363 0.532710 0.107535 -0.839438 
4.321529 15.276861 7.190151 0.528747 -0.540973 -0.654045 
-23.868475 -21.004250 -9.320107 -0.644861 -0.556082 0.524334 
-16.449303 2.290881 9.393510 0.072223 0.021986 0.997146 
8.209644 -4.428494 -7.031496 0.093570 0.281702 -0.954929 
-0.262551 36.858944 -14.383347 -0.147851 0.985581 0.082286 
-8.846304 -23.404886 -7.433472 0.446723 0.371780 -0.813768 
-19.116402 12.358715 -2.179805 -0.906438 -0.101048 -0.410073 
7.465947 1.326356 -2.451134 0.671787 0.202356 -0.712569 
17.135908 26.451706 -7.721306 0.684653 -0.430066 -0.588467 
-30.875059 -24.778961 19.152344 -0.842147 -0.240659 -0.482568 
-17.501518 24.272003 7.523003 -0.644759 0.741843 0.184270 
-8.978652 -4.261994 12.348178 -0.488225 -0.866705 0.102273 
14.396823 21.610189 -1.144982 0.704537 -0.125039 -0.698565 
13.436329 -8.596162 -2.271165 0.556161 0.727714 -0.401394 
-19.727564 -36.868633 18.065929 -0.371882 -0.778208 -0.506059 
-16.229557 -28.268682 -6.460161 -0.305614 -0.678502 0.668009 
-11.713185 4.692029 13.871376 -0.888595 0.415698 0.193894 
18.847721 34.716301 6.720033 0.913351 0.307559 0.266829 
-18.979650 24.032988 6.178039 -0.207647 0.623263 0.753940 
12.120121 35.662712 9.887723 -0.073996 0.989371 0.125182 
-24.238102 -18.630560 -8.195303 -0.711286 0.221542 0.667077 
-12.371089 28.967106 -15.073687 -0.562378 -0.264270 -0.783513 
-10.579273 5.022491 15.202203 -0.649713 0.319375 0.689835 
24.869061 -13.716863 -2.914044 -0.231512 0.962641 -0.140442 
-0.560458 8.478313 -11.695887 0.212733 0.149514 -0.965604 
-5.653129 5.664564 -12.231040 -0.046508 -0.075399 -0.996068 
15.395058 -25.438276 1.990000 0.298681 -0.953389 0.042891 
7.657103 6.221779 -1.157328 0.723883 0.335244 -0.602997 
-10.113359 7.646047 12.881950 -0.790474 0.611480 -0.035253 
15.959779 32.165432 -11.583841 0.654979 0.050975 -0.753925 
5.434152 12.248271 -6.593525 0.812903 -0.567199 0.132191 
15.055193 27.740768 15.429771 -0.011580 -0.288941 0.957277 
8.905864 -4.324505 -5.471631 0.992999 0.026914 0.115016 
-15.848609 -30.955624 9.155602 -0.158929 -0.653665 -0.739907 
8.915797 -8.761210 10.286974 0.987035 0.076729 -0.140978 
12.803487 36.428455 1.729314 -0.066895 0.996243 0.055005 
-8.599073 -29.076387 14.204195 -0.260759 0.463588 0.846812 
1.679738 16.926487 19.779821 0.954490 0.243972 0.171540 
4.630409 -6.337653 14.666777 0.633246 0.208923 0.745219 
-15.335361 -7.846424 8.962874 0.084028 -0.109894 0.990385 
-14.461038 32.708771 -10.919137 -0.088323 0.740046 -0.666732 
-21.526831 -31.263283 -15.389142 -0.595106 -0.651953 0.469900 
-2.148016 -11.564853 11.229847 -0.762809 -0.425692 0.486733 
-14.588329 -28.682093 12.842679 0.348493 0.346351 0.870973 
-26.433002 -4.957200 -9.929244 -0.809186 0.031826 0.586690 
-27.916025 -10.881090 -10.658528 -0.763653 -0.475964 0.436225 
3.641276 3.618572 9.170641 0.302106 -0.048119 0.952059 
21.302034 -14.270418 1.822399 0.061191 0.997912 0.020663 
6.490971 4.068600 -2.811863 0.554104 0.169150 -0.815081 
8.604484 3.902737 6.715722 0.545007 0.028020 0.837963 
7.770135 -20.640869 -5.880455 0.170128 -0.776762 -0.606381 
-17.424438 -30.081589 -16.822376 0.267051 0.903456 -0.335337 
-17.978153 10.872776 7.231003 -0.932867 -0.280582 0.225906 
9.353198 6.353880 1.627724 0.990114 0.035156 -0.135788 
15.957101 -17.466335 8.559407 0.391144 -0.090963 0.915823 
-16.725338 -10.911077 -8.904972 0.606179 0.061637 -0.792936 
10.369413 -5.264450 -4.750261 0.040192 0.027647 -0.998809 
5.318760 16.456959 -2.907876 0.164104 -0.404601 0.899649 
-16.712486 -34.501270 21.819754 0.079208 0.953847 0.289659 
4.361891 35.819283 1.717997 -0.082620 0.990838 0.106840 
-22.896383 -14.259880 -14.383595 0.309113 -0.320415 -0.895424 
17.191345 35.027458 -8.965051 0.451497 0.873709 0.181058 
-17.790857 -0.114621 5.943454 -0.360998 0.234185 -0.902683 
-1.463625 22.467548 12.149623 0.428765 -0.820481 -0.378117 
9.162322 -4.188501 -6.297672 0.925718 0.325148 -0.193197 
-15.947562 -27.604177 -12.422747 0.339303 0.241109 -0.909252 
-5.561543 22.631889 -14.833291 -0.683185 0.451334 -0.574069 
17.789223 -14.902401 -5.321532 -0.382884 0.573134 -0.724512 
8.478500 -13.477801 -7.576687 0.057669 -0.446433 -0.892957 
19.390129 -8.567419 -2.762272 -0.362337 0.840628 -0.402563 
2.791735 0.869091 -7.714085 0.529244 0.292209 -0.796564 
1.616567 35.585342 1.023356 -0.127105 0.986773 0.100615 
8.701443 26.610670 18.508389 0.549081 0.264997 0.792645 
15.044832 19.120626 -0.817276 0.892916 -0.409387 -0.187358 
11.134046 -0.126727 8.303714 0.518974 0.821526 0.236137 
-24.018782 -1.346174 -7.566757 -0.625228 0.328287 0.708038 
-16.582680 0.611910 5.734950 -0.335188 0.266440 -0.903692 
12.259293 0.140689 1.883656 0.974078 -0.043616 -0.221968 
0.969747 1.429857 -8.961229 0.516571 0.043898 -0.855118 
-3.556042 25.802530 19.034212 -0.460273 -0.526430 0.714856 
-1.902191 -14.154737 -6.986095 -0.490504 -0.351193 -0.797540 
-19.760208 -9.622216 3.888741 -0.492788 0.091777 -0.865296 
-10.991632 33.188637 -10.742950 0.214778 0.966683 -0.139261 
-8.013939 -28.361610 6.981169 0.007050 -0.567264 -0.823506 
16.844164 -8.705615 2.946443 -0.062936 0.977480 0.201423 
-25.768446 -12.427182 -8.705220 -0.743410 -0.361443 0.562762 
-23.639978 -36.744644 22.365623 -0.558510 -0.785144 -0.267610 
-15.136396 -9.332078 1.971562 -0.309537 0.034158 -0.950274 
-18.772261 -15.300842 3.996584 -0.444863 -0.216620 -0.869007 
19.912149 -9.089980 6.318102 -0.089254 0.777264 0.622811 
-8.088290 -4.621778 13.129639 -0.442901 -0.837145 0.320977 
-17.316322 17.958010 11.526922 -0.668325 0.047558 0.742348 
-18.453014 -36.842808 16.835989 -0.182775 -0.940708 -0.285764 
-17.920727 -36.514542 24.044954 0.478857 -0.744057 0.465914 
26.763515 -5.840418 2.651750 0.572736 -0.672985 0.468043 
-13.101972 33.955849 -8.199006 0.085859 0.891420 -0.444970 
26.452707 -13.032018 1.671889 0.002750 0.993352 -0.115087 
-20.053278 -15.508348 -3.659406 -0.639389 -0.136627 0.756647 
-24.331821 -12.730359 -15.556211 0.137199 -0.483348 -0.864610 
-12.681022 -31.422867 15.803306 -0.075141 0.958444 0.275206 
5.856796 35.992172 -0.105155 -0.066506 0.994433 0.081730 
1.157186 14.263405 15.892524 0.814337 -0.028371 -0.579699 
-10.739584 34.331821 5.162997 -0.039839 0.990478 0.131781 
-24.027636 -3.723114 12.698671 0.602111 0.121067 0.789180 
-26.083311 -23.536282 11.622035 -0.606924 -0.366144 -0.705395 
-14.222229 29.205832 12.283599 -0.712951 -0.531077 0.457884 
-16.167761 2.176883 5.976451 -0.706227 0.168421 -0.687661 
25.781534 -5.956635 -0.977865 0.454989 0.487484 -0.745215 
-18.268038 2.583831 -4.344893 -0.576751 0.366282 0.730202 
4.867950 14.709372 -0.185514 0.737419 0.204151 -0.643844 
-10.635358 14.489301 -13.841644 -0.569683 -0.454245 -0.684925 
7.309713 25.106844 -12.922963 0.431647 -0.885972 -0.169514 
0.205069 -21.087606 10.546861 0.572182 0.078818 0.816330 
9.180519 26.226208 -9.263935 0.219960 -0.815235 -0.535733 
5.240726 -20.928495 10.083364 -0.191304 -0.980693 0.040558 
6.375369 -6.037589 12.149512 0.618824 -0.229372 0.751296 
2.833571 37.326260 -19.448038 -0.154262 0.857549 -0.490726 
10.605834 27.310476 17.077042 0.313809 -0.766890 0.559824 
-10.075000 35.464607 -6.617243 -0.098542 0.995008 0.015792 
-10.637920 35.068790 -2.214347 -0.057242 0.997126 0.049634 
28.757101 -19.708822 -1.551343 0.492270 -0.670719 -0.554802 
-17.211321 -33.524651 12.011712 -0.172572 -0.752195 -0.635942 
-24.616207 -21.881388 -17.609911 0.638411 0.259770 -0.724535 
-24.363499 -23.549814 -12.224113 -0.760368 -0.315054 0.567963 
-22.484224 0.550113 12.297998 0.488771 -0.168704 0.855945 
-27.138065 -4.738338 13.484426 0.395013 0.520853 0.756754 
-6.721869 32.370846 19.542862 -0.519207 0.099013 0.848894 
4.299414 4.633263 -3.873475 0.323939 -0.018126 -0.945904 
14.391850 25.351948 -10.484264 0.723307 -0.205410 -0.659268 
0.699475 -8.894874 -8.868513 0.465652 -0.291777 -0.835485 
-17.110188 -8.497677 -8.201283 0.622252 0.196845 -0.757664 
-14.059644 31.922232 13.389402 -0.831639 0.004109 0.555301 
0.787511 6.040573 16.141132 0.443248 -0.307432 0.842031 
4.795549 8.293451 -2.312093 0.521801 0.292027 -0.801526 
-19.205105 7.812891 1.174278 -0.974502 -0.217319 0.055847 
20.709946 -5.795833 1.892233 -0.731534 0.665231 0.149416 
0.653418 27.742331 -16.755426 0.214632 -0.676457 -0.704513 
3.725248 7.733111 8.601253 0.429877 0.505192 0.748323 
-0.242441 21.534887 20.206739 0.411119 0.584637 0.699414 
18.280399 25.376833 -2.244101 0.451307 -0.888038 0.087812 
-11.970037 -34.156620 -20.181482 0.757450 -0.374012 -0.535149 
-28.064022 -18.430971 -20.048065 0.237070 -0.123141 -0.963657 
-21.837248 -6.640448 -5.878730 -0.841098 0.000131 0.540883 
-2.654484 -22.038214 -7.467354 -0.629795 0.535498 -0.562672 
5.672168 34.901630 13.191429 -0.045868 0.991192 0.124235 
-8.307630 -24.579334 -8.238285 -0.141964 0.732499 -0.665801 
23.762487 -3.969819 3.351403 -0.127040 0.915263 0.382303 
-5.591062 -11.137594 -4.626470 0.141716 0.929655 -0.340084 
-22.188442 -32.005424 -18.035336 -0.659538 -0.699064 0.276258 
-19.421961 -29.031813 -17.367683 0.740383 0.287343 -0.607673 
-20.630133 -8.011550 -11.263501 0.374516 -0.228275 -0.898681 
3.234087 -0.774220 12.337906 0.650376 -0.070770 0.756308 
19.835146 33.540104 4.951147 0.946738 0.228970 0.226409 
15.059203 -15.300932 9.392502 0.245624 -0.313541 0.917257 
-21.850306 -26.411032 -18.563730 0.890202 0.223991 -0.396696 
10.506021 17.300657 8.062017 0.209748 -0.977732 0.006850 
25.755981 -13.629929 4.290568 -0.384190 0.922392 -0.039876 
-13.249314 25.551035 -6.877748 -0.981452 -0.159152 -0.106878 
-16.336489 16.711050 12.832746 -0.658785 -0.016551 0.752149 
-20.272751 14.250840 4.075579 -0.977032 -0.169840 0.128700 
-15.733242 -14.516579 2.533163 -0.355092 -0.257558 -0.898651 
-25.005144 -34.259731 18.131258 -0.606074 -0.648805 -0.460137 
9.232592 -0.241025 9.513041 0.468472 0.116894 0.875711 
-4.086344 29.686844 -20.520088 0.268052 -0.318520 -0.909226 
-14.864792 -0.866553 -0.079257 -0.852978 -0.363901 -0.374172 
8.423955 35.308666 9.859307 -0.058068 0.985852 0.157238 
-4.171673 34.644367 6.781168 -0.039859 0.998130 0.046349 
-3.920112 -22.022566 9.570310 -0.597676 0.502972 0.624342 
-8.150560 -28.967100 7.430628 0.032548 -0.577763 -0.815555 
-16.599993 -34.941608 -26.692703 0.455900 0.572913 -0.681122 
-13.887730 29.171671 13.008799 -0.625571 -0.573898 0.528490 
22.787401 -9.935029 2.322485 0.708124 -0.704155 0.052212 
10.363303 36.860291 -5.394493 -0.076112 0.992794 0.092557 
-17.793543 32.577103 -8.302204 -0.530714 0.482026 -0.697133 
27.539192 -3.706817 0.872150 -0.275464 0.956514 -0.095922 
-7.969535 24.696043 -14.798698 -0.317318 -0.941769 -0.111265 
1.892514 -23.451763 -3.411020 -0.395957 -0.889193 -0.229248 
-20.353470 22.657368 -1.923815 -0.373282 0.384272 -0.844390 
12.110259 -7.643661 6.416523 0.868606 0.315926 0.381726 
-13.630088 2.484781 -11.529153 -0.456772 -0.272473 -0.846828 
-27.734200 -23.642738 -17.389893 -0.855263 -0.332514 0.397441 
3.834987 7.252477 8.863545 0.409293 0.350091 0.842565 
-16.310810 20.729530 13.342524 -0.807036 -0.027765 0.589849 
-22.109741 -18.381409 6.058329 -0.547504 0.026286 -0.836390 
-22.661545 24.634342 -0.233670 -0.873275 -0.286690 -0.393954 
15.306507 37.150253 -7.823936 0.479330 0.801216 -0.358183 
6.925856 26.665415 -14.698631 0.140657 0.179188 -0.973708 
-28.436602 -16.073736 11.817699 -0.650287 -0.043983 -0.758414 
0.090758 34.692261 10.673992 -0.073821 0.993934 0.081520 
14.768412 19.064556 -1.923439 0.792165 -0.197460 -0.577480 
4.023151 -10.473411 -8.797361 -0.051282 -0.345894 -0.936871 
-23.318197 -12.555197 -14.832589 0.824493 0.358756 -0.437614 
-17.136196 17.247812 -7.025070 -0.683923 0.059677 -0.727110 
-5.529776 -4.927042 -9.902183 -0.230729 -0.809460 -0.539943 
-24.328362 -15.394301 7.796784 -0.648459 -0.075599 -0.757486 
-19.737518 -29.787918 -18.515903 0.661080 0.615370 -0.429294 
18.420477 24.724255 0.560924 0.888203 -0.230159 -0.397646 
8.881334 1.085726 6.805486 0.614149 0.438866 0.655910 
-20.190943 -31.468134 17.947842 0.120151 0.863175 0.490400 
-8.371392 28.641954 -18.515949 -0.793349 -0.174119 -0.583335 
-4.140399 18.127064 21.950579 -0.154169 0.309334 0.938373 
13.965405 32.136967 -13.746002 0.738441 0.181351 -0.649474 
-27.656628 -6.098728 10.948302 -0.590420 0.228897 -0.773958 
-20.999113 -18.939898 5.384304 -0.576770 0.202751 -0.791346 
-8.817713 10.271982 -9.857843 -0.329888 0.551446 -0.766212 
-20.085777 15.039050 5.506800 -0.934592 -0.164373 0.315466 
-20.679722 -10.542505 -11.397235 0.634838 -0.126800 -0.762169 
-15.037290 -17.637266 -9.096200 0.429035 -0.132743 -0.893481 
1.014230 35.020706 7.397191 -0.076538 0.991996 0.100428 
-20.372334 31.466335 -5.203314 -0.738658 0.580341 -0.342912 
-15.727732 13.944586 12.330968 -0.609645 -0.605498 0.511570 
-21.111572 -4.285927 5.610416 -0.748481 0.029703 -0.662491 
-13.994383 2.043760 -7.206353 -0.190314 -0.195931 -0.961973 
0.505643 4.738942 11.358228 0.592681 -0.748652 -0.297069 
6.221847 -3.199171 11.529649 -0.291294 0.578583 0.761833 
2.744993 -7.333626 14.886190 0.136371 -0.324903 0.935864 
10.375271 20.707731 13.921331 -0.329107 -0.605052 0.724983 
1.499132 22.578936 14.838561 -0.026793 -0.901957 0.430995 
1.772584 13.188467 -13.042083 0.802312 -0.535457 0.263782 
0.330654 4.572694 15.531608 0.534573 -0.696797 0.478232 
-6.513544 -21.871235 -6.703024 0.032496 0.301693 -0.952851 
-3.553820 35.151848 1.579639 -0.088129 0.993025 0.078323 
17.301523 -8.512745 -0.160240 -0.215130 0.970034 -0.112935 
-6.642612 17.947807 -16.651495 -0.638141 0.494026 -0.590520 
-27.961617 -5.581274 -12.874770 -0.975856 0.215326 -0.036598 
-26.352503 -20.295326 -18.992287 0.443390 -0.110094 -0.889542 
0.895273 -15.214949 -6.656367 0.268245 -0.104247 -0.957694 
-1.032217 35.988041 -5.269417 -0.091878 0.982994 0.159000 
3.622918 14.233862 7.263353 0.792778 -0.325973 -0.515019 
5.228301 10.016031 6.356877 0.733252 0.225951 0.641317 
-9.674048 -25.746454 5.437045 0.058498 -0.441954 -0.895128 
-14.194336 -12.734462 8.002539 -0.166931 0.118873 0.978777 
-20.477306 18.645872 -0.328000 -0.815996 -0.288188 -0.501098 
-14.539618 30.653799 12.975280 -0.846497 -0.080724 0.526238 
16.079882 19.650467 6.866919 0.917316 -0.341641 -0.204481 
-17.134520 -7.526926 2.694088 -0.520410 -0.139894 -0.842380 
-15.199668 3.231602 -6.671530 0.370218 0.727152 -0.578090 
-20.384188 -21.912613 -13.819939 0.617260 0.599721 -0.509239 
26.190916 -15.294619 -4.334835 0.334761 -0.242395 -0.910593 
-19.229868 -21.688084 -12.369893 0.547245 0.377847 -0.746830 
7.130851 35.329426 9.427685 -0.083922 0.988952 0.122195 
-0.003595 35.685013 -0.696848 -0.092080 0.990749 0.099683 
28.844397 -12.929803 1.236607 -0.350498 0.931281 0.099333 
-16.211096 28.562450 4.878021 -0.761610 -0.480629 0.434679 
13.472399 31.269648 19.366842 0.681099 -0.016670 0.732002 
2.791771 -7.887591 -8.930977 -0.257149 -0.124584 -0.958307 
16.795380 -24.793186 1.833939 0.222422 -0.969919 0.098927 
-21.954960 22.123405 4.059867 -0.756876 -0.032013 0.652774 
6.981547 37.295925 -11.020777 -0.090023 0.995240 0.037322 
-23.999189 -19.998466 -17.368130 0.770653 0.517093 -0.372435 
-16.468622 10.908494 9.496563 -0.615622 -0.291219 0.732258 
5.398101 25.148893 19.422668 0.790723 -0.612158 0.004319 
11.901463 1.330599 0.295803 0.953674 0.263319 0.145497 
12.301011 -21.318089 7.956964 0.142705 -0.751833 0.643725 
-15.521653 9.010677 -4.248785 -0.330792 -0.398741 -0.855326 
-11.217813 -23.024513 9.163601 -0.275176 0.374907 0.885281 
20.333588 -8.135137 -2.867370 -0.363978 0.759307 -0.539419 
-15.320609 0.193260 4.169765 -0.948446 -0.278833 0.150672 
10.920126 21.586317 -8.998007 -0.301129 -0.070030 -0.951008 
-20.536007 29.738062 3.573797 -0.345723 0.651234 0.675552 
-29.035830 -20.635979 18.720678 0.270072 0.493144 0.826964 
-27.751699 -30.502928 17.427805 -0.559542 -0.716102 -0.417265 
-21.625875 -10.097745 11.125159 0.569178 0.156239 0.807234 
-15.140561 -5.876181 8.759061 0.291544 -0.205873 0.934141 
19.839230 -6.530167 0.609114 -0.813145 0.581912 0.013186 
-9.799534 3.041993 -12.123383 0.136579 0.253267 -0.957707 
-27.052223 -28.741264 21.539875 0.567995 0.151031 0.809056 
6.028012 9.548023 -1.082937 0.661036 0.211507 -0.719927 
26.205540 -7.281984 -0.355147 0.686349 -0.554929 0.470084 
-13.670388 30.661924 14.090236 -0.807749 -0.016023 0.589309 
-0.547320 36.129028 -5.553917 -0.065856 0.994527 0.081110 
-16.542261 3.577018 -1.346586 -0.772887 -0.400371 -0.492289 
-0.115631 34.295052 -21.268368 -0.374024 0.146335 -0.915801 
-7.043297 28.437439 15.002029 -0.162949 -0.894247 0.416858 
-31.029730 -26.813187 24.113344 0.233566 -0.533072 0.813192 
-11.889745 7.956892 -9.939150 -0.296777 0.724172 -0.622494 
9.308930 16.850977 -0.473914 -0.427088 -0.891816 0.149194 
-23.877859 -31.250202 21.979084 0.034912 0.792258 0.609187 
4.710226 21.132950 14.468371 0.029641 -0.892385 0.450301 
-10.486267 -8.711221 -8.044261 -0.134530 0.439087 -0.888315 
2.813539 21.470438 12.933447 -0.277747 -0.952611 0.124053 
-26.976484 -0.500154 -13.146458 -0.960598 0.178542 -0.213014 
-5.530602 -6.287141 13.557005 -0.502753 -0.673379 0.542033 
-25.827272 -32.819412 22.435831 0.421528 0.329899 0.844678 
17.716150 36.610802 3.772073 -0.117776 0.991849 0.048618 
-13.024179 21.041477 16.114716 -0.489109 0.145806 0.859950 
-16.747635 -29.297272 7.845035 -0.189023 -0.673468 -0.714640 
-14.290663 -34.310226 12.308242 0.041890 -0.824488 -0.564327 
-16.360443 -33.523705 -23.238045 0.357820 0.876777 -0.321290 
-24.232668 -19.203873 13.616464 0.618926 0.186545 0.762975 
-13.612351 -0.996340 -6.279534 0.273366 -0.031221 -0.961403 
-27.110519 -7.063434 -10.504510 -0.683245 0.083569 0.725391 
-21.614712 -13.316302 5.020204 -0.565424 -0.188382 -0.802999 
24.499739 -17.549147 -5.013468 0.413896 -0.305338 -0.857589 
-26.931883 -27.636177 -20.021780 -0.933677 -0.201136 0.296296 
-2.685937 -12.754661 -6.583166 0.224560 0.529757 -0.817882 
11.384524 -10.174084 8.614530 0.303126 0.784584 0.540873 
-15.624393 26.298075 -7.911539 -0.377340 -0.894251 -0.240684 
-13.090272 28.609838 12.990232 -0.549523 -0.705660 0.447290 
-5.342360 -11.855746 -7.041822 0.190507 0.888177 -0.418149 
2.130125 3.312309 9.959431 0.577961 0.356735 0.733963 
24.497030 -5.737615 -2.419047 0.367601 0.246347 -0.896762 
2.906664 15.238752 -14.103354 0.969202 -0.242232 0.044389 
1.321524 18.904333 19.546267 0.970179 0.195317 0.143540 
-18.519207 -35.785057 -22.371183 -0.229045 -0.947253 0.224168 
-0.330305 3.605282 12.244783 0.856611 -0.464869 0.223862 
14.899550 19.532837 -4.512919 0.457803 -0.880003 -0.126536 
3.263997 8.873578 10.308093 0.739167 -0.400360 -0.541613 
-5.415375 35.308994 -1.263769 -0.061689 0.987045 0.148109 
19.927614 28.903698 -6.360595 0.759312 -0.316289 -0.568689 
14.863547 35.160564 13.446880 0.482722 0.749279 0.453386 
-28.345842 -17.682405 -20.358881 0.415005 0.139904 -0.898998 
-3.623839 -26.914841 -5.920066 0.450688 -0.739523 0.499986 
-12.242841 -28.424231 -12.065843 -0.213767 0.705211 -0.676004 
6.642742 35.814606 4.444133 -0.086657 0.990227 0.109273 
-9.463179 -32.344238 12.655128 0.489146 -0.823936 -0.286123 
-11.894614 34.453617 3.167887 -0.103783 0.992819 0.059499 
6.758789 28.361217 21.350601 0.532274 0.350784 0.770477 
2.128956 6.854769 -8.587141 0.674240 -0.738102 0.024631 
-11.607476 -29.492691 -13.532182 -0.251680 0.629910 -0.734758 
-19.722067 11.222783 0.475197 -0.990263 -0.109671 -0.085746 
18.893406 -24.324560 2.086758 0.174443 -0.965796 0.191852 
-25.433397 -21.543427 14.921648 0.649080 0.108769 0.752904 
-28.793295 -4.798412 12.331574 -0.691094 0.383941 -0.612355 
-0.298100 -12.032043 13.645803 0.478826 -0.376433 0.793111 
15.713878 21.032551 -3.364059 0.540171 -0.613847 0.575680 
13.996567 33.987843 15.771012 0.671282 0.449208 0.589570 
-18.306307 -33.004257 19.392269 0.079739 0.795557 0.600609 
-0.605579 12.461015 -10.685405 0.582500 -0.799153 -0.148485 
-3.030425 4.270962 -10.675608 0.222730 -0.873285 -0.433318 
-6.398519 -0.083378 16.387491 0.101109 0.506805 0.856111 
-12.001204 33.542236 13.514421 -0.100680 0.971646 0.213934 
-9.311222 -10.748601 10.572274 0.525582 -0.297523 0.797022 
15.981171 -9.862800 8.317179 0.502308 0.206083 0.839772 
-15.777499 17.675514 -8.883637 -0.829981 -0.024697 -0.557245 
-30.802120 -16.147251 -20.398029 0.123293 0.889570 -0.439845 
-18.720730 -22.196148 5.598258 -0.244503 -0.478255 -0.843499 
-25.089840 -28.976465 -23.302599 0.191564 -0.133800 -0.972317 
-20.268723 -1.909671 6.278791 -0.450126 0.294932 -0.842853 
5.924464 -9.170166 11.495882 0.557709 -0.292144 0.776925 
-24.015387 -18.132925 7.554871 -0.576840 0.083182 -0.812611 
9.463827 18.446594 2.786842 -0.381092 -0.895057 -0.231608 
17.272358 31.333607 14.596791 0.287131 0.699386 0.654535 
-12.173744 35.205414 -4.475555 -0.057112 0.996548 0.060252 
0.923910 10.796172 20.885698 0.704271 -0.666056 0.245707 
-0.484427 -1.707402 14.181330 0.521257 0.050665 0.851895 
2.164007 25.251556 21.038471 -0.594743 -0.012840 0.803814 
-28.151123 -17.177155 -13.078253 -0.810164 0.032522 0.585300 
-2.921751 35.649166 -3.110164 -0.053457 0.991951 0.114789 
5.114904 12.255843 -1.031979 0.702254 0.261228 -0.662268 
14.556343 33.362129 -12.682074 0.295815 0.150913 -0.943249 
-8.026871 33.754204 15.711515 -0.132400 0.989549 0.057122 
6.132037 20.667315 -7.678082 -0.336076 0.363745 -0.868759 
7.525797 20.088043 0.804755 -0.291942 -0.956255 -0.018620 
-23.986517 -30.819258 -18.910522 -0.718369 -0.577077 0.388494 
13.121413 21.454521 13.486698 0.736968 -0.675391 -0.026921 
17.996147 -19.585495 -5.405116 -0.138484 -0.363576 -0.921214 
-12.412736 0.742275 -7.312790 -0.644436 -0.762863 -0.052376 
7.727038 15.788487 8.088055 0.492922 -0.682040 -0.540231 
-10.012440 34.578007 2.828683 -0.014120 0.998630 0.050393 
-27.803249 -20.054613 11.762436 -0.746498 -0.381588 -0.545097 
-23.386148 -3.283750 -6.071242 -0.556605 0.205248 0.805024 
-19.500557 10.468577 2.759069 -0.952400 -0.254044 0.168512 
26.877939 -14.557626 -4.253974 0.260115 0.603267 -0.753929 
-8.127273 -30.648485 15.676416 0.558322 0.179163 0.810048 
4.616647 -0.547468 10.367615 0.810694 0.416062 0.411907 
-20.575014 -18.310001 10.883568 0.453090 -0.028255 0.891017 
-22.291117 -25.534550 15.243402 0.164173 0.934406 0.316123 
-30.813362 -12.887848 17.705734 0.560245 0.457031 0.690832 
-20.156088 -17.500265 4.987457 -0.430427 0.004307 -0.902615 
-10.214466 -20.461737 -7.005930 0.311710 0.315430 -0.896293 
24.175032 -19.013268 -5.391019 0.541966 0.003729 -0.840392 
-22.851362 -26.294384 -19.651087 0.528591 0.359787 -0.768859 
-7.238184 8.235097 -11.670485 -0.130382 0.417569 -0.899242 
31.856390 -11.209616 3.271352 -0.002743 0.859859 0.510524 
-12.676355 28.194832 -14.796526 -0.377261 -0.273165 -0.884904 
-6.075062 20.618933 -14.620924 -0.848302 0.148906 -0.508144 
-1.416316 34.624428 -20.758354 -0.271844 0.421250 -0.865245 
-23.468798 -28.031321 -13.387444 -0.794777 -0.282639 0.537071 
-8.097754 -31.337454 -10.319803 0.344538 -0.863162 0.369114 
-12.766138 -5.945169 1.419195 -0.991243 0.074846 -0.108787 
-24.272446 -24.407845 16.469971 0.110121 0.428381 0.896863 
4.565729 -8.802876 14.682404 0.426682 -0.329701 0.842164 
-15.077805 -0.611004 3.846608 -0.901354 -0.413798 0.127794 
-26.969421 -3.082722 10.908046 -0.720341 0.172069 -0.671938 
18.033842 25.559025 -5.700375 0.642887 -0.729142 -0.234624 
13.272778 17.551441 7.166478 0.244311 -0.962846 -0.115067 
-20.596363 17.866386 5.318492 -0.879409 -0.136034 0.456217 
-3.124301 25.107275 18.674587 -0.398702 -0.298661 0.867086 
-15.213618 25.794991 10.059457 -0.743867 0.647305 0.166308 
25.839474 -7.106430 0.490967 0.648936 -0.686704 0.327596 
-15.558691 -32.629978 18.453579 -0.386985 0.843630 0.372198 
-25.219086 -8.025868 -15.280362 0.835845 0.255741 -0.485757 
-32.704254 -18.199356 18.193220 -0.915384 -0.383849 0.121376 
-15.490734 17.315649 -9.174030 -0.852296 -0.089806 -0.515292 
28.303040 -5.506908 0.796566 0.200383 -0.970350 -0.135159 
16.439562 27.762157 14.187812 0.801123 -0.494149 0.337665 
2.306637 -16.589649 -5.957718 0.290310 -0.247678 -0.924325 
13.688948 18.008762 -2.294597 0.664780 -0.445467 -0.599689 
-4.751138 -29.314333 10.864635 0.573629 -0.810521 0.118343 
12.449048 -20.945932 8.380053 0.024648 -0.827850 0.560407 
-1.344059 36.095840 -6.586772 -0.092226 0.988125 0.122897 
6.979817 -16.654474 -7.095603 -0.273013 0.896657 -0.348527 
7.115052 -8.112111 -6.624017 0.158570 -0.052303 -0.985961 
16.217949 -26.146172 -5.116765 0.366216 -0.155036 -0.917524 
-6.574916 4.999722 16.629663 -0.180491 0.255093 0.949921 
-21.674755 19.693600 1.136680 -0.902837 -0.389716 -0.181678 
2.656549 17.666412 -11.962045 0.768204 0.111116 0.630489 
-20.011002 2.631030 -8.301944 -0.055089 0.756437 -0.651742 
-2.365353 -18.125975 -5.318354 0.150702 0.249097 -0.956681 
-12.957899 -32.779213 10.772506 0.013123 -0.655121 -0.755410 
7.895804 -25.553679 3.429424 -0.123705 -0.986264 0.109457 
3.695407 10.466988 -9.209908 0.708797 0.013946 -0.705275 
13.710324 -15.635500 9.755154 0.417977 -0.147906 0.896336 
-3.812065 -7.567477 13.174017 -0.227086 -0.635176 0.738230 
7.107244 25.548809 -13.831488 0.299253 -0.760272 -0.576571 
-16.551216 8.235460 -3.470617 -0.495536 -0.292637 -0.817807 
-13.124404 -15.188986 -7.667690 0.507222 0.061818 -0.859595 
4.777244 18.418648 0.967130 0.993360 0.084109 -0.078500 
16.542765 -24.724850 8.197165 0.070992 0.164947 0.983744 
-12.591848 -33.757851 -13.829556 0.036569 -0.987302 0.154589 
-11.250075 -29.740044 -7.326167 0.040803 -0.803550 0.593838 
-9.585904 -25.228924 10.002314 -0.220388 0.742267 0.632826 
22.461895 -13.634138 4.475778 0.322150 0.700366 -0.636952 
-3.892343 20.338133 -17.247484 -0.356519 0.156572 -0.921075 
-15.428725 17.842022 13.923821 -0.857136 -0.185762 0.480426 
3.008517 15.842620 12.886349 0.200312 0.211841 0.956556 
-6.214640 -25.267477 11.780461 -0.405326 0.499922 0.765368 
10.101499 -15.739334 -6.588551 0.060589 -0.294043 -0.953870 
8.960358 -11.552319 -5.499237 0.447963 0.239818 -0.861288 
-22.362463 0.328797 -10.316935 0.486042 0.547812 -0.680929 
-5.972450 -16.817238 -4.649914 0.184987 0.100834 -0.977554 
-25.453199 -10.465093 -7.930487 -0.443179 0.556078 0.703114 
3.664956 14.750563 6.101117 0.789609 -0.003049 0.613602 
-2.353054 -19.314051 -5.497213 -0.083195 0.383699 -0.919703 
0.325598 27.089882 23.120672 -0.320137 -0.196462 0.926777 
-5.256428 27.977293 17.621567 -0.615943 0.462885 0.637457 
4.929080 13.030756 13.006491 0.431437 0.071554 0.899301 
13.628146 36.318974 5.795946 -0.086863 0.992489 0.086147 
-28.288458 -27.469090 16.520353 -0.785643 -0.172145 -0.594249 
12.783890 -23.092783 -3.684037 0.679917 -0.272505 -0.680775 
-20.359224 -18.060064 -4.249552 -0.660267 0.017227 0.750833 
-25.990681 -33.663788 18.804808 -0.669169 -0.590225 -0.451495 
-14.134424 -12.121782 7.916707 -0.041126 0.093212 0.994797 
-1.857941 8.970135 18.382721 0.100886 -0.983613 -0.149425 
-26.182911 -9.549537 14.045005 0.457639 -0.094423 0.884110 
-25.068354 -10.258577 7.311689 -0.703201 -0.105408 -0.703134 
13.226227 -14.662201 -6.540886 0.356874 -0.053966 -0.932593 
0.293100 -9.916688 14.450060 0.258582 -0.674773 0.691243 
0.939964 34.257614 16.431610 -0.044453 0.997868 0.047784 
-21.482523 22.237116 -0.610008 -0.675160 -0.505638 -0.537111 
-15.099705 -35.581455 -21.945604 0.137638 -0.979372 0.147938 
