-100.107002 -39.759998 -10.554600 
268.110992 32.199200 -5.820480 
188.337006 -22.716999 8.526050 
-139.376999 11.368900 -4.873650 
-123.170998 -4.727230 7.761690 
270.648010 40.720699 0.807336 
-59.732899 -16.736000 -2.979990 
-15.531900 7.581570 18.797100 
51.046299 0.744322 20.690800 
219.582001 14.810300 6.488320 
-122.223999 1.900580 7.041030 
283.967010 17.996700 17.590300 
38.737499 11.368900 -24.000700 
-95.712502 -21.770201 -7.273280 
32.036900 -52.068802 -2.033160 
136.261002 3.352640 -10.554600 
299.115997 13.262600 27.198000 
-44.887798 -49.228298 -2.979990 
6.545230 16.422501 21.637600 
1.811080 43.308300 -2.979990 
-110.862000 43.719799 -9.607810 
-130.744995 29.479900 -3.926820 
36.843800 3.794250 20.232300 
-120.330002 26.518200 -10.240300 
102.175003 -54.274899 3.647830 
92.706802 14.209400 -17.604401 
50.099499 37.880199 -21.627001 
25.481899 -53.015598 -22.191200 
44.418499 -63.430801 -4.262190 
-33.221699 -35.038799 -5.820480 
29.269199 -28.398001 5.370870 
83.238503 -53.962399 7.431680 
-122.223999 16.103001 13.632700 
227.156998 10.390600 12.169300 
260.295990 -13.932900 -4.873650 
270.710999 7.581570 -10.191700 
-52.158298 -2.512060 14.063000 
-103.814003 44.507999 2.701000 
-98.553001 4.741080 13.256900 
-28.798000 1.900580 14.063000 
-92.872002 37.880199 7.093500 
66.195602 -36.919498 5.823530 
52.939899 -12.301900 -5.832570 
316.244995 24.624500 7.435150 
195.910995 -2.472070 19.743999 
49.152599 -45.441002 -7.578390 
25.481899 -44.494099 -2.242590 
-143.537003 6.634740 2.701000 
-158.203003 -1.507490 4.594660 
93.653702 -58.127102 9.328820 
166.559998 -9.461390 15.278000 
145.729004 17.996700 0.224668 
24.047600 -54.909302 -18.129299 
316.251007 0.953753 16.903500 
-20.912901 17.049900 13.420600 
89.866402 -28.398001 8.453350 
168.453003 -10.408200 -9.611520 
303.790985 -13.248700 17.850300 
-99.499802 8.528400 -15.443800 
8.438890 -64.193497 4.594660 
87.972702 3.794250 20.367599 
8.438890 -47.530998 -7.714140 
-99.262299 -16.089199 -5.820480 
282.072998 16.103001 16.880501 
306.691010 -14.694300 13.116100 
66.195602 -15.142400 -3.534760 
-3.869910 -1.886740 15.568700 
39.684299 -23.275101 -5.820480 
-82.456902 40.720699 6.543910 
179.815002 12.286600 11.222500 
141.731995 16.103001 7.435150 
-18.072399 21.784000 -13.064000 
68.089203 -55.755001 3.647830 
-146.813995 0.953753 -2.033160 
259.348999 15.156200 0.673494 
159.932007 9.018230 15.009800 
74.717102 -39.646801 14.063000 
315.959991 10.422100 18.797100 
40.631100 10.422100 -22.405100 
158.037994 -4.003820 18.797100 
-97.606201 -4.024100 -13.395100 
-15.231900 0.006922 13.082600 
78.504402 -12.832100 10.275600 
60.514599 -33.132198 -4.450890 
-11.444600 -17.391800 6.488320 
110.594002 -22.716999 8.381980 
-95.789101 -3.780400 -13.395100 
-1.624620 25.571400 14.063000 
44.418499 -43.581501 -0.139495 
-71.094902 52.082600 5.486940 
-124.116997 -35.025799 1.749510 
296.036987 34.092800 23.531300 
72.823402 25.671200 24.478100 
85.132202 32.259899 -21.916599 
-17.125500 -27.451200 1.088190 
-24.704100 15.156200 13.116100 
75.663902 -26.504299 9.306940 
-107.073997 -14.195500 6.865890 
-27.259501 -35.025799 -2.033160 
-67.524902 5.687910 10.275600 
18.854000 -21.770201 5.240660 
285.859985 35.309299 16.903500 
142.889008 -11.355100 15.524000 
93.653702 -15.142400 -6.171440 
265.945007 33.146000 11.222500 
-155.363007 15.156200 -10.417200 
87.972702 -29.344801 8.617590 
-114.649002 -7.567730 7.222570 
-55.945599 12.629500 8.381980 
294.381989 22.730900 -9.165050 
291.540985 6.634740 26.264500 
75.663902 -24.610701 -0.258601 
81.279800 -26.504299 8.381980 
35.896999 27.465000 -20.400400 
286.807007 12.887800 18.797100 
-125.064003 -19.177099 3.647830 
-103.287003 4.741080 11.412800 
42.105900 -3.780400 14.063000 
132.473999 -18.548000 -3.926820 
-115.596001 0.006922 -7.893830 
56.727299 58.710400 -2.108860 
-88.137901 -9.231280 14.063000 
314.265015 11.368900 -12.195700 
303.378998 -6.620890 22.584400 
-122.362000 21.784000 11.222500 
-71.094902 -25.177401 6.488320 
-124.635002 -32.185299 6.488320 
62.178200 -19.876499 -2.979990 
134.367004 16.103001 10.108100 
-7.674760 27.465000 -11.501500 
3.704740 -5.440220 -12.448300 
8.438890 16.103001 22.150400 
-25.646999 9.553420 15.009800 
21.694500 -3.780400 12.542200 
98.387802 -46.387798 10.712200 
-130.272995 -33.132198 6.488320 
18.854000 -44.494099 7.072900 
-133.585999 3.794250 2.373910 
293.434998 12.315700 -13.943300 
265.029999 37.880199 -3.181530 
-31.850401 -51.122002 -8.660980 
34.003300 -32.185299 -4.067540 
-109.515999 -9.461390 8.381980 
10.332600 -49.479698 1.754170 
309.531006 39.131901 2.701000 
108.639999 -14.195500 10.275600 
272.605011 42.614300 0.664566 
-112.754997 36.933300 -13.631800 
16.960400 17.049900 -16.747700 
0.864245 -17.035999 7.938880 
-14.285100 -11.355100 9.901630 
287.753998 -2.833570 27.573200 
-46.148399 5.687910 -9.607810 
-105.181000 -0.939909 -11.745900 
-9.550900 22.158100 -16.235600 
-50.965599 -29.344801 4.594660 
-15.231900 -40.846001 -3.926820 
150.843994 8.528400 -7.714140 
-102.339996 0.566820 12.169300 
-67.307602 3.794250 -9.196510 
315.817993 3.794250 2.701000 
-133.606995 0.006922 -4.873650 
55.130199 47.348499 9.328820 
61.461399 -53.015598 -7.030620 
221.475998 -19.954901 12.169300 
56.727299 -67.218102 11.375700 
-109.668999 28.411900 -16.235600 
69.036102 -47.334599 5.345810 
83.468300 37.880199 19.743999 
4.651570 -32.185299 -5.091260 
72.823402 30.305500 20.754000 
287.753998 7.581570 23.889400 
-72.041702 -13.248700 10.077900 
-108.968002 14.209400 -18.576099 
108.803001 -46.387798 10.828000 
70.929703 18.943501 -24.125401 
51.993099 -11.595100 8.381980 
61.461399 52.632301 5.541490 
59.567799 -50.175098 -0.738055 
-116.174004 -9.461390 6.488320 
-10.497700 -14.515400 8.381980 
92.187401 21.784000 22.584400 
-81.510002 3.794250 -12.872300 
94.600502 15.156200 -16.814301 
-13.879800 -45.441002 -7.714140 
220.529007 14.545000 2.701000 
62.190899 -53.962399 -5.820480 
-47.926899 -34.078999 3.647830 
60.275398 -23.663900 -5.820480 
67.142403 21.784000 26.999901 
-21.859699 31.811001 -2.033160 
-89.084702 23.216801 -6.767310 
61.461399 -43.547298 2.169940 
-60.727699 -36.919498 0.807336 
188.337006 -5.037280 20.690800 
85.132202 44.063000 19.743999 
-119.882004 34.092800 -3.926820 
44.087601 38.827000 17.850300 
24.900700 36.933300 -15.288800 
18.854000 -32.185299 -2.581610 
-33.221699 -7.567730 -8.778270 
-14.285100 -30.291700 0.424072 
26.428699 -16.089199 8.684460 
54.833599 2.847410 22.176201 
25.481899 -1.886740 -16.759199 
-122.320000 7.581570 12.169300 
166.639999 1.900580 -9.607810 
71.876602 41.192699 -20.022900 
217.688995 -3.780400 21.781700 
-121.277000 -21.770201 5.790020 
65.248703 -49.228298 -0.820521 
-84.527298 -17.982901 8.381980 
-90.031502 -23.663900 4.197270 
243.253006 -6.620890 21.979601 
92.706802 51.955601 12.169300 
-159.149994 -1.886740 11.841900 
145.729004 18.540600 5.541490 
268.339996 23.677700 -6.767310 
25.481899 -13.248700 8.934800 
-62.573399 -56.141602 -10.554600 
-46.477299 -11.355100 11.971400 
-144.947998 14.877500 -1.086330 
23.588200 -53.015598 -18.514700 
-10.497700 -28.185801 1.754170 
203.485992 11.368900 -2.644320 
104.069000 -54.412201 3.647830 
294.381989 30.792601 -9.607810 
-31.327999 25.446800 -4.873650 
-107.073997 33.146000 14.548400 
85.132202 52.499199 -8.660980 
-80.563202 -16.089199 -5.475680 
77.557602 -25.561800 0.807336 
246.093002 10.689700 -4.873650 
153.304001 18.249201 0.807336 
208.220001 14.209400 -0.380480 
164.666000 -2.833570 17.366400 
286.807007 -1.886740 -15.599700 
183.602997 11.368900 -4.524800 
203.485992 -17.035999 13.855400 
301.957001 44.231201 12.169300 
283.549988 5.687910 23.531300 
-73.935402 50.188999 -9.208950 
-25.603300 -35.972698 -7.714140 
10.332600 30.018999 -18.129299 
-67.307602 -6.620890 13.272200 
-82.456902 -52.792301 -1.086330 
236.625000 -17.035999 -2.640540 
81.344902 -14.203700 -3.926820 
6.545230 9.343150 -20.969801 
189.953995 8.528400 15.956600 
-45.530499 -9.461390 -8.878740 
104.385002 35.986500 17.850300 
72.823402 -34.172699 1.754170 
205.380005 10.596300 -2.979990 
90.813202 -59.643398 7.977510 
-105.181000 -5.674070 13.517100 
-105.181000 4.044650 -12.448300 
164.666000 -4.825040 -9.607810 
254.615005 14.209400 -1.232880 
66.195602 -58.696602 -10.255500 
-1.158560 -35.972698 -6.767310 
-140.214005 -8.514560 2.158060 
-80.563202 42.614300 -7.902260 
-85.597603 30.305500 6.488320 
-111.808998 42.614300 9.043560 
214.848007 -22.716999 10.519900 
58.874100 4.741080 -18.129299 
52.939899 -70.445801 11.222500 
67.142403 35.986500 -22.475401 
179.815002 -17.035999 12.032200 
-27.212700 -20.823400 -6.767310 
-105.689003 36.933300 15.009800 
-131.085999 24.624500 1.754170 
41.425201 -42.600498 -0.139495 
148.733002 -1.886740 -8.660980 
314.265015 -12.013700 0.807336 
8.438890 19.890400 -15.497100 
-66.360802 17.662500 0.807336 
289.178009 3.794250 27.318600 
-9.365710 8.528400 -18.129299 
185.496002 7.581570 16.178900 
5.272780 -31.238501 3.647830 
135.313995 -1.525350 16.903500 
-56.892399 11.109100 -8.660980 
-138.320007 -10.123200 -2.033160 
83.238503 48.295300 17.519100 
-71.094902 -1.886740 -13.263500 
97.441002 35.986500 20.295900 
69.982903 -32.185299 -2.156160 
89.866402 -29.800800 1.754170 
38.737499 15.658800 22.584400 
314.265015 -2.674070 -10.554600 
-121.277000 23.356001 12.169300 
309.531006 37.880199 -0.526313 
-24.700199 12.770600 13.116100 
-60.679798 -31.238501 3.146820 
22.185801 -35.025799 3.647830 
23.588200 -51.740200 3.647830 
102.338997 -2.833570 -13.395100 
-88.137901 2.198550 -13.395100 
-31.327999 -30.291700 1.131600 
91.512802 -0.939909 -13.395100 
-66.258499 -55.856098 -11.501500 
291.540985 46.401600 11.881900 
40.631100 55.869900 -7.037580 
-122.879997 7.581570 -15.288800 
294.381989 30.601700 -7.714140 
20.747700 37.880199 -9.639620 
-75.829102 48.295300 6.232770 
81.344902 -16.191601 -2.033160 
72.772903 -47.334599 14.063000 
247.987000 3.794250 -8.377560 
316.049011 16.103001 -1.086330 
-17.125500 -41.653599 -2.808580 
-61.277599 -48.281502 -4.873650 
-15.231900 -54.442402 -22.863400 
262.190002 -17.035999 -0.173880 
-141.160004 -2.144890 -6.767310 
66.195602 -70.058601 -9.980510 
94.600502 12.220700 -18.129299 
30.742001 -47.334599 -3.926820 
-72.057198 -61.537102 -3.926820 
-109.915001 -50.667198 -7.714140 
51.993099 -34.078999 1.245410 
66.195602 -53.015598 -2.250650 
-27.148399 8.528400 15.009800 
89.866402 -41.653599 4.958270 
104.069000 -31.238501 1.872030 
-4.816740 -45.441002 -1.443440 
-16.021500 -14.195500 -4.873650 
306.691010 -4.727230 22.054701 
-105.816002 23.677700 -15.288800 
46.943001 -19.876499 3.647830 
150.464005 -21.007799 -2.033160 
121.112000 28.227501 -0.139495 
223.266998 9.475230 15.009800 
206.326996 8.230610 -4.873650 
79.451202 44.507999 20.356501 
10.774500 -17.035999 -4.873650 
45.278999 -16.089199 -4.873650 
194.869995 -8.514560 -11.501500 
-10.497700 -21.770201 -6.524690 
21.694500 39.773800 -9.617990 
40.631100 3.360760 19.743999 
-139.266998 -6.620890 3.083830 
38.737499 56.651001 0.807336 
-108.021004 -50.213402 -8.660980 
66.195602 25.571400 25.131300 
46.312099 -34.139099 -5.820480 
72.823402 54.519299 -2.979990 
265.976990 -10.408200 20.102900 
213.901001 6.634740 -5.687880 
-132.199997 29.358700 -2.979990 
-78.769302 35.986500 0.807336 
19.800900 -41.653599 -1.245190 
235.677994 13.136300 12.169300 
-19.966000 15.530400 -14.342000 
276.391998 38.827000 15.330500 
-110.862000 27.465000 -16.025101 
5.598400 -36.376701 0.807336 
256.509003 -15.221100 15.009800 
-59.588600 -37.866299 -0.139495 
-126.369003 17.996700 -9.607810 
73.770203 -1.886740 17.791700 
13.378700 -38.813099 -2.979990 
-113.702003 41.093399 8.381980 
287.753998 41.279301 18.797100 
22.026300 -33.132198 3.647830 
-6.710400 -19.876499 3.354600 
267.871002 22.730900 15.418900 
65.248703 35.039700 -22.438299 
38.880001 -62.483898 6.488320 
15.066700 32.316002 -17.182501 
78.504402 53.970699 1.754170 
-115.630997 35.986500 3.647830 
33.056499 14.209400 23.655100 
36.843800 -12.301900 -4.603000 
-40.796299 -17.982901 9.217680 
-125.064003 31.252300 0.827071 
99.334702 -15.142400 10.754900 
53.886799 51.160400 4.594660 
-125.064003 10.422100 13.273800 
49.152599 8.022560 -20.022900 
-78.669601 -11.355100 12.402700 
-65.413902 -8.061500 -9.607810 
70.929703 -14.195500 -3.951510 
5.598400 14.209400 -17.355400 
59.567799 -11.355100 10.080900 
-51.211498 -5.674070 11.800000 
102.175003 -61.537102 2.949060 
193.070999 -11.195300 16.903500 
-63.720600 -17.982901 -3.926820 
-59.732899 -17.982901 7.238320 
60.514599 18.943501 -24.179600 
-59.732899 13.996200 8.381980 
-20.912901 -8.514560 -9.744120 
229.996994 -1.886740 21.858299 
13.362500 -32.185299 -1.086330 
-72.988602 -1.585800 15.956600 
-96.659302 -30.291700 -7.721190 
-113.702003 -12.301900 8.116090 
208.220001 12.315700 9.790240 
217.688995 11.368900 13.077300 
267.365997 39.773800 0.807336 
30.216000 -45.441002 -2.498830 
-48.370998 -4.863650 11.222500 
-54.051998 -20.823400 8.334080 
-66.360802 -25.557501 6.733700 
-110.862000 -42.600498 -9.909760 
-20.912901 -45.189400 -4.873650 
176.975006 14.209400 10.173500 
34.003300 -19.876499 -4.476600 
-73.980003 12.315700 8.381980 
5.598400 5.687910 -20.630899 
-150.628998 -3.780400 1.170600 
-123.170998 31.597700 0.807336 
34.950199 -27.451200 -3.205700 
284.295990 -8.514560 22.584400 
-107.073997 -19.876499 1.091370 
-108.968002 -45.587002 -2.979990 
-111.808998 39.994598 -13.395100 
121.112000 2.990500 17.850300 
19.683001 35.986500 -10.554600 
91.760002 2.847410 -15.628100 
170.347000 16.500000 8.381980 
36.843800 -10.802800 -6.767310 
314.819000 29.358700 12.169300 
38.897202 -10.408200 -9.607810 
263.817993 37.880199 -2.033160 
69.036102 -9.461390 -11.167300 
294.381989 -15.451500 17.850300 
-9.994710 6.634740 -18.129299 
72.823402 54.066898 8.381980 
-79.940002 -56.802898 -22.863400 
60.514599 -1.886740 17.648500 
79.451202 -20.823400 7.694200 
191.177002 -2.480070 17.850300 
46.685902 -21.770201 3.647830 
20.747700 -10.408200 -10.175200 
-73.935402 11.139700 -5.820480 
240.412003 -17.982901 -0.061190 
28.322300 -54.110298 -15.288800 
-66.360802 -28.398001 -4.199080 
-108.021004 -19.611401 -0.139495 
-97.606201 -13.870100 -7.714140 
-78.669601 -4.951030 15.009800 
-66.360802 -7.017310 -11.501500 
-31.327999 -11.672200 -7.714140 
95.547302 -54.909302 10.842000 
43.471600 -38.813099 -7.228810 
236.625000 -14.195500 18.068300 
-23.391399 -43.547298 -9.607810 
18.868299 -30.291700 4.594660 
-67.307602 -12.301900 12.163000 
-85.945503 -11.355100 -10.554600 
-74.210701 2.847410 12.169300 
-7.657230 30.305500 11.073200 
-91.925201 -29.344801 -0.399810 
-85.297401 -0.939909 15.527500 
18.854000 -15.142400 6.749620 
130.580002 20.794800 3.647830 
-81.510002 11.368900 -9.441300 
93.653702 52.755299 -8.660980 
-58.638599 0.953753 15.009800 
-70.148102 -60.590302 5.250490 
-93.818901 -19.703800 6.488320 
-39.849499 -5.674070 -12.700200 
-1.029420 -47.334599 -7.018650 
-4.226260 29.358700 -11.501500 
294.476990 35.039700 -10.554600 
-8.604060 -13.248700 -7.180420 
35.896999 -9.908050 -8.660980 
301.957001 45.736500 2.701000 
-27.540701 -46.715698 -5.820480 
-12.742400 -34.078999 -6.767310 
14.119900 -52.068802 -3.484420 
283.019989 10.864600 -7.714140 
-77.722702 -21.770201 8.606500 
161.826004 3.794250 -9.847390 
63.355099 -35.972698 -1.629750 
-90.356300 45.454800 -1.086330 
-3.869910 -56.802898 6.863350 
-62.573399 -53.015598 -12.021200 
15.066700 34.092800 17.965300 
-111.235001 5.687910 -13.395100 
-71.922997 -33.132198 -2.979990 
24.535000 -45.441002 3.857660 
146.574005 17.049900 -1.086330 
-1.976250 5.687910 15.412500 
259.348999 -15.142400 -3.537100 
173.186996 16.623199 4.594660 
55.780399 35.986500 18.179899 
-18.477600 -35.972698 -0.139495 
-108.968002 -6.026090 -7.714140 
44.418499 6.634740 19.142599 
87.972702 59.068001 -3.926820 
-57.839298 -16.089199 8.161660 
-156.309998 5.687910 0.634659 
221.475998 2.847410 16.665501 
308.584015 5.687910 -15.817500 
17.907200 -51.122002 3.436370 
-36.062199 5.652690 15.956600 
-9.550900 -8.226330 -10.554600 
247.987000 9.921720 -5.820480 
-120.330002 2.732330 14.063000 
-109.915001 -53.962399 4.892650 
179.815002 -9.733560 20.690800 
85.132202 54.171001 3.647830 
142.889008 12.732400 11.222500 
18.854000 21.784000 18.074301 
65.248703 -26.504299 5.086130 
204.432999 -17.982901 13.079100 
1.451670 5.687910 -20.022900 
-77.964104 -55.856098 -7.714140 
51.046299 35.986500 -21.795500 
-25.715700 -53.962399 -4.873650 
-22.806499 16.415701 -14.342000 
-77.722702 -43.547298 2.148900 
102.171997 28.411900 -17.182501 
109.237999 18.943501 17.850300 
118.271004 -6.769550 15.956600 
113.537003 29.358700 8.862940 
-22.806499 -27.451200 3.166210 
101.227997 -34.967300 10.275600 
-82.755798 30.305500 1.754170 
257.454987 -8.514560 -7.834330 
-50.264599 8.528400 11.644500 
-36.062199 -18.929701 -5.454060 
-48.370998 -14.823300 -6.767310 
-103.287003 -22.128000 -5.820480 
46.312099 5.687910 20.250000 
62.408298 -23.450701 -4.873650 
259.348999 -16.037001 -2.033160 
164.666000 7.581570 -8.133540 
34.950199 -43.547298 1.054010 
38.737499 35.986500 17.595100 
-74.713303 9.475230 -9.607810 
119.218002 18.790400 -6.767310 
-126.958000 22.822800 -6.767310 
-24.700199 23.518200 12.169300 
-3.869910 5.687910 -19.433001 
73.770203 -5.157330 12.169300 
118.271004 -8.514560 15.239400 
-121.277000 -9.461390 4.261240 
-129.798004 -8.514560 -2.047070 
-14.285100 -26.504299 -5.828440 
-83.841698 37.880199 -7.714140 
-87.191002 8.528400 -9.909730 
12.226200 19.890400 -15.665700 
83.238503 29.358700 -20.670601 
286.138000 -17.035999 -1.086330 
-17.125500 3.339760 15.956600 
268.143005 34.092800 -5.820480 
-155.363007 1.900580 -3.865390 
311.424988 23.432800 -11.501500 
34.054798 -56.802898 -4.873650 
47.258999 -14.392100 6.488320 
-30.381201 3.794250 16.711300 
-26.202499 -28.398001 -6.767310 
-67.307602 -60.465801 -8.660980 
235.677994 7.581570 17.442801 
16.960400 -25.022200 5.541490 
69.036102 35.986500 20.368799 
-29.434299 12.315700 -12.094500 
-6.962990 0.006922 -14.342000 
119.218002 11.368900 15.634400 
126.119003 11.368900 -9.607810 
-156.156998 18.943501 -15.288800 
-133.585999 -8.245040 -2.979990 
-77.003403 -54.909302 -11.501500 
-37.955799 -20.823400 -5.683390 
-17.125500 -48.432301 -7.714140 
278.286011 46.401600 11.842100 
78.504402 11.368900 -19.891001 
266.044006 30.305500 -3.926820 
87.972702 -53.962399 4.972290 
296.276001 -8.992810 -12.448300 
-53.105099 7.581570 12.095500 
-70.148102 -53.015598 -5.820480 
-76.822701 56.816799 -4.873650 
179.815002 -11.355100 18.698000 
-7.937850 14.209400 17.850300 
-120.330002 4.025520 -11.501500 
87.972702 56.816799 -6.140520 
-121.277000 16.103001 -14.400900 
8.438890 -68.164902 1.670170 
-112.754997 4.050830 15.009800 
114.484001 23.677700 -7.106740 
-81.510002 -21.770201 -4.423480 
-62.573399 0.790756 -9.607810 
-0.082586 -28.398001 3.786960 
17.907200 37.404800 12.169300 
-101.610001 41.667500 8.381980 
-77.722702 37.344200 1.754170 
44.752899 -56.802898 -0.139495 
236.625000 15.156200 1.403990 
300.062988 21.784000 28.070200 
-10.497700 -25.557501 -6.482520 
43.724201 45.454800 -11.501500 
-138.408997 1.900580 1.754170 
87.025902 -10.799900 -10.554600 
-93.047997 30.305500 11.222500 
-65.221001 3.794250 11.222500 
103.122002 -10.408200 12.842200 
-55.945599 -54.909302 -29.595800 
62.408298 -42.600498 6.062320 
82.291702 28.411900 23.132700 
-144.947998 17.996700 -10.978300 
88.919502 -56.802898 4.508670 
31.162800 -1.374810 17.850300 
-20.912901 -18.607700 -5.820480 
-54.051998 -47.334599 2.041300 
82.291702 48.026402 9.328820 
-47.424099 -30.466299 -1.086330 
-135.479004 4.741080 -0.160444 
310.477997 14.209400 -14.916200 
213.901001 -0.316934 -7.714140 
-106.127998 0.953753 -11.424800 
-64.467102 -57.749802 -3.521260 
-91.925201 -18.929701 -5.067130 
132.473999 12.588000 15.009800 
47.258999 -11.355100 9.476550 
72.823402 -28.398001 -1.886230 
250.955994 17.996700 12.169300 
261.592010 32.199200 5.541490 
50.099499 0.006922 -17.950500 
19.800900 -13.659400 7.435150 
1.811080 14.707200 20.690800 
-118.435997 -15.142400 6.191140 
300.020996 48.295300 5.541490 
-8.604060 1.900580 16.311501 
31.846201 4.741080 -17.182501 
114.484001 -32.185299 8.532900 
-76.775902 -4.727230 14.608300 
49.396900 -60.590302 -2.979990 
13.173000 -31.663799 4.594660 
-136.087006 -22.716999 -8.660980 
261.243011 15.066000 -0.139495 
-144.001007 8.528400 2.615380 
93.418297 41.667500 18.797100 
315.734985 2.847410 4.594660 
60.442299 -40.706799 -1.086330 
33.056499 -39.759998 -6.348090 
267.871002 -4.727230 -11.327900 
-19.019199 11.368900 -12.157600 
175.080994 -11.355100 -10.110700 
-24.700199 9.475230 -11.839600 
34.950199 8.386300 -22.863400 
257.454987 0.006922 25.009100 
71.876602 -55.727200 -4.873650 
-130.744995 -38.213799 2.701000 
-67.307602 -18.346300 -4.873650 
194.018005 -2.833570 -10.661700 
272.605011 6.634740 24.203400 
41.121399 -41.653599 -6.767310 
-116.542999 -25.557501 -1.312950 
-34.527599 -27.451200 3.647830 
-31.987000 20.837200 -5.820480 
113.596001 -20.823400 1.754170 
38.441101 -43.547298 -5.820480 
-112.754997 11.368900 16.585899 
298.169006 2.847410 27.573200 
-71.542503 -58.696602 -2.033160 
279.233002 14.209400 15.863200 
139.102005 -16.089199 -7.342080 
45.365299 35.039700 17.958599 
-17.125500 35.932999 -4.873650 
-1.976250 -42.600498 0.656128 
36.843800 -21.770201 5.939690 
-89.084702 9.475230 12.931700 
85.132202 6.330390 -16.235600 
-52.158298 2.298960 -11.501500 
-94.770798 -34.078999 -4.873650 
23.588200 -4.727230 -15.409600 
-36.062199 -43.650299 -3.926820 
-73.935402 53.289101 -7.714140 
26.428699 46.372101 6.488320 
26.428699 19.890400 -17.114500 
-18.072399 4.399420 -15.288800 
-105.489998 -28.398001 -5.820480 
200.167999 14.209400 1.754170 
283.019989 5.970620 -13.395100 
78.504402 -9.334680 -12.448300 
-124.116997 -20.823400 5.495780 
-62.573399 -54.909302 -5.126840 
8.438890 -43.547298 -10.203400 
211.061005 5.919270 -6.767310 
260.295990 27.465000 2.701000 
-17.368000 2.847410 -16.235600 
-32.274799 17.907200 -9.607810 
-111.808998 -53.704800 4.594660 
50.891499 -16.089199 -3.926820 
-37.955799 -36.919498 -6.044000 
215.794998 14.209400 6.857890 
84.185402 20.275000 23.531300 
-106.127998 39.932800 -11.501500 
173.186996 -17.035999 12.446200 
-147.787994 16.103001 -8.928240 
0.864245 -9.232340 -9.607810 
259.348999 -5.980180 21.637600 
65.248703 56.816799 3.940910 
-56.892399 -14.195500 -6.104850 
-97.606201 34.908401 8.381980 
136.261002 10.993200 -5.820480 
151.410004 -9.608910 -10.554600 
-84.350502 50.188999 -5.995070 
-24.521500 -36.919498 -8.660980 
58.160801 33.146000 18.797100 
52.939899 24.947901 25.424900 
262.190002 12.260100 -4.873650 
-87.191002 -21.770201 -2.578720 
-20.079700 -58.696602 -19.076099 
-19.019199 -35.972698 -9.183840 
-108.968002 -8.374290 9.328820 
53.886799 43.561100 -14.741700 
-103.287003 28.411900 15.728000 
69.036102 33.146000 20.655399 
-15.231900 -17.213800 6.488320 
-116.542999 8.528400 16.239100 
318.998993 7.581570 -9.033310 
-83.403702 -15.142400 10.923100 
-19.966000 4.311780 -15.288800 
-15.231900 -24.610701 -5.538440 
-149.057007 16.103001 -14.342000 
151.410004 12.885600 11.222500 
28.322300 33.146000 -19.769100 
112.176003 30.305500 10.275600 
183.602997 9.637220 14.063000 
-88.137901 -13.248700 11.636300 
-28.487499 -61.537102 7.322930 
124.899002 26.518200 -1.608230 
59.567799 -22.716999 4.025050 
-21.859699 -27.451200 -7.464140 
-62.573399 4.060110 11.222500 
43.475899 -61.537102 -4.873650 
308.584015 -16.089199 0.976631 
213.901001 14.450300 2.701000 
204.432999 -12.301900 15.573900 
-133.585999 -29.344801 -7.419240 
178.867996 -3.255180 -10.554600 
-98.553001 -33.793499 -1.086330 
12.226200 -0.939909 -15.059200 
198.570999 14.209400 0.807336 
-104.657997 -12.301900 -4.873650 
25.776600 47.348499 -7.714140 
-145.895004 -19.876499 -12.786700 
1.811080 -8.514560 -10.618800 
-101.490997 3.794250 -13.395100 
314.626007 22.730900 18.797100 
78.504402 0.417635 19.743999 
229.996994 -11.355100 18.049700 
308.641998 37.880199 17.850300 
-18.072399 -43.615002 -14.342000 
244.199997 0.953753 23.093901 
285.859985 19.890400 17.687099 
104.069000 11.368900 -12.593200 
106.405998 23.677700 -13.395100 
67.142403 50.188999 15.505900 
273.552002 24.624500 -5.985500 
26.428699 -56.476002 -19.076099 
4.651570 -37.437099 -0.139495 
290.595001 14.209400 -9.910770 
112.589996 -22.275801 4.594660 
105.758003 36.933300 15.956600 
10.332600 17.941700 19.743999 
283.967010 -14.685400 -8.660980 
44.063000 -58.696602 -1.086330 
-69.201202 -48.281502 -7.907720 
-115.596001 24.624500 -14.936400 
-110.862000 -54.506100 8.381980 
-124.116997 21.583500 -11.501500 
-47.424099 -3.074090 12.169300 
267.871002 36.933300 -4.474840 
40.631100 -21.770201 7.028250 
-63.520302 10.422100 -9.630430 
-79.616402 47.853199 5.541490 
-102.339996 24.624500 13.438700 
42.524799 -3.665690 -16.235600 
189.283997 -2.269890 17.850300 
-59.732899 16.633400 6.488320 
-89.084702 37.880199 -7.905760 
85.132202 45.855301 -13.395100 
50.934399 -15.142400 7.435150 
206.326996 -22.716999 9.794280 
-153.656006 21.784000 -20.022900 
-75.829102 10.422100 10.637800 
75.663902 50.188999 13.862800 
-115.596001 40.903999 -2.979990 
-108.625000 31.252300 -16.235600 
-69.201202 -24.610701 7.288680 
-82.456902 42.614300 6.235060 
-111.808998 43.876900 6.488320 
13.898400 1.900580 16.903500 
-73.935402 10.422100 -7.178180 
2.757910 27.465000 -16.854900 
57.674099 -41.653599 0.112093 
-134.858994 17.996700 0.807336 
94.600502 1.900580 18.184799 
-86.252899 27.465000 4.594660 
77.557602 10.422100 -18.875500 
34.003300 18.943501 -20.273100 
-12.391400 1.900580 15.401600 
99.334702 -7.141500 15.956600 
285.859985 33.531200 15.956600 
-117.489998 -25.625999 4.594660 
-117.489998 34.092800 2.185910 
241.358994 -15.739300 14.063000 
-112.889000 31.252300 -13.395100 
33.056499 -49.298901 -7.714140 
283.967010 35.741901 15.956600 
236.625000 3.639800 17.850300 
31.162800 -9.461390 -12.155800 
16.960400 35.016399 17.850300 
28.322300 22.730900 -16.829300 
74.717102 -0.939909 -16.903799 
286.285004 46.401600 8.381980 
-50.264599 -27.451200 4.507220 
296.440002 46.401600 10.275600 
-68.254402 9.475230 -8.991980 
51.046299 46.611301 -12.448300 
20.475901 -2.833570 -15.288800 
66.195602 -10.408200 9.400440 
65.248703 -68.164902 -3.668010 
135.313995 -20.823400 -2.220900 
-129.223999 -28.398001 4.594660 
128.686005 1.877260 -8.660980 
-48.370998 -34.078999 -1.473460 
-94.765701 10.815500 -13.395100 
313.317993 21.784000 20.484699 
26.681000 -44.494099 -0.139495 
-99.499802 43.417900 -3.926820 
9.385720 17.996700 -15.602100 
92.706802 17.996700 -17.454399 
81.344902 -17.035999 7.704280 
-112.736000 44.507999 -4.873650 
-73.297600 54.923100 -1.086330 
101.227997 -48.281502 4.545280 
306.691010 39.773800 -0.677087 
-22.856501 -4.727230 -11.501500 
-125.064003 -27.451200 -1.679400 
35.708302 -13.248700 -3.926820 
96.309998 53.976299 3.647830 
-89.084702 26.518200 10.231100 
-1.029420 -67.218102 11.115800 
28.322300 -40.302898 -0.139495 
315.069000 -2.833570 6.488320 
237.572006 -20.377100 10.275600 
247.039993 9.475230 20.578699 
-148.735001 15.156200 -15.638400 
-8.604060 32.751499 -8.660980 
-77.111298 -55.856098 -13.395100 
234.731995 -15.207500 16.903500 
227.156998 -15.698200 16.903500 
-95.712502 23.260700 13.116100 
123.952003 9.475230 -11.328000 
288.700989 33.426601 18.797100 
291.540985 32.199200 21.328699 
166.559998 17.996700 1.311550 
-73.935402 15.773800 0.807336 
-79.616402 46.401600 -8.168100 
-134.080002 -35.972698 3.647830 
-3.869910 -36.919498 0.144022 
271.657990 -19.044001 0.807336 
273.552002 32.199200 14.295200 
75.663902 39.228600 -20.969801 
285.859985 6.631210 -14.342000 
293.434998 -18.721600 8.381980 
2.757910 31.524401 -9.607810 
-24.700199 -40.706799 -2.655050 
22.641399 -34.078999 2.449470 
63.355099 -51.122002 5.522820 
79.451202 38.762901 -20.969801 
-121.966003 31.252300 -5.820480 
211.061005 -0.939909 -7.865470 
-29.434299 -33.644501 -2.979990 
290.595001 -16.102200 14.063000 
-17.125500 -29.344801 -6.801420 
-4.816740 -12.111000 9.328820 
-50.153000 -53.962399 -22.863400 
136.054993 9.475230 -8.660980 
25.481899 -51.544601 -20.022900 
-31.327999 -54.929401 0.807336 
72.823402 12.315700 -20.362801 
-77.722702 -50.175098 -1.356350 
77.557602 -2.833570 -15.940100 
-113.702003 41.373901 -5.820480 
295.329010 -9.461390 23.035400 
0.864245 33.728600 -6.767310 
193.070999 2.847410 16.359400 
-14.285100 -42.753899 -11.501500 
268.816986 35.986500 -5.536670 
99.334702 -11.750600 13.116100 
-16.178699 9.475230 -12.797100 
37.790699 50.188999 -7.844420 
113.036003 6.634740 -11.501500 
82.291702 14.209400 -23.179399 
63.355099 -57.462299 -1.086330 
-19.019199 -37.866299 -9.950570 
-2.923080 13.477600 20.690800 
-3.869910 38.308899 -2.033160 
107.197998 -0.939909 -16.235600 
69.036102 31.210199 20.690800 
140.781006 -1.886740 15.956600 
-117.489998 -21.770201 5.347230 
284.872009 2.847410 25.424900 
315.022003 32.199200 1.754170 
94.600502 -26.504299 8.514380 
52.939899 -5.157650 -15.288800 
125.846001 -19.205200 9.328820 
127.739998 24.131300 -0.139495 
291.845001 11.368900 -12.448300 
-86.244202 -3.780400 -15.539900 
16.960400 -16.089199 6.905300 
-76.775902 -40.432800 2.701000 
-50.264599 -54.168201 -7.714140 
235.457001 -7.567730 20.690800 
48.938400 -7.567730 11.222500 
-131.692001 12.315700 4.069060 
306.691010 23.677700 -13.694200 
-104.234001 -30.291700 -9.241470 
298.169006 -8.790630 -12.448300 
225.466003 -22.716999 8.381980 
-81.510002 14.209400 3.022310 
268.816986 25.483000 -6.767310 
30.216000 -8.771330 10.275600 
-108.021004 27.465000 -16.851900 
166.559998 -3.701780 -9.607810 
-53.105099 -21.770201 -4.351780 
3.704740 -25.557501 -3.793090 
74.717102 25.571400 25.252899 
107.856003 -47.357399 4.594660 
34.950199 46.669300 4.594660 
48.205799 -60.796200 -1.086330 
272.605011 29.358700 15.235200 
233.785004 -6.620890 20.789101 
5.598400 47.102100 -2.979990 
100.501999 44.507999 8.381980 
266.877991 35.039700 -4.873650 
-131.692001 0.006922 -4.464600 
155.787003 -13.248700 -8.660980 
284.914001 -3.780400 -15.904500 
288.700989 41.455101 -4.873650 
170.347000 -5.674070 -10.907200 
132.473999 -8.825570 14.063000 
65.289497 -71.005402 -7.714140 
247.987000 -3.780400 -7.665510 
-95.712502 -1.886740 15.577300 
34.003300 23.446699 -20.022900 
56.727299 -6.620890 10.781200 
130.580002 -22.716999 1.523180 
-141.160004 4.871250 -0.139495 
91.760002 43.561100 18.926901 
-120.330002 -1.231690 -6.767310 
97.441002 35.986500 -14.132000 
-53.105099 3.794250 -11.244300 
116.377998 8.202200 -11.501500 
18.854000 -47.334599 -0.547406 
-68.254402 -21.770201 8.724070 
-37.955799 -9.785450 12.169300 
49.152599 -29.344801 0.635815 
-42.689999 15.142900 -9.607810 
36.072601 -41.653599 0.807336 
35.480801 -17.982901 6.488320 
35.896999 -54.313400 3.647830 
-99.499802 -5.674070 13.406800 
206.326996 11.368900 -1.876430 
-15.231900 -15.937200 7.435150 
-85.112099 -45.441002 -3.926820 
-13.338200 -54.909302 -18.937599 
283.019989 11.537700 20.690800 
20.747700 38.207802 12.169300 
-25.646999 16.497299 13.116100 
-36.062199 -10.408200 -8.787260 
-100.446999 9.475230 13.536200 
36.946499 31.252300 19.743999 
-99.499802 -22.716999 4.669440 
-69.363503 -64.377602 -0.139495 
-7.657230 16.103001 -15.116600 
312.812988 -2.833570 19.743999 
-74.882202 39.773800 -3.903990 
-4.662660 -24.610701 -5.820480 
42.799500 -29.344801 -4.873650 
33.257099 -51.122002 -7.714140 
-45.490700 -52.068802 -5.820480 
50.099499 -34.346001 -1.086330 
-5.105030 -66.271202 5.541490 
-77.471001 -24.610701 7.435150 
-139.266998 16.103001 -2.475030 
127.739998 -16.470100 11.222500 
-7.657230 20.837200 -16.506800 
113.537003 14.473600 -12.448300 
75.323303 -18.929701 7.435150 
17.698999 0.006922 17.850300 
-18.072399 26.518200 -6.301480 
302.903015 8.430910 24.478100 
192.123993 -17.414101 12.169300 
-83.403702 -32.185299 -2.815970 
-87.191002 29.333200 7.435150 
-57.839298 -8.514560 11.944000 
192.123993 8.859910 -4.873650 
47.258999 -29.344801 1.205020 
202.539001 -8.514560 17.214300 
-0.082586 -35.972698 -0.111352 
25.545000 -46.387798 1.754170 
-131.692001 -30.619400 5.541490 
126.792999 -22.138399 4.594660 
269.764008 39.988098 -1.086330 
214.848007 13.262600 0.014717 
188.337006 -5.452180 -11.501500 
53.886799 23.442699 -20.969801 
60.514599 -17.982901 7.657090 
37.790699 -31.446400 4.594660 
263.135986 -2.833570 -9.130920 
188.259003 -21.770201 -1.086330 
10.332600 -45.441002 -10.207400 
63.355099 0.006922 20.080999 
246.253998 -19.876499 9.328820 
112.907997 37.880199 6.488320 
99.055000 30.305500 -20.022900 
117.323997 19.890400 -7.963800 
4.651570 35.032101 -8.660980 
-143.054001 5.687910 -3.992210 
-1.273180 -53.015598 3.647830 
-102.040001 -23.663900 0.807336 
42.524799 -5.674070 13.035900 
219.582001 -17.035999 14.983400 
186.442993 14.469900 -0.139495 
123.564003 22.730900 -3.926820 
108.803001 -56.389000 10.275600 
276.391998 32.199200 12.004900 
43.471600 -53.015598 -0.921972 
38.963501 -12.301900 -5.820480 
-71.094902 -8.318680 -12.448300 
134.367004 -11.075200 -8.660980 
274.497986 8.963700 22.584400 
216.742004 -20.521999 12.169300 
-100.446999 37.635899 -13.395100 
-50.264599 1.900580 -11.081200 
48.256001 -37.866299 -1.086330 
49.778999 -28.398001 -3.926820 
-90.022697 27.465000 11.222500 
117.323997 -14.465300 -7.714140 
94.600502 21.784000 21.765600 
25.164700 -38.813099 -2.033160 
-4.242760 -48.281502 -5.820480 
-107.073997 -36.204201 -10.554600 
311.048004 23.677700 21.637600 
-20.912901 6.767600 17.850300 
-99.317200 40.720699 6.488320 
-89.995697 -6.620890 -11.501500 
-50.560699 -54.909302 -29.491301 
263.135986 -5.674070 -10.110400 
-75.483002 39.773800 0.807336 
73.770203 51.135799 13.182900 
199.699005 -23.680799 0.807336 
-43.359901 -23.663900 -2.979990 
72.823402 -41.653599 13.653200 
-98.553001 42.614300 2.361570 
239.466003 18.321301 2.701000 
-113.702003 29.653299 -13.395100 
-17.762800 35.039700 -1.086330 
276.391998 -19.097200 8.381980 
294.381989 4.741080 -15.451400 
-7.657230 -20.823400 -6.553130 
-119.383003 17.049900 14.321600 
215.794998 0.921795 17.850300 
24.543200 -42.600498 -1.086330 
38.417099 -53.015598 0.807336 
35.896999 -7.567730 -13.856200 
-33.221699 -3.780400 -11.561900 
66.176003 32.199200 -21.916599 
75.663902 -40.847801 8.381980 
-57.432598 -17.035999 -2.979990 
31.162800 -39.033001 -5.820480 
-104.234001 24.624500 13.438700 
58.122299 -10.408200 -10.554600 
106.370003 32.199200 17.850300 
-127.904999 -26.001699 2.701000 
-85.297401 -27.451200 -2.835860 
-105.181000 2.409570 11.222500 
132.473999 0.953753 -9.030580 
-97.606201 16.671801 -10.554600 
308.584015 21.784000 -13.716000 
68.089203 -0.939909 -17.481600 
-127.904999 -9.461390 -0.663506 
-125.064003 32.977402 -2.033160 
275.268005 -15.142400 15.956600 
37.790699 -3.960450 -16.235600 
149.516998 1.900580 16.243601 
70.929703 -66.271202 -10.910200 
20.747700 -38.360199 -2.033160 
-68.254402 43.561100 -6.092510 
99.334702 -44.494099 10.771300 
-129.798004 29.438900 0.807336 
-124.116997 9.475230 -14.677600 
263.057007 37.880199 -0.139495 
60.514599 35.039700 -20.917601 
-69.201202 14.130400 6.488320 
264.083008 7.581570 22.530199 
-90.978401 -14.729000 -7.714140 
15.066700 42.614300 -6.132160 
34.950199 -66.271202 5.720930 
-41.376202 -26.504299 4.594660 
-27.540701 -38.813099 -3.217480 
302.903015 38.305401 -6.767310 
-70.148102 -22.716999 7.709340 
-99.578400 -35.972698 -10.554600 
21.694500 24.314899 17.850300 
10.332600 25.088400 -18.129299 
281.126007 24.799400 12.169300 
-11.444600 7.581570 20.216900 
52.939899 37.880199 -22.194099 
-105.181000 -35.972698 -11.728800 
45.866901 55.869900 -1.086330 
-55.025299 -50.175098 -20.022900 
33.203800 -61.537102 2.701000 
-114.001999 19.890400 15.009800 
-71.094902 0.006922 -12.206400 
45.365299 2.505470 20.690800 
18.854000 25.571400 -17.878000 
-46.477299 -40.706799 0.187191 
86.382797 -9.461390 11.222500 
54.833599 -15.142400 9.811970 
100.281998 41.280201 -10.554600 
-93.818901 -4.727230 -11.818200 
288.375000 -18.929701 9.328820 
89.866402 -32.511398 2.701000 
-63.520302 -59.039101 -4.873650 
297.221985 35.039700 24.150400 
7.069070 -53.962399 0.807336 
17.907200 36.306499 -9.607810 
-83.226501 -60.590302 -25.703899 
69.036102 -70.058601 -7.791570 
-70.148102 -10.428900 -10.554600 
-88.137901 -24.610701 -1.829820 
-120.330002 -13.248700 4.072090 
258.402008 -9.648180 -6.767310 
286.291992 36.933300 18.797100 
25.893299 40.720699 -12.448300 
79.555298 50.188999 6.488320 
-54.998798 11.002700 -8.660980 
-1.380350 -62.483898 3.647830 
-99.499802 -15.142400 8.892330 
108.004997 13.262600 17.850300 
21.694500 31.252300 -18.350901 
-98.683296 -36.919498 -9.607810 
65.248703 13.878000 -22.863400 
20.747700 0.953753 18.581301 
34.950199 15.156200 24.079300 
72.040199 -57.749802 -3.926820 
28.322300 -20.823400 -5.616700 
-67.307602 -19.876499 8.964710 
-108.021004 9.427700 15.009800 
249.912994 -19.876499 -1.086330 
-67.307602 -53.728298 -4.873650 
107.856003 -34.078999 9.591470 
27.375500 -12.301900 9.111700 
99.334702 -13.248700 -9.839960 
23.588200 -53.730701 -9.607810 
-17.125500 -23.091200 2.701000 
271.657990 -15.213800 14.063000 
-70.148102 -9.180240 -11.501500 
156.145004 13.950900 8.381980 
265.976990 8.528400 -9.789740 
242.306000 1.900580 -8.227160 
316.966003 -8.514560 5.541490 
-10.321000 10.422100 -17.182501 
60.514599 40.720699 -18.677200 
-26.593901 -49.228298 -3.183280 
302.903015 43.095001 13.116100 
131.908997 12.315700 -7.714140 
257.454987 -3.780400 23.424299 
-126.958000 12.315700 -8.588780 
117.323997 5.687910 16.825701 
-36.062199 9.475230 -11.799900 
-102.339996 -19.763300 -4.873650 
278.286011 38.827000 15.933500 
24.102400 -10.408200 9.328820 
-85.719299 -23.663900 7.435150 
-98.553001 -32.185299 -0.351816 
183.602997 -21.830500 -0.139495 
69.036102 -65.324402 -5.875700 
309.329010 33.146000 18.797100 
295.329010 48.295300 8.953560 
303.850006 -12.607400 -11.501500 
272.605011 15.156200 -6.319020 
-104.234001 28.209999 -16.235600 
-16.440701 7.581570 -13.395100 
25.481899 51.135799 -5.079410 
265.029999 14.836100 -2.033160 
105.961998 17.410000 -15.288800 
-87.264999 -35.025799 1.754170 
-83.403702 -13.248700 -8.882830 
-30.756201 -22.716999 -4.873650 
106.908997 3.794250 22.127399 
107.856003 -26.304800 -0.139495 
307.636993 35.986500 -6.423130 
85.132202 -61.537102 8.381980 
238.518997 -19.490999 11.222500 
-123.170998 16.103001 -14.078100 
98.863701 -35.025799 10.275600 
56.727299 -14.195500 10.018400 
300.714996 24.624500 -13.395100 
-67.159798 -57.749802 -1.086330 
316.071991 -5.674070 -4.873650 
-42.363701 -31.238501 -2.979990 
-32.274799 0.953753 11.935200 
219.582001 -12.301900 16.596001 
298.169006 46.401600 10.025700 
-105.568001 17.996700 -15.288800 
103.122002 -22.716999 -0.747070 
185.496002 10.422100 -5.858020 
71.876602 -20.823400 -2.641970 
-53.105099 -47.669498 -18.129299 
161.826004 8.528400 15.442900 
316.760010 9.475230 17.850300 
62.260101 -46.387798 -0.139495 
-16.178699 -26.052200 1.754170 
247.039993 -1.886740 22.708401 
170.347000 4.741080 -9.110870 
59.567799 52.561699 4.594660 
93.653702 -53.962399 10.922200 
234.731995 -0.032058 -6.767310 
217.688995 0.953753 17.362301 
-110.862000 -10.408200 7.800730 
248.681000 -8.514560 21.637600 
20.747700 -51.122002 5.062580 
44.418499 52.292099 -8.660980 
291.540985 -14.195500 -9.125070 
-83.473099 29.358700 -0.139495 
-108.968002 -11.355100 -5.057020 
34.003300 -44.494099 -8.118100 
270.710999 41.300800 4.594660 
27.375500 -2.492930 16.903500 
159.932007 5.398870 -9.607810 
110.696999 35.039700 10.519000 
-113.702003 4.087360 16.903500 
37.790699 -60.590302 6.676200 
-95.712502 -35.305500 -4.873650 
228.104004 -7.567730 -8.524360 
-111.346001 -1.886740 8.381980 
14.119900 -24.684099 6.488320 
-65.413902 -12.707300 12.169300 
290.595001 1.900580 -14.995800 
39.475700 39.773800 -15.288800 
14.119900 14.715400 -16.235600 
113.537003 35.986500 6.181950 
-18.556999 -66.271202 -19.076099 
290.595001 28.977699 -5.820480 
-87.191002 -35.972698 4.488730 
306.691010 4.741080 23.137400 
-1.029420 4.207670 -16.235600 
97.441002 27.465000 -20.364201 
301.497009 -18.929701 2.701000 
86.079002 -58.696602 4.781380 
78.504402 -30.291700 3.434180 
-71.094902 -28.983000 4.594660 
62.408298 46.153400 -13.395100 
176.028000 12.315700 11.988300 
312.372009 36.496300 1.754170 
62.408298 -54.909302 0.684330 
287.753998 5.687910 24.443199 
-13.338200 40.026901 -3.926820 
-43.636799 6.634740 -10.788400 
280.178986 28.411900 15.009600 
288.352997 20.837200 -5.820480 
47.258999 -26.504299 -6.144320 
-24.700199 31.591000 -0.139495 
278.286011 8.528400 22.880501 
309.864014 13.262600 -16.235600 
-68.254402 0.006922 -11.596200 
73.770203 53.544601 -4.873650 
22.641399 28.212299 -17.182501 
16.013500 -4.727230 -13.841300 
-71.094902 -64.377602 -0.552751 
22.641399 -53.015598 2.765060 
-80.563202 -6.620890 -13.708000 
280.178986 46.401600 11.382500 
69.036102 27.921700 21.637600 
258.402008 18.512199 6.488320 
21.694500 -50.175098 -12.769500 
17.547001 -17.982901 6.488320 
-104.234001 -36.919498 -4.167410 
239.466003 -11.971300 19.743999 
271.657990 -15.578900 -3.926820 
-27.540701 0.006922 -15.614500 
31.162800 -4.727230 14.424800 
169.399994 11.325500 -3.926820 
-91.925201 -17.035999 -5.432740 
-80.563202 32.089699 -0.139495 
-143.054001 15.156200 -15.745900 
-87.191002 37.880199 -7.962090 
5.598400 -25.557501 -3.648100 
82.291702 41.199402 -17.182501 
-79.616402 -22.716999 -4.290550 
-93.818901 -15.881900 -6.767310 
-55.945599 -25.557501 -3.853180 
103.122002 -16.893499 -3.926820 
-94.765701 19.450899 11.222500 
23.588200 -8.368160 -13.395100 
14.119900 -20.823400 7.669610 
-10.497700 -9.865510 -9.607810 
-140.214005 -10.251900 -2.033160 
82.291702 3.794250 20.458200 
104.069000 -27.268200 0.807336 
-32.274799 -14.195500 8.946190 
22.641399 -48.970798 -12.448300 
15.176700 -39.759998 -7.714140 
34.950199 0.006922 -17.880800 
-15.330100 -48.281502 -19.076099 
73.770203 1.900580 20.310801 
54.833599 -46.387798 -2.055700 
82.291702 -11.235200 11.222500 
-84.377998 -55.856098 -23.810301 
50.099499 14.209400 21.899500 
307.636993 -12.301900 -9.758220 
114.471001 -24.610701 4.594660 
-44.231701 -23.663900 4.594660 
314.265015 28.411900 -6.860600 
26.428699 45.935299 -8.660980 
-12.391400 19.890400 -16.104000 
57.674099 -42.747501 -7.714140 
25.730400 -17.982901 -4.873650 
62.408298 52.082600 7.020600 
73.770203 4.741080 -17.655800 
97.441002 -38.813099 4.345270 
-9.349190 16.103001 15.009800 
267.871002 -1.886740 -11.019600 
212.953995 -23.446501 9.328820 
-76.775902 0.953753 -11.981200 
203.485992 -15.142400 15.374400 
-41.743099 16.103001 -8.332280 
179.815002 1.900580 -9.836770 
88.919502 36.933300 18.107201 
15.066700 -38.813099 4.264070 
48.205799 46.401600 17.256399 
-91.538803 29.358700 11.222500 
176.975006 12.315700 -2.880980 
43.471600 41.181000 -15.288800 
-5.763570 -58.696602 7.667060 
-0.082586 34.594299 4.594660 
-93.640404 2.847410 -14.342000 
-29.735001 -41.653599 -2.033160 
92.015701 -12.301900 -9.607810 
81.344902 -29.663700 9.328820 
-77.722702 52.082600 6.025600 
-9.550900 26.858500 -9.607810 
-155.675995 -1.886740 12.169300 
283.019989 -10.408200 21.857300 
-159.639008 0.006922 10.275600 
7.492060 -67.218102 2.641190 
229.996994 -9.461390 -6.199310 
-88.137901 25.517099 -6.767310 
-48.521301 -53.962399 -12.448300 
-69.201202 40.447498 -2.979990 
-12.693000 -30.291700 0.807336 
-94.765701 -6.199380 12.169300 
34.950199 -11.649600 -3.926820 
-93.818901 -8.879910 11.222500 
-1.337440 31.252300 13.116100 
50.779900 -30.291700 1.754170 
-80.233101 34.092800 -3.926820 
41.148998 5.687910 -18.129299 
-80.563202 -18.562401 9.328820 
176.975006 -21.770201 -2.159890 
132.473999 10.902200 -8.660980 
-36.062199 -33.283798 2.701000 
-144.278000 -22.716999 -8.660980 
309.531006 -12.301900 -7.851030 
214.848007 -17.416500 14.063000 
114.484001 41.257301 -2.979990 
-33.221699 -5.674070 11.161800 
-97.606201 -19.876499 6.155600 
69.036102 -43.547298 0.611832 
146.141998 -16.089199 11.222500 
106.908997 -37.866299 3.270060 
27.854500 -17.035999 8.381980 
7.781600 36.933300 12.169300 
72.250702 -63.430801 -8.660980 
101.227997 -63.232498 6.488320 
165.613007 -9.461390 -10.866400 
123.380997 -3.780400 -12.448300 
298.169006 -5.674070 -13.222300 
-27.540701 -16.668400 7.435150 
-86.487000 -40.706799 -0.139495 
48.775398 -36.919498 -5.820480 
79.451202 -30.291700 9.987650 
304.319000 -9.461390 20.690800 
106.908997 -16.089199 -6.450880 
-77.294601 5.687910 13.116100 
12.226200 34.501301 16.903500 
25.481899 -7.096680 -14.342000 
129.632996 15.156200 -6.330700 
44.418499 -13.248700 9.081130 
158.985001 -12.301900 -9.938440 
82.291702 55.869900 -4.769020 
103.122002 39.633499 15.956600 
309.531006 40.338200 7.435150 
-20.912901 -40.706799 -1.243890 
275.445007 32.199200 -6.311090 
32.644600 -54.909302 -4.873650 
-83.905098 53.029499 1.754170 
99.334702 25.571400 22.292601 
247.039993 -3.394130 21.637600 
-83.403702 -36.919498 5.436860 
70.591698 -35.025799 4.594660 
317.105988 -7.337980 -0.139495 
-96.659302 -8.279240 11.222500 
-81.510002 -56.505600 -5.820480 
256.347992 -10.408200 -6.767310 
-122.623001 -23.663900 -2.033160 
312.372009 -13.316100 -0.139495 
101.227997 41.393200 15.956600 
-1.976250 20.837200 13.693700 
179.815002 7.581570 -6.845310 
-17.125500 -24.926901 -5.820480 
-117.489998 17.049900 -15.000000 
35.896999 -71.363503 2.701000 
321.839996 9.796720 -4.873650 
-47.424099 -37.527599 0.807336 
-98.553001 -14.195500 9.743230 
151.410004 -22.716999 -0.710316 
34.950199 -39.530899 -5.820480 
297.802002 20.837200 25.424900 
-144.001007 -8.165910 -5.820480 
35.186100 -28.398001 3.647830 
-36.411301 -10.408200 11.222500 
54.833599 12.688100 -23.810301 
301.010010 -7.567730 -13.572400 
-104.914001 -15.142400 -3.926820 
97.441002 17.996700 -17.035299 
128.686005 -21.770201 3.865520 
274.497986 11.368900 20.193600 
-94.199898 -23.663900 -6.767310 
60.514599 -20.823400 5.161230 
75.663902 -48.281502 15.468200 
-2.923080 -23.536699 4.594660 
-13.537900 -35.025799 -5.820480 
-2.602530 -26.504299 -4.873650 
-7.657230 -27.451200 -6.914920 
-52.158298 -20.823400 8.230020 
299.115997 30.305500 24.858500 
160.878998 -6.260810 -9.607810 
35.896999 42.813099 -9.607810 
-149.682007 -7.567730 -4.548940 
16.960400 6.487750 -20.022900 
261.243011 -15.347400 -2.979990 
36.843800 9.475230 19.518801 
-53.105099 -14.195500 8.956650 
-0.082586 6.057360 -20.022900 
18.854000 -4.907080 -14.342000 
66.195602 -18.929701 7.833960 
-90.031502 -3.780400 16.476601 
111.642998 -28.398001 8.055150 
124.899002 -16.089199 10.306400 
229.684006 6.634740 -6.767310 
-86.244202 -42.600498 -1.186590 
51.046299 -36.919498 -1.783390 
51.993099 -62.483898 4.935650 
84.185402 21.784000 22.835699 
283.967010 27.882200 15.009800 
-128.852005 -6.594600 -2.979990 
8.438890 14.209400 22.857000 
1.697230 -28.398001 4.594660 
168.453003 -10.408200 14.409400 
-1.976250 17.996700 -14.576200 
10.332600 -9.461390 -11.012500 
41.378101 18.943501 -20.022900 
316.625000 19.890400 8.381980 
300.062988 -9.461390 22.344299 
140.048004 -10.078800 15.009800 
-117.489998 37.880199 0.275032 
6.545230 -37.421398 -0.139495 
-144.001007 -2.833570 -7.376610 
-152.789001 2.847410 3.647830 
12.226200 -10.654600 -9.607810 
35.896999 35.039700 -18.026800 
-49.317799 -3.125120 12.169300 
83.238503 -23.663900 0.428638 
-14.285100 40.141602 -0.139495 
56.727299 -11.107200 -8.660980 
-116.542999 -26.504299 0.387231 
25.481899 21.784000 -16.648500 
34.003300 -21.135300 4.594660 
297.221985 34.092800 -11.989700 
61.948399 -58.696602 -1.086330 
217.688995 -19.674000 -2.033160 
70.929703 29.797199 20.690800 
158.037994 7.581570 15.453900 
-83.854599 -28.398001 -2.979990 
-68.254402 -19.876499 -4.361620 
-101.393997 26.730301 15.009800 
79.451202 22.730900 -21.424700 
-57.839298 2.847410 -10.256900 
235.677994 -20.026501 12.169300 
-54.998798 -30.291700 -3.596950 
69.036102 15.950500 -23.810301 
76.610703 4.741080 -16.719700 
42.524799 -23.663900 -6.358680 
58.620899 13.765600 -23.810301 
