15.873150 23.242590 -17.720739 
6.075897 -25.057880 2.002216 
27.357981 17.852440 8.081739 
2.355804 22.666491 23.488810 
13.870500 13.885130 -22.492090 
-14.519190 1.801399 0.493960 
16.137381 26.387180 7.839213 
27.265619 13.085080 -0.791193 
10.146570 -3.585408 18.132139 
-4.351717 -21.300800 6.645704 
-6.505391 0.173080 20.837521 
-13.101540 -19.822840 -11.327890 
23.514780 5.464335 -0.293257 
-7.873415 2.839329 24.440880 
-6.916358 12.385290 27.803490 
-27.284540 9.536695 13.355260 
-15.067310 22.019430 17.310659 
-10.671250 1.655895 8.075264 
13.901520 -2.191555 1.677745 
28.354490 16.832029 -5.939000 
8.551173 -24.775261 -7.620081 
23.447439 17.935760 -17.085730 
22.059700 -1.782405 18.368959 
19.687481 27.280149 -2.373238 
-4.177752 1.394508 10.742430 
-10.090120 -9.520336 8.362760 
-19.671419 -8.705330 -8.957752 
23.535179 13.805990 -16.273340 
-16.945169 -3.364799 -14.398960 
13.416830 -0.486526 0.410915 
16.013720 20.678391 21.350300 
-5.357098 1.083031 8.206511 
10.756290 21.616060 -22.337740 
3.637269 -21.088671 -18.629990 
12.063410 27.376040 -16.429609 
-16.987270 24.172340 9.489789 
27.300671 6.443405 8.195786 
-17.990431 2.811791 -2.055441 
-15.841380 16.932310 21.011980 
-15.788500 -5.434694 -19.323460 
5.779842 -0.109305 -19.205530 
24.123680 20.094860 14.158710 
17.321751 1.536555 24.211340 
17.230370 -6.038210 -7.179511 
1.961630 29.502159 -1.245359 
15.686560 -10.833770 -13.443900 
-5.557475 -16.501970 9.467589 
-19.459000 22.007540 12.691880 
22.213881 8.343179 21.269329 
17.748711 -10.963560 -3.378171 
25.798950 20.630270 -2.449043 
13.325960 -11.121140 -16.820471 
-1.520929 1.624851 -19.313379 
13.334990 0.412136 -9.842352 
4.720940 -20.062040 8.047629 
26.230440 10.197250 -2.090519 
10.816910 27.899969 -5.838384 
2.119700 3.478593 -16.408991 
8.381184 -3.337373 7.717280 
-11.597800 -3.247291 -24.930470 
-8.276103 28.076300 -4.520104 
9.952885 -16.751381 -18.173790 
-9.239189 1.006119 5.668654 
26.677700 9.985456 14.464430 
21.466520 -3.425478 17.050779 
4.490535 -17.379120 -20.743610 
21.444590 25.728460 -4.828628 
7.154510 23.747910 19.433741 
-2.776958 15.763750 -26.213249 
23.660629 23.218769 9.859568 
1.195995 -21.594271 -18.730619 
-6.726677 -12.303970 10.134830 
-16.966061 -12.418030 -4.734262 
18.418449 23.372440 -15.060180 
23.447001 21.895830 -14.586290 
13.522700 -7.242919 -16.532820 
18.311640 5.861979 -4.725327 
5.763158 2.452221 -16.531031 
-5.345548 -10.879700 -23.512329 
8.643936 -0.065806 -17.238720 
12.336150 -0.510365 12.674430 
-3.135033 11.707330 -24.909901 
-4.369700 23.219240 19.696581 
-8.007307 -23.489071 -13.470580 
-7.694634 20.160580 -24.910440 
10.156690 -23.506929 -8.421095 
12.143360 0.407054 -12.576240 
20.982389 17.435570 20.165770 
12.562000 7.487612 -13.464780 
12.001060 6.736825 -10.872680 
-20.859791 19.526840 13.944870 
25.948460 18.087420 12.879830 
-9.766709 5.425689 -16.106470 
-8.113349 0.215864 -20.405430 
19.765881 27.260410 0.099440 
-15.665470 24.599039 7.814825 
13.495560 -5.912407 19.762550 
-9.412781 9.891640 26.345289 
-27.652170 14.126980 -3.286709 
1.860166 0.317449 27.348820 
21.035259 3.055070 3.439687 
14.585990 28.230909 -10.851990 
-15.447010 -10.143120 -23.721910 
-20.549150 12.763860 -17.323721 
-18.348221 26.620630 -5.043833 
20.118099 1.687324 22.218969 
-27.250629 13.713840 2.887705 
3.194258 -22.989599 -16.552219 
18.452641 6.857777 24.254841 
-24.624809 14.180070 17.075300 
-11.922090 -13.424040 -23.969610 
-20.823231 23.898140 -12.215530 
28.049431 11.164670 4.363922 
9.519873 0.666991 4.388349 
-5.167019 28.496590 4.247443 
-16.608061 12.831290 23.491079 
-11.991150 -8.460564 -23.672430 
-13.147300 -17.446899 2.488661 
4.473901 28.080009 -19.953791 
11.592470 -22.505060 -0.415129 
12.078530 22.846701 -20.897829 
17.703011 7.074781 -8.385299 
-6.836602 -22.972469 -15.260090 
-12.871420 26.473200 -2.011070 
-6.848420 -25.420980 -4.973956 
-7.593225 5.170232 -16.187059 
21.799259 5.451823 -1.795760 
9.439272 -15.013450 -19.400379 
22.616350 22.456381 13.298600 
-9.730905 -3.583430 -23.757549 
-10.736340 27.911461 -11.235320 
3.075136 -18.620420 9.485023 
-3.412739 20.853201 -25.743870 
-4.404471 19.170990 25.931410 
-1.341755 27.140381 11.920920 
-24.656879 21.690460 -5.243834 
-15.657110 2.047635 6.071172 
-20.157230 24.478109 4.729654 
3.577100 1.422750 11.971290 
-3.129098 27.951309 -9.856102 
-9.295182 19.598221 23.578409 
6.221803 27.071590 -20.762560 
8.606055 29.036020 -10.982640 
-20.689671 22.368740 -14.749150 
1.956031 -2.171390 -24.955320 
-23.095711 3.854695 9.382169 
14.890030 11.895970 -20.665960 
16.221590 15.825420 24.437460 
11.099970 11.901310 -21.599951 
-9.464307 -17.249331 6.820860 
3.649199 -19.351530 -19.951241 
11.052870 28.247869 -1.314036 
-11.573040 -18.060909 4.182779 
5.837812 -8.082647 -21.957291 
13.359310 25.456881 10.507020 
7.314275 -12.296270 -21.292910 
-10.833480 -12.397430 7.578903 
20.640860 11.804220 -16.918631 
14.632310 -5.199609 18.011801 
-8.340841 1.366389 7.622061 
5.720007 -30.081400 -3.767812 
13.287970 -3.439928 24.773230 
26.366510 7.838778 14.851090 
-19.106880 18.178650 17.184589 
7.470338 -14.739130 -20.697800 
10.570410 2.884708 -9.606848 
28.401541 16.115561 -8.025928 
-4.351291 -19.299931 8.316170 
-16.880920 -2.301979 -17.904249 
13.797380 26.587570 5.647417 
3.590003 28.785280 5.670102 
-10.430350 20.745230 22.078859 
4.523806 29.310600 -13.819700 
18.628130 -1.510064 11.805380 
16.520100 -16.088449 -2.534300 
-14.235640 24.116159 9.398236 
8.489398 22.848749 -22.955509 
8.278239 24.919010 -21.751160 
-11.459660 -21.247490 -12.353910 
27.726250 8.850101 10.147810 
-5.814287 -9.880980 -26.251980 
4.824087 11.849930 29.455820 
4.531153 -1.335242 -20.642309 
8.293176 -10.370110 -21.007330 
18.410721 -3.866433 15.136030 
-3.101953 -23.644060 4.350612 
5.780433 28.686859 5.547622 
27.168440 7.419716 4.268241 
16.504919 -12.208320 -11.329440 
-11.830430 -7.354961 -19.120609 
-24.928129 16.909130 9.072823 
19.527731 13.060150 -20.023331 
20.882469 11.674650 22.190550 
-1.820299 -17.278799 -21.059931 
-0.668624 -0.793693 9.307592 
-5.627193 -25.272301 -11.330320 
24.786110 2.982676 6.127095 
6.004234 -2.040885 8.429775 
-0.659844 15.598430 28.663549 
-14.125510 -13.885010 -26.682381 
-8.191604 -7.164828 9.292109 
12.492120 27.580641 3.060054 
19.615391 8.581430 23.437840 
25.921370 3.188891 11.973460 
0.778454 -0.765273 -23.696880 
3.206557 28.745449 -11.872710 
15.665720 28.229290 -8.331472 
20.175760 15.067160 -20.691019 
-5.629010 5.438976 27.286510 
2.955798 6.706367 -17.523729 
-1.857408 20.506020 25.539789 
15.906720 -5.394154 0.624333 
-4.341832 25.910610 -22.770321 
0.711764 -25.336130 2.458982 
3.926084 0.809605 28.033260 
-5.619499 9.181494 -22.852209 
12.077830 0.159491 26.584431 
9.541017 -20.000019 5.521861 
8.933987 16.764210 27.262039 
14.772500 -0.834674 12.104830 
7.643758 -24.397730 -9.863465 
7.132748 18.032700 27.142269 
8.008026 2.680244 -14.371940 
17.769859 -0.426656 23.347919 
3.401922 -14.821650 -22.089020 
-25.416050 6.691015 4.369504 
19.869169 -3.458331 20.262640 
15.053090 -6.031508 22.298330 
-13.167090 23.047260 -21.123529 
1.739755 1.625757 10.665660 
-7.835734 -24.956430 -8.471262 
13.305790 -18.250891 -13.142540 
-9.279380 2.320112 22.846581 
23.510630 21.999189 -7.579501 
-17.039909 -10.765400 -9.635757 
17.156321 27.321051 -9.629501 
10.290360 4.164743 -6.140965 
5.936508 -26.077311 -7.055817 
-18.302031 25.679701 0.380487 
15.987660 28.295460 -4.274457 
16.378790 5.952672 -5.808941 
-13.339280 -19.956989 -1.748729 
4.314190 -25.137199 -11.506710 
-18.316481 25.164551 3.283746 
-6.830447 17.972900 25.867250 
26.014660 16.233311 14.212760 
-16.426260 17.810270 -21.079470 
-15.762050 -4.544150 -0.741207 
2.998219 -0.930375 -22.310080 
11.619640 -3.575398 -17.188049 
-19.218880 -6.579526 -8.830447 
-9.094577 24.437611 -22.296810 
10.897230 -2.198100 15.727240 
-2.774037 23.679411 18.168381 
24.021219 23.407631 -3.256178 
15.305700 -14.879560 -12.502720 
12.282180 8.166149 -15.693800 
13.427910 -15.549960 4.888992 
0.821156 -19.222349 9.296375 
-10.691730 -14.440350 -18.544661 
-11.206210 -4.644038 6.402048 
14.770740 19.302500 -22.365549 
16.508060 -6.260184 -10.929740 
22.961769 6.681890 -3.234707 
-10.056380 27.203970 -5.806002 
-1.835119 26.288309 -22.844200 
0.752261 -9.068597 11.693860 
5.686043 -0.438748 27.502199 
17.808630 -11.335520 -5.851584 
12.299210 1.149899 -0.488946 
27.213739 16.482479 -0.759703 
13.934760 -17.123390 3.090680 
-15.760590 2.245141 11.647160 
16.894030 18.711399 -22.753189 
26.242331 3.700998 9.869792 
-16.516809 7.092657 -16.004721 
-14.435060 25.413231 3.848871 
17.139950 3.922062 24.852270 
-18.874720 11.943380 -18.449671 
16.418221 4.612260 -0.698777 
27.414129 14.303190 -4.009573 
26.762091 6.609390 13.013370 
-15.282200 27.083071 -7.281540 
-13.237150 -17.272760 -13.406470 
21.294830 9.300220 -9.476231 
19.141371 4.163264 23.487989 
27.449579 18.764360 -6.419522 
0.821875 -1.948469 24.173540 
26.441179 4.422093 7.792130 
9.584319 -5.171110 21.571100 
-17.204639 24.451620 -16.507959 
-9.047726 0.430662 -17.654320 
25.999180 21.586790 4.169702 
0.734594 -26.929359 -4.728854 
14.655870 -13.820420 -14.307440 
18.160509 15.475510 23.385349 
-3.268951 2.922939 -17.405279 
3.231190 7.734468 29.834419 
20.978609 -1.990506 12.502900 
11.083810 -15.992230 7.071715 
17.283621 -6.057592 -4.844777 
0.325708 23.300200 -24.945181 
-4.335826 27.734381 -20.433411 
-27.075069 16.907089 0.531354 
-11.914160 26.598070 -4.604084 
9.955893 27.592091 7.555767 
4.545675 6.463221 -15.172630 
17.121189 -13.246130 -8.609674 
-3.775886 26.411800 13.134760 
4.552966 3.602044 -15.134150 
-10.366300 -7.466893 -22.429211 
17.152700 -11.217660 -0.628353 
6.570330 12.238300 -23.795050 
11.611860 2.369309 -6.492681 
23.477791 1.704064 18.208540 
-18.357780 16.871639 18.776159 
-14.817060 -8.330398 3.197954 
20.998289 6.439732 22.282681 
11.498640 4.232186 1.631697 
-1.968450 23.186661 -24.946920 
-11.116840 27.342010 -1.066531 
-11.885410 -0.877258 -26.496901 
-4.883480 12.182350 28.612591 
10.318310 -9.665660 -19.769320 
24.755871 8.975507 -7.176351 
16.243971 -11.818120 1.695676 
-6.753436 27.553350 7.794585 
11.809840 9.254293 -18.035009 
-26.038651 19.430771 0.767954 
-1.492955 22.145121 23.962290 
-13.252620 -14.755250 4.304339 
19.959110 18.335320 -21.071550 
12.168120 10.865610 -20.004910 
-21.740650 21.859720 9.447749 
8.320431 28.568821 4.384291 
26.509569 20.700609 2.108611 
-26.379669 9.007401 -3.245099 
-14.456940 -19.339899 -5.851046 
2.163243 -1.357066 25.959320 
26.804489 12.257660 -4.547012 
18.480049 2.004224 5.972225 
-10.625050 -10.349260 -28.693211 
-2.250167 -11.076920 11.532460 
14.725030 -18.073469 0.495784 
-6.621593 -19.884121 6.838778 
2.622640 -24.468910 -14.207300 
27.841660 11.001670 10.571480 
-6.914048 -22.208580 4.271741 
4.484238 -12.394780 11.212700 
8.833615 6.499919 -11.644780 
-1.812864 13.344770 -25.694139 
-17.521870 10.241010 -18.549950 
-0.376491 2.902529 -17.727640 
-24.603239 5.029642 14.544640 
-0.076621 -22.900070 -17.413940 
0.714690 9.704066 -23.439859 
24.659559 15.450870 -15.392770 
-11.838620 6.685726 23.932779 
26.718691 19.836920 7.423327 
-21.761539 15.979660 15.853400 
-0.576080 -14.763750 -21.972561 
24.651979 23.059910 6.744748 
23.333799 18.145269 17.123501 
24.745710 11.138340 18.070299 
10.722750 -21.177349 -12.951080 
21.004560 3.967218 21.966650 
16.565571 -4.720879 16.651991 
2.119469 -8.477693 -22.658819 
27.966280 13.704400 -6.066908 
-5.591764 -9.349269 -28.821819 
2.755607 10.489140 -23.737829 
6.417341 28.231449 -18.920891 
21.300230 15.393600 20.945030 
-14.538500 -18.748249 -3.239201 
-11.824560 -9.904019 -26.927420 
4.479852 29.430901 -0.896193 
-22.679359 5.949010 -7.095087 
12.565360 -4.728186 5.502691 
2.181803 28.225439 -20.168859 
14.933610 -3.410318 15.453710 
5.728015 -6.302818 10.370570 
-16.459681 27.126520 -10.924940 
4.461707 28.084789 -9.936373 
-15.808520 7.549971 24.539610 
7.594308 -29.097950 -3.264887 
2.471569 8.003327 -21.065950 
15.661170 -3.654773 -0.742784 
3.238169 -11.802340 -22.733749 
-3.314862 1.558894 26.342661 
7.272384 -17.137140 -19.784100 
-22.595249 4.038496 7.220387 
9.543948 8.686121 28.719589 
27.726620 12.297280 1.503923 
-5.709486 0.299133 22.873831 
-24.455690 21.419901 -7.468231 
20.535770 -3.372390 14.636040 
7.028852 20.473921 -24.544020 
3.267434 24.954380 16.669430 
-16.093830 25.734600 0.253624 
12.174950 -17.420570 -15.489230 
13.366760 1.007556 -4.970971 
8.278517 -25.204241 0.331924 
-23.861561 20.902691 6.641396 
-15.194860 -1.725977 -7.220946 
17.851480 -9.347760 -4.894094 
3.350565 5.223985 29.520420 
8.799861 8.294332 -18.532089 
3.197807 -27.302879 -4.415627 
0.867585 -17.413191 -21.213280 
-12.764800 -0.461239 -13.463560 
-15.013130 -2.285612 -25.040319 
-6.402773 3.255997 -16.075720 
13.727320 6.017831 -7.066474 
-4.403796 -26.256781 -6.519481 
-5.135918 -8.517558 10.777050 
1.389577 -26.306330 0.619509 
7.019461 10.239800 29.272440 
3.548887 -26.291920 1.085019 
4.518583 -15.254130 10.716500 
-9.457520 4.342983 24.340160 
-10.195940 -8.537677 -26.265751 
-15.745870 20.051550 -20.962151 
6.895401 14.285700 28.596710 
12.118230 10.629850 27.653000 
25.002670 1.979674 14.449130 
8.416059 -26.207300 -5.678846 
-13.763370 -12.346340 -16.220869 
5.443893 28.236469 7.958120 
-18.286650 3.859771 14.168730 
-17.739210 13.251340 -19.822460 
-12.508760 27.548639 -9.719981 
9.299534 1.098512 -15.422740 
23.658449 9.778442 -9.644445 
-13.649080 -15.256650 -14.116770 
5.654125 24.350809 -23.359770 
24.722361 7.849105 -2.606984 
-17.119270 -3.758782 -22.414450 
5.725063 29.259180 -15.868330 
-0.478131 7.866789 29.654831 
14.874920 -10.890260 4.235151 
1.501217 2.142349 -18.521429 
-12.326230 20.648520 20.994400 
16.053049 20.863211 -21.549891 
4.555770 29.299299 -4.540792 
17.298161 23.372030 17.644569 
18.391171 25.968000 -10.834920 
-5.489599 28.280239 -7.417207 
-14.694720 -3.033186 0.543512 
24.544010 7.540477 18.401751 
4.623353 -5.978918 -22.032391 
21.874750 13.259280 21.023550 
-14.129850 16.893000 22.353540 
-11.716190 -15.434320 5.792740 
-8.188761 28.292231 0.067864 
-0.845101 28.265091 -9.700037 
7.280218 -0.890288 7.068294 
10.803050 28.280411 1.689572 
8.479307 -4.865676 23.530880 
-19.524590 6.753003 22.573820 
-14.862590 -14.541710 1.842865 
-16.081961 2.821453 14.676170 
14.460340 -19.883181 -6.605826 
-17.032669 26.014090 -1.694654 
8.391277 -12.928900 9.743989 
14.758820 0.336908 25.394760 
23.356600 -0.199275 17.045271 
-16.855850 -13.626690 -24.151100 
-19.124599 -11.785020 -19.846350 
-2.980078 7.765549 -21.477650 
0.732474 17.881620 -26.362061 
18.964899 10.528420 -13.595700 
0.835898 15.020320 -26.065029 
14.669700 -4.269608 2.297182 
-16.551920 -6.689143 -2.035813 
8.273662 20.649670 24.829880 
-1.792682 -2.604328 10.102150 
10.854290 5.870183 -7.553479 
23.919050 10.828680 -12.234950 
-26.658550 17.036699 2.713410 
9.530222 -12.136670 -20.094431 
-5.019504 23.939230 -24.063980 
-5.673732 1.440034 24.736389 
7.126028 -2.211216 -19.851460 
-10.767760 -2.147013 5.260940 
-11.435400 -22.647619 -8.674448 
9.253045 28.617029 -8.800103 
21.741650 26.197060 0.560350 
9.675552 21.735929 23.481060 
-15.819030 -14.933840 -1.061514 
-19.955271 20.226509 -17.296089 
-18.261070 4.114329 -7.419552 
7.902726 -8.146996 -21.167761 
18.437679 10.465180 24.173260 
-15.790510 2.569004 21.756769 
-5.325837 -15.725270 -20.800541 
-0.172713 6.182778 -17.470610 
8.323288 29.023750 -15.174030 
-24.712980 7.384766 -5.913066 
22.967211 -1.336036 13.207630 
-5.508898 -24.604691 -13.403270 
-15.471020 14.657990 22.269510 
7.214433 18.097919 -24.782150 
22.433241 20.672350 15.899890 
-16.512640 -13.324640 -2.472776 
-18.244499 -4.842766 -13.452730 
-18.050591 8.547355 -16.718790 
-13.308350 -20.902149 -7.070379 
14.623510 -9.760419 -15.309790 
-18.338930 25.615021 -12.941890 
21.028460 1.910280 5.910116 
7.518934 -21.225321 5.729234 
3.394840 21.852421 -25.238110 
5.818591 7.116399 -17.317020 
-1.611100 27.861820 9.455528 
13.066100 -2.204716 14.651780 
-7.768854 -10.228730 9.787544 
-16.386681 11.434390 -20.019039 
6.238110 -13.583960 10.554550 
7.849410 1.946084 5.382730 
-2.863982 29.178160 0.576789 
8.698007 28.759581 2.219091 
16.259251 1.471449 7.736934 
13.549650 0.314967 -2.088078 
3.222762 -5.398225 -23.616430 
0.584548 -11.071860 -22.613569 
11.054580 15.611350 -22.899170 
-14.880650 -12.095220 -13.438320 
14.605980 -0.723444 -7.839481 
-3.993227 -0.530405 18.380791 
-3.890374 14.120180 28.556431 
-17.650810 15.495400 -20.310490 
-9.396376 -3.457179 7.293229 
22.401140 0.636437 8.508382 
-7.451808 21.926901 22.272449 
13.630300 -13.436050 5.486521 
-6.919939 19.769779 24.589260 
15.315300 -16.136089 1.387531 
4.569335 29.300449 1.466260 
-9.634358 -23.907410 -9.210546 
-21.929449 8.128160 20.965290 
-20.243311 10.244410 -16.299259 
3.651593 -26.658541 -6.482633 
12.836930 -9.713303 6.679842 
-26.786760 15.416850 4.192108 
-23.017521 13.141090 19.763020 
-28.381500 9.306152 8.212531 
11.959190 -6.063034 22.588631 
-15.503820 -16.445181 -9.740404 
13.541600 23.722269 -19.242260 
14.686810 14.738940 25.603399 
-0.368873 -6.471219 -23.645760 
0.734929 -13.640320 11.535270 
16.955730 21.903120 19.514240 
-12.903530 6.738667 -17.474720 
26.184019 19.209539 -12.268310 
-0.300982 22.817020 22.183010 
-14.525820 -1.095103 -19.430361 
27.254850 18.908890 -9.901086 
3.621699 29.145729 -17.487360 
-0.105458 -20.157419 -19.878031 
7.033474 27.392370 10.379020 
-24.329010 3.968234 11.974650 
21.506359 25.260870 8.435994 
-5.618761 -0.008025 -24.953140 
15.496060 -18.546989 -5.022349 
4.113227 -28.808020 -1.951818 
-11.855020 1.539853 16.679319 
-1.708790 28.296940 -19.941370 
14.656120 8.824187 -14.851010 
-19.057449 2.731014 1.843029 
17.226999 -14.173070 -6.528899 
-5.927151 -5.954632 -26.268780 
27.782419 12.041660 -8.397695 
0.926520 -16.182430 10.927870 
15.647300 -2.193231 -6.408682 
-7.572069 0.458809 17.090410 
1.164180 16.884390 28.263590 
12.371120 23.931730 19.512550 
18.368191 4.960021 -1.872048 
-0.997428 29.224239 1.792964 
-4.436333 -4.834139 -25.092819 
-14.172670 1.879590 4.418443 
-11.902860 1.471073 13.270360 
13.325480 24.449780 17.402790 
-11.044630 -22.468130 -2.015010 
6.029347 5.436904 -12.315370 
-0.505284 28.345461 7.638836 
17.177071 -6.795858 -2.240772 
4.501878 2.011815 9.203488 
-8.037236 -10.836900 -29.735710 
-1.843652 9.676489 -23.588640 
0.795692 11.888940 29.642620 
13.337940 -1.328504 25.579010 
-15.464280 2.932320 18.233110 
-15.428260 -2.177372 -15.865290 
-8.208714 -24.631960 -3.338732 
14.773400 -0.935324 -3.805279 
-15.965370 -11.889780 -11.182790 
25.488960 6.623836 16.498610 
11.302920 28.686340 -7.828351 
-12.771910 -12.177630 5.747669 
8.375249 -5.253488 8.816804 
11.409540 1.171453 1.531118 
-8.063828 -23.065390 1.849561 
-12.930230 1.699290 10.670120 
-1.564345 -8.444007 11.522890 
16.004089 -6.286290 19.506741 
-16.358521 -11.862870 -0.726885 
-14.499460 7.907774 -18.394440 
13.368270 27.344709 1.019719 
16.725679 28.048370 -2.089890 
-7.932615 -16.081791 -19.589661 
-5.632881 15.404870 27.638720 
16.643749 17.851240 23.140440 
-22.105339 13.238700 -15.862350 
26.919081 16.313440 -3.263995 
7.427071 -6.025321 -21.074459 
-8.222142 1.946718 -16.226919 
25.769730 21.735941 0.041050 
-22.249559 21.344730 -13.437520 
-15.752600 2.482946 -3.350925 
9.602652 -7.197531 -20.098391 
-11.868180 21.833651 -22.537880 
13.883550 9.531105 26.963989 
9.671611 -21.442070 3.842285 
26.296690 20.435200 -8.459375 
9.546506 24.881371 14.573190 
5.819467 10.372630 -22.714769 
-7.839741 27.949240 -11.347260 
-7.973660 28.476219 -13.453940 
26.040171 10.140100 -4.268923 
6.922008 -8.138153 10.385080 
6.543682 -22.301020 -15.483200 
-17.993320 3.032533 11.656340 
-21.146940 14.969100 19.384680 
14.605890 17.358910 24.643980 
-10.706470 0.061459 -24.306311 
14.000450 -19.910839 -8.736037 
-19.233721 6.697647 -13.170000 
-1.084894 -12.491890 -22.357269 
-8.907095 25.625340 12.039780 
13.151780 1.214799 9.490411 
-10.786180 1.476852 11.260740 
9.001455 -0.880325 14.636350 
5.511272 28.905861 -11.679090 
-11.941370 -19.549709 -13.624340 
16.762110 -9.999873 -11.231290 
0.660719 29.026939 -7.169350 
26.251190 18.457840 -3.364926 
7.819836 -23.531309 -11.894150 
23.539410 5.986211 19.601900 
27.210051 8.695945 2.465042 
-16.926979 -7.265947 -14.889200 
2.320739 26.975430 -21.990160 
-9.069207 -24.425079 -6.019579 
-14.519830 3.074525 -7.639947 
-5.291658 -25.001030 0.354953 
7.481688 6.659647 -13.418420 
20.370331 24.041981 13.302110 
-5.734585 -19.990520 -18.549311 
1.580927 5.998717 -15.987940 
-8.499382 1.035397 21.223040 
-12.327060 -19.991430 0.669392 
2.451561 29.180910 3.103462 
1.448825 9.383290 29.878969 
-11.987170 23.205191 16.692301 
16.579380 -4.023402 -5.281807 
-13.248790 16.531349 -23.110130 
-18.400591 2.869878 9.498523 
13.368410 -4.811586 -15.912730 
19.683140 25.679319 -9.038125 
26.388189 15.572290 -12.790450 
-8.712590 -23.990561 -11.246600 
16.481661 13.688740 24.856890 
-17.968269 -8.529990 -17.456120 
21.774891 8.139659 -7.096729 
-10.586190 16.749359 24.693979 
-25.617350 4.394238 9.466466 
-3.163663 16.148550 28.074421 
16.632460 -5.016708 -9.083598 
-13.174240 5.106963 -13.914930 
-16.173880 2.227932 9.481830 
24.821711 23.260530 2.200143 
15.790910 -9.444529 2.691143 
12.144760 3.239423 5.606156 
-10.236360 1.372208 19.566589 
4.530460 -21.688829 6.594912 
7.079127 28.875299 -5.166327 
-13.980810 1.759301 -5.978489 
26.619961 19.383699 -0.734622 
-18.355520 20.138029 -18.875780 
8.360027 12.624420 28.596460 
-4.704116 9.207860 28.693190 
4.476264 26.115629 -22.379900 
13.025940 25.528431 -18.026211 
8.537879 -22.314240 -13.558290 
-2.918050 -5.953685 10.905410 
-19.527700 4.848936 21.467680 
-1.519615 0.109844 -21.095150 
-5.673356 -25.723600 -8.809322 
5.749304 0.662460 7.051521 
-24.473749 5.882749 -1.281808 
-13.436320 3.149239 -9.537855 
11.708300 -19.277069 -14.299550 
-24.676941 21.426510 1.856150 
-19.022051 -10.122930 -10.605360 
-22.654190 18.904970 -14.721790 
17.219530 -7.318166 -9.142424 
-12.271520 1.701957 5.619277 
9.583382 26.952780 -19.020920 
-10.205700 7.503081 -19.851330 
9.209919 24.010960 18.575001 
-9.416922 0.905371 16.011860 
-12.486050 7.853187 -19.376650 
-11.667540 15.086570 -23.776871 
-10.683560 4.548656 -14.029590 
15.456920 16.206720 -23.197001 
15.874620 27.636780 0.184498 
6.706180 -19.505840 -18.526199 
0.701546 -2.828001 10.248890 
4.757091 25.725460 15.072080 
5.796830 22.378000 -24.375031 
11.830800 24.950541 14.585120 
-17.078501 -6.192223 -5.814117 
-14.502220 -6.380812 -17.318239 
-9.336306 -14.218640 -21.094761 
0.828672 27.201590 12.075380 
8.443054 3.021380 28.456261 
-5.342571 15.857530 -25.840250 
-22.149670 10.888910 21.237700 
-13.070760 -0.898547 -17.705919 
18.644779 11.630440 -17.977989 
22.251539 11.507350 -14.948450 
2.339768 25.991899 14.949130 
-26.619961 14.053180 -8.399218 
-26.196140 19.451010 -1.511560 
-27.578720 15.150360 -0.730364 
16.350281 27.180731 -11.659170 
-24.511000 12.102770 18.526400 
0.672316 21.237949 -25.805679 
21.019850 25.303579 -7.113570 
-23.042950 5.032475 17.172470 
-4.854940 -4.404193 10.032600 
18.894680 25.426041 11.999960 
24.855370 1.152569 12.039920 
-8.652941 -15.465900 8.222346 
-18.190390 18.056860 -19.717421 
-22.121429 3.851832 11.351650 
8.858913 18.966610 26.076180 
-20.025780 15.875740 17.742130 
9.705831 29.033279 -13.466660 
10.838630 -22.102871 1.626358 
12.135230 19.443291 -22.178270 
-25.822359 18.542130 4.058605 
-13.146380 -5.601255 -19.124849 
-6.500912 27.539619 -19.888451 
27.181690 8.760596 12.738050 
-1.735053 -20.018351 8.481956 
-13.797790 -9.915132 4.812408 
12.455480 5.023606 -1.975442 
-20.498529 6.263174 -10.992240 
11.650780 -11.329710 -18.528271 
-17.578239 -4.706629 -10.686830 
5.789587 -28.699980 -5.638484 
-14.461000 -18.671070 -9.987632 
14.896660 -19.270830 -2.631966 
16.755030 -9.416211 0.545603 
-23.459890 23.388680 -1.988168 
-3.883188 -11.914840 -22.107981 
-14.513660 11.971530 -21.401699 
16.493469 -16.084160 -7.303774 
-18.338739 20.760670 15.827600 
-4.364167 5.662799 -17.263680 
-14.544760 3.957330 23.479139 
10.767260 4.150890 -3.275965 
-16.978500 19.421200 18.469259 
22.540871 25.220831 5.590697 
23.561260 9.313661 19.792839 
0.011118 6.884565 -19.578951 
10.689110 28.026180 4.394864 
-23.575840 18.125771 10.844680 
9.692669 14.289130 27.814480 
-23.342831 21.424330 -11.063630 
-3.231977 -3.031469 -24.722361 
11.782190 13.155130 27.319941 
-1.752149 -24.249580 -15.442870 
-14.424730 12.710840 23.503880 
9.495525 5.460580 28.588400 
-18.436970 -9.935400 -13.500000 
-9.443665 6.378212 25.348301 
26.405910 18.796761 10.849760 
3.292327 -25.038620 2.871636 
-0.533245 24.664721 17.169849 
-9.638874 -2.839386 -25.801519 
-4.493494 28.922319 -14.661390 
-21.181620 5.620678 -8.674026 
-1.810560 29.122400 -16.954639 
19.964560 7.953877 -8.325142 
3.192265 15.755490 -25.860180 
14.686270 9.992011 -16.811501 
-4.347008 -6.557494 -28.455730 
-2.945108 -8.069291 -24.941219 
-5.533998 -23.749340 2.919417 
10.109290 9.673880 -19.813339 
-11.852710 -9.759480 6.937559 
-10.143920 -6.023232 -19.462879 
20.320850 23.159710 -12.563910 
17.136829 -2.582597 13.622240 
12.100930 28.633671 -12.805630 
13.068070 3.873115 3.120237 
24.769690 13.100730 -14.183160 
-0.538928 7.962933 -21.625931 
15.875420 -7.371322 1.988719 
-11.332380 -19.761721 2.677078 
10.801410 -14.010700 8.017380 
17.185810 26.794830 5.603221 
-20.862841 3.476585 16.490141 
6.684047 28.490450 -9.605628 
14.963350 -14.692260 3.087730 
0.852723 28.583050 -12.163700 
-6.796600 26.719179 10.736540 
-21.682190 24.430780 -8.469860 
2.680022 -2.850355 22.190241 
-25.638081 9.355115 -7.188353 
26.544559 12.359040 14.561680 
-22.150640 9.784397 -13.893900 
7.307433 -11.096760 10.415630 
-1.748146 -4.662075 -26.191851 
7.238796 6.976838 -15.576660 
11.943660 -21.148741 -10.977890 
-17.960711 -5.961422 -17.417490 
14.612800 -17.542330 -11.495130 
-9.562386 -12.310060 -26.133200 
20.731701 10.585100 -12.172500 
9.885015 -2.423034 26.205059 
7.678718 -15.572700 9.465876 
12.245280 -12.295440 7.165338 
-0.530850 1.377642 10.027380 
11.338540 -18.665371 5.068109 
-27.175480 13.108260 7.756824 
-3.006880 -0.865623 -25.066380 
1.641397 0.296140 14.580900 
-2.814019 -20.934271 -18.945080 
-10.625870 25.770611 -20.235359 
-27.349951 16.666470 -2.302382 
-26.000460 15.365440 -10.067400 
13.482620 27.236500 -1.182946 
6.888680 9.250265 -21.060270 
-25.739130 12.239230 16.722851 
15.293990 -18.134951 -8.425329 
3.312045 -4.078426 10.360270 
-9.421646 22.902460 19.005859 
-13.725130 -10.817640 -26.342381 
1.810816 28.419189 7.659861 
-5.479223 -4.774809 -23.066660 
-12.711800 -5.918392 5.381291 
-0.281172 0.234151 26.572479 
23.490179 12.103430 19.564251 
7.052552 2.562017 7.801383 
-1.640079 -26.254999 -0.764117 
-7.858130 27.967600 4.359540 
-1.869648 28.436480 -12.183350 
20.977110 24.042980 -9.676858 
-14.551680 -13.582910 -24.095551 
19.759380 6.830591 -6.307923 
4.100309 1.614765 -18.342480 
-1.465460 -16.164579 10.786590 
25.543619 19.583540 -5.256424 
20.131290 -4.628235 18.368839 
15.216380 26.926121 -13.887260 
-7.723826 14.227500 -24.996260 
-0.558990 23.365360 20.056210 
-16.993750 -10.585890 -3.395812 
-5.105100 2.886907 26.317390 
-16.418180 -10.428720 -12.797830 
5.769044 -27.991739 -0.724800 
-25.901649 17.541220 -9.419658 
-1.448670 -1.498243 22.210810 
-14.098960 -8.547410 -21.438629 
15.233220 11.127110 -18.613420 
17.216900 22.027710 -20.098310 
-20.591650 25.048710 1.784200 
-15.880460 -3.441335 -12.039200 
8.761828 28.872231 -0.699288 
6.501349 -2.142921 26.409651 
-4.360204 22.661610 21.821569 
15.350560 -6.941119 -13.839260 
-19.540331 -10.212590 -17.503189 
-7.374691 -2.362087 8.018973 
-3.046326 4.963666 28.297609 
-0.697745 29.407970 -0.404250 
20.115259 0.014592 9.313222 
5.016668 28.820601 -7.125552 
5.860109 7.926515 -19.486700 
16.104330 -14.022440 1.143751 
15.613740 8.400912 26.088421 
13.528790 6.486587 -9.219580 
-8.578624 -8.909729 -28.790001 
-13.527670 2.453352 19.358669 
19.422819 21.122749 -20.142019 
9.547759 -8.326326 9.138262 
15.766080 5.286088 -3.314336 
-8.457655 -7.255656 -25.778509 
3.014547 27.991369 9.459227 
-10.755650 28.314510 -13.453720 
-19.700821 16.825279 -18.622089 
9.637453 7.660931 -16.529869 
-3.684193 0.315462 -21.052650 
-6.760566 0.642028 14.551770 
4.635070 22.975771 22.594931 
-3.136855 -24.837500 2.295272 
-9.701481 1.096642 13.822340 
-6.335349 18.594311 -25.608681 
-15.545220 18.916180 20.079849 
-13.214530 2.576245 22.237141 
-17.358440 -8.419508 -5.814344 
15.964490 -16.049810 -9.752315 
10.845270 -4.083081 25.022261 
27.800070 15.739900 8.610589 
-17.074341 2.236604 4.267032 
-26.181709 11.672150 -8.371245 
18.030430 19.744841 20.905581 
-6.914251 -7.319083 -28.041439 
12.186210 2.352814 7.680203 
0.133505 4.297785 -15.988430 
-4.367674 20.942200 24.543940 
13.785430 -8.032955 5.436102 
-24.011600 7.517137 -8.000032 
22.311131 21.787439 -16.515511 
5.630834 15.240490 -25.140381 
18.494539 12.629680 23.811850 
-11.994610 25.980360 7.442718 
-15.789060 -11.124370 1.313386 
-20.863810 23.210550 7.918822 
3.640455 -26.157181 -8.766741 
-14.038700 -7.839182 -18.868250 
-12.008480 26.883060 2.105709 
24.799669 1.594806 9.371181 
-27.444571 11.692230 0.350524 
19.785259 13.978470 22.633249 
12.073180 19.589781 24.359810 
-25.973419 7.811677 -1.275494 
-13.218330 -2.730471 2.928435 
-11.963190 19.661909 -23.343170 
-9.406774 15.709880 -24.717920 
-20.084681 -6.813917 -10.916080 
-3.012987 0.657965 13.848350 
-11.348700 14.372330 25.094290 
-10.763270 27.229679 -8.447572 
-23.291821 4.562164 4.344954 
-7.607471 -6.338506 -23.974331 
-15.827180 -16.537350 -5.910548 
18.807421 21.824310 18.273041 
7.317782 22.289749 23.506399 
-14.399620 -4.744721 -21.135189 
-11.895330 -0.113184 -22.387190 
-6.996947 -14.111210 -21.086611 
-12.715280 21.946671 19.161659 
-16.020720 10.434590 24.703859 
17.146099 -13.618400 -1.913384 
9.542908 -5.075023 -19.623590 
-21.589109 3.665329 1.632706 
4.279937 -1.935314 26.122801 
0.955899 29.130400 -17.698441 
21.218941 23.146860 -14.720290 
-15.219510 -2.590143 -1.590278 
-12.611210 -21.341129 -3.319144 
8.316140 -23.822189 2.038332 
-16.713831 -1.620372 -22.769510 
-23.317101 16.779940 -14.560920 
-15.779750 -8.584816 -19.966961 
-2.714801 6.325364 -18.595381 
-8.303026 23.496000 17.231541 
-15.816690 15.757520 -21.570620 
-0.497321 -0.473994 16.609579 
-9.874613 -13.462330 -23.221121 
-23.415590 5.621645 -4.411444 
14.605490 -1.362080 -9.992815 
-11.954260 -13.388470 -26.223890 
-0.588045 5.656739 29.236349 
14.626480 4.308492 0.923627 
-23.270121 20.182859 9.292386 
10.441620 1.662802 9.795616 
-17.731079 4.646775 22.830120 
-1.489295 17.526581 27.803110 
-25.673571 4.839440 6.879943 
-7.705075 -4.189490 -22.580860 
-21.870781 7.914887 -12.137160 
-6.874794 28.430679 2.357176 
28.064760 10.293550 8.471395 
22.663200 16.483810 19.021351 
-8.207165 -6.061933 -21.579960 
14.592000 -1.476502 -1.198427 
14.621210 -6.593549 3.853524 
25.846189 5.615908 3.109994 
6.929131 -1.084015 15.729740 
-20.524300 3.973544 13.462890 
-13.271740 -0.891842 0.760903 
-14.453890 -0.505642 -3.867447 
-19.652571 14.498170 20.913811 
-5.257357 7.522781 -21.022011 
25.419439 4.105269 15.397670 
11.621320 22.049721 22.452930 
15.749740 5.367457 25.893379 
-17.356720 14.623600 21.106270 
-27.263849 10.911310 -1.982572 
11.615580 27.810360 -3.700066 
-3.098761 25.540150 15.240380 
10.821450 3.859864 -0.804443 
-4.948969 0.977734 12.827450 
25.555981 9.485549 16.861120 
-15.576640 -16.569010 -2.733881 
-18.705999 -6.045552 -15.262230 
-27.367620 16.004440 -4.551444 
-0.543908 0.426834 14.412300 
-13.654820 8.293734 24.322611 
-4.481827 1.674767 -18.708200 
-15.950990 -3.533796 -9.829050 
8.324846 -26.854179 -1.377816 
24.195999 3.764323 17.924810 
22.235849 19.368139 -18.251261 
-21.468941 3.622520 5.357468 
-4.481731 -0.585958 20.603809 
19.891590 19.295759 19.782820 
4.872767 17.280149 -25.598949 
2.758385 29.252970 -5.801486 
7.009033 29.141491 0.686942 
-8.587210 26.676130 -20.185961 
-24.746401 9.177554 -9.213476 
-3.844697 7.192955 28.671709 
-25.124050 21.140499 -0.307439 
12.130290 17.583481 25.731079 
-0.494404 28.949471 -13.897990 
-18.068150 11.307310 24.026091 
-28.105680 12.307030 10.120670 
2.355638 -2.090758 19.628071 
-9.434940 -16.762960 -18.168171 
13.920150 25.131611 13.940390 
-19.230440 -4.275549 -17.984699 
-22.309361 24.462410 -3.713286 
-18.249809 -12.779000 -21.715561 
5.879463 23.829781 17.558470 
-18.312010 24.360350 7.740095 
-20.022369 25.482250 -9.582003 
3.590705 -0.327699 15.500520 
-0.145214 -26.086060 -10.891610 
14.966440 27.013990 2.603819 
18.368950 0.904904 8.110263 
7.041364 -19.813780 7.319805 
-21.010429 25.369850 -5.309392 
-14.521720 25.595051 -17.563259 
-25.994560 17.018431 5.685921 
13.377860 22.591471 21.072880 
9.531595 19.096411 -23.640051 
-1.004660 -18.142450 9.907963 
3.269359 -10.451770 11.522850 
-14.175950 -0.589335 -23.967449 
2.871944 4.873968 -14.600650 
-0.946616 -24.006769 4.418384 
-18.029160 -2.541089 -19.761410 
-26.952660 15.737150 -7.060866 
-10.696410 12.986930 -23.652069 
-14.538720 -2.202518 -13.791890 
17.011841 25.779480 -13.437770 
-15.738660 -12.347810 -26.054001 
-24.680630 11.798680 -11.693790 
-1.438779 -26.777121 -4.562625 
-14.042250 25.870581 1.655141 
-12.402060 1.699882 -10.785080 
-9.833384 -22.209690 -13.444090 
10.583210 3.124401 27.882879 
-14.529570 -16.712021 0.577092 
9.858106 -20.539909 -14.911220 
1.923349 -26.093149 -10.191430 
-8.121760 -1.674146 -27.135040 
-16.343740 -14.885960 -4.093946 
15.015990 -4.221282 23.607040 
-10.162930 21.089531 -23.683649 
-9.533590 28.387289 -15.316790 
-16.269730 -12.570440 -20.822929 
4.581482 -23.563660 -14.824930 
-5.533920 0.242325 -22.342590 
0.815077 2.388113 28.314030 
2.169303 28.638620 -8.699746 
12.265590 -7.548073 6.921275 
2.893431 18.179661 -26.049721 
27.313820 11.063510 12.683780 
5.937652 16.359329 28.115870 
-15.821960 -8.312961 1.179215 
-8.157267 11.518320 -23.898500 
-25.874861 19.836691 -4.578205 
18.867109 11.180650 -15.817090 
13.268010 4.780522 27.106710 
-10.007810 27.638479 -3.259920 
-6.214300 7.662835 27.692280 
-2.182702 1.306838 11.641410 
27.770229 15.356720 1.808579 
-25.882179 5.441967 12.602140 
23.683550 24.290911 3.982314 
-17.261690 -10.589790 -5.925209 
26.680170 11.771810 -10.390470 
-23.411350 23.097481 -6.354277 
17.129700 27.343809 2.455690 
10.849260 24.351110 17.187771 
-9.444740 23.607849 15.341070 
-1.806483 12.563160 29.302830 
8.220680 10.738260 -22.031160 
16.766081 10.945070 -16.766310 
-5.363540 -2.133486 8.909063 
-3.888631 -18.989349 -19.840080 
12.140140 -22.625629 -2.668235 
-3.061882 -25.382910 -12.780110 
-11.919330 -0.627463 -15.870310 
9.435337 -26.140800 -3.170097 
0.147649 27.805550 -21.029470 
14.041160 26.455721 -15.986050 
-25.950430 14.777600 9.107322 
18.669260 2.944591 3.776497 
-7.020848 6.103071 -18.251520 
-8.171229 8.095563 26.699680 
-8.347130 27.488779 -7.285109 
-19.403500 3.419340 19.707060 
-15.469530 26.991409 -13.485980 
8.678257 26.568609 11.712970 
-24.535061 19.490351 -10.916310 
17.488340 -9.229244 -1.984963 
1.441375 6.462976 29.686680 
3.630337 23.582590 19.680401 
24.918760 20.133760 -14.039740 
10.815170 -24.171000 -3.591899 
17.653940 -0.115438 10.013920 
-11.898580 -22.440960 -5.784942 
3.737185 -3.475311 -24.525480 
-19.582581 9.296532 23.306730 
-22.589920 7.007908 -9.678896 
-17.568880 23.088079 12.880530 
-11.714050 -1.149691 3.377810 
-0.862492 -25.478460 -12.864890 
21.253639 16.802971 -19.829000 
-1.764508 -26.683910 -7.086946 
-8.169972 8.070651 -21.203779 
28.147421 14.397710 6.815371 
6.412882 -4.079700 -21.020809 
-4.101564 13.939610 -25.697950 
-17.860229 22.708460 -17.724770 
-14.646980 18.502710 -22.121010 
-18.073420 -9.600203 -19.829029 
-10.702520 17.740700 -24.248840 
-6.238330 12.483250 -24.826950 
2.004833 20.633101 25.814980 
21.752041 18.648550 18.528049 
-6.026323 -2.180017 -26.449789 
-15.798950 23.170441 14.489320 
-11.573450 26.956440 -17.799339 
-4.206907 28.304171 6.199814 
-17.646980 -10.992130 -16.620859 
-23.870251 15.584010 15.365320 
10.472290 -1.532135 -16.877840 
-25.950760 8.806685 15.574900 
-22.303690 19.903130 11.420310 
-14.379430 -12.461620 -18.597410 
1.261511 29.389259 0.975381 
5.792108 -3.565608 20.958210 
22.203510 25.715771 -1.590588 
17.238991 27.931511 -6.026094 
-8.888461 26.991720 7.966087 
-11.354330 9.184151 25.011009 
-15.617740 23.789261 12.206670 
25.853451 6.768559 1.212352 
-10.645890 -23.245119 -4.025764 
22.662790 -2.029265 15.864600 
-5.691832 0.497517 -20.164141 
4.053700 -2.271087 9.395966 
12.502700 -9.306852 -17.863211 
-10.355890 -21.429489 1.670994 
2.127473 -1.239540 9.313847 
1.958726 29.339701 -14.818830 
4.531497 -10.051600 -22.366890 
5.266025 4.229875 29.211969 
11.076230 -9.672633 8.228136 
-4.271523 29.116289 -1.987961 
-7.272654 -12.289190 -23.408350 
27.128920 10.887460 -0.090992 
10.177380 0.056966 12.747360 
0.590044 -0.249216 -21.492531 
-7.685507 -3.324700 -24.691099 
-16.558670 26.413771 -3.824432 
-7.500589 -11.348640 -25.359591 
-2.286359 -0.061272 25.250641 
1.184969 23.890739 18.281269 
-11.121790 -0.267733 -18.666161 
-13.381640 27.811741 -13.158210 
2.010164 14.364400 29.141300 
-14.387240 1.702858 -1.737085 
18.470270 15.591430 -22.284679 
-21.602871 15.174730 -16.770590 
1.975774 -22.958340 5.754096 
9.508833 3.199260 4.343571 
-16.303129 25.374910 2.431152 
-12.009120 4.776984 22.869129 
5.778443 -23.733641 3.768087 
-3.485330 -26.306829 -8.503646 
-9.760470 -0.333070 -26.449329 
-17.258961 6.285574 -14.052560 
-21.965090 4.317945 -2.786171 
-11.979380 24.545990 11.433960 
-23.852840 9.523227 -11.280950 
22.959600 24.017490 -5.146581 
-9.053190 -19.177919 5.805686 
-17.700159 8.825118 24.345610 
5.773738 0.047733 14.193030 
-11.881720 5.595675 -15.595470 
-10.805460 26.858629 5.721691 
-11.072070 25.742300 9.553436 
14.670660 23.344080 19.420589 
1.044196 -13.258550 -22.470390 
17.140930 -3.965397 22.423269 
-11.524660 -13.734270 -21.096821 
-23.638769 9.509704 19.495991 
24.754101 3.956177 4.159958 
-27.209110 6.766102 6.599552 
16.982540 10.054370 -14.752680 
-20.907499 3.543493 -0.945142 
10.806850 25.434320 12.714110 
28.088440 14.449120 4.227067 
-24.864830 16.543119 -12.168100 
-17.948139 3.242194 -4.293961 
-22.800920 15.039000 17.953110 
-27.032160 11.661850 3.909670 
27.939960 9.233470 6.484307 
-8.619352 17.726780 -25.012581 
8.929101 23.539869 20.878281 
20.939951 20.724791 17.582211 
-13.602750 23.520519 14.501620 
-14.822850 -14.611120 -12.373270 
-17.048750 -8.208231 -3.660555 
-4.383002 0.009467 16.216181 
-9.164009 1.570575 9.688919 
6.145418 1.867700 10.674090 
-11.600830 1.320104 -12.785350 
24.722969 21.694660 -11.841390 
-20.059311 3.771807 -3.904839 
15.373710 -3.220471 -11.022740 
-13.181120 24.785009 -19.669380 
-9.396826 -23.304840 -0.770403 
-8.156021 16.170151 26.268070 
-18.528910 -6.883159 -12.644500 
13.154760 1.081606 -7.335822 
22.265900 2.926860 20.461531 
2.421163 13.448460 -25.415100 
7.976889 27.795441 8.459780 
-19.564039 8.083719 -14.893940 
-1.506504 26.334850 13.962900 
-27.200769 13.710020 -6.242098 
-12.244790 4.038042 -12.171910 
-13.201240 1.587055 2.313169 
14.584690 -3.547688 -13.248190 
-20.151501 25.767401 -7.290935 
18.925760 26.661880 6.947029 
-24.997040 6.747985 15.831070 
25.863220 10.070730 -9.171893 
-13.165370 26.798849 -6.668046 
-2.985093 -14.751610 -21.653811 
0.719054 27.887230 9.824469 
-0.538422 -3.495306 -23.959700 
17.691601 -8.540710 -7.201414 
-18.927380 26.282339 -2.964143 
7.620413 0.446560 12.965020 
-0.602848 11.654270 -24.928869 
24.709270 18.270960 -15.243350 
13.931090 25.812481 8.160602 
-0.563683 -1.454311 19.655939 
-24.683969 14.263360 -12.588170 
18.601940 -2.131709 22.145439 
-8.647408 22.694521 -23.587509 
1.933147 23.115231 21.301600 
-1.727168 28.826710 -7.524890 
-0.583112 -5.351088 11.048130 
-13.915160 20.928261 -21.810789 
-8.199517 1.249459 12.016860 
-14.850890 9.604126 -19.821390 
-5.277084 -22.508329 -16.704910 
-3.858135 -24.328279 -14.833850 
19.159929 26.893080 -6.704890 
19.309259 27.239590 2.796077 
-16.435631 -4.355916 -4.653234 
-9.318574 2.862906 -14.527690 
-11.129790 2.641057 21.603741 
15.885870 -2.956985 -3.285475 
15.515280 25.782061 10.865370 
14.375440 2.819003 5.654597 
-27.815180 11.122730 7.039546 
-13.929800 0.084717 -8.392979 
5.213906 9.090184 29.664780 
-14.027530 -0.775947 -1.278263 
-16.959600 -12.417620 -7.117023 
12.724830 -2.921227 4.134651 
-8.136772 14.071120 26.937229 
-17.627180 24.756941 5.674078 
15.959670 24.640270 16.384489 
8.305049 -3.864099 19.667089 
-6.482523 -14.457110 9.783433 
19.462061 16.789301 21.838381 
-7.542735 22.773661 20.251780 
0.307426 -24.567900 -14.795150 
11.083970 6.984593 28.180599 
-14.110510 -6.226262 3.676918 
-16.803780 25.792570 -14.760680 
-1.510196 29.305910 -4.753365 
-12.288340 17.929541 23.017990 
-8.384033 9.691614 -22.686489 
5.852633 -17.380211 9.469335 
-6.527441 -25.194860 -2.073692 
-25.928780 14.884320 13.304260 
7.007175 29.180660 -1.991840 
-7.755037 0.248791 -22.551680 
1.357150 4.339411 29.200760 
-5.590303 28.846600 0.116918 
23.128260 4.163894 1.965780 
-14.112230 14.591640 -22.446600 
-10.895150 -18.810249 -15.525110 
-15.576920 2.046656 2.681451 
-13.143420 -3.918001 -23.420120 
-24.660070 8.730122 17.724850 
-9.657295 -5.553976 7.977181 
-8.768591 27.522209 -9.420421 
5.740145 20.219690 25.782339 
16.586670 24.412680 -15.752540 
-24.614100 15.712540 11.581200 
11.165610 25.513029 -19.466320 
-27.156679 11.587510 -4.561892 
-15.689420 5.116694 -12.552770 
-7.806544 4.925997 25.751011 
-11.251610 8.990766 -21.098339 
15.277700 0.426366 9.977770 
-17.510941 -5.254195 -8.557868 
-19.433559 14.188890 -18.728640 
5.115446 6.626626 29.589180 
5.866815 -4.147913 9.613293 
21.617599 -0.769567 10.679380 
-24.812759 6.011225 2.303436 
13.485020 20.924900 22.580721 
10.805600 -1.141763 4.766312 
8.196058 -2.256180 17.110960 
-6.835992 10.130720 27.844290 
2.030892 18.664070 27.363741 
-14.658640 20.768551 19.196840 
10.697450 -3.995252 6.629563 
-25.134970 19.752710 -8.793538 
0.879936 -21.265459 7.600585 
-12.353100 11.732750 -22.405630 
-19.124399 24.042480 -14.774220 
18.601589 3.769719 1.639711 
-20.421829 11.842710 22.455780 
6.977364 7.725344 29.345181 
-5.654983 28.767481 -4.531366 
-26.638611 9.570894 3.237653 
-9.151163 -21.289209 -15.303900 
27.950880 14.310020 -9.354527 
-13.160510 -20.368650 -9.208800 
-17.008570 2.342830 0.850645 
2.095446 -7.346154 11.410400 
13.077190 7.533923 27.391621 
4.281444 -8.538366 11.238480 
4.389200 19.775049 -25.564260 
10.293090 -5.764031 7.871179 
-27.750469 7.996039 11.237500 
-24.660940 18.738430 7.886482 
25.883471 8.249038 -0.788391 
-11.972820 -14.550440 -16.782980 
2.677258 29.478760 -3.314066 
-4.635342 28.829479 2.138142 
-0.189418 -22.744480 6.090033 
-3.546534 -17.298540 9.840252 
-23.486719 14.527870 -14.433160 
4.249135 18.540070 27.364820 
6.664357 23.283390 21.605700 
-16.983709 2.638016 19.919720 
6.247606 -2.433396 18.327629 
27.672470 16.360550 -10.190390 
-0.435047 28.984579 3.932213 
-15.178390 5.923517 -14.638330 
-6.702868 24.352739 15.871020 
23.022320 14.344390 19.523439 
-8.130976 0.114072 -25.043810 
-18.753620 3.230191 17.126181 
5.207312 -12.587730 -22.042641 
-14.568580 -1.740342 -11.058350 
-15.788560 3.020063 -5.677802 
-22.792360 3.912873 15.271090 
-17.594320 -10.746310 -22.394430 
-21.601191 4.702451 -5.260272 
-23.515671 11.905920 -13.563520 
11.484290 -6.080845 -18.378531 
11.330590 15.527630 26.881060 
-27.501190 13.278560 11.969030 
-13.555480 14.751150 23.557640 
3.934042 9.178090 -22.169109 
-14.035210 2.310255 16.630220 
-2.133530 2.953500 27.726410 
-25.969509 7.674706 1.512447 
-6.689905 28.832710 -15.213040 
-7.688767 -18.164370 -18.610229 
3.317863 16.562090 28.347589 
1.191632 -26.781490 -6.900225 
27.403170 13.157270 12.039730 
-6.520841 1.738860 -17.682039 
26.748030 9.750960 -6.542682 
15.879620 -2.986148 -8.481439 
-25.891420 13.987850 15.293340 
-14.179400 6.200937 23.848640 
-13.224100 1.808695 8.466979 
4.541153 14.192630 29.018810 
-16.321569 -14.459920 -8.347168 
13.639230 -21.004660 -3.141936 
-16.438520 -4.132227 -6.876306 
-0.007711 -11.125370 11.735130 
8.315595 -1.142498 27.082689 
3.548342 -2.946151 24.261209 
7.669611 0.861902 27.997030 
-11.431420 23.715651 14.300290 
-11.211130 23.952749 -21.612780 
26.927000 19.817820 5.220082 
-25.067820 6.925563 -3.241293 
-14.511910 -0.735130 -21.777950 
-20.922119 3.975842 9.501915 
-26.347099 7.388950 13.893430 
18.018339 23.092501 -17.300261 
17.584841 -10.853800 -8.028439 
-26.252720 15.183270 6.851162 
4.197973 -0.371749 8.243306 
-26.328020 18.145130 -7.111547 
12.551150 28.872770 -9.675348 
-4.477836 -25.932899 -2.170918 
6.161911 29.030310 3.028252 
14.922920 12.569170 25.974501 
7.241611 5.166514 29.087530 
-0.477073 19.199430 26.814060 
-12.844140 -8.113100 5.787498 
-21.939260 17.425051 -16.184931 
9.445918 16.842039 -23.769291 
-23.259501 16.076241 13.301180 
-23.950769 18.612129 -12.887460 
-2.108644 29.361900 -2.178012 
20.709890 26.550591 4.390983 
16.018641 10.573350 25.699860 
-2.192413 -21.858030 6.755373 
-10.383900 -0.010713 -20.738911 
-11.319860 -7.205849 7.091013 
-1.832915 -13.685710 11.363120 
5.566290 -25.335621 -9.709588 
5.742558 1.900065 28.543751 
-10.740620 0.874186 -14.824790 
15.256550 -1.973479 24.400780 
-14.129450 -13.012690 -21.148430 
20.913570 21.528191 -18.406910 
-2.631636 -0.149992 -23.009350 
-10.120900 27.837780 3.112841 
-18.671709 13.114690 22.805370 
-7.606575 -17.397289 7.963106 
-13.953390 1.985494 14.427230 
-2.802323 -26.032169 -10.640200 
-21.239771 6.020992 20.581470 
-3.152661 -22.679609 -17.307819 
6.732748 29.290590 -13.471390 
-3.642197 29.346581 -5.185586 
16.775471 -15.893450 -4.786013 
-16.518950 -9.624967 -0.834276 
-8.136010 24.911369 14.112640 
13.346720 -21.366180 -5.304383 
11.556690 -20.300350 3.117276 
5.680002 -24.048531 -12.982720 
22.242439 22.723829 -11.199330 
27.345570 18.504290 3.120005 
-6.382900 23.381611 18.485500 
-4.380003 -26.217211 -4.325955 
17.805130 24.607361 15.084370 
12.045820 -4.671173 18.594030 
7.235917 25.886070 13.970310 
-19.353910 -9.339223 -15.397050 
4.611512 -2.487933 -22.547171 
-10.668740 0.835097 4.010679 
12.152480 1.812108 -3.280290 
14.645760 19.207109 23.366940 
9.433700 7.039587 -14.312260 
-20.578979 17.814529 15.622240 
-22.229040 17.996590 13.178840 
-20.037580 -8.737986 -11.954030 
-3.987722 27.122820 11.083810 
0.150781 25.756350 15.390970 
0.664286 25.373461 -23.650669 
-25.792139 13.066710 -10.171160 
-14.386440 26.249821 -3.575105 
-10.168460 27.669399 0.939316 
1.023981 -1.212803 18.083740 
8.210705 2.005590 9.969570 
7.813338 -3.545735 25.360310 
0.944384 28.773121 5.603615 
-4.303972 -8.527479 -27.162821 
8.058736 -20.816200 -16.253880 
16.437660 3.760245 2.171042 
25.522970 12.568650 16.573200 
-23.134890 6.666762 18.697660 
13.640660 -19.414749 -10.858800 
-12.428510 -3.711302 4.701075 
12.470500 -3.513376 16.703930 
-11.692660 -16.622271 -16.013451 
-15.815870 -14.090160 -10.445520 
11.631270 5.484789 -4.995450 
13.777740 27.972179 -3.342072 
3.748176 -23.607710 4.642482 
-4.964781 10.783880 -24.172310 
-1.843431 5.301311 -16.278610 
-25.233431 21.071920 -2.616043 
0.131878 29.490440 -2.468483 
-3.728379 -0.349009 23.522739 
-18.048849 -9.398850 -7.647632 
-26.867340 9.621003 1.033091 
-0.116977 1.189003 12.419410 
7.725266 -22.706900 3.904440 
-20.508240 3.370420 7.314507 
-1.208481 -25.640970 1.330953 
10.369860 24.183241 -21.063971 
-21.890499 24.621250 -0.038982 
9.726901 10.855120 28.492399 
17.929489 -5.843511 18.597719 
-2.569863 -6.975121 -26.786240 
-16.153830 -10.879350 -14.959480 
12.531430 -20.901381 0.778646 
23.955910 -0.055823 14.959090 
20.153770 23.022980 -16.646219 
2.643399 -27.249460 -0.909607 
5.356902 -15.397690 -21.179050 
-0.052179 -26.549061 -8.722708 
-14.551160 -17.138741 -11.598870 
-15.178960 -17.539789 -7.738055 
-4.319874 27.673571 8.989093 
-6.951841 1.488855 10.074110 
