0.44725388 0.63144010 0.06680290 0.00009281 0.00215094 -0.00054954
0.66086048 0.44511387 0.69804275 -0.00046194 0.00023817 0.00002045
0.56400800 0.55000621 0.87874287 -0.00008633 0.00041087 -0.00025813
0.30914912 0.42212170 0.24776734 -0.00121374 -0.00006787 -0.00019698
0.42853677 0.37264106 0.09128223 -0.00087016 -0.00184479 -0.00090349
0.44780907 0.59600782 0.04939736 -0.00038928 -0.00007669 -0.00195654
0.28871861 0.55518514 0.26901880 -0.00085817 0.00025451 -0.00012245
0.51930684 0.56363368 0.89169401 -0.00013864 0.00060490 0.00000671
0.69650394 0.44507653 0.32506630 0.00087639 -0.00021816 -0.00015245
0.31513524 0.51935089 0.33530974 0.00023000 0.00025211 -0.00016474
0.32036459 0.56750828 0.78141803 0.00019887 0.00050012 0.00031975
0.36229181 0.41929567 0.21491586 0.00023520 0.00051108 -0.00022703
0.29407129 0.51204020 0.51157230 -0.00094305 0.00012975 0.00008953
0.58006424 0.40011984 0.52422494 0.00027334 -0.00050525 0.00007484
0.60972422 0.40603456 0.56858641 0.00035705 -0.00008564 0.00010501
0.31184864 0.53991050 0.30382121 0.00018451 0.00035762 -0.00000785
0.49192238 0.40639678 0.13675818 -0.00005203 -0.00007181 -0.00024510
0.53143436 0.63054037 0.06842571 0.00035383 0.00226886 0.00001820
0.40224668 0.50191128 0.87275529 -0.00046534 -0.00029322 0.00107477
0.49833101 0.39707354 0.30378118 -0.00000132 -0.00066410 -0.00013915
0.29628026 0.49369928 0.35630772 -0.00090475 0.00001227 0.00004681
0.32092616 0.38911822 0.53499585 -0.00107799 -0.00083426 -0.00007624
0.70589185 0.51170045 0.28178066 0.00093746 -0.00002952 -0.00014231
0.27424744 0.59428030 0.72449857 -0.00166840 -0.00040848 0.00058073
0.33839771 0.44850832 0.70734602 0.00058699 0.00029349 0.00019169
0.46464285 0.39731106 0.37807110 -0.00018971 -0.00063450 -0.00012827
0.36237919 0.56150478 0.84970444 0.00000844 0.00062544 -0.00000550
0.51680321 0.41456917 0.76878124 0.00005028 0.00021648 0.00037842
0.67342710 0.37909779 0.59935135 0.00086106 -0.00122536 0.00023078
0.56437755 0.39860442 0.62090170 0.00031826 -0.00063565 0.00015775
0.70170051 0.48020405 0.25334075 0.00095099 -0.00011506 -0.00017915
0.62322426 0.48946029 0.08987968 0.00066605 0.00012572 -0.00128415
0.45501053 0.39757320 0.26814550 -0.00015922 -0.00067944 -0.00017410
0.52922702 0.39719912 0.49334574 0.00020103 -0.00062841 0.00009322
0.66271996 0.57756972 0.82880670 -0.00030939 0.00029430 -0.00009748
0.34169069 0.43730190 0.44678384 0.00029741 0.00029615 0.00000612
0.69091916 0.42349744 0.23995538 0.00126504 -0.00002466 -0.00031070
0.32531953 0.47198907 0.26329386 0.00029508 -0.00002228 -0.00012637
0.33886826 0.44147226 0.34009039 0.00044269 0.00029112 -0.00012085
0.49666265 0.39708945 0.63473076 -0.00005872 -0.00067933 0.00016364
0.52025986 0.49755767 0.05714785 0.00004765 0.00012018 -0.00128363
0.68781227 0.53767240 0.60887349 0.00001656 0.00035024 0.00009274
0.30747849 0.56843257 0.54347491 0.00017618 0.00033373 0.00005146
0.31768280 0.39678773 0.64484549 -0.00140249 -0.00026284 0.00013642
0.38930047 0.40651330 0.65323400 -0.00028555 -0.00011119 0.00022518
0.58135849 0.44375223 0.80497307 -0.00011467 0.00058775 -0.00041344
0.67571485 0.47511685 0.39578837 -0.00033322 0.00011952 -0.00010820
0.35919860 0.46826187 0.79000854 0.00069707 0.00012109 -0.00019367
0.46185359 0.36924207 0.08502850 -0.00014421 -0.00206402 -0.00092872
0.63959360 0.41910180 0.28461540 -0.00018045 0.00047583 -0.00003410
0.67104250 0.53467351 0.78402108 -0.00032535 0.00022833 0.00011576
0.60883731 0.57354361 0.87482274 -0.00008719 0.00058875 -0.00007632
0.52818799 0.39718819 0.35052407 0.00008450 -0.00064501 -0.00010093
0.50296825 0.39753315 0.66625392 0.00005522 -0.00069418 0.00040182
0.69437546 0.51766896 0.77041095 0.00110480 -0.00010453 0.00033892
0.70443147 0.49969909 0.53909343 0.00087978 -0.00002320 0.00000958
0.65086550 0.47335824 0.82791376 0.00080459 -0.00036173 0.00093202
0.41400874 0.55754286 0.07054412 -0.00038533 -0.00011495 -0.00106307
0.40573397 0.41343692 0.74504966 -0.00005145 0.00025463 0.00018149
0.47061273 0.48242497 0.87968624 -0.00015996 -0.00020428 0.00111849
0.69534892 0.58787459 0.48716319 -0.00076105 0.00010664 -0.00000537
0.31216037 0.46945065 0.76109809 -0.00107514 -0.00031740 0.00027121
0.71379381 0.63107103 0.77374625 0.00097369 0.00205869 0.00046693
0.45391354 0.40291268 0.15847562 -0.00014815 -0.00034668 -0.00047594
0.61450440 0.48835456 0.85979366 0.00058829 -0.00033561 0.00109100
0.41578448 0.40071419 0.35587582 -0.00032739 -0.00048626 -0.00004034
0.69271940 0.42791855 0.54163408 0.00095076 -0.00007102 0.00007266
0.49169442 0.40026367 0.16843146 -0.00009849 -0.00056245 -0.00048397
0.73323178 0.59550536 0.28993756 0.00174246 -0.00045319 -0.00016764
0.34485486 0.49605045 0.14770292 0.00015210 -0.00002666 0.00011797
0.56829989 0.39891386 0.57616711 0.00030605 -0.00058521 0.00015921
0.34723175 0.37259603 0.74434513 -0.00080411 -0.00183199 0.00061943
0.69191986 0.56443918 0.40520588 -0.00032936 0.00045934 0.00003892
0.34307596 0.43537918 0.48049709 0.00032196 0.00041619 -0.00004982
0.34764633 0.60719377 0.85921752 0.00093849 0.00046142 -0.00091327
0.44960347 0.44880185 0.86259699 -0.00022054 -0.00042976 0.00104982
0.37394464 0.41691375 0.71670210 0.00017025 0.00049418 0.00014209
0.38795891 0.40670308 0.41958895 -0.00032009 -0.00011427 -0.00008785
0.70330876 0.62435174 0.52289295 -0.00103313 0.00143284 0.00010237
0.28480718 0.63129854 0.60361230 -0.00019249 0.00190778 0.00026670
0.67824918 0.48450872 0.61066926 -0.00022918 0.00001163 0.00015671
0.30370268 0.44393152 0.40953961 -0.00089162 -0.00006388 -0.00007061
0.52496135 0.39755225 0.21141627 0.00009913 -0.00071615 -0.00029144
0.58824205 0.61802924 0.05855179 0.00032069 0.00121114 -0.00229803
0.32268780 0.48097190 0.33053002 0.00037429 0.00010382 -0.00014844
0.49829552 0.43471110 0.05917800 -0.00007554 -0.00001726 -0.00134468
0.29650646 0.49187204 0.45285976 -0.00086299 -0.00000264 -0.00001162
0.37739372 0.48803401 0.11561187 0.00006540 -0.00009236 0.00022126
0.38531896 0.40750036 0.54724890 -0.00029741 -0.00011038 0.00007795
0.60985529 0.45815563 0.84911293 0.00056360 -0.00041737 0.00103304
0.51734877 0.42963150 0.09662944 -0.00005916 0.00046069 0.00065022
0.26675314 0.59535933 0.35694346 -0.00170168 -0.00055262 -0.00012090
0.69823098 0.45464283 0.50288117 0.00088326 0.00002607 0.00000266
0.69120771 0.55973178 0.31460166 -0.00021858 0.00038047 -0.00009604
0.33564946 0.36879152 0.22308278 -0.00073126 -0.00183529 -0.00017752
0.31350696 0.52984482 0.65190333 0.00023149 0.00022416 0.00002980
0.45352125 0.63147014 0.93797135 -0.00055393 0.00193795 0.00112432
0.31176493 0.42488453 0.70877320 -0.00119580 -0.00017178 0.00041328
0.59884501 0.41005567 0.16370405 -0.00010215 0.00024119 -0.00015809
0.28737885 0.56506771 0.40290862 -0.00072612 0.00016035 -0.00005888
0.69479096 0.58836335 0.81535256 0.00048896 -0.00060499 0.00036326
0.41398096 0.46303433 0.09886482 0.00025172 -0.00011836 0.00040272
0.69560784 0.58973634 0.27662230 -0.00077422 0.00013546 -0.00014385
0.34159237 0.43738061 0.61086446 0.00039725 0.00031952 0.00015253
0.30658379 0.43074235 0.52804261 -0.00105866 -0.00007096 -0.00001871
0.63546056 0.43124020 0.10491788 0.00098166 -0.00020180 -0.00105083
0.69197178 0.56993157 0.24224582 -0.00021652 0.00047222 -0.00012266
0.56744432 0.40939716 0.83839613 0.00043310 -0.00056028 0.00137713
0.38622823 0.40720364 0.60900038 -0.00032307 -0.00008406 0.00022475
0.49171287 0.57781315 0.89923382 0.00004380 0.00061913 -0.00005715
0.35419223 0.42373314 0.37062868 0.00018819 0.00053702 -0.00008632
0.29511434 0.56395090 0.75963908 -0.00092697 0.00000856 0.00026889
0.65087235 0.49883959 0.79973191 -0.00036861 0.00013273 -0.00022692
0.36026850 0.52426147 0.85954976 -0.00081579 -0.00033431 0.00099105
0.32421461 0.50257266 0.80916166 -0.00094875 -0.00012568 0.00110839
0.68470502 0.45812920 0.16598266 0.00116843 -0.00006488 -0.00057227
0.63516247 0.61961973 0.92141098 0.00128703 0.00125686 0.00184202
0.30292723 0.59989560 0.60759199 0.00091154 0.00016567 0.00009049
0.54707849 0.59067017 0.08076437 -0.00011256 -0.00003715 0.00060036
0.52708668 0.52631503 0.07805026 -0.00005385 0.00021680 0.00012611
0.58210987 0.55848897 0.09055821 -0.00009512 0.00033835 0.00009602
0.72128183 0.60697484 0.79581040 0.00217393 0.00011447 0.00090501
0.28448546 0.58726430 0.26313230 -0.00043198 -0.00043175 -0.00020499
0.49230930 0.43539420 0.80575085 -0.00000102 0.00069178 -0.00020579
0.33159193 0.49052691 0.17731968 0.00026980 0.00006139 0.00000760
0.30257270 0.59489560 0.85853082 -0.00183776 -0.00065306 0.00105785
0.62953395 0.42351201 0.16557446 -0.00054569 0.00056286 0.00011102
0.35085878 0.42671713 0.51198959 0.00016391 0.00046469 0.00003408
0.51773727 0.62460065 0.95169663 0.00030122 0.00141124 0.00210530
0.31379232 0.52759093 0.43967432 0.00021946 0.00022668 -0.00012150
0.71716511 0.63163942 0.58933908 0.00014514 0.00204424 -0.00005695
0.45239222 0.45434108 0.08844981 0.00019339 -0.00001243 0.00025626
0.67864740 0.39366677 0.69307142 0.00130955 -0.00073623 0.00043810
0.48984796 0.39707354 0.40818757 0.00004296 -0.00063067 0.00000477
0.47970918 0.43618786 0.09215189 0.00004207 0.00029752 0.00054217
0.70484835 0.59827280 0.84457707 0.00227634 -0.00042100 0.00112258
0.67063564 0.47513276 0.19963191 -0.00048965 0.00000863 -0.00001438
0.57431608 0.41060674 0.14128444 -0.00006827 0.00027401 -0.00001639
0.27887335 0.59595501 0.17595167 -0.00222936 -0.00018722 -0.00074815
0.37161237 0.63140595 0.08949377 -0.00065120 0.00207038 -0.00081505
0.46894476 0.59334236 0.93941396 -0.00026301 -0.00104189 0.00138045
0.57570547 0.39964610 0.49046543 0.00026156 -0.00052814 0.00003424
0.67934507 0.59472722 0.12734616 0.00055546 -0.00051819 -0.00058824
0.70802206 0.52920318 0.55256295 0.00097172 0.00017728 0.00012392
0.31457049 0.52270293 0.53663778 0.00017874 0.00023173 -0.00001784
0.68795156 0.53859204 0.42493761 -0.00026481 0.00038779 0.00002150
0.63009828 0.41365308 0.62945044 0.00003976 0.00022107 0.00011875
0.69777995 0.60484374 0.39687967 -0.00113110 0.00031220 -0.00003877
0.64240056 0.42177770 0.23040323 -0.00029591 0.00046032 -0.00022974
0.29193696 0.52941203 0.36428392 -0.00095146 0.00013858 -0.00009438
0.69700861 0.46628159 0.70873135 0.00106055 -0.00014812 0.00008254
0.59276789 0.40214586 0.63971442 0.00033916 -0.00046916 0.00021644
0.30833584 0.56273037 0.34696576 0.00022768 0.00052363 -0.00014948
0.39283377 0.48116797 0.08134869 -0.00064723 0.00004011 -0.00123184
0.26740620 0.60550809 0.69173902 -0.00212535 -0.00006091 0.00022596
0.53864771 0.39738116 0.46074894 0.00019561 -0.00062428 -0.00003166
0.34119874 0.43808419 0.27094832 0.00044281 0.00036154 -0.00013443
0.70500803 0.50489545 0.61551994 0.00110253 -0.00002286 0.00019424
0.28525364 0.58077532 0.46414006 -0.00059735 -0.00027145 -0.00001435
0.38389638 0.40799868 0.38587168 -0.00021313 -0.00002026 -0.00005028
0.50672638 0.48278007 0.88103056 0.00007966 -0.00020524 0.00116027
0.50976884 0.39707306 0.54481155 0.00010036 -0.00063745 0.00005991
0.70323730 0.49008411 0.58050001 0.00093418 -0.00010722 0.00013323
0.28168577 0.63151515 0.41099679 -0.00047979 0.00178848 0.00001234
0.67274499 0.46583244 0.31964716 -0.00044612 -0.00002676 -0.00011953
0.48023617 0.61151749 0.91561317 0.00019382 0.00055517 -0.00111642
0.62874210 0.56167144 0.08982551 0.00029590 0.00029934 -0.00119591
0.31252080 0.40978396 0.57369423 -0.00127807 -0.00006770 0.00022085
0.66717201 0.37008259 0.37445047 0.00059710 -0.00156607 0.00006129
0.66993350 0.44450584 0.14037378 0.00107729 -0.00010487 -0.00091034
0.30678901 0.42982763 0.28772360 -0.00105070 -0.00002043 -0.00014310
0.34195510 0.48098704 0.11834235 -0.00088750 -0.00015612 -0.00107913
0.67211419 0.46389318 0.58624858 -0.00044025 0.00017999 0.00007861
0.49405104 0.39707306 0.50887412 -0.00003491 -0.00062973 0.00004277
0.30056578 0.61449099 0.50142771 0.00097123 0.00087606 -0.00010751
0.31529543 0.51826239 0.61936545 0.00021937 0.00025798 0.00018231
0.38095248 0.54488522 0.10851984 0.00009856 0.00036316 -0.00008111
0.31865984 0.39679366 0.22845410 -0.00149284 -0.00033463 -0.00033276
0.61141896 0.52335948 0.84765291 -0.00017756 0.00021429 -0.00025141
0.48814446 0.49302101 0.85421163 0.00003168 0.00028171 -0.00044271
0.67137790 0.37588304 0.40846017 0.00083251 -0.00120176 -0.00003685
0.66978872 0.45929879 0.66929978 -0.00034135 0.00004525 0.00011368
0.73324591 0.60854125 0.52094519 0.00170017 0.00016491 0.00023888
0.52506113 0.40545478 0.14174496 0.00017370 -0.00010810 -0.00036313
0.28499380 0.63126624 0.30919576 -0.00009648 0.00202014 -0.00002027
0.66692078 0.61966980 0.84818268 -0.00074633 0.00157848 -0.00001419
0.67520243 0.47349787 0.27367064 -0.00037159 0.00003956 -0.00013018
0.41273996 0.43374452 0.84651434 -0.00032710 -0.00041157 0.00114727
0.61522114 0.40769014 0.41895741 0.00030740 0.00005413 -0.00001477
0.61997133 0.37277484 0.78555602 0.00059527 -0.00209053 0.00042008
0.52340442 0.38996330 0.07114301 0.00018289 -0.00066508 -0.00169790
0.45390809 0.39761278 0.58097374 -0.00007837 -0.00065305 0.00019420
0.53504705 0.52583754 0.89710587 -0.00000638 -0.00030159 0.00116580
0.53043205 0.42449769 0.06271353 0.00007770 0.00005655 -0.00145120
0.34868529 0.63146287 0.89117253 -0.00023195 0.00242132 0.00057905
0.58027816 0.40015033 0.45883599 0.00033140 -0.00048686 -0.00001607
0.49718785 0.39707354 0.27084368 -0.00000025 -0.00068620 -0.00017810
0.59233916 0.37891710 0.80695581 0.00047262 -0.00149341 0.00104484
0.50228089 0.38035426 0.82300884 0.00010184 -0.00148750 0.00080623
0.61037362 0.43061128 0.77419317 -0.00024314 0.00068798 -0.00018114
0.64841580 0.53532094 0.82472318 -0.00027603 0.00030037 0.00001949
0.34439978 0.43596533 0.80415070 -0.00076939 -0.00047915 0.00101976
0.62888187 0.59593636 0.11167266 -0.00045765 0.00008517 0.00070581
0.66836029 0.45667291 0.23803906 -0.00049875 0.00012961 -0.00015041
0.69113803 0.55922031 0.47373262 -0.00030707 0.00050028 0.00000256
0.61274463 0.40690738 0.60259920 0.00030333 -0.00010999 0.00011160
0.32265595 0.48101357 0.43311396 0.00038368 0.00020486 -0.00000307
0.68956029 0.41615057 0.36334056 0.00108196 -0.00016646 -0.00012009
0.33374131 0.36907685 0.57238865 -0.00051753 -0.00182535 0.00009632
0.32257128 0.38574287 0.49811471 -0.00109030 -0.00085094 0.00030779
0.69322234 0.47732732 0.74561757 0.00103564 -0.00010955 0.00046784
0.39530987 0.41691148 0.08756876 -0.00070613 -0.00026802 -0.00135433
0.72794962 0.62814212 0.62581849 0.00118968 0.00185464 0.00022787
0.46372539 0.41453958 0.11865728 -0.00003814 0.00045555 0.00018269
0.65500540 0.43307874 0.32187206 -0.00039168 0.00040992 -0.00022418
0.67985475 0.39617020 0.21430013 0.00154407 -0.00030497 -0.00048012
0.59675485 0.42652372 0.08163904 0.00050559 -0.00051633 -0.00130279
0.73218924 0.61951149 0.55100471 0.00166968 0.00110007 0.00007929
0.42120677 0.39997968 0.60914379 -0.00029877 -0.00054811 0.00030649
0.64484429 0.52611762 0.10264838 0.00071483 0.00004018 -0.00126078
0.54731470 0.45832479 0.82627225 -0.00010733 0.00044492 -0.00058207
0.29533553 0.63002616 0.75780147 -0.00024490 0.00198298 0.00019079
0.54261398 0.39748719 0.42755550 0.00014929 -0.00062233 0.00002828
0.47898769 0.40120339 0.06696763 -0.00023807 0.00005024 -0.00189579
0.34425825 0.39405817 0.14195976 -0.00152760 -0.00084665 -0.00101510
0.34261721 0.37034833 0.17853703 -0.00074997 -0.00195520 -0.00080068
0.73324680 0.59660310 0.40035012 0.00176438 -0.00036344 -0.00009123
0.69278455 0.57022786 0.61534059 -0.00015430 0.00030957 0.00012048
0.54517388 0.63115615 0.93411678 0.00021958 0.00198977 0.00082036
0.61471146 0.40751129 0.45801616 0.00029597 0.00002062 -0.00000807
0.32461646 0.38226879 0.39408594 -0.00097808 -0.00099389 0.00005230
0.35153821 0.45408350 0.15627167 0.00063110 0.00010593 0.00024043
0.31358433 0.40647689 0.37334096 -0.00125696 -0.00000318 -0.00016624
0.67225802 0.37740076 0.63456017 0.00080082 -0.00144978 0.00005728
0.61899340 0.41913137 0.74050105 -0.00022443 0.00036920 0.00018902
0.68555963 0.52352238 0.52703375 -0.00028362 0.00021603 0.00001401
0.30765370 0.56842846 0.66500288 0.00032465 0.00047751 0.00015751
0.66232765 0.36973944 0.20091432 0.00076516 -0.00195467 -0.00005934
0.71956158 0.63130629 0.25865066 0.00057099 0.00202460 -0.00037361
0.55489862 0.39800188 0.39115837 0.00016532 -0.00061177 -0.00009858
0.34695327 0.46509290 0.82189214 -0.00079463 -0.00033968 0.00097132
0.70530379 0.52626097 0.22030720 0.00106426 -0.00003449 -0.00019453
0.70749098 0.63154751 0.18221410 0.00069633 0.00212014 -0.00027409
0.30029866 0.46520093 0.64652562 -0.00093869 -0.00013674 0.00011572
0.62106627 0.41020539 0.66903037 0.00011074 0.00001511 0.00023806
0.33351466 0.36929345 0.36378199 -0.00049913 -0.00176597 -0.00010079
0.32668388 0.48174790 0.71828574 0.00035094 -0.00003940 0.00008777
0.36570311 0.43832263 0.76415581 0.00051798 0.00060006 -0.00015804
0.66178429 0.40999877 0.14123528 0.00140516 -0.00005553 -0.00099525
0.32065448 0.48946139 0.29666141 0.00032617 0.00008164 -0.00014149
0.37546551 0.37565827 0.11982547 -0.00068528 -0.00200384 -0.00093773
0.31281707 0.40873638 0.41208488 -0.00121161 -0.00007736 0.00012661
0.54108793 0.39743349 0.26404795 0.00020539 -0.00068864 -0.00024005
0.46059301 0.47087446 0.83721471 -0.00001798 0.00026674 -0.00060654
0.32796448 0.49624607 0.74681216 0.00031993 0.00003647 -0.00003789
0.38400650 0.59796327 0.93195069 -0.00096023 -0.00034377 0.00237362
0.68966675 0.41651875 0.42910388 0.00103763 -0.00006481 0.00003524
0.71086401 0.63106966 0.73514652 0.00015207 0.00187162 0.00016445
0.68896270 0.44267642 0.73225039 0.00111821 -0.00026034 0.00039103
0.70675284 0.51876956 0.44353592 0.00086954 0.00006781 0.00001981
0.70365733 0.58135962 0.78201461 0.00051201 -0.00039202 0.00035800
0.30923194 0.45226955 0.73388642 -0.00098780 -0.00015435 0.00030023
0.29193649 0.52942950 0.47442588 -0.00096544 0.00025124 -0.00006819
0.30050573 0.63117158 0.80684710 -0.00034933 0.00218441 0.00026527
0.59719127 0.54530501 0.89146560 0.00037669 -0.00014995 0.00109216
0.54103535 0.59358495 0.94216269 0.00055775 -0.00106656 0.00177243
0.30175129 0.60810435 0.46807817 0.00102309 0.00044412 0.00011341
0.37934873 0.39137590 0.80406833 -0.00093694 -0.00079074 0.00144602
0.35985392 0.52463597 0.82751423 0.00009300 0.00010586 0.00003385
0.30592257 0.58774120 0.23443706 0.00066561 0.00018756 -0.00004112
0.38430053 0.40785670 0.35177371 -0.00026898 -0.00000345 -0.00005877
0.61418635 0.49128816 0.82777953 -0.00033166 0.00026982 -0.00035351
0.42922351 0.47698903 0.83597058 0.00015450 0.00031044 -0.00045217
0.70445830 0.49981147 0.35354489 0.00097761 -0.00000414 -0.00000529
0.55646002 0.48488230 0.06304074 0.00034752 0.00005266 -0.00123411
0.58067179 0.40020677 0.41527236 0.00034657 -0.00048137 -0.00003867
0.27597994 0.59431171 0.21061304 -0.00164655 -0.00040752 -0.00028098
0.31783572 0.61943954 0.16317526 0.00076110 0.00146882 0.00017168
0.26675314 0.60478723 0.57964259 -0.00191962 -0.00008673 -0.00003767
0.32299954 0.61833233 0.82714736 0.00105319 0.00113490 -0.00029860
0.72744727 0.60374373 0.76052743 0.00211553 -0.00019082 0.00025491
0.73211634 0.59708589 0.70310330 0.00200839 -0.00048220 0.00037591
0.54841375 0.55717015 0.08384664 -0.00017252 0.00020476 0.00019398
0.47159949 0.39719048 0.55186892 -0.00009758 -0.00064549 0.00010282
0.29514712 0.50626969 0.66338736 -0.00098335 0.00001708 0.00020864
0.50002807 0.62398946 0.04708463 -0.00035449 0.00179026 -0.00193242
0.28458101 0.63137954 0.67411911 -0.00028633 0.00194043 -0.00007534
0.61901021 0.40902308 0.26239961 0.00013891 0.00000097 -0.00021141
0.36362246 0.41705209 0.28305900 0.00008994 0.00040224 -0.00015207
0.71474725 0.58081079 0.54836524 0.00046155 -0.00048880 0.00004872
0.31748849 0.52524543 0.71970564 0.00011624 0.00025042 0.00018591
0.48158798 0.59552044 0.04545452 -0.00032614 0.00000331 -0.00181718
0.73323727 0.59437132 0.62754506 0.00165484 -0.00054659 0.00001358
0.71208686 0.56101513 0.43002495 0.00060755 0.00007219 -0.00003978
0.69072253 0.55747324 0.66196471 -0.00009568 0.00039652 -0.00001763
0.32885143 0.42885056 0.14809702 -0.00126801 -0.00022147 -0.00076977
0.30947357 0.62593949 0.86495566 -0.00141201 0.00201528 0.00106674
0.66597062 0.36875510 0.56900918 0.00048439 -0.00172330 0.00034369
0.68266076 0.48879936 0.78780329 0.00102320 -0.00025990 0.00061248
0.46997926 0.40588939 0.84193760 -0.00010537 -0.00016973 0.00162731
0.37719393 0.44108909 0.13251226 0.00032482 0.00026425 0.00045562
0.29169166 0.53596163 0.67685592 -0.00099662 0.00013572 0.00034301
0.41988158 0.43522674 0.07335972 -0.00032350 -0.00003476 -0.00135791
0.32794127 0.37682053 0.42581969 -0.00077886 -0.00133990 -0.00007321
0.50108558 0.39707306 0.58278447 0.00007765 -0.00064955 0.00017733
0.63615358 0.46130040 0.13469346 -0.00024957 -0.00013889 0.00039445
0.34967327 0.60350984 0.91260141 -0.00140165 0.00002026 0.00210471
0.41379622 0.50571233 0.09365776 -0.00001065 0.00029242 -0.00005655
0.31039602 0.54919928 0.38158798 0.00018029 0.00041515 -0.00014111
0.42422900 0.40330589 0.07846666 -0.00070748 -0.00018061 -0.00157835
0.66588873 0.57823730 0.86060870 0.00038338 -0.00054994 0.00039543
0.33208752 0.45438069 0.65749854 0.00047876 0.00019242 0.00014844
0.45748419 0.49607190 0.06002671 -0.00009881 -0.00010682 -0.00139745
0.30464560 0.58790368 0.57069570 0.00056244 0.00021926 0.00010888
0.37634566 0.60506397 0.10798558 0.00047398 0.00017838 0.00070398
0.65649992 0.37532696 0.16508476 0.00101334 -0.00170521 -0.00078331
0.43700588 0.53269315 0.08505533 -0.00008886 0.00028763 -0.00003360
0.64698046 0.63144463 0.10087174 0.00040212 0.00199923 -0.00059888
0.72800016 0.62811297 0.28978509 0.00129039 0.00178629 0.00004827
0.32176897 0.48440701 0.55000579 0.00023125 0.00001719 0.00008546
0.49847504 0.59908962 0.95454538 -0.00016167 -0.00079547 0.00237856
0.26810747 0.62076163 0.33460024 -0.00168245 0.00111531 -0.00019203
0.53558636 0.39743897 0.64938855 0.00019618 -0.00070073 0.00035021
0.30433843 0.44092116 0.48461935 -0.00090848 -0.00019059 0.00001208
0.70250326 0.48395485 0.43091124 0.00089372 -0.00005641 -0.00008833
0.70257336 0.48448661 0.31683248 0.00091100 -0.00008564 -0.00009678
0.50509560 0.39707354 0.43635461 -0.00002322 -0.00062522 -0.00002432
0.39351228 0.40509933 0.28076309 -0.00041367 -0.00017179 -0.00009457
0.68333471 0.39847609 0.49202672 0.00118787 -0.00033207 0.00009429
0.30092257 0.45988077 0.44838595 -0.00085720 -0.00012406 0.00001129
0.49187306 0.39707354 0.33693758 -0.00002491 -0.00064795 -0.00016160
0.54097980 0.40669170 0.74162924 0.00017254 -0.00026723 0.00046131
0.65602344 0.55527699 0.10956608 0.00102475 0.00021667 -0.00084119
0.66396505 0.44609728 0.38113791 -0.00050882 0.00020646 0.00004333
0.71809393 0.63154614 0.39323992 0.00034457 0.00191448 -0.00016737
0.41892365 0.52901793 0.88965935 -0.00047394 -0.00016264 0.00109416
0.45741940 0.42867398 0.06401960 -0.00019500 0.00012273 -0.00151930
0.32537097 0.60641330 0.89116341 -0.00159128 0.00005825 0.00180539
0.68185389 0.50172865 0.41234565 -0.00022887 0.00008245 -0.00010718
0.69891816 0.61209136 0.60908461 -0.00122403 0.00068956 0.00005458
0.35633293 0.42202798 0.42262447 0.00012097 0.00048837 -0.00001678
0.38779917 0.44471568 0.79156405 0.00024333 0.00059035 -0.00034262
0.32303593 0.47955343 0.39581934 0.00030689 0.00023677 -0.00012193
0.49726266 0.42298457 0.85347480 -0.00009038 -0.00038375 0.00120973
0.33876857 0.36984819 0.70844913 -0.00069510 -0.00188300 0.00025800
0.45600441 0.40339461 0.72486991 -0.00018177 -0.00046025 0.00043387
0.69572800 0.59057045 0.64341605 -0.00079264 0.00010838 -0.00000154
0.50025827 0.39707354 0.47197068 -0.00006057 -0.00062484 -0.00002796
0.30042925 0.46296218 0.31408060 -0.00092045 -0.00010912 -0.00022886
0.40947613 0.46579489 0.86030746 -0.00031048 -0.00029768 0.00111448
0.56548840 0.46474972 0.09048267 -0.00018149 0.00003494 0.00025772
0.33599532 0.58347899 0.83006859 0.00037308 0.00042960 -0.00005428
0.69394451 0.43307006 0.57604694 0.00097890 -0.00011266 0.00009419
0.45952728 0.56160361 0.08385893 0.00005970 0.00050764 0.00038735
0.46799177 0.39729467 0.23336308 -0.00018786 -0.00071207 -0.00034418
0.35031450 0.59605104 0.08580032 -0.00116309 0.00000185 -0.00192052
0.33401892 0.54434675 0.80267668 0.00004489 0.00041566 0.00025093
0.59225041 0.52325433 0.07355904 0.00053130 0.00012251 -0.00123194
0.66132331 0.41598722 0.78289330 0.00121869 -0.00048507 0.00097678
0.29290038 0.53306514 0.23098890 -0.00103261 0.00012187 -0.00009563
0.70244497 0.51179677 0.71971154 0.00107423 -0.00006352 0.00035578
0.51100367 0.39708489 0.24202421 0.00009548 -0.00071078 -0.00018626
0.61182123 0.40663844 0.29533395 0.00029934 -0.00009281 -0.00018156
0.31613141 0.40006933 0.60605645 -0.00133022 -0.00019975 0.00005665
0.41429636 0.40092716 0.57258928 -0.00041589 -0.00048678 0.00008629
0.52078700 0.57808304 0.92145187 -0.00006733 -0.00025735 0.00066878
0.31436253 0.40872273 0.68076009 -0.00136498 -0.00024999 0.00022282
0.69619536 0.44540599 0.65410638 0.00107646 -0.00007360 0.00011649
0.69185066 0.43291354 0.69269371 0.00118683 -0.00008209 0.00021437
0.36578774 0.48578286 0.84700626 -0.00079152 -0.00027018 0.00097158
0.31620923 0.54999852 0.14223690 -0.00097625 0.00017337 -0.00074280
0.32404074 0.44325709 0.77575219 -0.00102416 -0.00036631 0.00054405
0.56787807 0.50261009 0.08707864 -0.00011564 -0.00007410 0.00005139
0.31570730 0.51814926 0.25144124 0.00032145 0.00018988 -0.00017876
0.42437825 0.39963701 0.50418919 -0.00026711 -0.00056494 0.00009682
0.31902939 0.54263616 0.75319880 0.00015237 0.00030730 -0.00002291
0.31124339 0.42509115 0.21001326 -0.00126391 -0.00019298 -0.00032616
0.28119063 0.59426212 0.76110214 -0.00153984 -0.00018573 0.00036382
0.72396588 0.63040799 0.49886757 0.00092621 0.00189529 0.00017924
0.69128364 0.56022197 0.35389575 -0.00017446 0.00032734 -0.00004853
0.69121581 0.55972362 0.57952017 -0.00006397 0.00039357 0.00005987
0.34653184 0.58861911 0.13137589 0.00058149 0.00004323 0.00045503
0.42377207 0.42515439 0.11534699 0.00035366 0.00042206 0.00066420
0.27851158 0.63106740 0.37569788 -0.00067158 0.00188289 -0.00008615
0.36325246 0.41723549 0.58845299 0.00003300 0.00036048 0.00020956
0.69180751 0.42412272 0.50990528 0.00098892 -0.00004670 0.00003975
0.66655266 0.36938313 0.53661454 0.00055079 -0.00162995 -0.00025879
0.66107482 0.44133347 0.63640732 -0.00044706 0.00017215 0.00015523
0.64707696 0.42473117 0.53079998 -0.00029600 0.00048710 0.00006232
0.48981282 0.39753452 0.20849510 -0.00013668 -0.00071666 -0.00042075
0.68506497 0.40287399 0.56918752 0.00134908 0.00010232 0.00006159
0.31538552 0.44572729 0.17165937 -0.00116496 -0.00011005 -0.00051259
0.69906467 0.45980373 0.29139745 0.00086807 -0.00017855 -0.00012917
0.56030595 0.39880466 0.21312784 0.00025480 -0.00064870 -0.00030305
0.65490758 0.47668800 0.77641070 -0.00048361 0.00008850 -0.00006293
0.26675636 0.59971493 0.61876154 -0.00190862 -0.00030716 0.00013594
0.35997361 0.41934252 0.63216782 0.00016029 0.00039148 0.00020593
0.42246053 0.48216948 0.06911335 -0.00041913 -0.00005964 -0.00133839
0.69454300 0.58534706 0.68026090 -0.00063085 0.00006620 0.00007336
0.55801499 0.53470016 0.06290647 0.00018279 0.00014660 -0.00125422
0.67661816 0.41523358 0.74893236 0.00150042 -0.00020646 0.00061383
0.43549228 0.61560684 0.91173679 0.00029616 0.00101386 -0.00083665
0.68363374 0.51177806 0.48182666 -0.00024650 0.00007277 0.00005082
0.34515706 0.44240928 0.12086305 -0.00099499 -0.00017818 -0.00105655
0.30606228 0.58537662 0.69780248 0.00072126 -0.00000930 0.00002962
0.47117949 0.39719504 0.61155844 -0.00016120 -0.00066472 0.00016342
0.59595025 0.40268651 0.32902551 0.00037104 -0.00034397 -0.00011220
0.33022943 0.55313814 0.84318399 -0.00100121 -0.00015808 0.00068165
0.52405024 0.39714453 0.40087846 0.00012397 -0.00062911 -0.00009818
0.67464811 0.38150516 0.25046691 0.00099875 -0.00129695 -0.00032098
0.29476348 0.50642300 0.55599654 -0.00093577 -0.00003667 -0.00003549
0.36853188 0.40830359 0.10787955 -0.00109812 -0.00018225 -0.00141114
0.30678132 0.61095136 0.20226592 0.00093054 0.00064151 0.00039329
0.36405662 0.42376956 0.18037556 0.00047828 0.00048614 0.00002876
0.29669577 0.49098641 0.62598187 -0.00091938 -0.00007385 0.00003062
0.50362974 0.46911523 0.05674876 -0.00011290 -0.00007485 -0.00130407
0.30160972 0.45558801 0.35237852 -0.00088000 -0.00006773 -0.00002440
0.29520810 0.50293911 0.59624857 -0.00091896 -0.00014643 0.00026570
0.42114535 0.40027183 0.65716273 -0.00029741 -0.00054332 0.00021978
0.69929451 0.61384708 0.36244676 -0.00116251 0.00069581 -0.00014602
0.67268354 0.50169677 0.75004190 -0.00035322 -0.00000373 0.00003376
0.61568993 0.36836055 0.11914056 0.00076196 -0.00211995 -0.00066560
0.39825013 0.63135499 0.92060548 -0.00031417 0.00236498 0.00084339
0.50077242 0.52651131 0.05623634 0.00010012 0.00019472 -0.00121038
0.71254921 0.58899271 0.72994679 0.00048665 -0.00049321 0.00040319
0.70056415 0.61861950 0.31656444 -0.00131290 0.00108938 0.00003635
0.66582775 0.36856669 0.33710730 0.00051589 -0.00170902 -0.00032655
0.48831621 0.40784261 0.74807501 0.00000102 -0.00021737 0.00048054
0.34744838 0.54280317 0.13598043 0.00002108 0.00041726 0.00002221
0.58560669 0.40696108 0.72330981 0.00028518 -0.00026208 0.00047705
0.69578761 0.59093547 0.42896390 -0.00088383 0.00013265 -0.00007749
0.26746082 0.60843933 0.24470280 -0.00209386 0.00018408 -0.00044471
0.48252249 0.50661302 0.07719105 -0.00001141 0.00007456 0.00009518
0.67310494 0.53999424 0.16897529 0.00005586 0.00036020 -0.00023550
0.49436596 0.37395623 0.07839610 0.00006681 -0.00173105 -0.00119970
0.60047150 0.40588027 0.69345689 0.00029834 -0.00034124 0.00031056
0.70664454 0.51788747 0.39757138 0.00093345 -0.00001745 -0.00010321
0.40018106 0.56936729 0.87695390 0.00004634 0.00064841 -0.00001431
0.63346857 0.41817522 0.19964510 -0.00022330 0.00051819 -0.00020749
0.73324639 0.60457337 0.58039391 0.00173270 -0.00004048 0.00006658
0.30098400 0.61254144 0.28609255 0.00105310 0.00057414 -0.00003576
0.58525175 0.42845371 0.11646193 -0.00032784 0.00022207 0.00055260
0.34122148 0.44548383 0.19866759 0.00063912 0.00017323 0.00004177
0.43065792 0.40741709 0.83671188 -0.00031205 -0.00036734 0.00153701
0.47755355 0.61329508 0.07718924 -0.00007222 0.00072597 0.00117607
0.30352288 0.44530907 0.59787959 -0.00095789 0.00000905 0.00015773
0.43719429 0.59363550 0.08422663 0.00017282 0.00002648 0.00081566
0.30624157 0.57686752 0.28682753 0.00044316 0.00037927 -0.00006624
0.69772494 0.45178944 0.42197165 0.00086490 -0.00011237 -0.00013288
0.66832972 0.45470697 0.52440244 -0.00057266 0.00022944 0.00000989
0.56434566 0.48147491 0.84056419 -0.00016413 0.00027043 -0.00047675
0.71474046 0.58074343 0.34350079 0.00055451 -0.00025580 -0.00010542
0.29103956 0.61344433 0.83525562 -0.00203479 0.00067515 0.00094398
0.30944717 0.55534941 0.46345210 0.00010704 0.00041629 -0.00001629
0.52638739 0.39716908 0.61449826 0.00009424 -0.00067410 0.00006805
0.28434256 0.63137865 0.52446747 -0.00025145 0.00198032 -0.00025327
0.39000586 0.41645822 0.15458147 0.00024854 0.00036182 0.00016103
0.55081427 0.41680592 0.77180845 0.00002308 0.00036300 0.00009936
0.68616122 0.52737105 0.34606606 -0.00012852 0.00022705 -0.00004739
0.68840158 0.41233382 0.32763022 0.00114470 -0.00002148 -0.00015361
0.32034230 0.47158566 0.15039608 -0.00118914 -0.00009947 -0.00057393
0.30300912 0.44774511 0.41798431 -0.00084638 -0.00007708 0.00001196
0.50998396 0.55350399 0.08385985 -0.00008407 0.00037394 0.00046174
0.53383654 0.40006205 0.17415820 0.00022151 -0.00054627 -0.00052727
0.53277189 0.46311995 0.08308711 0.00002107 -0.00013764 0.00050772
0.67719656 0.41723642 0.16888517 0.00143126 -0.00035039 -0.00046378
0.54805422 0.55350816 0.90744442 0.00005283 -0.00019847 0.00105859
0.26675588 0.61028242 0.50560403 -0.00181788 0.00037999 0.00011257
0.68806988 0.56082225 0.72606629 -0.00014202 0.00040216 0.00013249
0.49363706 0.55985975 0.05637650 -0.00006988 0.00000877 -0.00092685
0.32350194 0.39732426 0.71993953 -0.00156656 -0.00033621 0.00044745
0.30985904 0.55714107 0.24399018 0.00018424 0.00045557 -0.00008418
0.65115452 0.44675216 0.16991732 -0.00064874 0.00017958 0.00011886
0.61114502 0.58780587 0.90471846 0.00018958 -0.00072855 0.00033885
0.41737500 0.45303911 0.81368196 0.00020180 0.00053854 -0.00056271
0.30655739 0.57469177 0.62775618 0.00035459 0.00038090 0.00009281
0.30286169 0.50477105 0.18715766 -0.00111798 -0.00013775 -0.00040281
0.30870628 0.42219317 0.34328687 -0.00104788 -0.00012821 -0.00021356
0.57658923 0.56985557 0.90911555 0.00020758 -0.00019868 0.00090321
0.53981107 0.39740619 0.29691491 0.00012279 -0.00066910 -0.00016800
0.29301050 0.52069664 0.28394729 -0.00092834 0.00006235 -0.00008655
0.26685280 0.61154884 0.28413299 -0.00192628 0.00044425 -0.00004112
0.69783729 0.46221766 0.22711843 0.00103195 -0.00014840 -0.00023720
0.66638017 0.45061398 0.48246253 -0.00052848 0.00017919 0.00000161
0.70360684 0.54860210 0.19258906 0.00115286 0.00023495 -0.00055473
0.42019331 0.40009391 0.25277463 -0.00034941 -0.00054297 -0.00034469
0.52719110 0.43401393 0.80304581 -0.00008012 0.00067461 -0.00022214
0.32917044 0.46064088 0.46513316 0.00041464 0.00007907 -0.00005301
0.31833175 0.51974303 0.21340133 0.00029348 0.00010119 0.00000984
0.30474526 0.43912587 0.56056052 -0.00101096 -0.00001972 0.00011192
0.33314425 0.36986595 0.63052672 -0.00058463 -0.00175551 -0.00008172
0.29608867 0.49524808 0.31949744 -0.00092965 0.00005690 -0.00009835
0.54330480 0.44819930 0.86336285 0.00015917 -0.00030941 0.00111496
0.58496636 0.40082160 0.25737140 0.00030903 -0.00052755 -0.00025417
0.32561535 0.53084475 0.17549707 0.00022209 0.00016047 0.00003385
0.73324680 0.60303795 0.48163348 0.00178930 -0.00025925 -0.00009284
0.45995867 0.39741120 0.51976377 -0.00010291 -0.00064004 -0.00003033
0.70931494 0.54315048 0.24818604 0.00102057 0.00016864 -0.00014559
0.36345819 0.41712856 0.45900881 -0.00004323 0.00044329 -0.00012348
0.55240345 0.39786401 0.32676375 0.00013430 -0.00063825 -0.00009289
0.68421984 0.51940751 0.67986679 -0.00016110 0.00005255 0.00011809
0.39666784 0.40433663 0.47659191 -0.00038740 -0.00024225 -0.00009143
0.30078742 0.51539069 0.74646950 -0.00113734 -0.00005313 0.00017907
0.67178792 0.51025635 0.13092218 0.00144199 -0.00000779 -0.00065731
0.70512861 0.50544029 0.50462544 0.00085689 -0.00013833 0.00001540
0.30119514 0.46191126 0.24444297 -0.00102367 -0.00021503 -0.00013023
0.45739684 0.59158939 0.90339649 0.00007839 0.00070875 -0.00039650
0.34440026 0.57774174 0.87111562 -0.00035823 -0.00032987 0.00041667
0.41229627 0.59684604 0.05783140 -0.00067063 -0.00004471 -0.00201127
0.33663926 0.51598006 0.12019043 -0.00105574 0.00009438 -0.00097381
0.50486016 0.39707354 0.37396264 0.00007754 -0.00063388 -0.00009976
0.71178561 0.55872387 0.37967575 0.00076642 0.00004295 -0.00011625
0.58707523 0.59341472 0.92952049 0.00020326 -0.00098707 0.00174770
0.66788745 0.37245357 0.66711813 0.00054309 -0.00193936 0.00045729
0.42858866 0.39918238 0.28765306 -0.00030070 -0.00058682 -0.00010070
0.40641430 0.40224737 0.32539624 -0.00033463 -0.00039013 -0.00015611
0.71832418 0.63136458 0.70310283 0.00076650 0.00209982 0.00011919
0.30055302 0.61189657 0.13143690 -0.00189997 0.00121602 -0.00133908
0.60902435 0.46359435 0.81120449 -0.00035014 0.00020788 -0.00052805
0.32376087 0.59746271 0.10582621 -0.00132333 0.00015506 -0.00181334
0.61007553 0.40644822 0.22923322 0.00024277 -0.00012933 -0.00027581
0.67702317 0.47982618 0.35123992 -0.00029578 0.00004354 -0.00004800
0.73324591 0.59543580 0.32186067 0.00177613 -0.00040181 0.00005840
0.54727507 0.48524812 0.87879699 0.00017790 -0.00036186 0.00108699
0.70842111 0.53232300 0.30690077 0.00095613 0.00012575 -0.00001470
0.69236219 0.42635900 0.46780390 0.00097257 -0.00011959 -0.00006846
0.68499941 0.52004749 0.57392997 -0.00018253 0.00016122 0.00003305
0.61356241 0.40714177 0.35889938 0.00026294 -0.00001226 -0.00006256
0.57617831 0.44276106 0.85425854 0.00025415 -0.00029417 0.00119510
0.42547137 0.42125204 0.77514786 -0.00004215 0.00055258 -0.00009705
0.29645959 0.49224848 0.41091350 -0.00088651 0.00005576 -0.00020179
0.29706529 0.49781951 0.23246020 -0.00103171 -0.00003921 -0.00023637
0.64830792 0.42596307 0.40797549 -0.00026677 0.00052212 -0.00007213
0.28622115 0.63150376 0.22157188 -0.00053513 0.00207855 -0.00016356
0.31454092 0.50824344 0.15357120 -0.00117831 -0.00009009 -0.00059342
0.73324680 0.59442502 0.44402328 0.00177053 -0.00042154 -0.00001718
0.54222947 0.39747354 0.55302346 0.00013978 -0.00063712 0.00004978
0.65798026 0.44227505 0.20497823 -0.00052692 0.00016257 -0.00005414
0.29080197 0.63136500 0.18286620 -0.00091761 0.00231225 -0.00068451
0.59681946 0.40461016 0.19856338 0.00026053 -0.00020104 -0.00039872
0.26675314 0.60554999 0.39496103 -0.00178264 0.00000613 0.00004662
0.28832090 0.55790377 0.31907058 -0.00073132 0.00007620 -0.00003518
0.68319368 0.60458428 0.88117522 0.00196156 0.00047368 0.00162512
0.42037627 0.40489230 0.71615326 -0.00030400 -0.00029475 0.00039447
0.30625385 0.53645062 0.78540814 -0.00111922 0.00010897 0.00076383
0.68242049 0.44890514 0.76315868 0.00108157 -0.00018125 0.00062853
0.34891692 0.56310081 0.10478044 -0.00056961 -0.00018922 -0.00074940
0.68520463 0.52149147 0.64161348 -0.00007658 0.00023576 0.00008569
0.31595346 0.51429504 0.38667083 0.00027416 0.00011776 -0.00008227
0.43906832 0.39983907 0.68668985 -0.00022026 -0.00061216 0.00029782
0.60837221 0.52067536 0.10364045 -0.00026341 0.00019584 -0.00005878
0.32533136 0.46956518 0.79428136 -0.00098805 -0.00028505 0.00079551
0.31619468 0.39962152 0.32046813 -0.00127875 -0.00021501 -0.00005965
0.70124495 0.62633950 0.21331033 -0.00059593 0.00166490 -0.00004174
0.46085805 0.39739209 0.30307305 -0.00019149 -0.00066117 -0.00014923
0.70145386 0.62120527 0.66428202 -0.00098863 0.00128818 -0.00013109
0.68348950 0.55205822 0.82052821 0.00095180 0.00008806 0.00062429
0.70106882 0.55035895 0.76703149 0.00102159 0.00010827 0.00035655
0.62812233 0.54739183 0.87750643 0.00055973 -0.00015627 0.00105310
0.31219131 0.41058445 0.46932462 -0.00130361 0.00020653 -0.00025180
0.68531483 0.40335092 0.39836326 0.00122109 -0.00005428 -0.00000217
0.66584587 0.36858538 0.44019076 0.00050542 -0.00167301 -0.00008392
0.64405161 0.38247404 0.13473715 0.00137490 -0.00119858 -0.00090357
0.71472675 0.58068705 0.59192848 0.00059983 -0.00034014 0.00001222
0.41156951 0.37600911 0.80553281 -0.00033692 -0.00182401 0.00066612
0.69789147 0.45270416 0.36339650 0.00093386 0.00001355 0.00001219
0.36322883 0.41784212 0.67133534 0.00022273 0.00036140 0.00016386
0.33385596 0.36891532 0.47314954 -0.00049420 -0.00179361 0.00006124
0.38256934 0.45022079 0.08935907 -0.00090057 -0.00003390 -0.00108058
0.62173885 0.45758629 0.09120487 0.00081016 -0.00023146 -0.00110372
0.67907155 0.51470429 0.80922264 0.00102952 -0.00024069 0.00073751
0.31690779 0.39786807 0.27768901 -0.00135304 -0.00025097 -0.00019688
0.32082108 0.48854536 0.51083505 0.00027423 0.00007265 0.00001873
0.38206741 0.57810575 0.08330555 -0.00041500 -0.00004791 -0.00087509
0.70024651 0.49329588 0.21116143 0.00107007 -0.00008094 -0.00028392
0.65268451 0.61376876 0.12767108 -0.00064027 0.00070278 0.00086434
0.71974039 0.63131356 0.42703789 0.00061327 0.00179198 -0.00005505
0.70014638 0.61754459 0.56006950 -0.00110043 0.00101010 -0.00001320
0.69631827 0.44450995 0.60599506 0.00102720 -0.00001632 0.00021621
0.45837691 0.41193467 0.76012832 -0.00018952 0.00005986 0.00028054
0.30930156 0.55628961 0.51329118 0.00007661 0.00038956 0.00006060
0.46318054 0.39734247 0.43365893 -0.00004906 -0.00063405 -0.00002258
0.63041502 0.45285937 0.78635842 -0.00054484 0.00034832 -0.00035258
0.29821798 0.53970093 0.18939984 -0.00107182 0.00012006 -0.00040961
0.69078761 0.55711192 0.27368748 -0.00021847 0.00047221 -0.00012218
0.28311244 0.63159299 0.63547760 -0.00039515 0.00191926 -0.00005008
0.56523949 0.41689283 0.07153212 0.00066562 -0.00017373 -0.00141661
0.66847038 0.38551077 0.72713256 0.00099469 -0.00165252 0.00037495
0.53906292 0.59550768 0.04740774 0.00048491 -0.00007254 -0.00212498
0.30976936 0.50482190 0.77645481 -0.00115724 -0.00005795 0.00043976
0.29686007 0.48932251 0.27010098 -0.00096085 -0.00009883 -0.00006189
0.73306435 0.61213142 0.65461516 0.00177060 0.00062582 0.00025763
0.44056734 0.38203666 0.81934410 -0.00027202 -0.00135448 0.00099624
0.31720677 0.51304829 0.68821621 0.00021035 0.00010370 0.00020310
0.69497484 0.58526421 0.51972872 -0.00065235 0.00005724 0.00003061
0.67852908 0.48565346 0.51162738 -0.00033175 0.00006041 -0.00004331
0.36947984 0.41388291 0.31623814 -0.00007716 0.00031514 -0.00020127
0.28920648 0.55157632 0.64184600 -0.00085725 0.00013754 -0.00005040
0.46943477 0.39739799 0.65374506 -0.00023187 -0.00068804 0.00030475
0.66477966 0.45591569 0.80336845 0.00092927 -0.00038451 0.00079511
0.55516076 0.36985549 0.80715793 -0.00011070 -0.00201305 0.00039938
0.43839523 0.50687069 0.85644013 0.00011120 0.00016065 -0.00042744
0.32377681 0.40940216 0.17331177 -0.00155491 -0.00026403 -0.00049944
0.30474070 0.58937955 0.15423745 -0.00067074 -0.00016519 -0.00050257
0.29202026 0.52874005 0.41561738 -0.00094888 0.00006276 0.00000403
0.30911177 0.55754972 0.59048676 0.00014217 0.00047969 0.00013856
0.29862303 0.49469998 0.70679677 -0.00106014 -0.00018153 0.00031515
0.28538877 0.57979459 0.50602120 -0.00062093 -0.00034351 -0.00004939
0.30290264 0.60006762 0.40018037 0.00102730 0.00007358 -0.00013863
0.64412981 0.42240936 0.37213182 -0.00019065 0.00047306 0.00000315
0.37122414 0.58076304 0.89261144 -0.00009649 -0.00043685 0.00032175
0.53967130 0.40099815 0.70985442 0.00007848 -0.00060796 0.00037713
0.67799121 0.62215549 0.10941681 0.00139145 0.00133693 -0.00153975
0.26988730 0.59428126 0.53474969 -0.00165118 -0.00056754 0.00012332
0.68028569 0.53296709 0.74612820 -0.00022034 0.00021972 0.00009800
0.61060345 0.40628847 0.49558455 0.00040380 -0.00008900 0.00001641
0.61427146 0.62047124 0.89689153 -0.00017467 0.00138830 -0.00107637
0.37195778 0.55116397 0.87925023 -0.00052754 -0.00010473 0.00105848
0.29617196 0.62501931 0.34963849 0.00085816 0.00132161 0.00001101
0.68212742 0.39552307 0.52680206 0.00116254 -0.00040825 -0.00008365
0.63853049 0.58014816 0.88602185 0.00006317 -0.00057042 0.00055584
0.65679979 0.48118010 0.11703672 0.00112914 -0.00036683 -0.00091725
0.64670604 0.42437711 0.60372150 -0.00029488 0.00040921 0.00005721
0.65616810 0.43443033 0.30452070 -0.00038471 0.00039647 -0.00011990
0.50899416 0.40249038 0.72349918 0.00000426 -0.00053214 0.00038338
0.46943372 0.55377162 0.90962058 0.00007073 -0.00022622 0.00109627
0.29150966 0.53303885 0.57554007 -0.00098435 0.00031338 0.00005227
0.71319860 0.63095403 0.45896134 -0.00010321 0.00181058 -0.00018565
0.70787644 0.59616345 0.14544888 0.00189711 -0.00040842 -0.00099426
0.69285417 0.63154250 0.83243316 0.00071773 0.00239096 0.00076416
0.48567072 0.58260292 0.08385893 -0.00008191 0.00015792 0.00084366
0.32348967 0.47787389 0.36312029 0.00026272 0.00013669 -0.00002787
0.68296343 0.50791788 0.37844837 -0.00013863 0.00007545 -0.00001113
0.67821324 0.48433921 0.56105429 -0.00029030 0.00004051 0.00008976
0.59410399 0.40234381 0.38606235 0.00037514 -0.00034103 -0.00007366
0.61470014 0.63160163 0.08521051 0.00038534 0.00218334 -0.00050070
0.54376233 0.58850670 0.90169585 -0.00034502 0.00058154 -0.00039326
0.26948637 0.59427667 0.31373021 -0.00152341 -0.00049260 -0.00014328
0.67823738 0.38736022 0.30999443 0.00123051 -0.00051829 -0.00003389
0.64782286 0.42547840 0.45462134 -0.00022634 0.00049258 -0.00000633
0.66176474 0.56338793 0.14397806 0.00018016 0.00037959 0.00007547
0.56891471 0.39896259 0.35579163 0.00026296 -0.00057362 -0.00009450
0.69161177 0.44927603 0.19610728 0.00112748 -0.00028904 -0.00037815
0.58406079 0.41669393 0.76062483 0.00007919 0.00035880 0.00008776
0.33538005 0.44899207 0.23563302 0.00053619 0.00021541 -0.00010259
0.34648862 0.44593391 0.73812968 0.00065837 0.00025566 0.00000095
0.39142117 0.50295812 0.83784866 0.00013463 0.00015565 -0.00030195
0.52957153 0.41821349 0.84950060 0.00003592 -0.00040360 0.00129930
0.32750484 0.46492571 0.61894858 0.00045008 0.00004676 0.00006032
0.61751026 0.43482170 0.13264741 -0.00043569 0.00023472 0.00048534
0.27892751 0.60745448 0.79682797 -0.00224620 0.00029645 0.00048388
0.69265711 0.59404093 0.21282975 -0.00078731 -0.00000892 0.00004336
0.69362962 0.50456852 0.17486541 0.00120230 -0.00006814 -0.00069329
0.65978009 0.60502893 0.90521365 0.00161025 0.00017836 0.00180647
0.30762500 0.59534889 0.73973060 0.00080816 0.00021833 0.00001324
0.61695731 0.59082764 0.08227206 0.00055660 -0.00046366 -0.00091247
0.46821663 0.39723462 0.46861985 -0.00006365 -0.00063451 0.00003665
0.62838310 0.41280666 0.32798746 0.00010094 0.00030811 -0.00016739
0.30442488 0.58944464 0.32408056 0.00074199 0.00012277 -0.00009432
0.49687743 0.53435051 0.87739670 -0.00008867 0.00021077 -0.00002266
0.68744093 0.40987724 0.61127037 0.00124552 -0.00006641 0.00023677
0.33180854 0.37148741 0.31501353 -0.00064777 -0.00159378 0.00003868
0.29916775 0.47164121 0.53025663 -0.00093562 -0.00007665 0.00005049
0.64350593 0.43285894 0.81470960 0.00084330 -0.00038735 0.00110689
0.65480566 0.54574710 0.85634732 0.00084518 -0.00003708 0.00088043
0.69964629 0.46357527 0.54700774 0.00088053 -0.00003025 0.00002013
0.42026201 0.59405237 0.94208527 -0.00024286 -0.00042876 0.00240732
0.72721696 0.61275530 0.19909036 0.00210629 0.00055868 -0.00062168
0.48505753 0.45114642 0.86719280 -0.00006066 -0.00046727 0.00101304
0.64958858 0.45113552 0.75793797 -0.00061366 0.00038125 0.00005486
0.60481572 0.62524319 0.93390292 0.00040205 0.00163313 0.00223936
0.69481921 0.43688369 0.39109969 0.00093079 -0.00001889 -0.00009393
0.58198649 0.50561279 0.87959975 0.00024734 -0.00030707 0.00115555
0.70574075 0.59245449 0.18034233 0.00065538 -0.00057803 -0.00034162
0.27032512 0.62574518 0.46633020 -0.00142022 0.00155698 0.00003155
0.39097020 0.40597993 0.23976016 -0.00027788 -0.00011208 -0.00027769
0.26675314 0.60156804 0.44378483 -0.00183641 -0.00029195 -0.00005652
0.36825705 0.37072742 0.77289200 -0.00043947 -0.00206759 0.00069983
0.66788465 0.46780714 0.72395337 -0.00047247 0.00012905 0.00008214
0.47141847 0.37415329 0.81547135 0.00003851 -0.00184994 0.00047477
0.70367646 0.49728814 0.66661656 0.00109631 -0.00020762 0.00013095
0.45819175 0.53950220 0.87737352 0.00018168 0.00034185 -0.00024881
0.68106019 0.60909235 0.16583340 -0.00103483 0.00043260 0.00031762
0.59408939 0.46669984 0.07600740 0.00032087 -0.00001397 -0.00138547
0.57622743 0.62559366 0.91655064 -0.00020834 0.00167834 -0.00016286
0.70843071 0.53977519 0.68810242 0.00107369 0.00011900 0.00015634
0.48246399 0.40005293 0.70542783 -0.00007676 -0.00063566 0.00035974
0.43551821 0.55564749 0.90546209 -0.00023480 -0.00007940 0.00099541
0.32539099 0.47773951 0.22410989 0.00032504 -0.00000294 -0.00012092
0.30408403 0.44789666 0.67855799 -0.00106467 0.00002925 0.00030414
0.64235729 0.42097306 0.49347177 -0.00014967 0.00043083 0.00002020
0.29785895 0.48121005 0.48343709 -0.00087651 -0.00003559 0.00004542
0.66235906 0.44349331 0.28211105 -0.00046797 0.00025421 -0.00001699
0.30284211 0.60073519 0.65210176 0.00102229 0.00007627 0.00002703
0.33011475 0.40217227 0.75169837 -0.00151440 -0.00026548 0.00078588
0.42318001 0.41032371 0.14364995 -0.00002953 0.00010117 -0.00005769
0.38479790 0.47305280 0.81485975 0.00039231 0.00017492 -0.00051503
0.49503407 0.46492055 0.83493662 -0.00003614 0.00033185 -0.00062162
0.67985380 0.49160573 0.45681456 -0.00032057 0.00007526 0.00012163
0.64380491 0.62087989 0.87667084 -0.00042049 0.00190295 -0.00059019
0.43062469 0.40034920 0.19698605 -0.00022913 -0.00056821 -0.00035103
0.33098394 0.45621830 0.53582770 0.00040954 0.00018672 0.00001475
0.67704189 0.48007944 0.64594543 -0.00022493 -0.00003108 0.00010488
0.28446770 0.63137913 0.26499403 -0.00029837 0.00202178 -0.00006144
0.35411900 0.42372859 0.54528749 0.00017881 0.00042490 0.00007737
0.44971767 0.50580174 0.88676733 -0.00006496 -0.00034293 0.00111054
0.67746693 0.48698178 0.69063675 -0.00026804 -0.00009823 0.00019068
0.44442144 0.39803922 0.40516216 -0.00029477 -0.00060574 -0.00016672
0.70822549 0.53074872 0.47448355 0.00085445 0.00012587 -0.00005202
0.30496824 0.46400979 0.20212939 -0.00111018 -0.00014109 -0.00031358
