-1.134719000000000033e+00 -1.719440000000000135e-01 -2.013320000000000110e-01 -5.937045216560363770e-01 -9.507428854703903198e-02 -7.990468740463256836e-01
-4.926150000000000251e-01 1.075849999999999973e+00 -1.692730000000000068e-01 -3.134190738201141357e-01 6.594927310943603516e-01 -6.832553744316101074e-01
-9.568259999999999543e-01 -6.071760000000000490e-01 2.110080000000000011e-01 -5.839918255805969238e-01 -3.618102967739105225e-01 7.266683578491210938e-01
-6.456819999999999782e-01 -1.048006999999999911e+00 9.547400000000000331e-02 -4.897338747978210449e-01 -7.809539437294006348e-01 3.876489698886871338e-01
-7.381189999999999696e-01 1.008189000000000002e+00 6.453999999999999668e-03 -5.520546436309814453e-01 8.317358493804931641e-01 5.874584615230560303e-02
-1.140739999999999948e-01 7.684250000000000247e-01 1.115219999999999961e-01 1.307297796010971069e-01 -8.893374204635620117e-01 4.381649792194366455e-01
-1.221700000000000008e+00 2.556100000000000039e-01 2.679300000000000084e-02 -8.212997913360595703e-01 5.608262419700622559e-01 1.045972555875778198e-01
-1.010834999999999928e+00 -6.211619999999999919e-01 1.656620000000000037e-01 -6.045110225677490234e-01 -4.182249307632446289e-01 6.779781579971313477e-01
-8.397270000000000012e-01 2.401619999999999866e-01 -2.154739999999999989e-01 4.854269623756408691e-01 -1.822447925806045532e-01 -8.550716042518615723e-01
-2.575020000000000087e-01 1.156206000000000067e+00 -1.679039999999999977e-01 -1.707557737827301025e-01 7.668644189834594727e-01 -6.186770796775817871e-01
-5.370890000000000386e-01 -1.116354999999999986e+00 -7.228300000000000003e-02 -4.409410059452056885e-01 -8.513836264610290527e-01 -2.841074466705322266e-01
-7.521569999999999645e-01 -3.536110000000000086e-01 -1.837320000000000064e-01 7.178648710250854492e-01 3.959985971450805664e-01 -5.725864171981811523e-01
-2.569130000000000025e-01 1.220145999999999953e+00 -3.699299999999999811e-02 -1.729231923818588257e-01 9.683319926261901855e-01 -1.800853908061981201e-01
-1.036529999999999951e-01 -7.444049999999999834e-01 2.500700000000000145e-02 -6.674277037382125854e-02 9.966523647308349609e-01 4.721752554178237915e-02
-3.346950000000000203e-01 -8.531959999999999544e-01 -2.351169999999999927e-01 1.202803179621696472e-01 3.209329247474670410e-01 -9.394332170486450195e-01
-9.157999999999999474e-01 3.905770000000000075e-01 2.497169999999999945e-01 3.906481340527534485e-02 -1.473363139666616917e-03 9.992355704307556152e-01
-1.149253999999999998e+00 4.862549999999999928e-01 3.097099999999999853e-02 -9.595627188682556152e-01 2.557604312896728516e-01 1.175843328237533569e-01
-5.576119999999999965e-01 6.923759999999999915e-01 -2.234399999999999997e-01 2.674733400344848633e-01 -3.261659443378448486e-01 -9.066829085350036621e-01
-8.437010000000000343e-01 1.571720000000000061e-01 2.053349999999999898e-01 8.484582304954528809e-01 -2.376125901937484741e-01 4.729258418083190918e-01
-1.106023999999999896e+00 -5.077589999999999604e-01 1.237990000000000063e-01 -7.977927327156066895e-01 -3.675340414047241211e-01 4.779596626758575439e-01
-1.007552000000000003e+00 3.987589999999999746e-01 -2.350450000000000039e-01 -3.247517347335815430e-01 1.050213426351547241e-01 -9.399504661560058594e-01
-9.298599999999999921e-02 -1.171591999999999967e+00 1.780380000000000018e-01 -4.615432769060134888e-02 -6.927995085716247559e-01 7.196517586708068848e-01
-8.922520000000000451e-01 -7.759899999999999576e-01 -1.702100000000000002e-01 -5.704986453056335449e-01 -5.103645920753479004e-01 -6.434743404388427734e-01
-7.484990000000000254e-01 -7.938600000000000101e-01 2.325089999999999935e-01 -2.460635751485824585e-01 -2.610385119915008545e-01 9.334407448768615723e-01
-6.215500000000000469e-01 4.236050000000000093e-01 -3.307500000000000023e-02 8.146040439605712891e-01 -5.624163150787353516e-01 -1.418033838272094727e-01
-9.650119999999999809e-01 7.838019999999999987e-01 -5.566000000000000114e-02 -7.683131694793701172e-01 6.113559603691101074e-01 -1.895753145217895508e-01
-1.233664000000000094e+00 1.781999999999999904e-02 -8.709100000000000175e-02 -9.258692860603332520e-01 -4.194557201117277145e-03 -3.778206408023834229e-01
-9.151869999999999727e-01 -4.577809999999999935e-01 -2.484709999999999974e-01 -9.685238450765609741e-02 -6.717591732740402222e-02 -9.930291771888732910e-01
-6.229289999999999550e-01 4.203520000000000034e-01 2.324499999999999830e-02 8.005574941635131836e-01 -5.876569747924804688e-01 1.173334121704101562e-01
-6.945019999999999527e-01 5.071459999999999857e-01 2.064930000000000099e-01 4.133765697479248047e-01 -4.065349698066711426e-01 8.147693276405334473e-01
-5.775169999999999471e-01 7.351529999999999454e-01 -2.413470000000000060e-01 1.493286490440368652e-01 -2.104150056838989258e-01 -9.661399722099304199e-01
-6.518699999999999495e-02 -1.133251000000000008e+00 2.096899999999999875e-01 -3.916059434413909912e-02 -5.575910806655883789e-01 8.291915655136108398e-01
-4.325180000000000136e-01 -6.248439999999999550e-01 6.902800000000000602e-02 5.553164482116699219e-01 7.801722288131713867e-01 2.880191504955291748e-01
-6.577039999999999553e-01 -7.462100000000000399e-01 -2.496569999999999900e-01 7.134447246789932251e-02 1.757437735795974731e-01 -9.818473458290100098e-01
-2.928680000000000172e-01 1.177926000000000029e+00 -1.290320000000000078e-01 -2.120793610811233521e-01 8.146895170211791992e-01 -5.397251844406127930e-01
-5.280759999999999899e-01 8.402699999999999614e-01 -2.495060000000000056e-01 2.721254341304302216e-02 -2.875217422842979431e-02 -9.992160797119140625e-01
-3.298409999999999953e-01 -1.131920000000000037e+00 1.741429999999999922e-01 -2.346831858158111572e-01 -6.864713430404663086e-01 6.882448196411132812e-01
-5.184839999999999449e-01 -6.262729999999999686e-01 1.652119999999999977e-01 4.800726175308227539e-01 5.938310623168945312e-01 6.456741094589233398e-01
-1.156968999999999914e+00 -4.709610000000000185e-01 1.185699999999999948e-02 -9.340495467185974121e-01 -3.567199110984802246e-01 1.738450676202774048e-02
-5.469699999999999562e-01 -5.942359999999999864e-01 1.590749999999999942e-01 5.235420465469360352e-01 5.679917931556701660e-01 6.350504755973815918e-01
-2.108889999999999931e-01 7.716840000000000366e-01 1.497159999999999880e-01 1.946534514427185059e-01 -8.037034273147583008e-01 5.622908473014831543e-01
-7.182910000000000128e-01 -2.678989999999999982e-01 -8.874999999999999556e-02 9.425136446952819824e-01 1.921320706605911255e-01 -2.734102010726928711e-01
-7.168290000000000495e-01 -8.270239999999999814e-01 2.313759999999999983e-01 -2.903311848640441895e-01 -3.131848573684692383e-01 9.042251110076904297e-01
-6.500860000000000527e-01 -3.891979999999999884e-01 -6.053900000000000253e-02 8.220599889755249023e-01 5.112732648849487305e-01 -2.506334185600280762e-01
-9.216969999999999885e-01 2.061109999999999887e-01 -2.433069999999999955e-01 1.838263571262359619e-01 -2.666643634438514709e-02 -9.825969934463500977e-01
-5.817970000000000086e-01 -6.226819999999999578e-01 2.013030000000000097e-01 4.433550536632537842e-01 3.765867054462432861e-01 8.133994936943054199e-01
-4.057410000000000183e-01 6.833869999999999667e-01 1.419130000000000114e-01 4.379935264587402344e-01 -6.892863512039184570e-01 5.771013498306274414e-01
-5.995359999999999578e-01 -5.687360000000000193e-01 1.795599999999999974e-01 4.515337944030761719e-01 4.365139305591583252e-01 7.781856060028076172e-01
-1.135407999999999973e+00 3.870370000000000199e-01 -1.502310000000000034e-01 -5.463823676109313965e-01 2.442570477724075317e-01 -8.011271953582763672e-01
-9.816479999999999650e-01 -2.414370000000000127e-01 -2.492830000000000046e-01 -1.696520484983921051e-02 -1.107663381844758987e-02 -9.997947216033935547e-01
-1.172193000000000040e+00 -2.359559999999999991e-01 1.551579999999999904e-01 -7.260187864303588867e-01 -1.823962479829788208e-01 6.630446910858154297e-01
-1.687369999999999981e-01 -1.190519000000000105e+00 1.459799999999999986e-01 -9.863133728504180908e-02 -8.171458244323730469e-01 5.679299831390380859e-01
-1.116519999999999957e+00 -7.237100000000000477e-02 2.194939999999999947e-01 -4.838763773441314697e-01 -1.371342502534389496e-02 8.750289082527160645e-01
-6.519340000000000135e-01 -5.563759999999999817e-01 -2.045559999999999878e-01 4.154170155525207520e-01 3.775734007358551025e-01 -8.275669813156127930e-01
-8.251159999999999606e-01 7.001519999999999966e-01 2.355379999999999974e-01 -2.771765291690826416e-01 2.163046598434448242e-01 9.361546039581298828e-01
-7.472119999999999873e-01 1.801530000000000076e-01 9.463000000000000578e-02 8.727019429206848145e-01 -2.270202636718750000e-01 4.322649836540222168e-01
-4.813450000000000228e-01 -1.151369000000000087e+00 3.082700000000000023e-02 -4.276443719863891602e-01 -8.938962817192077637e-01 1.344235837459564209e-01
-3.039760000000000240e-01 1.055598999999999954e+00 -2.295369999999999910e-01 -1.210242286324501038e-01 3.820341229438781738e-01 -9.161893725395202637e-01
-7.652210000000000401e-01 -5.152799999999999603e-01 2.371630000000000127e-01 3.576846420764923096e-01 2.199688404798507690e-01 9.075656533241271973e-01
-1.169143999999999961e+00 -4.395379999999999843e-01 -1.340200000000000072e-02 -9.039735198020935059e-01 -4.192124307155609131e-01 -8.421815931797027588e-02
-3.401589999999999892e-01 -1.157896999999999954e+00 -1.393600000000000116e-01 -2.178363054990768433e-01 -8.010563254356384277e-01 -5.575446486473083496e-01
-2.920570000000000110e-01 -8.010180000000000078e-01 -2.015710000000000002e-01 2.643635869026184082e-01 5.426408648490905762e-01 -7.972784042358398438e-01
-1.153056999999999999e+00 -4.805119999999999947e-01 -1.216700000000000073e-02 -9.212664365768432617e-01 -3.800792992115020752e-01 -8.251044154167175293e-02
-4.986189999999999789e-01 9.404620000000000202e-01 2.415210000000000135e-01 -1.697918027639389038e-01 2.925664782524108887e-01 9.410502910614013672e-01
-8.639740000000000197e-01 9.024839999999999529e-01 -9.020000000000000240e-03 -7.010762691497802734e-01 7.100164294242858887e-01 -6.609641760587692261e-02
-3.259449999999999847e-01 -8.480809999999999738e-01 2.324100000000000055e-01 1.233471259474754333e-01 3.494247496128082275e-01 9.288099408149719238e-01
-1.026801000000000075e+00 4.309979999999999922e-01 2.221079999999999999e-01 -3.636830747127532959e-01 1.696966141462326050e-01 9.159353971481323242e-01
-7.179849999999999843e-01 -1.022459999999999924e+00 9.299999999999999239e-03 -6.232372522354125977e-01 -7.818161845207214355e-01 1.840691640973091125e-02
-3.467459999999999987e-01 -1.181267000000000067e+00 9.501199999999999923e-02 -2.604947984218597412e-01 -8.921920657157897949e-01 3.689657449722290039e-01
-2.936469999999999914e-01 -8.014459999999999917e-01 -2.022100000000000009e-01 2.749642431735992432e-01 5.360186100006103516e-01 -7.981721162796020508e-01
-5.422400000000000136e-02 -7.689610000000000056e-01 -9.945700000000000374e-02 7.377578318119049072e-02 8.828880786895751953e-01 -4.637519419193267822e-01
-6.053800000000000292e-01 6.670099999999999918e-01 -2.292180000000000051e-01 2.516827285289764404e-01 -2.623119652271270752e-01 -9.315837025642395020e-01
-7.501550000000000162e-01 -3.185499999999999998e-01 1.674509999999999887e-01 7.014943957328796387e-01 3.212304413318634033e-01 6.361734271049499512e-01
-5.796099999999999863e-02 -7.490809999999999969e-01 -2.057799999999999907e-02 5.225459486246109009e-02 9.961383342742919922e-01 -7.055481523275375366e-02
-1.072913000000000006e+00 4.396360000000000268e-01 -1.918950000000000100e-01 -6.281696557998657227e-01 2.316280007362365723e-01 -7.427997589111328125e-01
-3.280250000000000110e-01 1.124714999999999909e+00 1.812640000000000085e-01 -1.776689589023590088e-01 6.704214811325073242e-01 7.203949093818664551e-01
-6.834989999999999677e-01 -4.275329999999999964e-01 1.574119999999999964e-01 6.678326725959777832e-01 3.334353864192962646e-01 6.654474139213562012e-01
-2.192580000000000084e-01 8.707329999999999792e-01 2.278129999999999877e-01 1.032014116644859314e-01 -4.683517217636108398e-01 8.774942755699157715e-01
-1.028807000000000027e+00 7.044920000000000071e-01 3.701000000000000123e-02 -8.041256070137023926e-01 5.744020342826843262e-01 1.531152725219726562e-01
-8.082319999999999505e-01 8.846939999999999804e-01 1.521750000000000047e-01 -5.340252518653869629e-01 5.891779065132141113e-01 6.063714623451232910e-01
-7.137719999999999620e-01 -1.018528000000000100e+00 -5.322799999999999754e-02 -5.772322416305541992e-01 -7.939879894256591797e-01 -1.907512247562408447e-01
-7.335899999999999643e-01 5.184469999999999912e-01 -2.280050000000000132e-01 4.515215754508972168e-01 -2.161489427089691162e-01 -8.656834363937377930e-01
-1.161462999999999912e+00 -3.444499999999999784e-01 -1.324450000000000072e-01 -5.311799049377441406e-01 -1.337521821260452271e-01 -8.366350531578063965e-01
-9.343259999999999899e-01 -2.849439999999999751e-01 -2.484810000000000074e-01 8.641263097524642944e-02 3.591689467430114746e-02 -9.956117868423461914e-01
-1.142163999999999957e+00 1.036399999999999960e-01 -2.018530000000000046e-01 -5.457057356834411621e-01 5.651771277189254761e-02 -8.360687494277954102e-01
-1.181090000000000056e-01 -1.072297000000000056e+00 2.366759999999999975e-01 -1.610869914293289185e-02 -3.273358345031738281e-01 9.447707533836364746e-01
-5.862819999999999698e-01 -9.932680000000000398e-01 1.972250000000000114e-01 -3.391104340553283691e-01 -5.385428071022033691e-01 7.713468074798583984e-01
-8.052160000000000428e-01 -6.632399999999999407e-02 -1.594150000000000011e-01 6.280436515808105469e-01 -2.811846882104873657e-02 -7.776699662208557129e-01
-3.779939999999999967e-01 -9.515580000000000149e-01 2.484300000000000119e-01 2.711824513971805573e-02 -1.301964968442916870e-01 9.911172986030578613e-01
-7.663619999999999877e-01 -5.249700000000000477e-01 -2.393430000000000002e-01 2.628979682922363281e-01 1.781888008117675781e-01 -9.482263922691345215e-01
-5.019820000000000393e-01 -5.749410000000000354e-01 7.875300000000000356e-02 6.563053727149963379e-01 6.888907551765441895e-01 3.077218234539031982e-01
-5.284290000000000376e-01 -1.085542000000000007e+00 -1.386020000000000030e-01 -3.480997085571289062e-01 -7.353684902191162109e-01 -5.814291238784790039e-01
-1.111483999999999916e+00 5.352029999999999843e-01 8.761599999999999944e-02 -8.628817200660705566e-01 3.936300277709960938e-01 3.170024752616882324e-01
-9.236199999999999966e-01 -4.594899999999999679e-02 -2.379080000000000084e-01 3.149243593215942383e-01 2.056421898305416107e-02 -9.488939642906188965e-01
-1.716310000000000058e-01 -8.670759999999999579e-01 -2.209000000000000130e-01 1.069902852177619934e-01 4.596942961215972900e-01 -8.816088438034057617e-01
-3.497460000000000013e-01 8.636650000000000160e-01 2.403139999999999998e-01 8.960934728384017944e-02 -3.078094720840454102e-01 9.472187757492065430e-01
-1.223621999999999987e+00 5.212999999999999752e-03 1.104419999999999985e-01 -8.823047280311584473e-01 -8.236835710704326630e-03 4.706065654754638672e-01
-7.065989999999999771e-01 -6.698140000000000205e-01 2.482719999999999927e-01 3.675260022282600403e-02 9.984895586967468262e-02 9.943235516548156738e-01
-2.401079999999999881e-01 -8.577179999999999804e-01 -2.242589999999999861e-01 1.483101993799209595e-01 4.857853949069976807e-01 -8.614038825035095215e-01
-1.780269999999999908e-01 -1.174210999999999894e+00 1.643540000000000001e-01 -1.502906382083892822e-01 -7.335602045059204102e-01 6.627986431121826172e-01
-1.663489999999999969e-01 1.003058999999999923e+00 -2.488970000000000071e-01 2.999873273074626923e-02 3.694824874401092529e-02 -9.988668560981750488e-01
-7.010880000000000445e-01 2.963729999999999976e-01 7.262100000000000499e-02 8.622680306434631348e-01 -3.887364268302917480e-01 3.246194720268249512e-01
-1.178585999999999911e+00 -3.576070000000000082e-01 -9.367999999999999938e-02 -8.874918818473815918e-01 -2.554472982883453369e-01 -3.835424780845642090e-01
-4.854209999999999914e-01 -1.123977999999999922e+00 -1.089770000000000044e-01 -3.506758511066436768e-01 -8.247631192207336426e-01 -4.436127543449401855e-01
-1.186641999999999975e+00 -3.044069999999999832e-01 -1.075119999999999965e-01 -8.865086436271667480e-01 -1.982638388872146606e-01 -4.180836379528045654e-01
-1.724299999999999999e-01 7.337080000000000268e-01 4.074200000000000044e-02 6.767672300338745117e-01 -6.749641895294189453e-01 2.939548492431640625e-01
-9.589860000000000051e-01 2.174200000000000091e-02 2.462469999999999937e-01 1.788461208343505859e-01 7.877711206674575806e-03 9.838455915451049805e-01
-1.143785999999999969e+00 4.479600000000000248e-01 -1.008010000000000017e-01 -8.781685829162597656e-01 3.471343964338302612e-02 -4.770900607109069824e-01
-5.782450000000000090e-01 -6.187589999999999479e-01 -1.975889999999999869e-01 4.400550723075866699e-01 4.689297378063201904e-01 -7.658044099807739258e-01
-3.159219999999999806e-01 -6.824569999999999803e-01 3.179200000000000081e-02 4.538166821002960205e-01 8.723266124725341797e-01 1.819247603416442871e-01
-7.738540000000000418e-01 -1.890400000000000066e-02 -1.059240000000000043e-01 7.620882391929626465e-01 -1.827887892723083496e-01 -6.211359500885009766e-01
-1.149870000000000059e-01 -8.074860000000000371e-01 1.681709999999999872e-01 2.539912164211273193e-01 6.809985637664794922e-01 6.868256926536560059e-01
-8.774140000000000272e-01 -8.686639999999999917e-01 8.456500000000000128e-02 -6.702094674110412598e-01 -6.621832251548767090e-01 3.351607024669647217e-01
-3.869750000000000134e-01 -7.718890000000000473e-01 -2.088059999999999916e-01 3.263033926486968994e-01 4.599099159240722656e-01 -8.258382678031921387e-01
-1.098983999999999961e+00 5.734700000000000353e-01 6.995300000000000129e-02 -8.280951380729675293e-01 4.572440683841705322e-01 3.243243098258972168e-01
-4.800650000000000195e-01 -6.380820000000000380e-01 -1.475400000000000045e-01 4.658876955509185791e-01 6.445646286010742188e-01 -6.062053442001342773e-01
-1.185815999999999981e+00 2.857700000000000240e-01 -1.182219999999999938e-01 -8.619511127471923828e-01 2.369552105665206909e-01 -4.482103288173675537e-01
-4.719019999999999881e-01 -7.256860000000000532e-01 -2.102880000000000027e-01 2.745506763458251953e-01 5.086405873298645020e-01 -8.160310983657836914e-01
-5.452040000000000219e-01 -8.352829999999999977e-01 -2.498390000000000055e-01 -1.761999540030956268e-02 4.419592395424842834e-02 -9.988674521446228027e-01
-4.928119999999999723e-01 9.887639999999999763e-01 -2.264599999999999946e-01 -1.931976526975631714e-01 3.759993910789489746e-01 -9.062554836273193359e-01
-3.004060000000000064e-01 1.103520000000000056e+00 2.039930000000000077e-01 -1.657425165176391602e-01 5.479495525360107422e-01 8.199272751808166504e-01
-8.407400000000000428e-01 -4.040540000000000243e-01 -2.406500000000000028e-01 2.485552579164505005e-01 1.168482899665832520e-01 -9.615439176559448242e-01
-8.873860000000000081e-01 1.980860000000000121e-01 -2.326370000000000104e-01 3.205725550651550293e-01 -1.379180699586868286e-01 -9.371294975280761719e-01
-6.807839999999999447e-01 1.010707999999999940e+00 1.206490000000000062e-01 -4.825397729873657227e-01 7.362849712371826172e-01 4.743835031986236572e-01
-9.406799999999999884e-02 -7.586789999999999923e-01 -8.230899999999999328e-02 1.385060250759124756e-01 9.280245900154113770e-01 -3.458128273487091064e-01
-1.148125999999999980e+00 4.608400000000000274e-01 -7.716199999999999448e-02 -8.922439813613891602e-01 2.674913108348846436e-01 -3.637982010841369629e-01
-9.731450000000000378e-01 -3.041769999999999752e-01 2.487119999999999886e-01 -5.480167642235755920e-02 -1.287574041634798050e-02 9.984141588211059570e-01
-6.978259999999999463e-01 -3.708089999999999997e-01 1.351100000000000079e-01 8.896737098693847656e-01 3.677040040493011475e-01 2.706926465034484863e-01
-1.532139999999999891e-01 -9.213879999999999848e-01 2.410750000000000115e-01 1.419926434755325317e-02 2.289667576551437378e-01 9.733306765556335449e-01
-2.079590000000000050e-01 -8.872389999999999999e-01 2.333530000000000049e-01 7.316428422927856445e-02 3.356556296348571777e-01 9.391391873359680176e-01
-5.064380000000000548e-01 -7.848669999999999813e-01 2.410889999999999977e-01 1.884265989065170288e-01 2.199089229106903076e-01 9.571496844291687012e-01
-1.003399999999999986e-01 -1.149790000000000090e+00 -1.965349999999999875e-01 -1.065000593662261963e-01 -6.342439651489257812e-01 -7.657626271247863770e-01
-3.400980000000000114e-01 -9.490070000000000450e-01 -2.494679999999999953e-01 3.023549914360046387e-02 2.862121444195508957e-03 -9.995386600494384766e-01
-7.641499999999999959e-01 7.388710000000000555e-01 2.418170000000000042e-01 -2.153552323579788208e-01 2.144727110862731934e-01 9.526928663253784180e-01
-4.221420000000000172e-01 -7.536770000000000413e-01 -2.090819999999999901e-01 7.312716245651245117e-01 5.221795439720153809e-01 -4.388282597064971924e-01
-9.929249999999999465e-01 3.021449999999999969e-01 2.468150000000000066e-01 -1.705183833837509155e-01 4.066535457968711853e-02 9.845150113105773926e-01
-3.653520000000000101e-01 1.076440999999999981e+00 -2.086020000000000096e-01 -2.632461786270141602e-01 5.743861794471740723e-01 -7.751013040542602539e-01
-7.556929999999999481e-01 -3.195080000000000142e-01 -1.736860000000000070e-01 6.693533658981323242e-01 2.482094466686248779e-01 -7.002557516098022461e-01
-4.565899999999999820e-02 8.315690000000000026e-01 1.852340000000000098e-01 -1.939557865262031555e-02 -6.163670420646667480e-01 7.872201204299926758e-01
-1.085755999999999943e+00 -5.549410000000000176e-01 -1.190849999999999964e-01 -8.397525548934936523e-01 -2.960804998874664307e-01 -4.551394879817962646e-01
-7.888859999999999761e-01 1.787009999999999987e-01 1.604319999999999913e-01 7.366134524345397949e-01 -1.106415167450904846e-01 6.672024130821228027e-01
-7.074770000000000225e-01 -9.644110000000000182e-01 -1.546939999999999982e-01 -3.841122090816497803e-01 -6.636084914207458496e-01 -6.419358253479003906e-01
-1.102097000000000104e+00 -5.639999999999999458e-01 7.466100000000000514e-02 -8.582239151000976562e-01 -4.111140370368957520e-01 3.073063194751739502e-01
-1.102522000000000002e+00 5.657419999999999671e-01 7.118599999999999928e-02 -8.508665561676025391e-01 4.167256057262420654e-01 3.199467062950134277e-01
-8.632619999999999738e-01 8.967859999999999721e-01 4.785799999999999776e-02 -6.232565641403198242e-01 7.596760988235473633e-01 1.855894327163696289e-01
-2.196420000000000039e-01 -1.215019000000000071e+00 -8.442399999999999904e-02 -1.678028702735900879e-01 -9.270620942115783691e-01 -3.352581858634948730e-01
-5.372200000000000308e-01 7.107419999999999849e-01 -2.243940000000000101e-01 2.560888826847076416e-01 -3.863923847675323486e-01 -8.860697150230407715e-01
-3.798270000000000257e-01 7.122319999999999762e-01 -1.584959999999999980e-01 3.190440237522125244e-01 -6.985324621200561523e-01 -6.405179500579833984e-01
-6.678629999999999844e-01 8.759120000000000239e-01 2.280629999999999880e-01 -2.613824903964996338e-01 2.669892907142639160e-01 9.275752902030944824e-01
-6.474389999999999867e-01 7.969519999999999937e-01 2.482399999999999884e-01 -5.573948472738265991e-02 6.295859813690185547e-02 9.964584112167358398e-01
-9.583019999999999872e-01 -1.479239999999999999e-01 2.480140000000000122e-01 5.136549100279808044e-02 5.576513707637786865e-02 9.971218109130859375e-01
-2.588000000000000023e-02 1.230682999999999971e+00 -9.557999999999999829e-02 1.879615476354956627e-03 9.210343956947326660e-01 -3.894767463207244873e-01
-5.889400000000000190e-02 9.751159999999999828e-01 -2.484899999999999887e-01 4.719851911067962646e-02 -5.349059402942657471e-02 -9.974522590637207031e-01
-2.363230000000000053e-01 -1.035916000000000059e+00 2.419060000000000099e-01 -6.688819080591201782e-02 -2.315536290407180786e-01 9.705199003219604492e-01
-1.150152000000000063e+00 -2.953399999999999914e-01 1.645129999999999926e-01 -6.959915757179260254e-01 -2.209450751543045044e-01 6.832122802734375000e-01
-2.567999999999999727e-01 -8.021340000000000137e-01 -1.935050000000000103e-01 1.503891050815582275e-01 5.594661235809326172e-01 -8.150955438613891602e-01
-1.016591000000000022e+00 -3.013549999999999840e-01 -2.423420000000000019e-01 -2.138986587524414062e-01 3.781320154666900635e-02 -9.761236906051635742e-01
-1.139637999999999929e+00 3.518169999999999908e-01 1.585459999999999925e-01 -7.460089325904846191e-01 1.798687130212783813e-01 6.411847472190856934e-01
-1.147413000000000016e+00 -3.521139999999999826e-01 -1.493039999999999923e-01 -7.052425146102905273e-01 -2.978432178497314453e-01 -6.433679461479187012e-01
-3.347229999999999928e-01 -1.048527999999999905e+00 -2.284700000000000064e-01 -1.404030472040176392e-01 -4.126535952091217041e-01 -9.000021815299987793e-01
-1.148204000000000002e+00 4.769930000000000003e-01 -5.528600000000000181e-02 -7.936406731605529785e-01 3.265976607799530029e-01 -5.132917165756225586e-01
-6.861190000000000344e-01 7.784980000000000233e-01 -2.468380000000000019e-01 -1.217229217290878296e-01 1.311474442481994629e-01 -9.838616847991943359e-01
-3.882920000000000260e-01 -1.080710000000000059e+00 -2.008929999999999882e-01 -1.858459562063217163e-01 -5.620357990264892578e-01 -8.059634566307067871e-01
-9.386069999999999691e-01 1.134999999999999941e-03 -2.421429999999999971e-01 1.508885324001312256e-01 -4.257198572158813477e-01 -8.921856880187988281e-01
-7.550689999999999902e-01 1.336289999999999978e-01 -8.918800000000000339e-02 9.261438846588134766e-01 -1.644073277711868286e-01 -3.394520878791809082e-01
-6.257359999999999589e-01 8.861809999999999965e-01 2.346439999999999915e-01 -1.918039768934249878e-01 2.716659307479858398e-01 9.430848360061645508e-01
-8.604760000000000186e-01 2.336930000000000118e-01 2.247359999999999913e-01 4.551441371440887451e-01 -1.389608979225158691e-01 8.795076608657836914e-01
-1.997929999999999984e-01 -1.099526999999999921e+00 -2.201529999999999876e-01 -6.659563630819320679e-02 -4.697409272193908691e-01 -8.802888989448547363e-01
-4.506589999999999763e-01 -1.043719000000000063e+00 -2.085289999999999921e-01 -2.544541358947753906e-01 -5.698947906494140625e-01 -7.813277244567871094e-01
-5.513409999999999700e-01 6.365399999999999947e-01 1.933620000000000061e-01 4.256239235401153564e-01 -5.125927925109863281e-01 7.457163333892822266e-01
-6.287669999999999648e-01 -4.934760000000000257e-01 1.486790000000000056e-01 6.430768370628356934e-01 4.761764705181121826e-01 5.997567176818847656e-01
-5.264269999999999783e-01 9.866449999999999942e-01 -2.198060000000000014e-01 -2.307331115007400513e-01 3.706731498241424561e-01 -8.996464610099792480e-01
-7.280149999999999677e-01 9.278960000000000541e-01 1.737410000000000065e-01 -4.338509142398834229e-01 5.724059343338012695e-01 6.957907676696777344e-01
-1.195742000000000083e+00 -2.803700000000000081e-01 -1.011670000000000069e-01 -8.873404860496520996e-01 -2.375062406063079834e-01 -3.952437937259674072e-01
-7.343229999999999480e-01 -9.308469999999999800e-01 1.666189999999999893e-01 -4.243335723876953125e-01 -5.567837357521057129e-01 7.140958905220031738e-01
-5.656820000000000181e-01 8.734359999999999902e-01 -2.462570000000000037e-01 -8.044268190860748291e-02 1.416116803884506226e-01 -9.866483807563781738e-01
-9.768400000000000694e-02 -8.828289999999999749e-01 -2.230570000000000053e-01 5.019267275929450989e-02 4.423965811729431152e-01 -8.954138159751892090e-01
-3.418379999999999752e-01 -1.194812999999999903e+00 5.788900000000000295e-02 -2.940456867218017578e-01 -9.273583292961120605e-01 2.313948720693588257e-01
-9.321650000000000214e-01 -6.870380000000000376e-01 -1.932149999999999979e-01 -4.878912866115570068e-01 -3.747935593128204346e-01 -7.883475422859191895e-01
-6.193959999999999466e-01 4.329359999999999875e-01 -5.068700000000000289e-02 7.935841083526611328e-01 -6.019710302352905273e-01 -8.862926065921783447e-02
-2.294350000000000001e-01 1.227103000000000055e+00 -2.347899999999999987e-02 -1.703927218914031982e-01 9.755683541297912598e-01 -1.386815756559371948e-01
-6.808130000000000015e-01 -3.855489999999999751e-01 1.227899999999999964e-01 7.654125094413757324e-01 4.105391204357147217e-01 4.955816864967346191e-01
-7.020469999999999766e-01 9.490220000000000322e-01 -1.725450000000000039e-01 -3.870574235916137695e-01 6.212561130523681641e-01 -6.813423633575439453e-01
-1.008097000000000021e+00 6.328749999999999654e-01 -1.613130000000000119e-01 -6.595610380172729492e-01 3.772808015346527100e-01 -6.501063704490661621e-01
-4.073490000000000166e-01 6.829790000000000028e-01 1.425970000000000015e-01 4.346407949924468994e-01 -6.908643841743469238e-01 5.777489542961120605e-01
-4.514380000000000059e-01 1.113507999999999942e+00 1.472839999999999983e-01 -2.807789146900177002e-01 7.718784213066101074e-01 5.704093575477600098e-01
-4.605940000000000034e-01 -1.091693000000000024e+00 -1.674569999999999947e-01 -3.198817372322082520e-01 -6.887337565422058105e-01 -6.506316065788269043e-01
-3.136889999999999956e-01 6.837290000000000312e-01 -3.349800000000000000e-02 -1.680362969636917114e-02 -9.463291764259338379e-01 -3.227671980857849121e-01
-2.641200000000000214e-01 9.626890000000000169e-01 -2.498879999999999990e-01 1.948662400245666504e-01 -2.777414917945861816e-01 -9.406841993331909180e-01
-8.895060000000000189e-01 -1.936519999999999908e-01 -2.330289999999999861e-01 3.788623213768005371e-01 6.157290935516357422e-02 -9.234024882316589355e-01
-8.327940000000000342e-01 -3.840149999999999952e-01 2.353159999999999974e-01 2.745798826217651367e-01 1.604699790477752686e-01 9.480798244476318359e-01
-5.681599999999999845e-02 7.526530000000000165e-01 4.605399999999999772e-02 4.934472590684890747e-02 -9.521800279617309570e-01 3.015266358852386475e-01
-5.312810000000000032e-01 5.772890000000000521e-01 1.266599999999999948e-01 5.798619985580444336e-01 -6.304830908775329590e-01 5.159952640533447266e-01
-4.493400000000000172e-01 -1.116130999999999984e+00 1.448059999999999903e-01 -2.954466640949249268e-01 -7.760359048843383789e-01 5.572069883346557617e-01
-1.901500000000000065e-02 1.235530999999999935e+00 -8.154599999999999349e-02 -2.489825524389743805e-02 9.391975998878479004e-01 -3.424734175205230713e-01
-5.777000000000000017e-03 -1.100918999999999981e+00 2.283469999999999944e-01 3.749700635671615601e-02 -4.100641608238220215e-01 9.112856388092041016e-01
-9.603509999999999547e-01 -7.694739999999999913e-01 -9.624299999999999522e-02 -7.128863930702209473e-01 -5.933606028556823730e-01 -3.737863302230834961e-01
-3.666940000000000199e-01 6.651399999999999535e-01 -6.783400000000000540e-02 5.283674001693725586e-01 -8.073220849037170410e-01 -2.627904713153839111e-01
-6.023990000000000178e-01 7.493710000000000093e-01 2.467040000000000066e-01 1.150750145316123962e-01 2.038863487541675568e-02 9.931476116180419922e-01
-3.660220000000000140e-01 -1.184422000000000086e+00 -6.980200000000000293e-02 -2.723341286182403564e-01 -9.238231778144836426e-01 -2.690440714359283447e-01
-9.177819999999999867e-01 -4.037500000000000117e-02 -2.358540000000000081e-01 3.107720315456390381e-01 1.160671375691890717e-02 -9.504136443138122559e-01
-8.938949999999999951e-01 -7.418059999999999654e-01 1.900300000000000045e-01 -4.571374654769897461e-01 -4.502213001251220703e-01 7.670241594314575195e-01
-1.097828000000000026e+00 -5.652819999999999512e-01 8.408499999999999308e-02 -8.726884722709655762e-01 -3.657953441143035889e-01 3.234324157238006592e-01
-6.075359999999999649e-01 1.073833999999999955e+00 8.736099999999999421e-02 -4.254701733589172363e-01 8.473358750343322754e-01 3.178001940250396729e-01
-1.119291999999999954e+00 5.819999999999999653e-03 2.192860000000000087e-01 -4.647278189659118652e-01 -6.511291954666376114e-03 8.854296803474426270e-01
-9.351519999999999833e-01 -8.286029999999999784e-01 -7.176000000000000087e-03 -7.441333532333374023e-01 -6.662564873695373535e-01 -4.866122454404830933e-02
-8.929430000000000422e-01 -7.725769999999999582e-01 -1.721979999999999900e-01 -5.415570139884948730e-01 -5.038482546806335449e-01 -6.729435324668884277e-01
-5.265720000000000400e-01 -7.071800000000000308e-01 2.198160000000000114e-01 2.676772475242614746e-01 3.843969106674194336e-01 8.835089206695556641e-01
-8.483650000000000357e-01 -2.595299999999999829e-01 -2.225219999999999976e-01 4.382250905036926270e-01 8.015792071819305420e-02 -8.952840566635131836e-01
-3.264759999999999884e-01 9.307560000000000278e-01 -2.491089999999999971e-01 2.132733585312962532e-03 -2.344612032175064087e-02 -9.997227787971496582e-01
-6.556999999999999496e-01 5.456330000000000346e-01 -2.018600000000000116e-01 4.289152622222900391e-01 -3.522385954856872559e-01 -8.318411111831665039e-01
-4.395299999999999763e-01 -1.046281999999999934e+00 2.098849999999999882e-01 -1.853066384792327881e-01 -5.617856383323669434e-01 8.062619566917419434e-01
-1.455909999999999982e-01 1.240868000000000082e+00 8.410000000000000808e-03 -1.181254908442497253e-01 9.916431307792663574e-01 5.186843127012252808e-02
-1.945709999999999940e-01 -9.414900000000000491e-01 -2.466830000000000134e-01 6.540720164775848389e-02 1.762875318527221680e-01 -9.821632504463195801e-01
-1.210218000000000016e+00 -2.425879999999999981e-01 -8.582099999999999451e-02 -9.326605200767517090e-01 -2.139150798320770264e-01 -2.904904186725616455e-01
-7.536890000000000533e-01 5.968600000000000294e-02 -5.248300000000000187e-02 8.969803452491760254e-01 3.555039465427398682e-01 -2.627608180046081543e-01
-5.936639999999999695e-01 4.595779999999999865e-01 -1.213900000000000048e-02 4.795805215835571289e-01 -8.370423913002014160e-01 2.633677721023559570e-01
-9.560579999999999634e-01 4.778180000000000205e-01 2.400760000000000116e-01 -3.200912177562713623e-01 7.976874709129333496e-02 9.440225362777709961e-01
-6.643369999999999553e-01 4.482999999999999763e-01 -1.519230000000000025e-01 1.704542487859725952e-01 -6.460471749305725098e-01 -7.440218329429626465e-01
-5.012739999999999974e-01 6.540559999999999707e-01 1.775549999999999906e-01 4.209963381290435791e-01 -5.511652827262878418e-01 7.204018831253051758e-01
-8.600430000000000019e-01 8.244409999999999794e-01 -1.600810000000000011e-01 -5.533539056777954102e-01 5.151978731155395508e-01 -6.545002460479736328e-01
-3.437509999999999732e-01 6.857490000000000530e-01 -8.998000000000000442e-02 4.012106657028198242e-01 -7.955776453018188477e-01 -4.539672136306762695e-01
-3.821950000000000069e-01 6.809809999999999475e-01 1.198099999999999998e-01 4.204507172107696533e-01 -7.689858078956604004e-01 4.815413355827331543e-01
-1.065342000000000011e+00 6.525520000000000209e-01 9.147000000000000616e-03 -8.744760751724243164e-01 4.760732054710388184e-01 9.298327565193176270e-02
-9.250850000000000461e-01 8.121150000000000313e-01 -9.538900000000000157e-02 -7.191697955131530762e-01 5.964892506599426270e-01 -3.563640415668487549e-01
-5.018019999999999703e-01 7.307759999999999811e-01 2.221990000000000076e-01 2.913134694099426270e-01 -3.643231093883514404e-01 8.845366239547729492e-01
-6.832399999999999585e-02 8.166120000000000045e-01 1.725599999999999912e-01 3.690764307975769043e-03 -7.186119556427001953e-01 6.954015493392944336e-01
-8.772029999999999550e-01 -8.880139999999999700e-01 -2.608500000000000055e-02 -6.741734743118286133e-01 -7.346946597099304199e-01 -7.559039443731307983e-02
-7.917629999999999946e-01 9.392599999999999838e-01 1.005859999999999949e-01 -5.960552096366882324e-01 6.977733373641967773e-01 3.972788453102111816e-01
-1.186930000000000041e+00 1.947500000000000064e-01 -1.453840000000000132e-01 -7.934198379516601562e-01 1.288958340883255005e-01 -5.948704481124877930e-01
-8.410790000000000211e-01 3.657440000000000135e-01 -2.353449999999999986e-01 2.926632761955261230e-01 -1.552188843488693237e-01 -9.435334801673889160e-01
-1.129823999999999939e+00 4.551370000000000138e-01 1.216860000000000025e-01 -8.034038543701171875e-01 3.331700861454010010e-01 4.934975504875183105e-01
-7.557070000000000176e-01 9.440969999999999640e-01 -1.356459999999999888e-01 -4.974927902221679688e-01 6.643701195716857910e-01 -5.577753186225891113e-01
-3.117550000000000043e-01 6.958290000000000308e-01 7.645399999999999419e-02 3.907677233219146729e-01 -8.650599718093872070e-01 3.145978450775146484e-01
-2.418100000000000110e-02 1.243266999999999900e+00 -5.423599999999999949e-02 -1.199597306549549103e-02 9.735208749771118164e-01 -2.282831519842147827e-01
-2.093540000000000123e-01 -1.062823999999999991e+00 2.351789999999999992e-01 -6.862606853246688843e-02 -3.250906169414520264e-01 9.431895613670349121e-01
-1.042510000000000048e+00 3.484000000000000118e-03 2.458879999999999955e-01 -1.853341907262802124e-01 1.637875102460384369e-02 9.825389981269836426e-01
-2.251699999999999882e-02 -1.248671000000000086e+00 1.606300000000000089e-02 -9.756120294332504272e-02 -9.876033663749694824e-01 1.229688525199890137e-01
-1.121720999999999968e+00 1.122559999999999947e-01 -2.149399999999999922e-01 -5.249341726303100586e-01 4.537750408053398132e-02 -8.499323129653930664e-01
-1.480300000000000019e-02 1.028383000000000047e+00 2.481279999999999875e-01 7.921462506055831909e-02 -3.482469171285629272e-02 9.962490797042846680e-01
-7.635650000000000492e-01 -5.388859999999999761e-01 2.412400000000000100e-01 2.806956470012664795e-01 9.051463752985000610e-02 9.555193185806274414e-01
-1.401989999999999903e-01 8.189840000000000453e-01 1.835249999999999937e-01 9.567296504974365234e-02 -6.358880400657653809e-01 7.658283710479736328e-01
-6.899960000000000537e-01 6.413149999999999684e-01 -2.428309999999999913e-01 1.549799144268035889e-01 -2.238374054431915283e-01 -9.622255563735961914e-01
-5.945529999999999982e-01 4.906019999999999825e-01 9.937300000000000300e-02 8.031921982765197754e-01 -3.195531964302062988e-01 5.027604699134826660e-01
-9.052699999999999636e-02 1.242971999999999966e+00 -4.059299999999999714e-02 -1.152327805757522583e-01 9.793179631233215332e-01 -1.663066148757934570e-01
-6.793639999999999679e-01 3.358800000000000119e-01 6.162800000000000222e-02 8.579868078231811523e-01 -4.077010452747344971e-01 3.124715387821197510e-01
-1.861530000000000129e-01 -8.848080000000000389e-01 -2.309289999999999954e-01 6.891457736492156982e-02 3.467800319194793701e-01 -9.354113340377807617e-01
-4.936209999999999765e-01 7.064669999999999561e-01 -2.077309999999999990e-01 1.208686232566833496e-01 -5.235716104507446289e-01 -8.433644175529479980e-01
-8.201370000000000049e-01 -1.271629999999999983e-01 -1.827070000000000083e-01 5.657517910003662109e-01 9.745576977729797363e-02 -8.187962770462036133e-01
-8.463600000000000290e-02 1.111515999999999948e+00 -2.215550000000000019e-01 -1.125996839255094528e-02 4.442817866802215576e-01 -8.958163857460021973e-01
-4.312159999999999882e-01 -6.567549999999999777e-01 1.283330000000000026e-01 5.322168469429016113e-01 6.652159690856933594e-01 5.236725807189941406e-01
-8.588799999999999768e-01 2.415569999999999939e-01 2.250080000000000136e-01 4.522288441658020020e-01 -1.362814754247665405e-01 8.814285993576049805e-01
-2.593480000000000230e-01 7.668580000000000396e-01 -1.612149999999999972e-01 2.670480310916900635e-01 -7.081000804901123047e-01 -6.536663174629211426e-01
-1.120163000000000020e+00 -5.010379999999999834e-01 -1.034049999999999969e-01 -7.894416451454162598e-01 -3.650568425655364990e-01 -4.934728741645812988e-01
-2.446780000000000066e-01 -1.211813000000000029e+00 -7.995099999999999429e-02 -2.226669788360595703e-01 -9.153368473052978516e-01 -3.355262577533721924e-01
-2.547110000000000207e-01 -1.163478000000000012e+00 1.604510000000000103e-01 -1.397239416837692261e-01 -7.654719352722167969e-01 6.281161904335021973e-01
-1.720839999999999870e-01 -9.400169999999999915e-01 -2.455410000000000093e-01 2.707509696483612061e-02 1.571580767631530762e-01 -9.872022867202758789e-01
-1.367819999999999869e-01 1.226866999999999930e+00 8.509300000000000197e-02 -1.648459434509277344e-01 9.254608750343322754e-01 3.410982787609100342e-01
-6.179019999999999513e-01 7.381290000000000351e-01 -2.469310000000000116e-01 1.719954609870910645e-01 -1.767607182264328003e-01 -9.691095352172851562e-01
-5.623999999999999833e-02 1.243654000000000037e+00 4.713900000000000035e-02 1.135936938226222992e-02 9.999351501464843750e-01 8.459142991341650486e-04
-4.425879999999999814e-01 -8.444540000000000379e-01 -2.450970000000000093e-01 6.734771281480789185e-02 1.721173822879791260e-01 -9.827715158462524414e-01
-3.427890000000000104e-01 -8.669409999999999616e-01 -2.404689999999999883e-01 8.321595191955566406e-02 2.783859372138977051e-01 -9.568575620651245117e-01
-1.068109999999999893e+00 -5.569140000000000201e-01 -1.427180000000000115e-01 -7.074206471443176270e-01 -3.989766836166381836e-01 -5.834153890609741211e-01
-2.789090000000000180e-01 -1.198914000000000035e+00 -9.555700000000000305e-02 -2.097411602735519409e-01 -8.831145167350769043e-01 -4.196634590625762939e-01
-1.238429999999999948e-01 9.596390000000000198e-01 2.478799999999999892e-01 4.971671104431152344e-02 -9.519409388303756714e-02 9.942164421081542969e-01
-3.775540000000000007e-01 1.023986000000000063e+00 -2.324019999999999975e-01 -1.092577427625656128e-01 2.926995754241943359e-01 -9.499419331550598145e-01
-9.519050000000000011e-01 7.212880000000000402e-01 -1.566819999999999879e-01 -6.333792805671691895e-01 4.115409553050994873e-01 -6.553356051445007324e-01
-1.101960000000000051e+00 3.795399999999999885e-01 -1.865980000000000139e-01 -5.760538578033447266e-01 1.728575527667999268e-01 -7.989256381988525391e-01
-1.781939999999999913e-01 1.101093000000000099e+00 -2.211899999999999977e-01 -7.645780593156814575e-02 4.665547013282775879e-01 -8.811815977096557617e-01
-8.845190000000000552e-01 7.493769999999999598e-01 1.920459999999999945e-01 -4.935740232467651367e-01 4.545072019100189209e-01 7.414902448654174805e-01
-9.147269999999999568e-01 -6.145799999999999874e-02 -2.352180000000000104e-01 3.185050487518310547e-01 9.872377850115299225e-03 -9.478697180747985840e-01
-2.283580000000000054e-01 -1.160063000000000066e+00 -1.704189999999999872e-01 -1.258809268474578857e-01 -7.420372962951660156e-01 -6.584335565567016602e-01
-8.329560000000000297e-01 9.299760000000000248e-01 -2.233500000000000069e-02 -6.863931417465209961e-01 7.245883941650390625e-01 -6.193648278713226318e-02
-1.041079000000000088e+00 1.986259999999999970e-01 -2.424320000000000086e-01 -2.322105467319488525e-01 1.125991269946098328e-01 -9.661261439323425293e-01
-8.137879999999999558e-01 -9.477889999999999926e-01 1.139500000000000061e-02 -6.077775955200195312e-01 -7.876269221305847168e-01 1.012425273656845093e-01
-1.099774000000000029e+00 2.135819999999999941e-01 -2.187880000000000102e-01 -4.381208717823028564e-01 -1.226990134455263615e-03 -8.989152908325195312e-01
-8.706420000000000270e-01 -1.631900000000000017e-01 2.218670000000000087e-01 4.229668974876403809e-01 9.460916370153427124e-02 9.011925458908081055e-01
-3.754699999999999704e-02 -7.965809999999999835e-01 -1.459360000000000102e-01 7.275094091892242432e-02 8.074568510055541992e-01 -5.854235291481018066e-01
-7.854480000000000350e-01 1.648880000000000068e-01 1.532920000000000116e-01 7.398076653480529785e-01 -2.368832677602767944e-01 6.297388672828674316e-01
-8.596840000000000037e-01 -6.648460000000000480e-01 2.339739999999999875e-01 -3.068273961544036865e-01 -1.928448826074600220e-01 9.320235848426818848e-01
-1.255769999999999942e-01 7.564239999999999853e-01 -8.917500000000000426e-02 1.052267849445343018e-01 -9.471493363380432129e-01 -3.030436933040618896e-01
-1.171491000000000060e+00 3.688569999999999904e-01 -1.011279999999999957e-01 -8.621879816055297852e-01 2.754707038402557373e-01 -4.251444637775421143e-01
-6.298399999999999554e-01 -8.903919999999999613e-01 -2.326689999999999869e-01 -1.088594868779182434e-01 -3.394418358802795410e-01 -9.343066215515136719e-01
-6.763780000000000348e-01 3.544340000000000268e-01 7.987400000000000055e-02 8.638126254081726074e-01 -3.981552422046661377e-01 3.087070882320404053e-01
-4.866469999999999962e-01 -1.134436000000000000e+00 8.526000000000000245e-02 -4.115650653839111328e-01 -8.636317253112792969e-01 2.911262214183807373e-01
-8.224909999999999721e-01 1.619699999999999959e-02 -1.761689999999999923e-01 7.083451151847839355e-01 6.288708653301000595e-03 -7.058382630348205566e-01
-1.097048000000000023e+00 -3.145510000000000250e-01 -2.055929999999999980e-01 -4.570224881172180176e-01 -6.800594180822372437e-02 -8.868515491485595703e-01
-6.908370000000000344e-01 -4.414910000000000223e-01 -1.729809999999999959e-01 6.202983260154724121e-01 4.170672893524169922e-01 -6.642928123474121094e-01
-7.142340000000000355e-01 -9.879240000000000244e-01 1.196210000000000051e-01 -5.127411484718322754e-01 -7.030395269393920898e-01 4.927797317504882812e-01
-3.787200000000000011e-01 9.181089999999999529e-01 -2.495519999999999960e-01 1.388318240642547607e-01 1.620593667030334473e-01 -9.769659042358398438e-01
-3.045669999999999766e-01 9.681359999999999966e-01 -2.490179999999999894e-01 -1.220276132225990295e-01 1.857424974441528320e-01 -9.749917984008789062e-01
-2.874550000000000161e-01 -1.216085000000000083e+00 4.720000000000000237e-03 -2.566539347171783447e-01 -9.650165438652038574e-01 5.359125137329101562e-02
-8.319370000000000376e-01 -7.442779999999999951e-01 -2.207770000000000010e-01 -3.552960753440856934e-01 -3.455678820610046387e-01 -8.685318231582641602e-01
-1.916380000000000028e-01 9.243930000000000202e-01 2.432350000000000068e-01 1.114877127110958099e-02 -7.949646562337875366e-02 9.967728257179260254e-01
-7.394349999999999534e-01 1.322319999999999884e-01 -1.835900000000000032e-02 9.896277189254760742e-01 1.083533987402915955e-01 9.432183951139450073e-02
-6.946780000000000177e-01 7.235700000000000465e-01 -2.497969999999999913e-01 -2.433773316442966461e-02 5.671044439077377319e-02 -9.980940222740173340e-01
-9.369779999999999776e-01 -2.162669999999999870e-01 2.467270000000000019e-01 1.017837002873420715e-01 9.964517503976821899e-02 9.898034334182739258e-01
-6.844609999999999861e-01 1.044785000000000075e+00 1.354099999999999922e-02 -5.623427033424377441e-01 8.256196379661560059e-01 4.607499763369560242e-02
-7.324640000000000040e-01 3.233070000000000110e-01 1.506889999999999896e-01 7.439583539962768555e-01 -3.449279069900512695e-01 5.723204016685485840e-01
-7.448019999999999641e-01 -1.193160000000000054e-01 -4.377500000000000141e-02 9.688096046447753906e-01 1.585419923067092896e-01 -1.904530674219131470e-01
-1.049536999999999942e+00 6.375159999999999716e-01 -1.015810000000000046e-01 -7.852567434310913086e-01 4.805282652378082275e-01 -3.904670178890228271e-01
-9.288549999999999862e-01 7.873599999999999488e-01 -1.224810000000000065e-01 -6.929801106452941895e-01 5.369034409523010254e-01 -4.811581969261169434e-01
-1.071436000000000055e+00 5.799710000000000143e-01 1.211649999999999949e-01 -7.614017724990844727e-01 4.410328865051269531e-01 4.751392006874084473e-01
-9.731560000000000210e-01 7.830719999999999903e-01 1.246599999999999965e-02 -7.818544507026672363e-01 6.184811592102050781e-01 7.864269614219665527e-02
-1.168752000000000013e+00 -4.194100000000000050e-01 -6.340099999999999902e-02 -9.138528704643249512e-01 -3.338247537612915039e-01 -2.311580181121826172e-01
-5.131130000000000413e-01 -6.099499999999999922e-01 1.454120000000000135e-01 5.260214805603027344e-01 6.178009510040283203e-01 5.844855904579162598e-01
-5.384400000000000297e-01 -5.457319999999999949e-01 8.877300000000000468e-02 7.148217558860778809e-01 4.484757184982299805e-01 5.365626215934753418e-01
-7.471419999999999728e-01 -3.858989999999999920e-01 1.923469999999999902e-01 5.090807080268859863e-01 3.980379104614257812e-01 7.631530165672302246e-01
-9.836519999999999708e-01 -1.698729999999999962e-01 -2.498829999999999940e-01 3.180437162518501282e-02 4.660081490874290466e-02 -9.984071254730224609e-01
-1.241400999999999977e+00 3.893699999999999939e-02 -6.166399999999999659e-02 -9.794258475303649902e-01 -1.173938289284706116e-01 -1.641450375318527222e-01
-7.349179999999999602e-01 6.295260000000000300e-01 -2.478839999999999932e-01 6.677814573049545288e-02 -5.009768065065145493e-03 -9.977552294731140137e-01
-2.329600000000000073e-02 -7.514760000000000328e-01 2.869700000000000029e-02 1.780191063880920410e-02 9.865114092826843262e-01 1.627217978239059448e-01
