0.67536104 0.32956627 0.63368660 -0.00019853 0.00010945 0.00003192
0.75204557 0.19135396 0.56306744 0.00005850 -0.00011204 -0.00012272
0.54239768 0.57648486 0.37741479 -0.00004839 0.00009006 -0.00015293
0.73496312 0.23638944 0.61876500 -0.00001643 0.00002565 0.00015864
0.23718588 0.62857080 0.47925264 0.00001403 0.00006399 -0.00006208
0.54395062 0.60443795 0.39978611 0.00000552 0.00005041 -0.00006895
0.75736105 0.46777859 0.37434885 0.00015496 -0.00002699 -0.00032740
0.41039717 0.24415417 0.34157276 0.00000731 0.00004966 -0.00033979
0.41938207 0.61686158 0.34018400 0.00017798 -0.00015493 -0.00019159
0.51133871 0.48006460 0.52032590 0.00001759 0.00001292 0.00016115
0.36536169 0.22534133 0.34328991 -0.00013626 0.00025279 -0.00027594
0.70701009 0.31714270 0.65284109 0.00008419 -0.00009577 0.00029833
0.25199655 0.21728376 0.38366205 -0.00002739 -0.00013117 0.00008652
0.69172025 0.20832990 0.49333563 0.00001915 0.00008715 0.00004213
0.49580926 0.39168417 0.37059069 0.00002620 -0.00003975 -0.00021903
0.86810392 0.49417868 0.45199621 0.00010604 -0.00007123 -0.00008068
0.28150254 0.34509572 0.60749060 -0.00006473 0.00001209 0.00017407
0.85397214 0.23173058 0.52187884 0.00020986 0.00002890 0.00005605
0.23409772 0.21930704 0.60728651 -0.00016235 -0.00001948 -0.00014219
0.11689011 0.67587358 0.48313946 -0.00008552 -0.00006032 0.00005303
0.29100657 0.65995806 0.51085287 -0.00006746 -0.00004155 -0.00011437
0.46164441 0.18318547 0.57933342 0.00009408 -0.00025978 -0.00008285
0.49270338 0.44293141 0.37012923 -0.00003779 0.00000255 -0.00022032
0.89209032 0.61064970 0.48150221 -0.00010570 0.00041667 -0.00000258
0.59194112 0.23519590 0.53175557 0.00008236 0.00003633 -0.00003851
0.27529076 0.22241291 0.35914329 -0.00009189 0.00000066 -0.00021298
0.20074929 0.25328550 0.42559165 0.00002293 0.00006592 -0.00000833
0.51469755 0.33733100 0.52187884 0.00004066 -0.00002330 0.00003855
0.53307998 0.46467268 0.52010846 0.00007662 -0.00001085 0.00013312
0.64333928 0.50787574 0.46752125 0.00001964 -0.00003629 0.00002685
0.46522510 0.20843640 0.49703169 0.00011868 -0.00010392 0.00004043
0.86385334 0.42274314 0.46752125 0.00011060 -0.00017815 -0.00022005
0.43436137 0.34354278 0.54983187 -0.00003597 0.00000474 0.00005262
0.65265697 0.27987197 0.33277422 0.00007758 0.00014182 -0.00013012
0.13504629 0.20533049 0.42714459 -0.00039262 -0.00036171 0.00022282
0.26395869 0.70072061 0.39609009 -0.00016860 0.00002530 -0.00021433
0.75825733 0.19492130 0.42714459 -0.00014475 -0.00021452 0.00004329
0.61072737 0.60754383 0.37095895 -0.00002636 0.00017361 -0.00022814
0.32964388 0.18824807 0.35323763 -0.00013371 -0.00032721 -0.00020056
0.83279884 0.35751933 0.59863436 -0.00012603 0.00013681 0.00017031
0.64333928 0.61841452 0.37575978 0.00001592 0.00026826 -0.00017989
0.43213841 0.18285713 0.61350274 -0.00003147 -0.00034866 0.00011298
0.68278414 0.49219093 0.54583859 -0.00008177 0.00014783 0.00000162
0.26275182 0.33111924 0.36813259 0.00006905 0.00015674 -0.00021592
0.40884420 0.37149587 0.52919984 -0.00002481 0.00002184 0.00002815
0.48055932 0.27831903 0.56069809 0.00002752 -0.00002231 -0.00005474
0.42747959 0.77933085 0.41472545 -0.00006206 0.00020475 0.00009256
0.43990317 0.21309523 0.41901159 0.00004583 -0.00008865 -0.00019252
0.22093759 0.69475299 0.43490931 -0.00006207 -0.00007318 0.00001465
0.43798637 0.37770766 0.38055617 -0.00007419 0.00001983 -0.00012163
0.66381598 0.20819679 0.58380151 0.00005692 0.00008713 -0.00004342
0.57575500 0.58114368 0.36813259 -0.00003481 0.00007199 -0.00024264
0.61693913 0.57959074 0.50577253 0.00003435 -0.00000049 0.00022765
0.26193541 0.62673831 0.52089822 0.00002943 0.00004205 -0.00002834
0.51599759 0.55319065 0.50039935 -0.00001708 0.00003785 0.00010732
0.77844566 0.46467268 0.49448484 0.00013169 -0.00004548 0.00001989
0.18987864 0.38597375 0.43025494 -0.00009824 -0.00001445 -0.00022189
0.35449106 0.24415417 0.63440090 -0.00009127 -0.00002423 -0.00004907
0.80173993 0.32811093 0.59331441 -0.00008658 0.00008192 -0.00007366
0.53307998 0.59184581 0.39609009 -0.00001414 0.00006007 -0.00006066
0.52665526 0.36528406 0.51566702 0.00006510 -0.00002097 0.00003719
0.30360317 0.64553785 0.52356488 -0.00007556 -0.00002554 -0.00008575
0.87317544 0.39789593 0.48196363 0.00011108 -0.00018064 -0.00025836
0.36394629 0.78613275 0.42559165 -0.00000006 -0.00013760 -0.00004241
0.30152670 0.57224762 0.40978706 -0.00002019 -0.00007182 0.00004931
0.82037520 0.39823318 0.52809060 -0.00004808 -0.00005479 0.00003012
0.35449106 0.61841452 0.35513219 -0.00007479 -0.00010041 -0.00016354
0.52842116 0.33733100 0.40972942 0.00008468 -0.00002334 -0.00000178
0.68682182 0.20067166 0.30391604 0.00018749 -0.00031244 -0.00033099
0.69841117 0.19619472 0.52686602 0.00008600 0.00006388 -0.00011878
0.70701009 0.50815517 0.51130992 0.00001006 0.00001505 -0.00002659
0.69924539 0.40862018 0.62903214 -0.00011087 0.00020175 0.00025337
0.06098402 0.64326155 0.55583513 -0.00032777 0.00009393 -0.00016612
0.33740866 0.47554335 0.40893519 0.00005419 -0.00014037 -0.00011093
0.33274981 0.18797742 0.42404315 -0.00003489 -0.00014725 -0.00011574
0.14988805 0.60288501 0.59952176 0.00014325 0.00028247 0.00007423
0.29547906 0.63860273 0.38973185 -0.00008805 -0.00005009 -0.00006776
0.49891517 0.25929320 0.50789785 0.00001286 -0.00000378 0.00003520
0.55629873 0.37233886 0.43768692 0.00002610 0.00000153 0.00001342
0.79552811 0.26278955 0.63305652 -0.00000497 0.00009616 0.00040007
0.65576285 0.28963777 0.34639135 0.00004339 0.00006520 -0.00007305
0.08738414 0.59469873 0.55759221 0.00002779 -0.00016928 0.00009490
0.35604399 0.54697889 0.51395434 0.00001839 -0.00004950 0.00007163
0.43679729 0.66034406 0.49420086 0.00002220 0.00000630 0.00003001
0.50872093 0.26900133 0.46907860 0.00004376 -0.00001570 0.00001466
0.12776077 0.74379939 0.53585535 -0.00007556 0.00023377 0.00003748
0.28305548 0.73954439 0.43045461 -0.00003300 0.00020511 -0.00007944
0.42126778 0.19529402 0.54050976 0.00003076 -0.00001564 0.00005737
0.39486769 0.69606179 0.34314346 -0.00012629 -0.00002303 0.00001257
0.59243363 0.29074258 0.48305514 0.00001251 0.00000956 0.00001332
0.75049263 0.61639124 0.44733736 0.00000531 0.00003195 0.00015756
0.62159801 0.36994293 0.47907072 0.00001414 0.00001422 0.00004167
0.25354949 0.28142491 0.61707449 0.00001596 0.00006661 0.00009792
0.69774121 0.35130754 0.65698522 -0.00015070 0.00007710 0.00035508
0.30169085 0.69414061 0.37745473 -0.00005300 -0.00003205 -0.00010426
0.65110403 0.56872016 0.50661111 0.00002539 -0.00004692 0.00019460
0.37623230 0.54853183 0.39258486 0.00006542 -0.00006261 -0.00010816
0.19764338 0.57364082 0.50168604 0.00006067 -0.00003096 0.00002238
0.31411442 0.57182604 0.50723231 -0.00004215 -0.00004823 -0.00006318
0.75825733 0.37711310 0.43801525 0.00008039 -0.00005555 0.00000854
0.32559294 0.58114368 0.38211355 -0.00007009 -0.00013031 -0.00012136
0.69303799 0.22416109 0.50669098 0.00006786 0.00009657 -0.00000106
0.77844566 0.19452643 0.41006219 0.00004202 -0.00029452 -0.00018721
0.41195014 0.19756576 0.63207150 -0.00008546 -0.00013760 0.00026740
0.42587784 0.43516669 0.47839630 -0.00001155 -0.00002983 0.00002654
0.17434917 0.72695214 0.50634491 0.00001028 -0.00002431 -0.00007540
0.41039717 0.70848548 0.50165057 0.00003699 0.00003753 0.00009870
0.49580926 0.49681425 0.51410967 -0.00002155 0.00002442 0.00013776
0.33083302 0.29074258 0.39142683 0.00004257 -0.00000906 0.00003259
0.13863137 0.57891202 0.56535691 -0.00013636 -0.00011652 -0.00010678
0.79863399 0.18572786 0.47218007 -0.00010568 -0.00025773 0.00007119
0.31100854 0.25347185 0.66498065 0.00000525 -0.00009258 0.00013833
0.65726256 0.18203630 0.52187884 0.00003358 -0.00018790 -0.00001409
0.35604399 0.50181031 0.51410967 0.00007079 -0.00009528 0.00008123
0.41460788 0.76283854 0.39764303 -0.00015052 0.00002442 -0.00014880
0.70702338 0.43982553 0.36968553 -0.00004392 0.00004126 -0.00024722
0.81994486 0.43827260 0.50479639 -0.00008088 -0.00006899 0.00006513
0.60187560 0.25347185 0.39764303 -0.00006293 -0.00004943 -0.00005372
0.24012759 0.18514219 0.51410967 -0.00003257 -0.00036577 -0.00000040
0.72432321 0.64481449 0.42249021 0.00009535 0.00014792 -0.00010822
0.34206748 0.33814299 0.42404315 -0.00005740 0.00001939 0.00000892
0.85947847 0.23638944 0.54050976 0.00026452 -0.00010422 0.00001492
0.15751965 0.23800449 0.36707658 -0.00016652 0.00039759 -0.00006554
0.68371594 0.64741910 0.41472545 0.00003413 0.00006372 -0.00013720
0.62780976 0.18267077 0.46597272 -0.00007411 -0.00029794 -0.00001656
0.79803938 0.32646039 0.56380838 0.00001215 0.00002120 0.00000934
0.84988123 0.22061150 0.52343178 0.00023318 -0.00000547 0.00012796
0.76446915 0.44759026 0.38147464 0.00020590 -0.00005542 -0.00026687
0.58428735 0.31960967 0.45448977 -0.00000759 0.00000858 0.00003015
0.33430719 0.19266289 0.52503353 -0.00004092 -0.00010326 -0.00012245
0.37157348 0.26175573 0.36813259 -0.00004467 0.00001693 -0.00000512
0.16569260 0.40255481 0.45509765 -0.00027115 0.00005391 -0.00017871
0.48912713 0.24104829 0.59486735 0.00004589 -0.00000178 0.00003717
0.77689272 0.42556503 0.47994924 0.00007210 0.00001025 0.00006956
0.58623517 0.26123658 0.41937986 -0.00008431 -0.00002121 -0.00002411
0.81105757 0.42205980 0.47373748 0.00003743 -0.00001059 0.00008271
0.33896160 0.22351329 0.34794873 0.00001064 0.00023740 -0.00027615
0.61090481 0.48641396 0.44422701 0.00006897 -0.00001671 0.00003781
0.66887414 0.46933153 0.40850922 -0.00006700 0.00005576 0.00000608
0.41039717 0.71625018 0.32772493 0.00007668 0.00023516 -0.00040421
0.88715196 0.42837808 0.50168604 0.00036863 0.00006295 -0.00001317
0.72229111 0.57337898 0.50479639 0.00004953 0.00003157 0.00028182
0.08583117 0.72704977 0.50013310 -0.00042979 0.00035377 -0.00015061
0.70390421 0.62621468 0.47062713 0.00008364 0.00020308 0.00010602
0.14639612 0.28297785 0.53493690 -0.00045211 -0.00010626 0.00014998
0.47406802 0.79431468 0.39609009 -0.00037876 0.00027644 0.00017717
0.47196043 0.31869566 0.55759221 0.00003458 -0.00001266 0.00003655
0.32964388 0.18490703 0.45199621 0.00003655 -0.00020917 0.00003081
0.37778527 0.49396127 0.42404315 0.00006392 -0.00008781 0.00000983
0.47653499 0.42740196 0.37279144 -0.00005860 0.00001398 -0.00020287
0.40884420 0.24465556 0.62436891 0.00012193 0.00006140 0.00011501
0.21627876 0.21451952 0.42404315 -0.00001992 -0.00003040 -0.00004701
0.18860967 0.46156681 0.49392134 -0.00013507 0.00005542 0.00001019
0.10291362 0.59977913 0.61230916 -0.00030635 0.00010958 0.00037129
0.36691466 0.34265095 0.55759221 -0.00001851 0.00002318 0.00003291
0.27887139 0.57289976 0.41018641 0.00000441 -0.00008512 -0.00002023
0.21472579 0.72582078 0.43957260 -0.00024556 0.00019597 -0.00015116
0.16037264 0.57182604 0.46787620 -0.00006960 -0.00008320 -0.00013857
0.71423799 0.28596395 0.62291354 0.00015482 -0.00003186 -0.00004097
0.76446915 0.19557799 0.41317248 -0.00011461 -0.00028022 -0.00005182
0.15886849 0.61048108 0.48669791 0.00000617 0.00011044 -0.00000276
0.25058115 0.22241291 0.37124294 -0.00004003 -0.00008272 -0.00004776
0.62470388 0.63657057 0.46752125 0.00002916 0.00018900 0.00006930
0.26597306 0.33733100 0.60441571 -0.00012000 -0.00005374 0.00015211
0.19609044 0.57749659 0.54983187 0.00001537 -0.00007535 -0.00009441
0.62159801 0.22753319 0.39764303 -0.00005343 -0.00009568 -0.00013274
0.56724483 0.44137847 0.39525148 0.00013272 -0.00005893 0.00000203
0.30790266 0.39944893 0.43831694 0.00003749 -0.00009114 -0.00001673
0.33119681 0.30471912 0.39535797 -0.00000553 -0.00000212 -0.00000391
0.30179733 0.39789593 0.55449069 0.00006515 -0.00004138 0.00006821
0.69488376 0.52057880 0.37124294 -0.00006296 -0.00003579 -0.00019816
0.06611762 0.58424956 0.51100373 -0.00050093 -0.00001729 -0.00015561
0.47440520 0.24415417 0.42404315 0.00007572 -0.00009303 -0.00007672
0.61093593 0.21154229 0.42249021 -0.00015811 -0.00017294 -0.00011149
0.40923023 0.28918964 0.36347818 -0.00010788 0.00001429 -0.00004563
0.14173730 0.69140297 0.56567639 -0.00010420 -0.00011493 -0.00023830
0.72875130 0.37142485 0.49392134 0.00002302 -0.00000396 0.00005408
0.80795169 0.25968364 0.63269711 0.00000603 0.00007767 0.00045666
0.65429419 0.37770766 0.37124294 -0.00005785 0.00006809 -0.00017472
0.41164395 0.74060929 0.41322574 -0.00005635 -0.00010341 -0.00000032
0.58155859 0.26434249 0.43180788 -0.00007207 -0.00000794 0.00000723
0.66973937 0.52213174 0.38317400 -0.00005276 -0.00010399 -0.00005728
0.74428087 0.50039047 0.51116347 0.00000745 -0.00000729 0.00012315
0.21006697 0.35596639 0.58227956 -0.00002771 0.00002509 0.00025598
0.71622127 0.60599089 0.38211355 0.00017231 0.00026800 -0.00019956
0.26131421 0.70693254 0.53777212 -0.00005536 0.00002100 0.00005231
0.28616139 0.35751933 0.60320002 -0.00002906 0.00010234 0.00015120
0.21767198 0.58218199 0.46602595 0.00008048 0.00001734 0.00008333
0.83279884 0.38702533 0.49440497 -0.00004300 -0.00010067 0.00004564
0.49572939 0.53921419 0.49392134 -0.00001998 0.00002584 0.00005709
0.47421888 0.23328356 0.61350274 0.00002914 0.00006560 0.00013841
0.60140967 0.59046143 0.36692131 -0.00000932 0.00007045 -0.00027161
0.61538619 0.31558976 0.50120240 0.00003552 0.00001545 0.00000696
0.41195014 0.26258099 0.35571346 -0.00008552 0.00004846 -0.00010390
0.14018436 0.28608376 0.49378821 -0.00043255 -0.00010722 -0.00003483
0.37002054 0.49573162 0.41495618 0.00007944 -0.00011274 -0.00003500
0.44456202 0.23328356 0.40742216 -0.00000854 -0.00009640 -0.00008872
0.79604280 0.47709629 0.40850922 0.00023583 -0.00003028 -0.00006551
0.45387968 0.24570711 0.40368178 0.00002180 -0.00008611 -0.00007187
0.67905700 0.22707176 0.39519823 0.00006995 -0.00002081 -0.00006602
0.24665883 0.26278955 0.66163969 -0.00016147 0.00011253 -0.00025005
0.17282285 0.56872016 0.50945520 0.00006064 -0.00006933 0.00004628
0.55171537 0.54542595 0.51046687 0.00003009 0.00002533 0.00018354
0.26551604 0.63188070 0.53639662 -0.00000679 0.00001333 -0.00007851
0.37252298 0.20017914 0.49310049 -0.00006707 -0.00005164 -0.00004997
0.69769239 0.22707176 0.59851015 0.00006113 0.00010378 -0.00010897
0.18366686 0.67432052 0.57716817 -0.00003514 -0.00012023 0.00007813
0.15184475 0.23173058 0.41006219 0.00005715 0.00026902 -0.00008172
0.65731579 0.61794853 0.37589735 0.00003874 0.00027381 -0.00019255
0.26131421 0.65760642 0.53895682 -0.00001756 -0.00004658 -0.00013131
0.87317544 0.38390169 0.48771396 0.00007035 -0.00018725 -0.00024753
0.30013788 0.29901314 0.62126744 -0.00008949 -0.00001481 -0.00003940
0.23336118 0.19410489 0.64300424 -0.00044810 -0.00037445 0.00009251
0.81416345 0.21567312 0.44267407 0.00022911 0.00029669 -0.00005160
0.20385517 0.72090900 0.47958985 -0.00012162 -0.00000279 -0.00000144
0.17900804 0.70970106 0.58243930 0.00010606 0.00028653 0.00018291
0.75204557 0.18176119 0.49547428 0.00006506 -0.00021404 -0.00000676
0.37823784 0.30937797 0.38832533 -0.00005842 -0.00010821 -0.00004904
0.79654419 0.57648486 0.42869753 0.00013692 0.00001349 -0.00008199
0.44611496 0.76594442 0.38960320 -0.00004688 -0.00005881 -0.00025109
0.50046808 0.33421627 0.38677239 0.00006182 -0.00005266 -0.00012018
0.34206748 0.74205565 0.51566702 -0.00006663 0.00012089 0.00012956
0.49565399 0.57027310 0.45665503 0.00006468 -0.00003040 0.00000506
0.51910347 0.51126111 0.37018692 -0.00004031 0.00001938 -0.00020051
0.24733771 0.52057880 0.46677139 -0.00001895 -0.00004032 0.00004463
0.72641748 0.38236648 0.37745473 0.00014736 -0.00009607 -0.00019745
0.39677560 0.36373112 0.40540779 -0.00007004 0.00001321 -0.00003138
0.15881971 0.74669677 0.53585535 0.00014303 0.00031725 0.00018655
0.67905700 0.34043691 0.63849187 -0.00025336 0.00009038 0.00006024
0.86851662 0.27119321 0.61194974 0.00040370 -0.00012644 0.00039295
0.21111852 0.49107280 0.47994924 -0.00007328 -0.00000022 0.00001079
0.83124590 0.46622562 0.44369900 -0.00004576 -0.00004319 -0.00006058
0.71066618 0.22241291 0.34173250 0.00013400 -0.00012227 0.00000428
0.13896418 0.65723819 0.48150221 -0.00002470 -0.00009304 0.00011107
0.70090032 0.61530864 0.48771396 0.00010998 0.00025973 0.00011489
0.80701548 0.22396585 0.43801525 0.00024740 0.00034493 0.00000535
0.21731703 0.57337898 0.43025494 -0.00007254 -0.00006764 -0.00014179
0.64156884 0.42700264 0.45499560 -0.00000690 0.00003361 0.00001959
0.79242224 0.48641396 0.40050048 0.00026760 -0.00001750 -0.00011833
0.29497769 0.50815517 0.40696073 -0.00008476 -0.00004410 -0.00016595
0.48414442 0.26744840 0.56380838 0.00002729 -0.00002577 -0.00006155
0.06564288 0.63804817 0.56535691 -0.00022624 0.00002899 0.00004702
0.26131421 0.41653132 0.42064887 -0.00003045 -0.00010621 -0.00014373
0.30169085 0.61220264 0.39137357 -0.00007932 -0.00001912 -0.00006117
0.43369135 0.64636761 0.41069666 0.00003136 -0.00002564 -0.00002931
0.25820833 0.20222460 0.67752850 -0.00011257 -0.00029549 0.00052928
0.41039717 0.66291308 0.35726196 -0.00002649 -0.00000527 0.00022038
0.78671181 0.58114368 0.42404315 0.00013185 0.00001666 -0.00009803
0.42592663 0.35596639 0.38099101 -0.00005440 0.00003110 -0.00007624
0.42107698 0.66500288 0.42714459 0.00001460 -0.00000977 0.00007697
0.37157348 0.18331859 0.39609009 0.00001006 -0.00021765 0.00000654
0.41195014 0.27676606 0.59467655 0.00002296 -0.00002004 -0.00000699
0.72875130 0.30042857 0.50013310 0.00002959 -0.00004273 0.00002663
0.24112591 0.68363827 0.40895295 -0.00012756 -0.00005210 -0.00014639
0.22404350 0.22160095 0.38832533 -0.00004073 -0.00011777 0.00007530
0.60451555 0.20552129 0.58243930 -0.00004421 -0.00007868 -0.00005217
0.64664483 0.42429608 0.47062713 -0.00000233 0.00002236 0.00002840
0.26597306 0.19290693 0.56284112 -0.00004516 -0.00012696 0.00015529
0.39952654 0.67587358 0.40524364 -0.00001411 -0.00002948 -0.00010304
0.34206748 0.73984170 0.49081546 -0.00003459 -0.00002256 -0.00011279
0.17279623 0.22197364 0.52343178 -0.00037211 -0.00029910 0.00009887
0.19919632 0.19911870 0.52111119 -0.00024945 -0.00038935 0.00007551
0.61067855 0.49107280 0.45509765 0.00006956 -0.00002133 0.00003134
0.63959002 0.40566069 0.39919600 -0.00006336 0.00007989 -0.00001064
0.82156879 0.27192089 0.50684631 -0.00007152 0.00009328 0.00004561
0.36691466 0.27003071 0.38987830 0.00001417 -0.00001886 0.00003302
0.71166897 0.30627206 0.36620694 0.00006499 0.00001466 -0.00017661
0.36691466 0.36252871 0.51100373 -0.00002403 0.00000502 -0.00001561
0.14484318 0.36594963 0.47994924 -0.00037777 0.00005939 -0.00007921
0.68682182 0.22241291 0.35290930 -0.00016014 -0.00009953 0.00016327
0.43990317 0.20178534 0.43490931 0.00013331 -0.00014007 -0.00014208
0.59519792 0.48951983 0.47932807 0.00010467 -0.00003659 -0.00000625
0.16446356 0.41808426 0.52498025 -0.00027789 0.00008128 0.00010301
0.63246858 0.22987150 0.59020406 0.00006572 0.00009420 -0.00003939
0.39020884 0.68674415 0.37305322 0.00007004 -0.00008048 0.00014920
0.67905700 0.63315862 0.39609009 0.00004960 0.00015592 -0.00020640
0.65420991 0.60988659 0.50013310 0.00001908 0.00011061 0.00028486
0.09670182 0.73494762 0.50789785 -0.00026757 0.00040761 -0.00007599
0.30169085 0.73499203 0.52187884 0.00000800 0.00024314 0.00018721
0.24416082 0.20688343 0.43180788 -0.00001877 -0.00004845 -0.00013941
0.40263242 0.20085801 0.41006219 0.00002294 -0.00000794 -0.00013919
0.71126515 0.24260123 0.34018400 0.00009852 0.00010236 -0.00014192
0.83124590 0.35751933 0.51364374 -0.00002195 -0.00006035 0.00000988
0.13611118 0.73643851 0.56690985 0.00000150 0.00030878 0.00015504
0.84211648 0.40566069 0.56319165 -0.00014533 0.00011168 0.00015401
0.61538619 0.61658204 0.49237281 -0.00000354 0.00015069 0.00019137
0.68309915 0.32762730 0.51058668 0.00004985 -0.00002667 0.00002975
0.91976386 0.56250840 0.45639771 -0.00000949 0.00022868 -0.00046326
0.39827973 0.64947349 0.39142683 -0.00000942 -0.00000644 -0.00005421
0.88715196 0.29690558 0.54672152 0.00041287 -0.00013168 -0.00007194
0.65689421 0.52213174 0.48616102 -0.00000735 -0.00007434 0.00001045
0.33585572 0.19352366 0.56535691 -0.00000524 -0.00005658 0.00017798
0.30479679 0.19556911 0.38366205 -0.00008218 -0.00024411 0.00015831
0.60100144 0.36337614 0.45247096 -0.00000661 0.00002080 0.00002580
0.58743316 0.24415417 0.47044522 -0.00003574 -0.00001782 0.00004858
0.14018436 0.70365793 0.48150221 0.00002731 0.00016102 0.00002756
0.68868536 0.19445987 0.57933342 0.00001338 -0.00000553 0.00002425
0.31722033 0.65102643 0.52046788 -0.00008481 -0.00005145 -0.00006349
0.71804488 0.22172076 0.49363735 -0.00001293 0.00015375 0.00005758
0.44456202 0.62773216 0.49308717 0.00004388 -0.00005513 0.00006360
0.85071540 0.22551882 0.59642029 0.00044414 -0.00035623 0.00013645
0.67634606 0.40100187 0.36968553 -0.00005536 0.00007793 -0.00020819
0.74738675 0.20107542 0.42869753 -0.00007968 -0.00009912 0.00003977
0.69148064 0.28763670 0.55408692 0.00004356 -0.00000485 0.00000897
0.81892878 0.41342542 0.50634491 -0.00001961 -0.00006199 0.00007773
0.87649870 0.28763670 0.60728651 0.00044069 -0.00005903 0.00035919
0.55948007 0.64792055 0.42297384 0.00002097 0.00004765 -0.00003567
0.32810426 0.37615472 0.50945520 -0.00000792 0.00000008 0.00001064
0.22249053 0.47973183 0.53119206 -0.00006348 0.00002478 0.00006657
0.32964388 0.71625018 0.52470076 0.00003236 0.00003884 0.00014670
0.87809157 0.45224914 0.48150221 0.00028967 0.00000483 -0.00003397
0.59785563 0.26589546 0.39764303 -0.00005543 -0.00002591 -0.00002894
0.68371594 0.45380208 0.56452721 -0.00014084 -0.00009775 0.00007618
0.36691466 0.70847648 0.39764303 -0.00003378 -0.00000622 -0.00003980
0.68992770 0.66182160 0.42404315 0.00007248 0.00024403 -0.00006607
0.76602209 0.57803780 0.39647609 0.00021462 0.00015878 -0.00021963
0.56879777 0.65175843 0.43025494 0.00002605 0.00007106 0.00002634
0.27684370 0.74824530 0.45976093 -0.00005929 0.00029117 -0.00002901
0.35293812 0.80617911 0.42249021 -0.00025252 0.00033857 -0.00011414
0.37122738 0.20998934 0.59796876 -0.00012230 -0.00002888 -0.00002227
0.71011597 0.64636761 0.41936654 0.00004112 0.00012294 -0.00013250
0.71943367 0.40767509 0.62126744 0.00013976 0.00020509 0.00015517
0.65731579 0.59822619 0.50354517 0.00001345 0.00002340 0.00029828
0.54860944 0.38654611 0.49392134 0.00006625 -0.00001332 0.00000640
0.20836759 0.57803780 0.53585535 0.00001624 -0.00004682 -0.00006817
0.35440233 0.80787408 0.43490931 -0.00021869 0.00039058 0.00015102
0.25510243 0.37615472 0.41981024 0.00003119 -0.00003779 -0.00004697
0.63712746 0.25968364 0.57996792 0.00005255 -0.00003188 0.00002349
0.28654298 0.59201443 0.39764303 -0.00004510 -0.00007383 -0.00008009
0.30013788 0.65769064 0.37900767 -0.00012770 -0.00007156 -0.00014460
0.28150254 0.30161324 0.61180776 -0.00004061 -0.00005667 0.00004628
0.62835109 0.23794238 0.31533241 -0.00017998 -0.00008586 -0.00025710
0.36452752 0.35130754 0.54983187 -0.00003284 0.00002325 0.00004177
0.49195352 0.27987197 0.52809060 -0.00000292 -0.00000974 0.00002938
0.23180825 0.64984173 0.41627839 -0.00002351 -0.00001675 -0.00005710
0.12644297 0.67742652 0.45820352 -0.00020320 0.00003187 -0.00029126
0.41679972 0.59620285 0.47875127 0.00000575 -0.00007171 -0.00006802
0.13863137 0.58114368 0.61923087 0.00013356 -0.00013743 0.00044921
0.25820833 0.35596639 0.39488322 0.00011954 0.00012075 -0.00002090
0.30324379 0.21464817 0.35109454 -0.00005907 0.00000250 -0.00032141
0.34516007 0.21930704 0.65387934 0.00001496 0.00004438 0.00001079
0.54550356 0.34433702 0.45354471 0.00001639 -0.00000254 0.00001732
0.64253616 0.23567508 0.56782830 0.00008983 0.00002112 -0.00000790
0.34548840 0.21309523 0.66630292 0.00009980 -0.00002037 0.00021004
0.68242472 0.44193310 0.55095887 -0.00011417 -0.00017201 -0.00007713
0.64333928 0.31960079 0.52187884 0.00006481 0.00001077 0.00000473
0.42126778 0.34664872 0.55010253 -0.00003229 0.00000747 0.00006622
0.73806900 0.43827260 0.37077260 0.00010166 -0.00002176 -0.00031656
0.80329287 0.53455532 0.42389673 0.00011176 -0.00001039 -0.00001061
0.43949497 0.49417868 0.45354471 0.00003214 -0.00003213 0.00002839
0.47488442 0.58005226 0.43057883 0.00009268 -0.00005771 -0.00000871
0.15416086 0.39789593 0.48387155 -0.00032645 0.00006888 -0.00001452
0.76081306 0.35907227 0.46597272 0.00004456 -0.00002522 0.00001556
0.48959750 0.51034707 0.38366205 -0.00007314 0.00002758 -0.00010230
0.77068090 0.23638500 0.40074450 0.00022323 0.00015192 -0.00010645
0.14620534 0.34354278 0.53119206 -0.00036362 0.00002570 0.00015188
0.86001533 0.48951983 0.43957260 0.00011252 -0.00008702 -0.00020253
0.58432728 0.23062578 0.60883945 0.00004536 0.00021806 -0.00009781
0.36691466 0.48017555 0.42559165 0.00005993 -0.00009704 0.00000210
0.54635549 0.41963720 0.50634491 0.00010072 -0.00002535 0.00003120
0.28926727 0.60599089 0.39625424 -0.00006243 -0.00002672 -0.00006738
0.68371594 0.19291580 0.62592185 0.00011158 -0.00020774 0.00014047
0.47251505 0.71469724 0.46831101 0.00020411 0.00014055 0.00003316
0.34362042 0.36987191 0.49237281 -0.00002279 -0.00001529 0.00000688
0.72719836 0.26278955 0.35900569 0.00015683 0.00010835 -0.00015242
0.26066199 0.53144944 0.49392134 -0.00002086 -0.00006972 -0.00000085
0.76691395 0.55008477 0.49392134 0.00015710 0.00006425 0.00013394
0.55482125 0.42740196 0.49686751 0.00009573 -0.00002267 0.00001185
0.20074929 0.31215996 0.39919600 -0.00020397 -0.00011516 -0.00005612
0.27373779 0.28918964 0.35937396 -0.00005212 -0.00008723 -0.00023062
0.60140967 0.52213174 0.36985415 0.00010447 -0.00008800 -0.00017347
0.42501703 0.41497838 0.41006219 -0.00007548 0.00001761 -0.00001812
0.25354949 0.62482595 0.41472545 -0.00002272 -0.00002663 0.00000599
0.50357401 0.46777859 0.52216721 0.00001108 0.00001794 0.00015722
0.56103307 0.57920039 0.37124294 -0.00004386 0.00008694 -0.00020768
0.89957559 0.58269662 0.49432066 -0.00019817 -0.00034421 0.00041053
0.63192731 0.62152040 0.37900767 0.00001040 0.00026402 -0.00014632
0.76757503 0.20714967 0.39453271 0.00008954 -0.00017600 -0.00023550
0.33585572 0.60599089 0.36678818 -0.00009410 -0.00009774 -0.00017593
0.18211392 0.21620113 0.34537971 0.00013594 -0.00024446 -0.00040419
0.74003458 0.61686158 0.45354471 -0.00000901 -0.00000077 0.00020648
0.59985673 0.63823014 0.45354471 0.00004059 0.00004171 0.00013605
0.12465484 0.68985003 0.45928171 -0.00015401 0.00017073 -0.00033194
0.42592663 0.61996746 0.40804335 -0.00001467 -0.00004453 -0.00002791
0.61693913 0.31688535 0.53119206 0.00003498 0.00004817 -0.00000613
0.69613945 0.39479005 0.63296336 -0.00017528 0.00012293 0.00020717
0.15416086 0.67191124 0.49392134 0.00001685 0.00003006 0.00015492
0.26624817 0.57463914 0.40885532 -0.00000712 -0.00009084 -0.00007574
0.23802000 0.29540145 0.36964116 -0.00011766 -0.00013229 -0.00017736
0.41714138 0.58580261 0.46597272 0.00001272 -0.00006270 -0.00006031
0.72253954 0.63860273 0.43951938 0.00003855 0.00005486 0.00011295
0.19143158 0.20222460 0.51149184 -0.00028509 -0.00035926 0.00004100
0.67176712 0.46777859 0.48305514 0.00000407 0.00004194 0.00001129
0.27684370 0.24881303 0.36787969 -0.00004315 0.00007636 -0.00006381
0.42318457 0.28918964 0.35881937 -0.00000135 0.00002087 -0.00011245
0.34983221 0.77836806 0.41919795 -0.00014381 -0.00015953 -0.00015109
0.57368290 0.42274314 0.45199621 0.00004619 0.00000666 0.00001877
0.36512211 0.73954439 0.50945520 -0.00007219 -0.00003487 0.00008482
0.27063191 0.31869566 0.36409935 0.00004682 0.00012059 -0.00022696
0.37933820 0.18358923 0.42394552 -0.00001639 -0.00019037 -0.00009866
0.27063191 0.66344994 0.38986498 -0.00012137 -0.00006965 -0.00018487
0.88140607 0.41963720 0.48460364 0.00028893 -0.00008072 -0.00020496
0.29081136 0.31869566 0.61194974 -0.00004992 -0.00009084 0.00009267
0.47695649 0.45224914 0.37589735 -0.00007302 0.00002189 -0.00017097
0.47251505 0.33087963 0.54983187 0.00003104 -0.00000448 0.00003636
0.29392612 0.18374452 0.64766759 0.00006491 -0.00045957 0.00003162
0.71011597 0.22241291 0.60476184 0.00003755 0.00011783 -0.00004495
0.66352755 0.56561428 0.50768936 0.00000962 -0.00004316 0.00019275
0.38089117 0.32493848 0.56690985 0.00001636 0.00000181 0.00001257
0.24889065 0.52249110 0.47839630 -0.00001232 -0.00005112 0.00002468
0.83901060 0.34664872 0.51406527 -0.00008445 -0.00005193 -0.00004084
0.51910347 0.30106306 0.49858463 0.00002206 -0.00000445 0.00000937
0.48649156 0.52834356 0.39731470 -0.00003944 0.00001618 -0.00004204
0.44456202 0.46001387 0.41131786 -0.00004831 -0.00000375 -0.00002099
0.69924539 0.42658111 0.36968553 -0.00004003 0.00007257 -0.00023630
0.48181501 0.26123658 0.41627839 0.00006264 -0.00007246 -0.00007764
0.21938466 0.19159357 0.53585535 -0.00018809 -0.00038615 0.00011442
0.32653800 0.62152040 0.53495467 0.00000579 0.00003237 0.00005567
0.82172853 0.22551882 0.45354471 0.00014676 0.00034211 -0.00012270
0.14080551 0.68829709 0.46131387 -0.00007318 0.00017633 -0.00014138
0.84106052 0.20998934 0.57933342 0.00042288 -0.00031389 0.00004757
0.45387968 0.52989650 0.44468403 0.00004699 -0.00003028 0.00002817
0.88639331 0.42429608 0.52498025 0.00033808 0.00016613 0.00016523
0.27529076 0.68519121 0.39098755 -0.00012557 -0.00006195 -0.00015936
0.26907897 0.36582983 0.59331441 -0.00006464 0.00010016 0.00012959
0.29858494 0.18907779 0.42869753 -0.00005279 -0.00014396 -0.00021227
0.83124590 0.56414121 0.45199621 -0.00005208 -0.00002360 -0.00000542
0.72098660 0.61064970 0.48394698 0.00015236 0.00025475 0.00007561
0.41779363 0.46506760 0.45807931 0.00001794 -0.00004323 0.00003386
0.51910347 0.57648486 0.39570853 -0.00002419 0.00004836 -0.00004965
0.79242224 0.20222460 0.41088301 0.00026433 -0.00010660 -0.00026648
0.14484318 0.33345750 0.46752125 -0.00036637 -0.00002189 -0.00016042
0.19453751 0.65810335 0.46752125 0.00008392 0.00003046 0.00013631
0.34051454 0.70304120 0.35415605 -0.00004055 0.00002072 -0.00014575
0.76461112 0.59046143 0.40696073 0.00011053 0.00008774 -0.00023260
0.22249053 0.21844624 0.41317248 -0.00000733 -0.00002099 0.00001315
0.28926727 0.61280167 0.55138481 0.00002878 0.00005899 0.00006279
0.53618592 0.37908310 0.39453271 0.00011439 -0.00005054 -0.00003007
0.28926727 0.28712645 0.66163969 -0.00006790 0.00009405 0.00007190
0.40418535 0.59822619 0.39586827 -0.00000377 -0.00000415 0.00001251
0.39952654 0.52523315 0.41782692 0.00006893 -0.00008178 0.00001361
0.27218485 0.18320766 0.63834983 0.00010338 -0.00051157 -0.00000083
0.73962194 0.20843640 0.41436607 -0.00011101 -0.00010805 0.00005035
0.66225857 0.46467268 0.42404315 -0.00003708 0.00005791 0.00001820
0.35759696 0.43516669 0.46489897 -0.00002169 -0.00003987 0.00003619
0.30479679 0.32024860 0.61306345 -0.00002360 -0.00005486 0.00008412
0.65886873 0.23328356 0.38810349 0.00005586 -0.00002423 -0.00011393
0.40418535 0.19135396 0.41937986 0.00003157 -0.00011574 -0.00016823
0.64995480 0.43827260 0.42404315 -0.00002265 0.00006045 0.00001611
0.19979091 0.64792055 0.43180788 -0.00003122 -0.00002545 -0.00009542
0.40107948 0.35596639 0.39697748 -0.00009217 0.00002963 -0.00001766
0.34051454 0.76749748 0.35340622 0.00000895 0.00045336 -0.00039898
0.38338032 0.49417868 0.46286240 0.00001687 -0.00005503 0.00002502
0.83435178 0.26856652 0.50789785 -0.00011465 0.00012027 -0.00000213
0.31767291 0.40566069 0.44267407 0.00002888 -0.00008367 -0.00000524
0.71240550 0.44759026 0.57157314 0.00014743 -0.00005157 0.00008253
0.19143158 0.36615816 0.42559165 -0.00011143 0.00002446 -0.00013731
0.37312642 0.58269662 0.38661712 0.00008550 -0.00004552 0.00002277
0.62936270 0.23441498 0.38987830 0.00000224 -0.00005603 -0.00011168
0.23646706 0.49071783 0.53119206 -0.00005430 0.00000576 0.00005820
0.39856368 0.39479005 0.44112554 -0.00002130 -0.00002615 0.00000746
0.84211648 0.34354278 0.60840899 -0.00004996 0.00017772 0.00029879
0.36724299 0.80787408 0.41782692 -0.00000117 0.00033481 -0.00018884
0.21627876 0.57647598 0.50789785 0.00003486 -0.00003993 -0.00000518
0.59628052 0.24836490 0.49360186 0.00001885 -0.00000867 0.00002181
0.34517336 0.30316618 0.39545116 -0.00000062 -0.00005359 -0.00004306
0.62780976 0.34820166 0.37633216 -0.00007274 0.00003236 -0.00012008
0.84522241 0.55008477 0.43505132 -0.00000741 0.00009438 -0.00017501
0.65420991 0.24726009 0.36783090 0.00007118 -0.00009397 0.00002580
0.21783170 0.66658252 0.54983187 -0.00003832 -0.00008490 -0.00015034
0.39797360 0.63239098 0.37652296 0.00002075 0.00006812 0.00017480
0.35604399 0.19299123 0.41006219 -0.00001446 -0.00007994 -0.00010116
0.14173730 0.68570590 0.50168604 -0.00003299 0.00007043 0.00022299
0.22870232 0.21782951 0.42559165 0.00001123 0.00002661 -0.00004237
0.17072415 0.71935606 0.55449069 0.00006807 0.00009774 -0.00002532
0.43921098 0.75303280 0.41641152 0.00004824 -0.00014209 0.00010117
0.67310256 0.33560503 0.50991225 0.00004622 -0.00002494 0.00003344
0.58428288 0.44603732 0.42404315 0.00006474 -0.00000975 0.00002598
0.15260790 0.24415417 0.40910378 -0.00000019 0.00033659 -0.00012555
0.64333481 0.49531901 0.43801966 0.00001682 -0.00001672 0.00002130
0.20851403 0.58089525 0.54983187 0.00000537 -0.00005237 -0.00009434
0.63444752 0.24588017 0.32814643 -0.00001700 -0.00010189 -0.00009413
0.07185467 0.64851058 0.57778049 -0.00008198 0.00019093 0.00033188
0.19298457 0.24877310 0.41782692 0.00004126 0.00012627 -0.00001677
0.19609044 0.20893334 0.46597272 -0.00012032 -0.00013297 -0.00005845
0.80018693 0.21464817 0.42307141 0.00030556 0.00017102 -0.00013294
0.16725443 0.25191891 0.45509765 -0.00005204 0.00000741 -0.00004654
0.52686822 0.54542595 0.50684631 -0.00000643 0.00003860 0.00014770
0.80010259 0.42584902 0.45199621 0.00009520 -0.00000529 0.00003478
0.61158812 0.23017764 0.52653319 0.00006292 0.00002668 -0.00002387
0.22941224 0.26744840 0.39609009 -0.00003829 -0.00001506 0.00010913
0.73806900 0.59046143 0.38407025 0.00020388 0.00022081 -0.00021474
0.64799809 0.34509572 0.36676157 -0.00001200 0.00000424 -0.00018401
0.67595112 0.23584814 0.36502671 -0.00008364 -0.00007710 -0.00000108
0.77223390 0.18105127 0.51100373 0.00009938 -0.00024525 0.00002706
0.17986436 0.25968364 0.43957260 0.00004786 -0.00001027 -0.00004818
0.61844772 0.22621542 0.32596788 -0.00023026 -0.00024306 -0.00012206
0.46009147 0.72090900 0.48396027 0.00016431 0.00018724 0.00019309
0.34827927 0.56734031 0.38521504 -0.00000068 -0.00009892 -0.00009161
0.75670439 0.27295026 0.45199621 0.00004135 0.00000856 0.00013642
0.20851403 0.22707176 0.57453257 -0.00007946 -0.00011762 0.00026247
0.70235127 0.48330808 0.37282693 -0.00010300 0.00000183 -0.00019059
0.73130703 0.43050787 0.50945520 0.00002771 -0.00001104 0.00002697
0.24061123 0.18669513 0.64921606 -0.00036079 -0.00052986 0.00018091
0.57693082 0.44293141 0.46752125 0.00006372 -0.00000064 0.00001253
0.36846760 0.19282706 0.41161513 -0.00001586 -0.00006832 -0.00010767
0.65166306 0.25356504 0.59658885 0.00005117 -0.00002809 -0.00001743
0.31256148 0.68829709 0.54359788 0.00006478 -0.00001827 0.00022047
0.40884420 0.68829709 0.41240934 -0.00000050 -0.00002264 -0.00005067
0.80950463 0.18641561 0.50323904 -0.00003610 -0.00026588 0.00004111
0.28305548 0.37661615 0.57778049 0.00002034 0.00007508 0.00004410
0.23957297 0.37770766 0.41762725 0.00003467 0.00000762 -0.00004009
0.12726825 0.61277056 0.52140409 -0.00006907 -0.00002818 -0.00002235
0.28372103 0.66344994 0.38366205 -0.00013004 -0.00007645 -0.00018302
0.67035168 0.49417868 0.39764303 -0.00008760 -0.00002049 -0.00000010
0.37312642 0.37149587 0.47898197 -0.00001143 -0.00003501 0.00001437
0.28200394 0.58572716 0.45110878 0.00003051 -0.00002531 0.00003781
0.50823283 0.53300238 0.50476974 -0.00001830 0.00003516 0.00011425
0.92109495 0.54387301 0.45820352 0.00002672 0.00015983 -0.00035035
0.67129230 0.36683699 0.50477421 0.00002488 -0.00001125 0.00003457
0.47213349 0.65879112 0.48305514 0.00011621 -0.00000666 0.00009683
0.68371594 0.59046143 0.36657965 0.00006658 0.00004989 -0.00036602
0.42282075 0.63549685 0.49888635 0.00003760 -0.00001934 0.00003515
0.46883678 0.22862470 0.55293775 -0.00002814 0.00001763 -0.00002341
0.41994116 0.63860273 0.43957260 -0.00000298 -0.00003233 0.00008985
0.24733771 0.21409799 0.58865553 -0.00001435 0.00000552 -0.00002727
0.52997410 0.56716722 0.49936995 -0.00001124 0.00005502 0.00011699
0.85919893 0.34220728 0.50634491 -0.00012431 -0.00006752 -0.00016080
0.77689272 0.48951983 0.49858019 0.00011579 -0.00002802 0.00006516
0.24423179 0.26865524 0.63679689 -0.00004413 0.00009369 0.00010484
0.82806903 0.37460175 0.58089077 -0.00016465 0.00007012 0.00007029
0.65731579 0.54010600 0.50013310 0.00000256 -0.00007714 0.00006782
0.07651349 0.59575474 0.55293775 -0.00011155 -0.00017838 0.00017500
0.53122979 0.60288501 0.41006219 0.00002394 -0.00000122 -0.00003400
0.68837476 0.18991639 0.63679689 0.00015345 -0.00030068 0.00033459
0.72875130 0.28285363 0.57778049 0.00004938 0.00004370 0.00000908
0.25991657 0.65778840 0.44933400 0.00002464 -0.00001070 0.00009938
0.85764599 0.54047871 0.43180788 0.00005500 0.00007183 -0.00025018
0.74933451 0.40410775 0.49392134 0.00003140 -0.00001364 0.00005862
0.41816190 0.40545216 0.41317248 -0.00006858 0.00001201 -0.00001733
0.10291362 0.58114368 0.52312559 0.00025780 -0.00001770 0.00024015
0.19143158 0.70551711 0.55293775 -0.00004249 0.00013314 -0.00011028
0.40729126 0.64636761 0.40229744 -0.00004972 -0.00003289 -0.00008682
0.48828855 0.22862470 0.59486735 0.00004585 0.00001474 0.00001696
0.36070284 0.30782503 0.39292207 -0.00001094 -0.00009510 -0.00007773
0.61228031 0.51125222 0.48305514 0.00009475 -0.00007272 -0.00000053
0.77689272 0.25036597 0.42308918 0.00018643 0.00012145 0.00003663
0.59082299 0.32943761 0.46290231 -0.00000033 0.00000665 0.00003087
0.57500952 0.46467268 0.38752669 0.00014135 -0.00007080 -0.00003309
0.37778527 0.21154229 0.33757946 -0.00008446 0.00009932 -0.00042421
0.69458652 0.59356737 0.37008929 0.00009913 0.00010914 -0.00032944
0.40835616 0.57493192 0.47839630 0.00003708 -0.00008086 -0.00003842
0.23686640 0.22707176 0.59642029 -0.00003935 -0.00002403 -0.00005614
0.87783426 0.36217818 0.50027955 0.00007449 -0.00017023 -0.00025392
0.55948007 0.63566995 0.41782692 0.00002231 0.00000205 -0.00005046
0.39642063 0.65413231 0.33374149 -0.00009786 -0.00000194 -0.00019577
0.68247795 0.20795275 0.50696164 0.00011113 0.00010094 -0.00006621
0.21052396 0.48641396 0.49392134 -0.00006396 0.00000323 0.00001701
0.34677958 0.36062521 0.53895682 -0.00003376 0.00001782 0.00003137
0.49297401 0.35441345 0.53740829 0.00005127 -0.00001269 0.00007030
0.42377028 0.63860273 0.46597272 -0.00003584 0.00001081 -0.00010775
0.14841941 0.28608376 0.47218007 -0.00030614 -0.00009239 -0.00012813
0.67129230 0.65951431 0.43180788 0.00001298 0.00014857 0.00006481
0.76446915 0.49107280 0.50514251 0.00006371 -0.00001607 0.00011399
0.42437369 0.37632331 0.38987830 -0.00009043 0.00002791 -0.00006320
0.41039717 0.67276758 0.40963623 -0.00002234 -0.00001642 -0.00007230
0.63712746 0.20292565 0.41006219 -0.00007254 -0.00020814 -0.00019458
0.60762149 0.20248194 0.59486735 -0.00002954 -0.00012852 -0.00006378
0.79410380 0.40255481 0.47062713 0.00010501 0.00000434 0.00005387
0.40418535 0.72494221 0.49547428 0.00006579 -0.00005516 0.00003000
0.18016163 0.60368806 0.49027413 0.00004704 0.00008213 0.00003301
0.37002054 0.25290838 0.35260755 -0.00009377 0.00006987 -0.00010994
0.13241962 0.58389467 0.58243930 0.00001329 -0.00010901 -0.00032934
0.35293812 0.74730909 0.52069861 -0.00008964 0.00014494 0.00026606
0.37886345 0.36528406 0.51255667 -0.00002536 0.00000913 -0.00002114
0.78621036 0.30105415 0.61350274 -0.00002600 0.00011048 0.00003676
0.83253258 0.53766119 0.43801525 -0.00006420 0.00001618 -0.00004107
0.67595112 0.18824807 0.42347077 0.00004135 -0.00024880 -0.00015914
0.67595112 0.48458591 0.48305514 -0.00001358 0.00003003 0.00000578
0.76602209 0.39011791 0.42404315 0.00015945 -0.00009046 0.00000008
0.41816190 0.18262641 0.61505121 -0.00012173 -0.00034642 0.00010542
0.52531523 0.33733100 0.50854570 0.00004399 -0.00001689 0.00001272
0.68061000 0.63861161 0.45665503 0.00002645 0.00004776 0.00021591
0.14329024 0.30581948 0.47994924 -0.00036576 -0.00005928 -0.00010767
0.11303880 0.73954439 0.56225103 -0.00036733 0.00036896 0.00019202
0.43176574 0.28763670 0.56535691 -0.00007203 -0.00004903 -0.00004621
0.30324379 0.27521312 0.66731012 -0.00001336 -0.00002346 0.00019966
0.44300908 0.29068938 0.36968553 0.00006493 -0.00003833 -0.00009235
0.37329501 0.67432052 0.51410967 0.00001045 0.00000394 0.00010912
0.75981033 0.55940253 0.49544322 0.00015441 0.00008205 0.00016138
0.55171537 0.58885074 0.38211355 -0.00004478 0.00010671 -0.00011927
0.57500952 0.42429608 0.43985659 0.00004691 0.00000334 0.00001808
0.77165705 0.26123658 0.42249021 0.00017280 0.00006328 0.00001928
0.60451555 0.66024649 0.42404315 0.00001929 0.00012104 -0.00001628
0.66663343 0.32956627 0.36669502 -0.00000027 -0.00000837 -0.00012955
0.75141996 0.34354278 0.47062713 0.00002122 -0.00004344 0.00001387
0.26286715 0.29652399 0.60418504 0.00002555 -0.00000840 0.00007145
0.35914990 0.48778054 0.41161513 0.00007599 -0.00012842 -0.00006783
0.25354949 0.42740196 0.41890955 -0.00003710 -0.00008711 -0.00018090
0.78155154 0.59512031 0.42378137 0.00013860 0.00007272 -0.00011521
0.72409248 0.34820166 0.39154664 0.00013868 0.00001116 0.00001740
0.78621036 0.23173058 0.63098443 0.00001190 -0.00006939 0.00045914
0.18595636 0.25036597 0.57157314 -0.00016992 -0.00010894 0.00029795
0.39020884 0.21775407 0.33923003 -0.00000918 0.00008952 -0.00038767
0.71943367 0.32024860 0.37306207 0.00012804 0.00005401 -0.00014657
0.78931624 0.18574561 0.59796876 0.00012061 -0.00042369 0.00022289
0.86778450 0.48175511 0.46907860 0.00011926 0.00000322 0.00004434
0.41039717 0.18329196 0.51100373 -0.00001116 -0.00021152 0.00001338
0.63868046 0.23173058 0.31447607 -0.00016888 -0.00002384 -0.00016790
0.27373779 0.32801333 0.37119409 0.00010341 0.00017016 -0.00013018
0.48776501 0.29540145 0.39764303 0.00003039 -0.00006348 -0.00010152
0.73030430 0.40100187 0.61945719 0.00026488 0.00015649 0.00009208
0.81416345 0.28993061 0.52964354 0.00003168 0.00003045 -0.00000990
0.24638818 0.66242051 0.46148691 0.00002974 0.00000458 0.00003445
0.88094014 0.40566069 0.48612997 0.00023821 -0.00013292 -0.00025073
0.55948007 0.48175511 0.50944638 0.00011053 -0.00003719 0.00007792
0.67543644 0.51902586 0.49392134 -0.00003409 -0.00004608 0.00000526
0.49736223 0.35130754 0.37887457 0.00005253 -0.00006263 -0.00015968
0.79460967 0.55008477 0.41627839 0.00016592 0.00002271 -0.00008210
0.20851403 0.19871494 0.53895682 -0.00020677 -0.00037430 0.00012861
0.70179659 0.58114368 0.36813259 0.00008249 0.00002048 -0.00036757
0.68557942 0.49262574 0.49703169 -0.00001493 0.00000662 -0.00004208
0.37623230 0.34975460 0.54772431 -0.00002827 0.00001514 0.00004775
0.58743316 0.21464817 0.63249743 0.00011239 0.00002161 0.00023978
0.39952654 0.39274904 0.47528595 -0.00001182 -0.00003114 0.00002293
0.19764338 0.33267218 0.39808229 -0.00028313 -0.00001094 -0.00009913
0.21783170 0.49686751 0.49392134 -0.00003989 -0.00001433 0.00001405
0.60296261 0.55784959 0.50766271 0.00006809 -0.00001372 0.00017196
0.86851662 0.31248385 0.61432356 0.00026294 0.00011515 0.00049096
0.43990317 0.25813070 0.60074186 -0.00006618 -0.00002235 0.00005279
0.48362082 0.22241291 0.57933342 0.00002541 0.00000653 -0.00006185
0.60758156 0.20067166 0.45199621 -0.00019863 -0.00016338 -0.00003212
0.72777969 0.38236648 0.49858463 0.00004809 -0.00001788 0.00003622
0.23802000 0.74420321 0.49272776 -0.00009354 0.00033314 0.00003301
0.27978987 0.58987129 0.42833817 0.00004202 -0.00002157 0.00012664
0.45862284 0.52001083 0.45278153 0.00003864 -0.00002485 0.00002663
0.21161991 0.61996746 0.53497237 0.00000380 0.00002775 -0.00000384
0.74117500 0.28984189 0.48305514 0.00003686 -0.00005928 0.00002560
0.25665540 0.46259618 0.55293775 -0.00002220 0.00000682 0.00017186
0.24733771 0.18996963 0.45199621 -0.00012900 -0.00022900 -0.00013335
0.79242224 0.19135396 0.41591012 0.00019633 -0.00031189 -0.00022605
0.28771433 0.72148579 0.53740829 0.00004457 0.00018631 0.00026233
0.83435178 0.56332034 0.46597272 -0.00008011 -0.00010036 0.00011963
0.70831454 0.23599899 0.49936995 0.00002412 0.00004914 0.00004071
0.84522241 0.24881303 0.62436891 0.00028765 -0.00010327 0.00051901
0.50667989 0.60754383 0.43735856 0.00008499 -0.00007235 0.00000773
0.38244414 0.19290693 0.33681190 0.00005248 -0.00021492 -0.00045624
0.60762149 0.58802998 0.50479639 0.00002832 0.00002838 0.00024953
0.31722033 0.19349259 0.39609009 -0.00004866 -0.00016804 0.00007425
0.38555002 0.18137960 0.35415605 0.00014658 -0.00043955 -0.00010325
0.49736223 0.37926060 0.37274706 0.00003991 -0.00005141 -0.00019876
0.41195014 0.22241291 0.33907473 0.00016620 -0.00003477 -0.00039104
0.29858494 0.19587970 0.37279144 -0.00011304 -0.00029796 0.00007038
0.74117500 0.53932506 0.37124294 0.00008688 0.00002737 -0.00036079
0.21814673 0.27521312 0.41317248 -0.00003018 -0.00008178 0.00004081
0.73185724 0.29850733 0.46484128 0.00001986 -0.00002807 0.00002567
0.34362042 0.28689128 0.63213366 0.00003958 0.00002512 0.00002064
0.67022300 0.34820166 0.60418504 0.00001343 0.00005144 0.00009144
0.28302443 0.28918964 0.63368660 -0.00012691 0.00003438 -0.00003724
0.37918293 0.80787408 0.42404315 0.00018862 0.00033273 -0.00003986
0.16233379 0.20533049 0.39609009 0.00024669 -0.00038137 -0.00006712
0.85432714 0.22707176 0.54983187 0.00029383 -0.00017396 0.00000311
0.35293812 0.44448438 0.47127050 -0.00000443 -0.00005785 0.00003743
0.21161991 0.34472746 0.38677239 -0.00022571 0.00011911 -0.00016654
0.36263740 0.67742652 0.52032590 0.00002759 -0.00000242 0.00014169
0.35297364 0.68053240 0.52653319 0.00004119 -0.00001353 0.00017775
0.89460611 0.40255481 0.52187884 0.00044725 0.00006480 0.00002448
0.31526804 0.31403679 0.39609009 0.00001379 0.00004038 0.00000841
0.41660896 0.20543697 0.36813259 0.00022207 -0.00017303 0.00010329
0.79242224 0.54232007 0.46653619 0.00009839 -0.00001382 0.00006909
0.24578473 0.58653468 0.47994924 0.00002485 -0.00004092 -0.00001607
0.68216294 0.29695439 0.53853530 0.00004996 -0.00000249 -0.00000647
0.61072737 0.36717865 0.46752125 0.00000603 0.00001695 0.00003541
0.09980770 0.72668147 0.49392134 -0.00015118 0.00032182 -0.00025848
0.68992770 0.48486102 0.38152346 -0.00014368 0.00000637 -0.00008549
0.72719836 0.60443795 0.38671914 0.00017377 0.00025779 -0.00018919
0.22396806 0.24881303 0.59020406 -0.00002884 -0.00008125 0.00005148
0.28305548 0.28367892 0.67561615 0.00012273 0.00018510 0.00007653
0.73496312 0.64481449 0.42858219 0.00012548 0.00019965 -0.00003708
0.36225581 0.58890849 0.52066308 0.00002865 -0.00007856 0.00008197
0.88870490 0.55008477 0.44049108 0.00019006 0.00016432 -0.00027657
0.46940917 0.36217818 0.37349695 -0.00000688 -0.00004338 -0.00018403
0.19609044 0.24104829 0.57486093 -0.00013164 -0.00010393 0.00027880
0.44738394 0.75657797 0.39908504 0.00005278 -0.00017254 -0.00009585
0.61699235 0.48693752 0.42870200 0.00007450 -0.00001908 0.00003982
0.82079232 0.38547239 0.54983187 -0.00009669 -0.00001927 0.00001015
0.16969033 0.27676606 0.44247887 -0.00004559 -0.00008165 -0.00010962
0.66818637 0.30439523 0.62281597 -0.00009702 0.00006857 -0.00000026
0.26951823 0.19756576 0.42869753 -0.00007552 -0.00007350 -0.00022550
0.37157348 0.34354278 0.41046152 -0.00003098 0.00003592 -0.00001901
0.20230223 0.27676606 0.42334655 0.00000473 -0.00009102 -0.00003033
0.18203847 0.40410775 0.55604368 -0.00017893 0.00005908 0.00021907
0.40884420 0.18669513 0.62118316 -0.00015108 -0.00029520 0.00015132
0.44766790 0.23101181 0.61971450 -0.00001994 0.00017570 0.00014752
0.60762149 0.31558976 0.49208441 0.00002524 0.00001145 0.00001276
0.42876628 0.37770766 0.53274941 -0.00003539 0.00002035 0.00006060
0.61538619 0.34354278 0.48731464 0.00002078 0.00000671 0.00003717
0.23025526 0.25239813 0.62592185 -0.00014740 0.00002996 0.00008487
0.36970106 0.45341161 0.45714751 -0.00001598 -0.00004573 0.00003447
0.35123873 0.22707176 0.60573351 -0.00016505 -0.00003651 0.00000271
0.61383325 0.30316618 0.37791616 -0.00003240 0.00001379 -0.00003111
0.71943367 0.31093091 0.64291555 0.00023338 -0.00012509 0.00012641
0.67824060 0.22085997 0.61039680 0.00007654 0.00017421 -0.00017908
0.11267500 0.68363827 0.49392134 0.00003543 -0.00010293 0.00016286
0.82037520 0.51940298 0.45665503 -0.00006272 -0.00001123 0.00009614
0.63297004 0.40858024 0.46153131 -0.00000046 0.00002506 0.00002770
0.65464026 0.44914320 0.42559165 -0.00002301 0.00006507 0.00001448
0.46164441 0.46933153 0.50689954 -0.00005099 0.00001542 0.00006939
0.51444465 0.80787408 0.37883908 0.00061797 0.00056532 -0.00031103
0.14269568 0.61880487 0.58150756 0.00000720 0.00008751 0.00006368
