-1.039364 0.430519 -0.216506
-1.166241 0.449869 0.000000
-0.816369 0.314908 0.216506
-0.699745 0.269921 0.000000
-0.692910 0.287013 0.000000
-0.699745 0.269921 0.000000
-0.692910 0.287013 0.000000
-0.816369 0.314908 -0.216506
-1.049617 0.404882 -0.216506
-1.176930 0.421112 0.000000
-1.049617 0.404882 0.216506
-1.059237 0.379001 0.216506
-0.706158 0.252667 0.000000
-0.706158 0.252667 0.000000
-0.823851 0.294779 -0.216506
-1.186910 0.392103 0.000000
-1.068219 0.352892 0.216506
-0.823851 0.294779 0.216506
-0.830837 0.274472 0.216506
-0.712146 0.235262 0.000000
-1.068219 0.352892 -0.216506
-1.059237 0.379001 -0.216506
-1.196175 0.362856 0.000000
-1.076558 0.326571 0.216506
-0.717705 0.217714 0.000000
-0.712146 0.235262 0.000000
-0.717705 0.217714 0.000000
-0.830837 0.274472 -0.216506
-1.076558 0.326571 -0.216506
-1.204720 0.333391 0.000000
-1.084248 0.300052 0.216506
-0.837323 0.253999 0.216506
-0.843304 0.233374 0.216506
-0.843304 0.233374 -0.216506
-0.837323 0.253999 -0.216506
-1.084248 0.300052 -0.216506
-1.091285 0.273353 0.216506
-0.848777 0.212608 0.216506
-0.722832 0.200035 0.000000
-0.727523 0.182235 0.000000
-0.722832 0.200035 0.000000
-0.848777 0.212608 -0.216506
-1.091285 0.273353 -0.216506
-1.212539 0.303725 0.000000
-1.097665 0.246489 0.216506
-0.853739 0.191714 0.216506
-0.727523 0.182235 0.000000
-0.731777 0.164326 0.000000
-1.097665 0.246489 -0.216506
-1.225982 0.243863 0.000000
-1.219628 0.273877 0.000000
-0.858187 0.170704 0.216506
-0.731777 0.164326 0.000000
-0.735589 0.146318 0.000000
-0.853739 0.191714 -0.216506
-0.858187 0.170704 -0.216506
-1.108437 0.192332 0.216506
-1.103383 0.219477 0.216506
-0.862118 0.149592 0.216506
-0.735589 0.146318 0.000000
-0.738958 0.128221 0.000000
-1.108437 0.192332 -0.216506
-1.103383 0.219477 -0.216506
-1.231597 0.213702 0.000000
-1.112824 0.165072 0.216506
-0.865529 0.128389 0.216506
-0.738958 0.128221 0.000000
-0.865529 0.128389 -0.216506
-0.862118 0.149592 -0.216506
-1.112824 0.165072 -0.216506
-1.240599 0.153013 0.000000
-1.236471 0.183413 0.000000
-1.116539 0.137712 0.216506
-0.744360 0.091808 0.000000
-0.741882 0.110048 0.000000
-0.744360 0.091808 0.000000
-0.741882 0.110048 0.000000
-0.868420 0.107109 -0.216506
-1.119583 0.110269 0.216506
-0.868420 0.107109 0.216506
-0.870787 0.085765 0.216506
-0.746389 0.073513 0.000000
-0.870787 0.085765 -0.216506
-1.116539 0.137712 -0.216506
-1.119583 0.110269 -0.216506
-1.243981 0.122521 0.000000
-1.121952 0.082760 0.216506
-0.872629 0.064369 0.216506
-0.746389 0.073513 0.000000
-0.747968 0.055173 0.000000
-1.121952 0.082760 -0.216506
-1.248494 0.061335 0.000000
-1.246613 0.091955 0.000000
-1.123645 0.055201 0.216506
-0.873946 0.042934 0.216506
-0.747968 0.055173 0.000000
-0.749097 0.036801 0.000000
-0.872629 0.064369 -0.216506
-1.123645 0.055201 -0.216506
-1.124661 0.027609 0.216506
-0.874736 0.021474 0.216506
-0.749097 0.036801 0.000000
-0.749774 0.018406 0.000000
-0.873946 0.042934 -0.216506
-0.874736 0.021474 -0.216506
-1.124661 0.027609 -0.216506
-1.249624 0.030677 0.000000
-0.749774 0.018406 0.000000
-0.707885 -0.973655 -0.143905
-0.870808 -0.274553 -0.233958
-0.660023 -0.668167 0.242267
-1.094972 -0.089577 -0.229475
-0.873982 -0.883481 0.058094
-0.985297 -0.750742 0.072570
-0.987990 -0.294525 0.247968
-0.069939 -0.747197 0.007615
-0.825964 -0.293586 0.217300
-0.089721 -0.998484 -0.249831
-0.658963 -1.047561 0.076066
-0.131106 -0.862182 0.214586
-1.036172 -0.610409 0.145693
-0.103585 -0.807465 -0.166398
-0.805646 -0.824379 -0.197835
-0.554632 -0.983569 -0.213704
-1.052235 -0.436990 -0.206898
-0.804334 -0.518392 0.245794
-0.609435 -0.668481 -0.231067
-0.867483 -0.109383 -0.216091
-0.837491 -0.716541 0.227732
-1.244967 -0.110229 -0.001099
-0.432837 -1.150887 0.098303
-0.466057 -0.716517 0.203022
-0.216569 -1.026806 0.244511
-0.887832 -0.482866 -0.249298
-0.962020 -0.617843 -0.204211
-0.426949 -0.669180 -0.140438
-0.783074 -0.080995 0.130681
-0.630417 -0.833371 0.245395
-0.225145 -0.746951 0.118241
-0.518458 -0.583947 0.119841
-0.300733 -0.688202 -0.016453
-0.095020 -1.245051 -0.019742
-0.337095 -1.055341 -0.224914
-0.506072 -0.560430 -0.047646
-0.237944 -1.220784 0.053015
-0.458447 -0.797622 -0.236302
-0.302615 -0.878584 -0.239449
-0.011343 -1.211953 0.131606
-0.700954 -0.466410 -0.193213
-0.095672 -1.160475 -0.187550
-0.948769 -0.771680 -0.111785
-1.079759 -0.110610 0.234438
-0.338743 -0.869129 0.240649
-1.077046 -0.418745 0.195332
-0.304908 -1.184023 -0.112389
-0.768552 -0.643629 -0.249834
-0.917054 -0.124915 0.238188
-0.020961 -1.017236 0.248853
-0.616481 -0.435146 -0.044987
-1.170299 -0.404147 -0.074343
-1.206663 -0.282134 0.071152
-1.173959 -0.241377 -0.151819
-0.745653 -0.927049 0.161927
-1.067162 -0.636854 -0.058212
-0.650485 -0.468939 0.152524
-0.526415 -1.107314 -0.105544
-0.705628 -0.284171 0.071292
-0.720548 -0.279401 -0.103391
-1.039762 -0.257403 -0.239283
-0.376628 -1.043446 0.224214
-0.751039 -0.089622 -0.054045
-0.561849 -0.991067 0.206983
0.411812 -0.800219 -0.228849
0.899959 -0.087615 0.230919
1.130308 -0.529250 0.028543
1.067369 -0.621509 0.083137
0.245535 -1.148838 -0.178449
1.239906 -0.096930 -0.053330
1.082516 -0.148126 -0.231983
0.873841 -0.142030 -0.221622
0.511098 -0.763231 -0.235803
1.195462 -0.157298 0.140953
0.774454 -0.126168 -0.126838
0.430483 -0.729787 -0.197930
1.130299 -0.506131 0.073510
0.143471 -0.965283 0.248420
0.721001 -0.950831 -0.157855
1.232082 -0.160544 0.059219
0.995835 -0.517833 -0.217735
1.248411 -0.033042 0.017156
0.971043 -0.244130 -0.249917
0.340746 -0.987690 -0.245422
0.432132 -0.761453 -0.216771
0.803335 -0.675873 -0.244424
0.049932 -1.134721 0.209240
1.185943 -0.114007 0.160055
1.033061 -0.675923 -0.084894
0.798168 -0.871511 -0.171004
0.807765 -0.076186 -0.163277
0.892900 -0.532840 -0.246430
1.059971 -0.181550 0.237840
1.125611 -0.161178 0.208389
0.172320 -0.735284 -0.048323
0.402624 -0.689196 -0.147075
0.030347 -1.179392 -0.173331
0.118654 -0.851520 -0.206354
0.851091 -0.873450 0.118668
0.650052 -0.767601 0.249610
0.832882 -0.213055 -0.206312
1.130752 -0.165526 0.204594
1.065617 -0.632477 -0.071324
0.272037 -0.816979 -0.207221
0.144266 -1.140708 0.199914
0.249858 -1.156714 0.169143
0.717295 -0.995717 0.103177
0.255259 -0.762068 -0.154533
1.154816 -0.430232 -0.091318
1.152552 -0.161910 -0.188030
1.104617 -0.548098 0.089134
0.643452 -0.939854 0.207085
1.092941 -0.380386 0.193836
0.760575 -0.496538 0.232343
0.240416 -1.142251 0.185030
0.415768 -0.718247 0.182688
1.140157 -0.231714 -0.188408
0.026114 -0.765242 -0.085985
0.419050 -0.623437 0.018403
0.608509 -1.041364 -0.140411
0.908083 -0.555520 -0.241502
1.071747 -0.589589 -0.111208
1.222325 -0.055319 -0.110564
0.132649 -1.223905 -0.095107
1.164232 -0.408099 0.087456
0.231598 -0.714421 -0.016213
0.314689 -0.727711 0.139069
0.485927 -1.151323 0.003927
0.581775 -0.822533 -0.249508
1.093170 -0.125339 -0.228634
0.298904 -1.177405 0.127562
0.688783 -0.655432 0.244565
0.017707 -1.137887 0.207750
0.715883 -0.290305 -0.102819
0.465383 -1.138534 0.097571
0.936469 -0.724035 -0.168794
0.615729 -1.086987 -0.011213
0.624363 -0.862202 0.241501
0.612110 -0.496497 -0.132039
1.231116 -0.204970 0.028414
0.755154 -0.257000 0.146327
0.163049 -1.221300 0.091973
0.443381 -0.616488 -0.067377
0.337682 -1.074472 -0.215593
0.949362 -0.787357 -0.088397
0.622254 -0.451329 0.094863
0.622958 -1.064950 0.087144
0.744110 -0.170071 -0.078874
0.948403 -0.322776 0.249876
0.784669 -0.924415 0.130819
1.114483 -0.540218 -0.073196
0.277630 -0.720042 0.101112
0.943375 -0.497479 0.240850
0.009075 -0.866902 -0.211170
1.130367 -0.139827 -0.207160
0.335377 -0.790067 0.205389
0.902989 -0.853543 0.059111
0.662939 -0.372627 -0.070579
0.779615 -0.044486 0.119810
0.087381 -1.244681 0.032987
0.755656 -0.032326 0.054006
0.357575 -1.195749 -0.028688
0.359606 -0.713319 -0.147972
0.908713 -0.167411 0.237672
0.864630 -0.894681 0.050626
0.781513 -0.012683 -0.121300
0.156966 -1.227043 0.077619
0.727178 -0.847890 -0.220431
0.188816 -0.733712 -0.060397
0.660473 -0.489012 0.175164
1.230332 -0.217867 0.007344
0.974303 -0.445357 -0.239227
1.087632 -0.478453 0.163690
0.307220 -0.691929 0.057431
0.388533 -1.187642 0.005801
0.302541 -0.751729 0.162137
0.016389 -1.248330 0.022404
0.754162 -0.028368 0.045769
1.090938 -0.472729 -0.162796
0.856948 -0.773573 0.196326
0.742314 -0.115528 0.019778
0.643944 -0.388531 -0.032058
1.068033 -0.521320 -0.163337
0.525941 -0.739277 -0.231984
0.772998 -0.051591 0.107300
0.275401 -1.024919 0.242150
0.233337 -1.204197 -0.104421
0.134448 -1.195540 -0.144967
1.183731 -0.304915 0.112958
0.347466 -0.742276 -0.172657
1.007423 -0.726690 -0.060788
1.159352 -0.466186 -0.005151
1.141891 -0.463278 -0.091550
0.178750 -0.771533 0.137756
1.234562 -0.004410 -0.084928
0.896345 -0.140395 -0.231990
1.062712 -0.166062 -0.237756
0.763713 -0.968685 -0.087940
0.690455 -0.294461 -0.010360
0.277950 -1.135907 0.183176
1.157864 -0.338472 0.140111
0.839338 -0.593221 -0.248176
0.550253 -1.047749 -0.169082
1.131101 -0.172655 -0.203643
0.353063 -0.667160 -0.046281
0.313765 -1.131799 0.178779
0.442071 -1.165417 0.039425
0.472011 -0.694577 0.191345
1.185271 -0.393614 0.016145
0.860070 -0.869578 0.111571
0.579491 -1.103325 0.040344
1.019983 -0.503192 0.208203
0.311580 -0.720886 -0.127846
0.262015 -1.220055 -0.031113
0.918151 -0.489678 -0.246280
0.321701 -1.036690 0.234416
0.457225 -0.691976 -0.182220
0.606021 -1.084758 0.058923
0.724600 -0.684466 0.249791
0.897379 -0.800850 -0.145446
0.402447 -0.667426 -0.116689
0.964406 -0.694892 -0.163106
0.759311 -0.033087 0.069281
1.229873 -0.135544 -0.076691
0.788627 -0.895125 -0.158209
0.990556 -0.574090 0.203159
0.145354 -0.985700 -0.249762
0.483417 -0.980555 -0.231769
0.086450 -0.776995 -0.121663
0.475321 -0.992180 0.228730
1.188893 -0.367591 -0.049593
0.566653 -0.922314 0.235421
0.770115 -0.096258 0.110051
0.974249 -0.428749 0.241532
0.544115 -0.802244 -0.247996
0.460425 -0.942758 0.244553
0.448480 -0.938260 -0.246400
0.506850 -0.609861 -0.139274
1.247498 -0.050398 0.021337
0.338205 -0.739935 -0.165832
0.263660 -0.891906 -0.239724
0.433924 -0.843850 -0.244197
0.596866 -0.882469 0.241238
0.262300 -1.170382 0.150570
0.023721 -0.897553 -0.227792
0.728150 -0.210371 0.062031
0.536233 -0.569046 0.121836
0.242930 -0.906421 -0.242114
0.236928 -1.192079 0.126658
0.550989 -0.934252 -0.234696
0.344156 -1.184256 -0.088682
1.143128 -0.360511 -0.151623
1.211463 -0.110246 0.124918
0.637901 -0.410935 -0.065693
0.207685 -1.061008 0.235889
1.004838 -0.698574 0.110055
0.032960 -1.132217 0.211329
0.742512 -0.886795 0.194395
1.115465 -0.492944 0.118835
0.031711 -0.812905 0.165784
0.444166 -0.637211 0.111376
1.048658 -0.627876 0.113325
0.972996 -0.702569 -0.149366
0.187236 -1.137695 0.197559
0.836495 -0.920062 -0.054555
0.838836 -0.026452 -0.190879
0.142005 -0.873621 -0.221513
0.727360 -0.396558 0.181400
0.847594 -0.898539 0.082959
1.149193 -0.174433 -0.189387
0.961886 -0.634799 -0.198036
0.136889 -1.242202 0.002816
0.560758 -1.115755 0.019041
0.668504 -0.493182 -0.183387
0.303135 -0.715994 -0.112990
0.430195 -1.134463 0.129715
0.180330 -0.980465 -0.249802
0.786252 -0.965340 -0.046679
0.120970 -1.097126 -0.226932
0.520950 -1.085657 0.143357
0.311826 -1.178233 0.120168
0.447901 -0.656315 -0.141685
0.320134 -1.146084 -0.161713
0.987451 -0.705580 -0.129191
0.413381 -0.723221 -0.185403
0.321411 -0.682799 -0.045410
0.403846 -0.765092 -0.209943
0.861078 -0.030431 0.207606
0.597672 -1.025263 0.165302
0.639833 -0.663866 0.236990
0.656859 -0.768883 -0.249259
0.776487 -0.066047 0.116596
0.274989 -0.956681 -0.249704
0.788766 -0.354162 -0.209603
1.137639 -0.344077 -0.163358
0.145544 -1.160003 -0.183486
0.638522 -0.759924 0.249518
0.160084 -0.906625 -0.236520
0.053576 -0.983501 0.249017
0.963182 -0.733022 -0.134019
0.989798 -0.593367 -0.196724
1.127334 -0.525843 0.052014
0.011736 -1.046488 0.245076
0.220009 -1.138305 0.191988
0.605891 -0.569093 -0.183857
0.683658 -0.463603 0.179277
0.395829 -0.933890 0.249057
0.311067 -0.864389 -0.235840
0.692956 -0.696778 0.248868
0.729726 -0.923313 -0.176602
0.447422 -0.611345 -0.060211
0.003579 -0.786887 -0.130144
0.958418 -0.577677 0.219425
0.886513 -0.876963 -0.036716
0.003801 -0.754120 -0.042826
0.653337 -1.055638 0.064357
0.833576 -0.439179 0.242864
0.948938 -0.309200 -0.249874
0.556073 -0.503507 -0.002479
0.685412 -0.305922 -0.009244
0.896099 -0.312512 -0.244226
0.377145 -1.035487 -0.227804
0.694747 -0.948241 0.177828
0.097785 -0.755592 -0.074772
0.858675 -0.893918 0.070318
0.268031 -1.035680 0.239728
0.477394 -1.121726 0.119587
0.589457 -0.663276 -0.222630
1.061027 -0.384147 0.214187
1.002034 -0.579986 0.193364
0.765056 -0.986148 0.028117
1.085817 -0.558880 -0.115296
0.757340 -0.113333 -0.086110
0.912087 -0.108512 -0.235800
0.764533 -0.790203 0.229039
0.197300 -0.885162 0.231843
1.036790 -0.341385 -0.232365
1.004302 -0.689978 0.120814
0.242374 -0.901708 -0.240965
1.139107 -0.373942 0.151288
0.561660 -1.090228 -0.104758
1.166411 -0.017195 0.185682
0.290034 -1.207624 -0.061824
1.111156 -0.470552 -0.139581
0.940484 -0.476654 -0.243530
0.676076 -0.715401 -0.248974
0.303708 -1.185557 -0.110002
0.589503 -0.473041 -0.051479
0.805326 -0.892214 0.146799
0.773662 -0.882382 0.179563
1.201634 -0.343386 -0.002746
0.864449 -0.042923 0.210171
0.063961 -1.029380 -0.247939
1.039164 -0.268765 0.238521
0.053487 -1.226628 0.101981
0.629660 -0.410587 -0.026805
0.328702 -1.081073 0.213200
0.364521 -0.656810 0.018830
0.419141 -0.730369 -0.193363
0.530861 -0.533135 -0.033836
0.941295 -0.133351 0.244555
1.028505 -0.544200 0.188284
0.782225 -0.900184 -0.158724
1.010882 -0.229812 0.247051
0.096667 -1.138645 0.204595
0.336114 -0.796036 -0.209249
1.006713 -0.739274 -0.014389
0.665801 -0.417192 -0.128372
1.049972 -0.270635 0.234811
0.342002 -1.052280 -0.225622
0.993235 -0.118411 0.249980
1.073408 -0.050699 -0.238113
1.160688 -0.095571 -0.187372
0.199588 -0.750761 0.111619
0.347887 -1.059064 0.221556
0.428936 -0.979021 -0.240054
1.128473 -0.521182 -0.056563
0.359972 -0.657915 0.000134
0.552854 -0.928891 -0.235950
0.483292 -1.142531 0.067236
0.439752 -0.687801 -0.168997
0.124755 -1.219001 -0.106932
0.237449 -0.782188 -0.170179
0.753681 -0.941089 -0.141055
0.600481 -0.451835 0.023382
0.281156 -1.165587 0.151050
0.256085 -1.142457 -0.182008
1.197816 -0.337603 0.049317
0.724410 -0.930698 -0.173773
0.577055 -0.523161 0.115693
0.284965 -0.862708 0.232404
1.135794 -0.413377 0.136618
0.620068 -0.597695 0.207341
0.787330 -0.255582 -0.180804
0.761140 -0.471035 -0.226452
0.896785 -0.435926 0.249816
0.662951 -0.431148 0.136051
0.124533 -1.105048 -0.222856
0.905585 -0.712779 0.198069
0.715958 -0.251259 -0.065562
0.757997 -0.142242 0.100244
0.796890 -0.090724 0.152684
0.124176 -0.756767 0.089517
1.241362 -0.140687 -0.009169
0.080101 -0.965036 -0.247930
0.253750 -0.709438 0.039243
0.679393 -0.347935 -0.078943
0.427208 -0.641573 -0.099275
0.177211 -0.931083 -0.243981
0.432629 -0.647646 0.115594
0.801148 -0.435747 0.233588
1.157440 -0.253584 -0.167453
0.727034 -0.502407 0.220845
0.598980 -0.807064 -0.249669
0.594587 -0.490746 -0.099613
0.728681 -1.009971 0.044544
0.047720 -0.978302 0.248654
0.863441 -0.231911 -0.225926
0.628178 -0.539093 -0.180798
0.161293 -1.230871 -0.064727
0.316761 -0.988100 0.246852
0.756908 -0.481177 0.227318
0.147624 -0.762906 0.112027
0.591979 -0.484238 0.083264
0.681674 -0.322038 0.041581
1.062919 -0.089215 0.240793
0.793673 -0.441101 -0.232241
0.574148 -1.054555 -0.148507
0.687199 -0.370164 -0.119091
0.209139 -0.721120 0.013599
0.737779 -0.234946 0.106444
0.778851 -0.972964 0.040000
0.360552 -1.192813 -0.041341
0.584900 -0.571358 0.170497
0.985139 -0.632985 -0.181809
0.765686 -0.984550 -0.035624
0.247711 -1.086399 -0.221773
0.096845 -0.845137 0.200287
0.652262 -0.887983 -0.227923
0.427393 -0.647990 0.110387
1.044029 -0.350842 -0.228117
0.214355 -1.231234 -0.003628
0.971029 -0.100058 0.248441
0.381935 -1.137665 -0.149521
0.528835 -1.129316 0.036690
0.729033 -0.481716 0.215739
0.416530 -1.014794 0.230320
0.906469 -0.822055 0.110388
0.653648 -0.980553 -0.174854
0.263293 -0.997467 -0.247922
0.989522 -0.747088 0.069184
0.129909 -1.238811 0.043621
0.054461 -0.749339 0.020208
0.962364 -0.309825 0.249274
0.771213 -0.205368 -0.146929
0.280690 -1.215479 -0.034259
0.376216 -0.842557 0.237227
0.572099 -0.949741 -0.224511
0.443027 -1.166572 0.031638
0.570369 -0.532390 0.118498
1.004613 -0.102203 0.249355
0.426349 -0.623095 -0.047288
0.758109 -0.414025 -0.209062
0.815154 -0.688825 -0.240602
0.761667 -0.788461 0.230640
0.066070 -0.828488 0.183741
0.693046 -0.973811 0.155647
0.697175 -0.906743 0.203909
0.706887 -0.251394 0.004195
0.768764 -0.452745 -0.225005
0.034682 -0.920047 0.236550
1.085771 -0.500957 -0.155026
0.178988 -1.161070 -0.178468
0.264626 -0.972026 0.249512
1.023815 -0.627032 0.148723
0.986137 -0.459351 0.233596
0.555034 -0.679669 -0.217753
1.062667 -0.646075 -0.053428
0.657227 -0.374339 0.053939
0.136681 -1.031462 -0.246286
1.018928 -0.433881 0.225117
0.601107 -1.082709 -0.073586
0.795539 -0.910698 -0.135776
0.540754 -0.885005 -0.246951
0.987499 -0.025456 0.249203
1.017033 -0.712691 -0.062502
1.075412 -0.220146 0.229934
1.244787 -0.068300 0.038334
1.137646 -0.423579 -0.128700
0.619871 -0.453443 0.092820
0.669451 -0.795464 -0.246444
0.232204 -0.759952 0.141702
0.204548 -0.905302 0.239051
0.667423 -0.358621 0.060527
0.722815 -0.347258 -0.152518
0.373629 -0.656197 0.047670
0.146781 -1.223244 0.092455
1.232087 -0.203180 -0.018125
1.175764 -0.407654 0.049436
0.687972 -0.940276 -0.186970
1.158123 -0.469157 0.005727
0.534548 -1.072754 -0.151786
0.720835 -0.267364 0.095226
0.844872 -0.842791 0.157849
0.575682 -0.482508 0.018366
0.417803 -0.837412 -0.241599
0.297055 -0.913239 -0.246471
0.942025 -0.807922 -0.065929
1.083539 -0.370369 -0.203027
0.539277 -1.049746 -0.172824
0.690375 -0.337285 0.093871
0.739260 -0.438995 0.206361
0.253451 -0.744228 0.129136
0.054974 -1.040226 0.246054
0.387796 -1.180217 0.060500
0.660670 -0.505983 -0.184672
0.568573 -0.768836 0.245650
0.553004 -0.972461 0.219602
0.482951 -1.057164 -0.189436
0.330435 -1.029697 0.235783
0.884935 -0.520111 -0.248261
0.650060 -0.952211 -0.197602
0.032703 -0.838810 0.191058
0.804873 -0.338247 0.215238
0.916526 -0.537266 -0.241926
0.779912 -0.794749 0.222137
0.921111 -0.360972 -0.249303
1.094275 -0.063644 -0.230709
0.129993 -0.746022 0.058425
0.346925 -0.666375 -0.020290
1.210365 -0.004053 -0.134118
0.013067 -0.751900 0.031428
0.213881 -1.226073 0.049021
0.779048 -0.266805 -0.177045
0.445615 -0.651567 0.133888
0.612146 -0.561451 0.183314
0.838201 -0.299611 -0.223974
0.928681 -0.682642 -0.197950
1.107972 -0.089284 0.223099
0.756769 -0.485777 0.228498
0.940930 -0.738356 -0.154767
0.483855 -1.151136 0.019006
0.639406 -1.048720 0.100981
0.778541 -0.196923 0.153808
0.624604 -0.417882 0.022997
1.195689 -0.116837 -0.147616
0.719623 -0.764121 0.244468
1.017198 -0.586861 0.178838
0.654771 -1.064424 -0.003306
0.370168 -1.183507 -0.068684
1.204286 -0.330969 0.015827
0.278800 -0.704223 -0.059361
1.091467 -0.157356 -0.227455
0.420324 -0.840902 0.242443
0.747784 -0.999071 0.030775
0.178388 -0.999029 0.249025
0.104629 -0.986859 -0.249505
0.055819 -0.894365 -0.226947
0.121985 -1.126144 -0.211286
1.080640 -0.569115 0.115056
0.703177 -0.551259 0.225641
0.515457 -0.861737 0.249728
0.618829 -0.430979 -0.042769
0.299632 -1.067572 -0.224463
0.389527 -1.166674 -0.097586
0.049612 -0.873343 0.216378
0.323690 -0.736814 -0.155778
1.019521 -0.341199 -0.237938
0.181514 -0.755193 0.111338
1.159600 -0.070199 0.189903
0.872266 -0.283016 -0.235297
0.638562 -0.619217 0.223682
0.012065 -0.812469 -0.164683
0.823441 -0.743486 -0.224175
0.726078 -0.193505 -0.022500
0.776718 -0.483715 -0.234621
0.868935 -0.891169 -0.048150
0.841676 -0.772251 0.204921
1.173145 -0.381917 0.087332
0.437709 -1.169137 0.023226
0.773886 -0.330978 -0.193029
0.957417 -0.801428 -0.020404
0.702346 -0.717157 -0.249746
1.211857 -0.138311 -0.118301
0.225440 -0.807399 0.190002
0.832409 -0.666492 -0.240894
0.960676 -0.126171 -0.247967
0.792145 -0.860786 -0.182823
0.558104 -1.098009 0.093351
0.196083 -0.738307 -0.080730
0.813458 -0.947233 0.021114
0.126871 -0.858309 0.211589
0.712052 -0.385748 0.161550
0.369963 -0.653619 0.016221
1.157643 -0.369675 -0.126770
0.707566 -0.298344 0.092449
0.605684 -0.800796 -0.249730
0.185296 -0.802855 0.177463
0.924988 -0.835470 0.039653
1.110113 -0.328142 0.193535
0.867525 -0.072156 0.213554
0.379825 -0.732819 0.178743
0.285214 -0.852762 -0.228455
0.327774 -0.764535 -0.184384
0.418303 -1.142604 -0.124318
1.030183 -0.217876 -0.243800
1.226161 -0.218794 -0.044060
0.671073 -0.362519 0.077214
1.219447 -0.215092 0.074051
0.723036 -0.248239 -0.082387
0.272097 -0.936699 -0.248394
0.151545 -1.174259 -0.168471
0.764513 -0.980251 0.056393
0.893867 -0.246217 -0.238724
0.909091 -0.727408 -0.187651
0.616434 -0.430882 -0.032423
0.788897 -0.925276 0.125759
0.470827 -1.052165 0.197850
1.025374 -0.133817 0.247563
0.322255 -0.740889 -0.159404
0.181024 -0.786465 0.158358
1.245097 -0.107023 -0.003325
1.054087 -0.659626 -0.054410
0.713493 -0.598453 0.240130
1.042181 -0.117963 -0.244623
0.241082 -0.939027 -0.248003
0.612050 -0.883884 0.237926
0.721021 -0.491954 0.215121
0.487321 -0.597808 0.100267
0.973591 -0.450903 -0.238663
1.078797 -0.465006 -0.178480
1.224465 -0.194880 -0.069164
0.925000 -0.143968 0.241660
1.225031 -0.047467 -0.105667
0.044851 -0.942452 -0.243120
1.077213 -0.631933 -0.015574
0.822616 -0.558456 -0.249628
0.259870 -0.734229 -0.115663
0.309079 -0.807333 0.209490
0.429387 -1.173493 -0.005174
0.842578 -0.684833 0.234308
0.942505 -0.621643 0.213758
0.758371 -0.502665 -0.232851
1.213500 -0.253159 -0.069914
0.967195 -0.435395 0.242271
0.390032 -0.914428 -0.249620
0.882477 -0.848090 -0.109816
0.256004 -0.989689 0.248536
0.322306 -1.166284 -0.134730
1.227532 -0.121925 0.087970
0.471047 -0.636881 -0.137974
1.202917 -0.168743 -0.127592
0.284179 -1.167302 -0.147508
0.370536 -0.721955 -0.163458
0.164788 -1.234076 0.046413
0.764199 -0.981819 0.051076
0.759003 -0.505381 -0.233533
0.906605 -0.651829 -0.220605
0.696886 -0.477742 0.195859
0.682062 -0.325822 0.051640
0.108970 -1.004536 0.249312
0.760497 -0.290391 -0.166353
0.671856 -1.042740 -0.067525
0.340585 -0.992288 0.244568
0.081582 -0.746775 0.019436
0.802335 -0.566865 -0.248846
0.228736 -0.715749 -0.022337
0.395107 -0.637617 0.002496
0.628288 -1.054788 -0.102165
0.133365 -0.798918 -0.161721
0.714643 -0.926533 0.182561
0.848010 -0.830519 0.165061
0.011600 -1.214261 -0.128148
0.111558 -0.863007 -0.213323
1.068889 -0.639218 -0.044727
0.450422 -1.103966 0.158986
0.514097 -0.696018 0.210035
0.393554 -1.049621 -0.218451
1.029529 -0.085365 0.247761
0.003514 -1.100869 -0.228385
1.047949 -0.087648 -0.244071
1.011492 -0.219534 0.247369
0.721958 -0.751805 0.245925
0.749984 -0.960849 0.120153
1.211153 -0.104494 -0.126141
0.884717 -0.715881 0.207725
0.535461 -1.098730 -0.113141
0.375045 -1.186119 -0.051573
1.161071 -0.322841 0.142016
0.348452 -1.067204 0.217645
0.612255 -1.082394 0.054222
0.100445 -0.827568 0.185929
0.828257 -0.226008 0.205529
0.760936 -0.143033 -0.106397
0.316533 -0.681228 0.018627
1.067576 -0.620048 0.084778
1.066869 -0.447939 0.193992
0.000235 -1.137827 0.207934
0.146867 -0.809405 0.176151
1.003558 -0.244600 0.247789
0.969185 -0.781166 0.047559
1.217324 -0.217943 0.078663
0.595017 -0.622534 -0.207270
0.657852 -0.604965 0.225770
0.168778 -1.162996 -0.178144
0.954259 -0.346042 -0.249010
0.444833 -1.114133 -0.150087
0.257835 -0.896723 -0.240744
1.055933 -0.398416 0.214056
0.697006 -0.921405 0.195506
0.284857 -0.943810 -0.249074
0.086756 -0.759964 0.083660
1.065161 -0.088699 0.240049
0.781667 -0.609413 0.249421
0.820136 -0.608739 -0.248599
0.517948 -0.754997 0.234813
0.431880 -1.145289 -0.109619
0.605456 -0.445427 0.025680
1.192698 -0.105805 -0.153183
1.205199 -0.140552 0.129590
0.772116 -0.853094 -0.199379
0.776505 -0.087549 -0.120921
0.460034 -0.616378 -0.095914
0.598675 -0.963863 -0.210002
0.441873 -0.650107 0.128919
0.294872 -1.121992 -0.191331
1.070034 -0.164244 -0.235400
0.970340 -0.643223 -0.187792
1.050311 -0.168695 -0.241651
0.851627 -0.307368 0.231342
0.501704 -0.583246 -0.096323
0.684965 -1.039898 -0.045557
0.812636 -0.457378 0.240545
1.007379 -0.457734 0.225593
0.935654 -0.828373 0.003751
0.320021 -0.905831 -0.246542
0.810282 -0.282247 0.205208
0.249842 -1.077393 -0.225852
0.794121 -0.792446 -0.218041
0.916738 -0.795227 -0.129313
1.109622 -0.263258 0.206143
0.805005 -0.038964 -0.157085
0.880747 -0.857084 0.099589
0.843165 -0.506614 -0.248930
0.584467 -0.519990 -0.122688
0.906437 -0.671560 -0.214427
1.001551 -0.649576 0.157314
0.128888 -0.748878 -0.068774
0.002461 -0.847331 0.197945
0.936473 -0.751791 -0.148216
0.770404 -0.070569 -0.105091
0.406065 -0.741473 0.196263
0.541800 -0.743030 -0.236170
0.471519 -0.961484 0.239359
0.690330 -0.599634 0.234398
1.118971 -0.554079 -0.019641
1.044288 -0.210540 -0.241269
1.146296 -0.462597 0.080244
1.053728 -0.536727 -0.170132
0.606345 -0.456545 -0.066276
1.163249 -0.453935 -0.019346
0.155687 -0.887053 -0.229146
0.976385 -0.440287 -0.239302
0.947616 -0.063107 -0.244361
0.877289 -0.551256 -0.247162
1.131175 -0.000346 0.212378
0.920199 -0.535387 -0.241483
0.148369 -1.019443 0.248020
0.953189 -0.051438 -0.245326
0.086012 -1.072620 0.237605
0.118062 -0.982012 0.249287
1.132381 -0.529003 -0.001356
0.599106 -1.094767 -0.029508
1.212610 -0.237835 0.081588
0.938912 -0.772434 0.126007
0.937584 -0.443333 -0.246969
1.200166 -0.347779 -0.005593
0.357802 -0.672589 -0.074536
0.553324 -0.537064 -0.099994
1.105609 -0.303127 0.202180
0.811665 -0.655491 -0.245726
1.220003 -0.262234 0.031184
1.098704 -0.534624 0.113933
0.531133 -0.644697 0.187389
0.471713 -1.113896 0.135127
0.072075 -1.227495 0.098252
0.973052 -0.672888 0.169530
0.182915 -1.236085 -0.006854
0.963587 -0.273215 -0.249893
0.764082 -0.906594 0.166573
0.386203 -0.962267 -0.247002
0.258248 -1.221221 0.025604
0.327204 -1.121989 0.183760
0.885125 -0.811539 0.148334
0.630799 -0.414644 0.046633
0.655269 -0.663777 -0.240628
0.213858 -1.030611 0.243882
0.737050 -0.148560 -0.028897
0.220646 -0.968033 0.249534
0.031570 -1.245531 -0.042278
0.962399 -0.009677 0.246896
1.199735 -0.032122 0.149413
0.885846 -0.162166 -0.229146
0.755005 -0.083979 0.068238
1.019308 -0.079384 0.248529
1.198854 -0.317632 0.068153
1.228401 -0.147004 -0.077281
1.141526 -0.380506 -0.144752
1.038538 -0.507126 -0.195148
0.504042 -0.967769 0.232473
0.501287 -0.564098 0.045526
1.046957 -0.248446 0.237609
0.485622 -0.755237 -0.227823
0.879691 -0.563452 -0.245456
0.334700 -1.202942 0.020500
0.726354 -0.325938 0.143969
1.126177 -0.540141 -0.014114
0.157938 -1.209135 0.118966
0.338053 -1.071750 -0.217057
1.066317 -0.569217 0.136620
1.110747 -0.326320 -0.193446
0.070179 -0.814410 0.170239
0.615390 -0.759954 -0.248554
0.904183 -0.789847 -0.148724
1.235160 -0.054345 0.079626
0.916555 -0.773999 0.150102
0.752178 -0.920009 -0.163546
0.124002 -0.757880 -0.092674
0.673472 -0.823561 0.241643
0.456816 -0.606227 -0.066482
0.791415 -0.676550 0.246151
0.806194 -0.255913 -0.196664
0.123948 -1.061999 0.239932
0.335620 -0.714352 0.133671
1.039640 -0.683039 0.051923
0.971658 -0.773393 0.062275
0.843617 -0.917667 0.039004
0.633814 -1.019293 -0.149160
1.027505 -0.073834 -0.248022
0.551703 -1.094835 0.105765
0.464991 -0.683109 -0.179569
1.106228 -0.022927 -0.225625
0.745654 -0.585221 0.243991
0.760997 -0.222266 -0.139003
0.554564 -0.661530 -0.208683
0.514967 -0.871824 -0.249173
0.667639 -1.037253 0.087852
0.378688 -1.080613 -0.203067
0.746483 -0.563842 0.241535
0.743646 -0.675139 0.249711
1.069373 -0.440794 -0.194400
0.602820 -0.530951 -0.154133
0.657259 -0.470320 -0.159707
1.122872 -0.450822 -0.134614
0.529268 -0.572403 -0.117211
0.808172 -0.321949 0.213168
0.860464 -0.688164 -0.227905
0.331683 -0.693173 -0.094040
0.207304 -0.971694 0.249583
0.246291 -0.717188 -0.063890
0.091912 -1.226162 0.098410
0.798893 -0.909651 0.133625
0.803220 -0.016859 -0.154203
0.774625 -0.802356 -0.221273
0.568230 -0.538545 -0.123815
1.199759 -0.344187 -0.026829
0.684034 -0.769458 0.248058
0.665679 -0.362899 0.063215
0.894644 -0.818510 0.130795
0.190506 -0.727862 -0.034125
0.741959 -0.954203 0.136615
0.658289 -0.626754 0.232534
0.494621 -1.073242 -0.171024
0.629922 -0.422698 -0.064997
0.746164 -0.150097 -0.072395
1.027969 -0.595126 0.164098
0.722688 -0.576144 -0.237752
0.580009 -0.725662 0.239360
0.766165 -0.900664 0.170217
0.694068 -0.372293 -0.131183
1.100572 -0.488269 -0.143679
0.287177 -0.781407 0.184969
0.533198 -0.575806 -0.126986
1.194506 -0.086898 -0.152945
0.511398 -0.560769 -0.066021
0.059471 -1.220492 0.113971
0.528485 -0.973101 0.225178
0.950587 -0.510063 0.236695
0.766167 -0.655249 0.249463
0.695037 -0.541666 0.219558
0.358395 -1.197249 -0.003228
1.162021 -0.103754 0.185591
0.857638 -0.052353 0.206015
0.865486 -0.534896 0.248852
1.215757 -0.257401 0.058076
0.702634 -0.837353 -0.231817
0.880866 -0.174704 0.227863
0.597785 -0.532233 -0.150365
0.630784 -0.547837 0.187545
0.186392 -0.731716 0.047591
0.678719 -0.517383 0.202137
1.084771 -0.546764 0.127579
1.111920 -0.374337 -0.179822
0.250757 -1.169841 0.154287
0.451377 -1.020024 -0.221220
0.003132 -1.077989 0.236959
0.689578 -0.447432 0.175472
0.268876 -0.896898 -0.241695
0.734506 -0.965615 0.129777
0.491976 -1.103400 -0.137521
0.699496 -0.568974 0.229683
0.754597 -0.045566 -0.052183
0.617610 -0.695627 -0.239787
1.203053 -0.235183 -0.106016
0.462157 -0.764860 -0.225717
0.836073 -0.048012 0.189303
0.353020 -1.194883 -0.041890
0.008709 -0.885815 0.221892
0.943878 -0.049782 -0.243457
0.331178 -0.679122 0.050166
0.886770 -0.670810 -0.222922
0.232821 -1.222920 -0.047174
0.857884 -0.335215 0.236660
0.866133 -0.263247 -0.231286
0.814494 -0.023741 -0.167260
0.340718 -1.192775 0.067396
0.888110 -0.878355 0.012763
0.630102 -0.882611 0.234758
0.794244 -0.778962 0.222643
0.497398 -0.562234 -0.011145
0.433663 -0.622753 -0.065855
0.127348 -0.788336 -0.147631
0.780623 -0.230179 0.166152
0.906332 -0.432554 0.249718
0.865829 -0.078372 -0.212782
0.164456 -1.238915 0.001971
1.134485 -0.522239 0.015152
0.187540 -1.072714 -0.233234
0.979291 -0.116396 -0.249097
1.063987 -0.642835 0.056321
0.574194 -0.482456 -0.000476
0.440808 -0.999096 -0.232202
0.930713 -0.765798 0.141791
0.402941 -0.975559 -0.243310
0.357229 -0.941426 0.249543
0.111323 -0.935615 -0.242866
1.033967 -0.676713 0.081388
0.475336 -0.691831 0.191009
0.888541 -0.527540 -0.247710
0.746210 -0.087263 0.020422
0.362506 -1.029374 0.232422
0.956267 -0.131165 0.247448
0.752265 -0.281084 0.153856
1.040189 -0.528442 -0.185554
0.941069 -0.301739 -0.249235
0.908269 -0.639961 0.223368
0.123038 -0.931936 -0.242435
0.101265 -1.199045 0.144611
0.168629 -0.970315 -0.249008
1.134551 -0.497091 -0.072825
0.226380 -1.113992 -0.208616
0.846457 -0.231839 -0.217817
0.734935 -0.217600 0.088270
0.909562 -0.856704 -0.006685
0.481865 -0.619956 0.127580
0.732521 -0.217585 0.081425
0.439325 -0.614493 0.049192
0.869965 -0.477571 0.249509
0.759456 -0.913436 -0.163999
0.292221 -1.069139 -0.224696
0.761128 -0.128556 0.101578
0.337294 -0.973969 0.247982
1.152090 -0.310477 0.157977
0.599735 -0.484920 -0.100275
0.377677 -0.790890 -0.217233
0.715954 -0.298700 -0.109373
0.703886 -0.793189 -0.242307
0.796820 -0.069550 0.149568
1.171548 -0.423158 0.043658
1.043155 -0.221502 -0.240875
0.337812 -0.951126 -0.249386
1.177468 -0.186484 -0.159155
0.196185 -1.189574 0.141136
0.878869 -0.298965 -0.239138
0.101781 -1.204745 -0.136045
0.763159 -0.848201 0.205794
0.129680 -0.756671 0.091815
1.240011 -0.006886 0.068788
0.312361 -1.043680 -0.233077
0.084065 -1.058770 -0.241988
1.062859 -0.645810 -0.053301
0.724798 -0.711317 -0.248977
0.571521 -0.599410 -0.181155
0.829865 -0.021032 0.182842
0.996866 -0.740439 -0.063203
0.514935 -1.042324 0.189160
0.144005 -1.234489 -0.057404
0.801876 -0.773058 -0.221982
1.059595 -0.041677 -0.242320
1.157150 -0.172776 0.182728
0.909968 -0.211205 -0.241115
0.051144 -1.009944 0.249262
0.680855 -0.747557 -0.249268
0.708529 -0.526465 -0.220314
0.251780 -0.784104 -0.177100
0.756264 -0.265373 0.151975
0.576204 -0.481244 -0.012040
0.589713 -0.967172 -0.211261
0.505175 -0.828355 -0.248054
0.549202 -0.732754 -0.234853
0.357209 -1.072228 -0.213035
0.874887 -0.874375 0.078143
0.801562 -0.957129 -0.022439
0.182174 -0.932243 -0.244388
0.179536 -0.768430 0.133509
0.750340 -0.937086 -0.148858
0.058072 -1.006190 -0.249480
0.604321 -0.669953 -0.229952
0.812553 -0.256575 -0.201247
0.380342 -0.664825 0.086643
0.835502 -0.768930 0.209454
0.623929 -0.428428 0.056655
0.994005 -0.722003 -0.100398
0.925229 -0.656850 0.210008
0.896934 -0.610275 0.234614
0.449186 -1.155163 0.070660
0.345215 -0.876505 0.242834
0.550976 -1.117904 -0.040015
0.236166 -0.717491 0.048870
0.434571 -1.137230 -0.123038
0.277439 -1.012371 -0.244461
1.225356 -0.158777 0.081825
0.503184 -0.799995 -0.243435
0.485160 -0.988299 -0.228322
0.466958 -0.673951 -0.173065
0.008109 -0.794957 -0.142305
0.847756 -0.466432 -0.247881
0.678832 -0.597205 0.230908
1.170188 -0.434010 -0.027853
0.882562 -0.069337 0.221597
0.362937 -0.656850 0.007720
0.176329 -0.814066 0.185348
0.159177 -1.238759 -0.015177
1.144266 -0.020297 0.203466
0.430263 -0.734300 0.200559
0.307268 -1.206945 -0.044536
0.121963 -0.806293 -0.167959
1.097940 -0.551331 0.100464
1.165276 -0.071548 0.184861
1.007712 -0.695466 -0.108815
1.126859 -0.003691 0.215234
0.068090 -0.888093 0.224262
0.716809 -0.693413 -0.249828
0.716180 -0.528564 -0.223969
0.817220 -0.916918 -0.101026
0.514562 -0.656485 0.186345
1.031745 -0.701006 0.034741
1.233797 -0.190357 -0.023453
1.061802 -0.542452 0.158953
1.114567 -0.480041 0.129293
0.666495 -0.561032 -0.214005
0.111817 -1.243015 0.028696
0.110472 -0.893434 0.228954
0.339757 -1.112171 -0.188915
0.223699 -1.129453 -0.198864
0.572247 -1.008910 0.191572
0.914036 -0.838472 -0.067800
0.976434 -0.107370 0.248846
0.101057 -0.971845 -0.248501
0.422800 -1.075164 -0.195545
0.806375 -0.336180 -0.215617
0.745234 -0.221144 -0.112636
0.061644 -1.241533 0.056719
0.299577 -1.143584 -0.170525
0.619447 -0.997224 -0.179180
0.809214 -0.322163 -0.213867
1.160616 -0.359296 -0.127220
0.976866 -0.631342 -0.188677
1.134481 -0.523349 -0.008152
0.417502 -0.680979 -0.147956
0.124411 -0.795406 -0.156145
0.608857 -0.502082 0.133530
0.683305 -0.880685 0.221579
0.855277 -0.197699 -0.217926
0.589800 -0.616263 0.201837
0.972457 -0.619084 -0.197781
0.626521 -0.841044 -0.244649
0.422394 -0.863057 0.246584
0.678036 -0.720650 0.249314
0.926003 -0.168275 0.242662
0.813683 -0.881408 -0.150225
0.269093 -1.078627 0.223066
1.056127 -0.510173 -0.180112
0.743046 -0.399742 -0.194798
0.186413 -0.753406 -0.110107
1.075345 -0.633246 0.030104
0.396430 -1.082289 0.197907
0.791059 -0.931264 -0.113913
0.573330 -1.026399 0.177689
0.763505 -0.778785 -0.232659
0.705421 -0.504308 -0.211296
0.137609 -0.763390 0.109275
0.162906 -1.160164 0.181297
0.793267 -0.363777 -0.215014
0.699700 -0.534847 0.219351
0.592856 -0.533164 -0.145762
1.067230 -0.346289 -0.217955
0.108674 -1.086220 0.232331
0.706677 -0.256977 0.030334
0.033040 -0.759516 0.069879
0.291223 -0.691154 0.000697
0.874093 -0.780416 0.181086
1.014357 -0.012603 0.249049
0.368345 -1.011689 0.237405
1.106846 -0.574878 -0.035311
0.643190 -0.828405 0.244642
0.490735 -0.576463 0.057567
0.967715 -0.492667 -0.234268
0.457934 -0.953916 0.242776
0.483061 -0.764892 -0.231086
0.437981 -1.040840 -0.213635
0.856229 -0.457421 0.248083
0.648574 -0.690736 0.243922
0.766373 -0.718821 -0.244248
0.239080 -0.718544 -0.058544
0.926906 -0.637555 0.216448
0.786387 -0.258209 -0.180711
0.891029 -0.492749 -0.248802
0.729185 -0.879517 -0.204789
0.863210 -0.122254 0.214419
0.110826 -0.743637 0.028321
0.171461 -0.743597 -0.078348
0.678371 -0.487037 0.187244
0.776600 -0.089868 -0.121631
0.365651 -0.667504 -0.072453
0.136265 -0.762070 -0.106145
0.843640 -0.010443 0.194794
0.709878 -0.355067 -0.140345
0.138995 -0.745612 0.064681
0.319163 -0.797624 0.205932
0.454649 -0.977095 -0.237052
0.827395 -0.207875 0.201884
0.464649 -0.939013 -0.244854
0.847360 -0.880815 -0.113263
0.167400 -1.237899 -0.011290
0.571963 -0.497871 -0.063774
0.544314 -0.558607 0.117929
1.102035 -0.588982 0.006824
0.707944 -0.603028 0.239689
0.668326 -0.669397 -0.243595
0.929757 -0.429656 0.248407
0.411072 -1.047773 0.216115
0.258765 -0.878342 0.234839
0.789353 -0.496146 0.240486
0.705262 -0.741737 -0.248459
1.082115 -0.580764 0.101417
0.249935 -1.212945 0.073480
0.891658 -0.594741 -0.239067
0.861719 -0.142884 0.215531
1.244202 -0.015806 0.050054
0.721419 -0.461191 0.203994
1.065327 -0.399378 0.207947
0.308655 -1.186070 0.106440
0.510607 -0.951502 -0.236334
0.166724 -0.837230 -0.202255
0.504963 -1.065750 0.173858
0.066965 -1.080229 0.235480
0.729037 -1.002074 -0.071132
0.456132 -0.635975 0.123371
0.693273 -0.959131 0.169063
1.168906 -0.258957 0.153393
0.833675 -0.927512 0.036124
0.595631 -0.615810 -0.204341
1.091921 -0.605305 -0.021949
0.231031 -1.227983 -0.005822
0.120545 -0.856467 0.209800
0.558641 -0.514462 -0.067570
0.555432 -0.903562 0.242277
0.075778 -1.210004 0.131049
0.948607 -0.075387 -0.244734
0.639853 -0.625166 0.226187
0.404220 -0.955308 0.246918
0.892479 -0.223994 -0.236345
0.639741 -0.578927 -0.208361
0.692053 -0.508727 0.205785
0.154639 -0.738022 0.042512
0.278662 -1.204473 0.079791
1.050857 -0.538724 -0.171990
0.052669 -1.208156 -0.135684
0.858300 -0.531669 -0.249364
1.184551 -0.360060 -0.074745
1.220479 -0.181481 0.087030
0.039037 -1.136404 -0.208384
0.619607 -0.777729 0.249636
0.874913 -0.022497 0.216612
1.159984 -0.147564 0.183265
0.703245 -0.278116 0.053516
0.710407 -0.276822 -0.076325
0.993415 -0.196168 -0.249173
0.308843 -0.719961 0.124946
0.884099 -0.231516 -0.234245
0.641640 -0.543004 -0.192041
1.144328 -0.054589 0.202710
0.632376 -0.584625 0.207335
0.332949 -0.883361 0.243230
1.180430 -0.038062 0.171824
0.914276 -0.474147 0.248034
0.663047 -0.354301 0.027055
1.052754 -0.384132 -0.218622
0.189440 -0.921816 0.242643
0.904855 -0.351566 -0.248085
0.752421 -0.983769 -0.073157
0.274046 -0.776224 0.176768
1.104356 -0.497173 0.132981
0.899584 -0.322026 -0.245498
0.785203 -0.296251 0.190861
0.157720 -0.816421 0.184088
0.736912 -0.642914 -0.248558
0.894590 -0.871590 -0.014067
0.290202 -1.214388 0.020235
0.013652 -1.160447 0.190951
0.339334 -1.189034 -0.079117
0.969609 -0.100101 -0.248349
0.727470 -1.014864 0.019099
0.712327 -0.560002 0.231582
0.581866 -0.615107 -0.197403
0.981963 -0.703447 -0.137719
1.126755 -0.514235 0.073059
0.850830 -0.838056 0.156757
0.187869 -1.030885 -0.244817
0.214604 -0.871269 -0.227526
0.585448 -0.727362 -0.240964
0.257362 -0.754550 -0.145649
1.117408 -0.533709 0.073862
0.736884 -0.197817 -0.077978
0.129472 -1.239067 0.042582
0.945885 -0.399179 -0.248248
0.557097 -1.112648 -0.050262
0.677625 -0.915875 -0.206941
0.672984 -1.043673 -0.062497
0.895152 -0.866124 0.043690
1.026987 -0.708641 -0.032753
0.624101 -1.049889 0.115024
0.932517 -0.062061 -0.241258
0.316371 -0.692842 0.074116
0.536779 -1.076958 0.144667
0.240316 -0.777357 -0.165914
0.825999 -0.197611 0.199382
0.424019 -1.029382 0.222268
0.837035 -0.242431 -0.214168
0.427413 -1.125786 0.143339
0.320722 -0.686548 -0.061104
0.605284 -0.685353 0.234403
0.891003 -0.865265 -0.061633
1.106113 -0.387339 -0.180928
0.681426 -0.473218 -0.182434
0.525069 -0.775821 -0.241791
0.660451 -0.441094 -0.141032
0.642670 -0.786437 0.248974
1.233390 -0.197647 -0.011910
0.826837 -0.929681 0.050727
0.913139 -0.808734 0.118168
1.130801 -0.124565 -0.208003
0.501552 -0.566737 -0.056346
0.000381 -0.793278 -0.139651
1.195930 -0.354731 0.034444
0.642405 -0.502114 -0.167812
1.213495 -0.284738 0.039263
0.386348 -0.702005 -0.151735
0.722877 -0.792979 -0.238648
1.016338 -0.344261 0.238622
0.470407 -0.991450 0.230116
1.078573 -0.082248 -0.235701
0.611851 -0.925495 0.224143
0.439090 -0.879581 -0.248894
0.289634 -0.863961 0.233322
0.639922 -0.576859 0.207536
0.195356 -0.760404 0.127466
1.225528 -0.187631 0.069464
0.266786 -0.983878 -0.248725
0.552437 -1.022515 0.189509
0.499131 -0.562062 0.026705
0.946799 -0.453651 -0.244422
0.774944 -0.278981 0.177150
1.157252 -0.178600 -0.181828
1.044907 -0.685253 0.005389
0.119094 -0.764505 0.105290
0.212267 -1.007078 -0.248081
0.172765 -1.218090 -0.096923
0.250198 -1.185090 0.132785
0.580792 -1.025964 -0.174294
0.716328 -0.955451 0.156889
0.488730 -1.052825 0.190784
0.492944 -1.147604 -0.013902
0.851061 -0.291065 0.228600
0.776971 -0.880227 0.179057
0.064231 -1.141363 -0.204319
0.873441 -0.304128 0.237965
0.837499 -0.844121 0.162676
0.732222 -0.295543 0.134247
0.644237 -0.495392 0.164816
0.958071 -0.233909 0.249100
0.865489 -0.894700 -0.047541
0.823250 -0.766230 0.216635
1.244079 -0.083341 -0.037252
0.897151 -0.167715 0.233832
1.093278 -0.405862 0.185991
1.193455 -0.337343 0.068243
0.175055 -0.753181 -0.104342
0.119943 -0.741169 0.013241
0.647169 -0.771011 0.249561
0.947468 -0.813877 -0.014267
1.240418 -0.123478 0.039152
0.796490 -0.038679 -0.145864
0.895640 -0.823119 0.125007
0.178312 -1.149158 -0.188877
0.597339 -0.709365 -0.238814
0.583948 -0.604970 -0.192256
0.003125 -1.018332 0.248796
0.191070 -0.986830 -0.249659
1.045033 -0.589906 0.149621
1.093798 -0.393867 0.189229
0.969959 -0.782807 -0.039369
0.414483 -1.146286 0.120017
0.204051 -0.899589 -0.237126
1.112829 -0.569022 -0.000882
1.101773 -0.074513 0.226689
0.360892 -0.723502 -0.160041
1.172392 -0.253659 0.150307
1.232601 -0.060308 0.086513
1.061605 -0.542248 0.159260
1.074305 -0.469668 -0.180490
1.082493 -0.459196 -0.177508
0.593181 -0.924595 -0.229537
0.499695 -1.137330 -0.060565
1.225653 -0.110895 -0.096135
0.320098 -1.201039 0.056808
0.598258 -0.918060 -0.230873
0.277472 -1.192795 0.108339
0.674606 -0.539881 -0.209226
0.235672 -0.924951 0.245310
0.512280 -0.904238 0.246541
0.341142 -1.184816 -0.089570
1.083575 -0.330946 0.211154
1.001119 -0.285701 0.246165
0.798483 -0.149466 -0.164449
0.841075 -0.378657 0.237115
0.940911 -0.758189 -0.137047
0.698382 -0.751339 -0.248305
1.045517 -0.647151 -0.098271
0.164081 -0.768396 -0.128418
0.435427 -0.630155 -0.086779
1.034930 -0.691474 0.048647
0.729939 -0.782057 0.239733
1.101024 -0.589050 0.019862
0.707014 -0.536867 0.222825
0.483423 -1.023658 -0.211779
1.132499 -0.451249 -0.119578
1.187174 -0.202818 -0.143106
0.527624 -0.647322 0.187229
1.172549 -0.375748 0.094495
0.449392 -0.998880 -0.231071
1.085890 -0.170722 0.229178
1.118284 -0.420313 -0.156287
1.205271 -0.305069 -0.055494
0.887850 -0.041714 -0.223337
0.956223 -0.694490 -0.170937
0.817746 -0.330038 0.219908
0.801467 -0.888132 0.154485
1.245558 -0.080932 0.026385
0.764438 -0.060977 -0.089421
0.639288 -0.413882 0.073855
0.667370 -0.983935 -0.162857
0.780404 -0.683699 -0.246873
0.063738 -0.903137 0.231338
1.017872 -0.115642 -0.248395
0.029615 -0.754258 0.046481
0.053429 -0.749400 -0.020173
1.125837 -0.035423 0.215529
1.185265 -0.052357 0.165714
0.788012 -0.254423 0.181068
0.390073 -1.183766 -0.040032
1.148529 -0.116269 0.196371
0.690698 -0.572893 0.227560
0.760961 -0.825823 0.217474
0.207303 -1.020989 -0.246025
0.018338 -1.224825 -0.107675
0.856469 -0.579974 -0.247505
1.171768 -0.087120 0.178326
0.901997 -0.626704 0.229621
0.584021 -0.690331 -0.230954
0.564630 -0.538488 -0.118420
0.553903 -0.975114 -0.218248
0.712011 -0.900634 0.201037
1.172327 -0.209567 0.160592
0.517208 -0.838571 -0.249038
1.063320 -0.627467 0.084606
0.691719 -1.027925 0.071908
0.744871 -0.091728 -0.007622
0.826846 -0.161502 -0.193683
0.188040 -0.824206 -0.196238
1.030260 -0.210244 0.244099
0.932009 -0.569275 -0.232152
0.989832 -0.602551 -0.192473
0.335209 -0.674798 -0.039517
0.885303 -0.477784 0.249604
0.949120 -0.609633 0.214429
0.354040 -0.804786 -0.218600
0.329166 -1.093013 -0.205462
1.210387 -0.307849 0.015720
0.032323 -0.872373 -0.215195
0.109217 -1.230953 0.081213
1.092614 -0.604584 0.017995
1.029915 -0.499790 0.203236
0.716739 -0.350659 0.146680
0.900263 -0.466958 0.249067
0.948127 -0.322939 0.249889
0.066049 -1.245090 -0.037508
1.033128 -0.675303 -0.085724
0.758677 -0.718265 -0.245445
0.713816 -0.965327 -0.148808
0.420950 -0.625083 0.040168
0.972221 -0.575702 -0.213202
0.692769 -1.025750 -0.075441
0.979563 -0.012321 -0.248670
0.891644 -0.211068 -0.235052
0.792839 -0.502443 -0.242147
0.953630 -0.797422 -0.056138
1.078534 -0.545375 0.136822
0.057548 -1.246833 0.027460
0.858794 -0.809147 -0.173108
0.757259 -0.061942 -0.068594
0.460736 -0.950552 -0.243133
0.823109 -0.709735 -0.233965
0.287537 -1.094812 -0.211811
0.949759 -0.708287 -0.167608
0.452961 -0.887106 0.249745
0.761738 -0.182313 0.124625
0.623919 -0.671271 -0.235108
0.235704 -0.722698 -0.069638
0.076134 -1.178939 -0.171416
0.304029 -1.092088 -0.210735
1.166246 -0.407533 0.082389
0.677698 -0.865071 -0.229357
0.638590 -0.501006 -0.163626
0.868555 -0.195071 0.223998
0.955749 -0.802675 -0.027627
0.421896 -0.767529 0.216953
0.783305 -0.037863 0.126097
0.360736 -0.693885 0.122197
1.160603 -0.335501 0.137411
0.572892 -0.738067 0.241158
1.024713 -0.032480 0.248342
0.410986 -1.019318 0.229263
0.445410 -0.801036 -0.235136
0.337060 -1.198713 -0.045750
0.401601 -0.801483 0.227103
0.786339 -0.770276 -0.228424
0.136002 -0.977333 -0.249136
0.524754 -1.005744 0.210163
0.700600 -0.763169 -0.247182
0.343027 -0.868773 0.241077
1.174020 -0.118082 0.173135
0.597466 -0.868362 0.243585
0.936087 -0.820817 -0.046651
0.198624 -1.233284 -0.011137
0.200023 -0.822452 0.197169
0.865348 -0.202178 -0.223269
0.742031 -0.502830 0.227062
0.876118 -0.789923 0.173468
0.249367 -0.920415 0.245132
0.094814 -1.244171 -0.032881
0.411196 -1.028589 0.224979
0.255503 -0.969116 -0.249849
0.466427 -1.065070 0.189054
0.838566 -0.675173 -0.237420
0.340027 -1.083760 0.209202
0.553191 -1.055038 0.160160
0.078413 -1.246972 0.007207
0.101313 -1.046138 -0.244197
0.459586 -0.634672 -0.125246
1.068128 -0.049571 0.239919
0.106855 -0.964613 0.248072
0.709456 -0.395004 0.164046
0.129641 -0.765119 0.109917
0.337506 -0.751370 0.177222
0.067258 -0.773509 -0.110791
0.972432 -0.538690 -0.223041
0.042514 -1.242739 -0.054280
1.198478 -0.162763 -0.135380
0.975132 -0.772047 -0.052868
1.210718 -0.222956 0.095092
0.509791 -0.790136 0.242494
0.735887 -0.146146 -0.003994
0.493503 -0.565225 -0.005964
1.239558 -0.146287 -0.027106
0.712413 -0.834455 0.230189
0.321290 -1.169531 0.130418
1.077628 -0.632696 0.004238
0.958947 -0.172377 0.248320
0.151521 -1.239715 0.015928
1.235736 -0.128509 -0.059762
0.083533 -0.752270 0.056822
0.068032 -0.778095 0.120190
0.256641 -0.734949 0.114914
1.240577 -0.137814 -0.025895
0.352208 -1.134034 0.164504
0.241006 -0.967127 -0.249785
0.033633 -1.127306 0.214592
0.100192 -0.807801 0.166257
0.043406 -1.046092 -0.244991
1.176508 -0.341722 0.107325
1.005585 -0.536500 0.206643
0.716675 -0.393189 0.170261
0.468251 -1.121622 0.126541
1.223105 -0.239294 -0.040303
0.964480 -0.162797 0.248569
0.747014 -0.086116 0.030679
0.157061 -1.237326 0.035449
0.404602 -0.891088 0.248605
0.485168 -0.628757 0.141057
0.582520 -1.010460 -0.185860
0.193747 -1.129966 -0.202153
0.648498 -1.058522 -0.064747
0.864590 -0.289154 -0.233471
0.228050 -0.714521 -0.001307
0.464775 -1.139596 -0.096028
1.215358 -0.086081 -0.121076
1.015505 -0.097774 0.248674
0.161570 -0.935112 0.244203
0.999083 -0.525808 0.213790
0.564954 -0.759174 -0.243677
0.577586 -1.106853 -0.021644
0.542153 -0.803256 -0.247977
1.174199 -0.043869 0.178242
0.839009 -0.907879 -0.080013
1.245200 -0.104568 -0.004974
1.119675 -0.380857 -0.169956
0.780530 -0.851878 -0.195481
0.900935 -0.638379 -0.226757
0.019173 -1.048990 -0.244560
0.229879 -1.217739 -0.071024
0.885053 -0.541651 0.246850
0.848672 -0.056735 0.200215
0.708679 -0.710463 0.249771
0.681502 -1.038687 0.060152
0.140858 -0.755612 -0.094660
0.197540 -1.074650 -0.231967
0.737347 -0.143786 0.019294
0.896119 -0.803503 -0.144227
0.485885 -1.027342 -0.208857
0.338642 -1.007662 0.241801
1.167536 -0.367425 0.109651
0.661608 -0.468364 0.162420
0.054035 -0.770991 -0.103543
0.173391 -0.791366 0.161903
0.180252 -0.825446 0.195825
1.146539 -0.097159 -0.199311
0.353832 -0.777908 -0.202915
0.175473 -1.131019 -0.203398
0.611880 -0.852474 -0.244524
0.879368 -0.712897 -0.211761
1.081754 -0.104247 -0.233984
0.872822 -0.048600 0.215989
0.163007 -1.227114 0.075015
1.057334 -0.299893 -0.229277
0.427958 -0.963097 -0.243629
0.372104 -0.683026 -0.113575
0.844948 -0.915776 -0.041419
0.240341 -0.878781 0.233263
0.731233 -0.973114 0.123389
0.536805 -0.525359 0.017739
0.222498 -1.130475 -0.198339
0.799293 -0.134142 -0.162284
