0.760013 0.190373 -0.125000
0.853739 0.191714 -0.216506
0.848777 0.212608 -0.216506
0.970031 0.242980 -0.250000
1.180049 0.295587 -0.125000
1.204720 0.333391 0.000000
1.172440 0.324458 0.125000
1.091285 0.273353 0.216506
1.084248 0.300052 0.216506
0.963776 0.266713 0.250000
0.843304 0.233374 0.216506
0.755112 0.208968 0.125000
0.727523 0.182235 0.000000
0.722832 0.200035 0.000000
0.843304 0.233374 -0.216506
0.963776 0.266713 -0.250000
1.084248 0.300052 -0.216506
1.091285 0.273353 -0.216506
1.172440 0.324458 -0.125000
1.164124 0.353133 0.125000
1.076558 0.326570 0.216506
0.956940 0.290285 0.250000
0.837323 0.253999 0.216506
0.717705 0.217714 0.000000
0.722832 0.200035 0.000000
0.717705 0.217714 0.000000
0.755112 0.208968 -0.125000
0.749757 0.227436 -0.125000
0.837323 0.253999 -0.216506
0.956940 0.290285 -0.250000
1.076558 0.326570 -0.216506
1.164124 0.353133 -0.125000
1.186910 0.392102 0.000000
1.196175 0.362856 0.000000
1.155107 0.381596 0.125000
1.068219 0.352892 0.216506
0.830837 0.274471 0.216506
0.749757 0.227436 0.125000
0.743949 0.245768 0.125000
0.712146 0.235261 0.000000
0.743949 0.245768 -0.125000
0.830837 0.274471 -0.216506
1.068219 0.352892 -0.216506
1.155107 0.381596 -0.125000
1.145394 0.409829 0.125000
1.059237 0.379001 0.216506
0.949528 0.313682 0.250000
0.941544 0.336890 0.250000
0.823851 0.294779 0.216506
0.737694 0.263951 0.125000
0.712146 0.235261 0.000000
0.706158 0.252667 0.000000
0.823851 0.294779 -0.216506
0.941544 0.336890 -0.250000
0.949528 0.313682 -0.250000
1.145394 0.409829 -0.125000
1.166241 0.449869 0.000000
1.176930 0.421112 0.000000
1.134992 0.437815 0.125000
0.932993 0.359895 0.250000
0.816369 0.314908 0.216506
0.730994 0.281976 0.125000
0.706158 0.252667 0.000000
0.730994 0.281976 -0.125000
0.737694 0.263951 -0.125000
0.816369 0.314908 -0.216506
0.932993 0.359895 -0.250000
1.059237 0.379001 -0.216506
1.049617 0.404882 -0.216506
1.134992 0.437815 -0.125000
1.154849 0.478354 0.000000
1.039364 0.430519 0.216506
1.049617 0.404882 0.216506
0.923880 0.382683 0.250000
0.808395 0.334848 0.216506
0.723854 0.299830 0.125000
0.699745 0.269921 0.000000
0.692910 0.287013 0.000000
0.699745 0.269921 0.000000
0.723854 0.299830 -0.125000
0.923880 0.382683 -0.250000
1.039364 0.430519 -0.216506
1.123905 0.465537 -0.125000
1.112142 0.492979 0.125000
1.123905 0.465537 0.125000
0.914210 0.405241 0.250000
0.716278 0.317504 0.125000
0.692910 0.287013 0.000000
0.685657 0.303931 0.000000
0.716278 0.317504 -0.125000
0.808395 0.334848 -0.216506
0.914210 0.405241 -0.250000
1.028486 0.455896 -0.216506
1.112142 0.492979 -0.125000
1.129987 0.534444 0.000000
1.142762 0.506552 0.000000
1.099709 0.520124 0.125000
1.028486 0.455896 0.216506
1.016988 0.481000 0.216506
0.903989 0.427555 0.250000
0.799934 0.354586 0.216506
0.790991 0.374111 0.216506
0.708270 0.334987 0.125000
0.685657 0.303931 0.000000
0.708270 0.334987 -0.125000
0.799934 0.354586 -0.216506
0.903989 0.427555 -0.250000
1.016988 0.481000 -0.216506
1.099709 0.520124 -0.125000
1.116530 0.562014 0.000000
1.086613 0.546955 0.125000
0.893224 0.449611 0.250000
0.781571 0.393410 0.216506
0.699835 0.352268 0.125000
0.677992 0.320666 0.000000
0.669918 0.337209 0.000000
0.677992 0.320666 0.000000
0.699835 0.352268 -0.125000
0.790991 0.374111 -0.216506
0.893224 0.449611 -0.250000
1.004877 0.505813 -0.216506
1.072863 0.573457 0.125000
0.992161 0.530321 0.216506
1.004877 0.505813 0.216506
0.771681 0.412472 0.216506
0.690980 0.369336 0.125000
0.661441 0.353548 0.000000
0.669918 0.337209 0.000000
0.661441 0.353548 0.000000
0.690980 0.369336 -0.125000
0.781571 0.393410 -0.216506
0.771681 0.412472 -0.216506
0.992161 0.530321 -0.216506
1.086613 0.546955 -0.125000
1.072863 0.573457 -0.125000
1.087609 0.616123 0.000000
1.102402 0.589246 0.000000
1.058466 0.599614 0.125000
0.978848 0.554510 0.216506
0.881921 0.471397 0.250000
0.761326 0.431286 0.216506
0.681708 0.386183 0.125000
0.652565 0.369674 0.000000
0.761326 0.431286 -0.216506
0.881921 0.471397 -0.250000
0.978848 0.554510 -0.216506
1.058466 0.599614 -0.125000
1.072161 0.642628 0.000000
1.043432 0.625409 0.125000
0.964945 0.578365 0.216506
0.870087 0.492898 0.250000
0.750513 0.449840 0.216506
0.672025 0.402796 0.125000
0.652565 0.369674 0.000000
0.643296 0.385577 0.000000
0.681708 0.386183 -0.125000
0.672025 0.402796 -0.125000
0.750513 0.449840 -0.216506
0.870087 0.492898 -0.250000
0.857729 0.514103 -0.250000
1.043432 0.625409 -0.125000
1.027770 0.650828 0.125000
0.950460 0.601872 0.216506
0.844854 0.534998 0.250000
0.857729 0.514103 0.250000
0.739247 0.468123 0.216506
0.661937 0.419167 0.125000
0.643296 0.385577 0.000000
0.633640 0.401248 0.000000
0.661937 0.419167 -0.125000
0.844854 0.534998 -0.250000
0.964945 0.578365 -0.216506
0.950460 0.601872 -0.216506
1.027770 0.650828 -0.125000
1.056067 0.668747 0.000000
1.011488 0.675855 0.125000
0.935403 0.625017 0.216506
0.831470 0.555570 0.250000
0.727536 0.486124 0.216506
0.623602 0.416678 0.000000
0.633640 0.401248 0.000000
0.623602 0.416678 0.000000
0.727536 0.486124 -0.216506
0.739247 0.468123 -0.216506
0.831470 0.555570 -0.250000
1.011488 0.675855 -0.125000
1.021981 0.719760 0.000000
1.039337 0.694463 0.000000
0.919783 0.647784 0.216506
0.817585 0.575808 0.250000
0.715387 0.503832 0.216506
0.651451 0.435286 0.125000
0.640572 0.451142 0.125000
0.640572 0.451142 -0.125000
0.651451 0.435286 -0.125000
0.817585 0.575808 -0.250000
0.935403 0.625017 -0.216506
0.919783 0.647784 -0.216506
0.977107 0.724672 0.125000
0.994597 0.700474 0.125000
0.903608 0.670162 0.216506
0.803207 0.595699 0.250000
0.702807 0.521237 0.216506
0.629308 0.466727 0.125000
0.613189 0.431856 0.000000
0.602406 0.446775 0.000000
0.613189 0.431856 0.000000
0.629308 0.466727 -0.125000
0.715387 0.503832 -0.216506
0.702807 0.521237 -0.216506
0.803207 0.595699 -0.250000
0.903608 0.670162 -0.216506
0.994597 0.700474 -0.125000
1.004009 0.744624 0.000000
0.985433 0.769039 0.000000
0.886890 0.692136 0.216506
0.788346 0.615232 0.250000
0.689803 0.538328 0.216506
0.617664 0.482030 0.125000
0.602406 0.446775 0.000000
0.591260 0.461424 0.000000
0.617664 0.482030 -0.125000
0.689803 0.538328 -0.216506
0.788346 0.615232 -0.250000
0.886890 0.692136 -0.216506
0.977107 0.724672 -0.125000
0.959028 0.748433 -0.125000
0.966263 0.792992 0.000000
0.959028 0.748433 0.125000
0.940372 0.771744 0.125000
0.869637 0.713692 0.216506
0.676384 0.555094 0.216506
0.605649 0.497043 0.125000
0.591260 0.461424 0.000000
0.579758 0.475795 0.000000
0.605649 0.497043 -0.125000
0.676384 0.555094 -0.216506
0.773010 0.634393 -0.250000
0.869637 0.713692 -0.216506
0.946511 0.816466 0.000000
0.921149 0.794589 0.125000
0.757209 0.653173 0.250000
0.773010 0.634393 0.250000
0.662558 0.571526 0.216506
0.593268 0.511757 0.125000
0.579758 0.475795 0.000000
0.567907 0.489880 0.000000
0.593268 0.511757 -0.125000
0.757209 0.653173 -0.250000
0.921149 0.794589 -0.125000
0.940372 0.771744 -0.125000
0.901372 0.816956 0.125000
0.851860 0.734819 0.216506
0.833570 0.755504 0.216506
0.648332 0.587614 0.216506
0.580531 0.526162 0.125000
0.555713 0.503669 0.000000
0.567907 0.489880 0.000000
0.555713 0.503669 0.000000
0.580531 0.526162 -0.125000
0.662558 0.571526 -0.216506
0.648332 0.587614 -0.216506
0.740951 0.671559 -0.250000
0.851860 0.734819 -0.216506
0.833570 0.755504 -0.216506
0.901372 0.816956 -0.125000
0.926189 0.839449 0.000000
0.881051 0.838830 0.125000
0.814778 0.775733 0.216506
0.740951 0.671559 0.250000
0.633716 0.603348 0.216506
0.567443 0.540251 0.125000
0.543185 0.517155 0.000000
0.543185 0.517155 0.000000
0.567443 0.540251 -0.125000
0.633716 0.603348 -0.216506
0.724247 0.689541 -0.250000
0.881051 0.838830 -0.125000
0.905309 0.861926 0.000000
0.860200 0.860200 0.125000
0.795495 0.795495 0.216506
0.724247 0.689541 0.250000
0.707107 0.707107 0.250000
0.618718 0.618719 0.216506
0.554014 0.554014 0.125000
0.530330 0.530330 0.000000
0.618718 0.618719 -0.216506
0.707107 0.707107 -0.250000
0.795495 0.795495 -0.216506
0.814778 0.775733 -0.216506
0.860200 0.860200 -0.125000
0.883883 0.883884 0.000000
0.838831 0.881051 0.125000
0.775733 0.814778 0.216506
0.689541 0.724247 0.250000
0.603348 0.633716 0.216506
0.540251 0.567443 0.125000
0.530330 0.530330 0.000000
0.517155 0.543185 0.000000
0.554014 0.554014 -0.125000
0.540251 0.567443 -0.125000
0.603348 0.633716 -0.216506
0.689541 0.724247 -0.250000
0.775733 0.814778 -0.216506
0.838831 0.881051 -0.125000
0.839449 0.926189 0.000000
0.861926 0.905309 0.000000
0.755504 0.833570 0.216506
0.671559 0.740951 0.250000
0.526162 0.580530 0.125000
0.517155 0.543185 0.000000
0.503669 0.555713 0.000000
0.526162 0.580530 -0.125000
0.587614 0.648332 -0.216506
0.755504 0.833570 -0.216506
0.816466 0.946511 0.000000
0.816956 0.901372 0.125000
0.794589 0.921149 0.125000
0.653173 0.757209 0.250000
0.587614 0.648332 0.216506
0.571526 0.662558 0.216506
0.511757 0.593268 0.125000
0.503669 0.555713 0.000000
0.511757 0.593268 -0.125000
0.571526 0.662558 -0.216506
0.653173 0.757209 -0.250000
0.671559 0.740951 -0.250000
0.794589 0.921149 -0.125000
0.816956 0.901372 -0.125000
0.771744 0.940372 0.125000
0.734820 0.851860 0.216506
0.634393 0.773010 0.250000
0.555094 0.676384 0.216506
0.497043 0.605649 0.125000
0.475795 0.579758 0.000000
0.489880 0.567906 0.000000
0.475795 0.579758 0.000000
0.489880 0.567906 0.000000
0.497043 0.605649 -0.125000
0.555094 0.676384 -0.216506
0.634393 0.773010 -0.250000
0.734820 0.851860 -0.216506
0.713693 0.869637 -0.216506
0.771744 0.940372 -0.125000
0.769040 0.985433 0.000000
0.792992 0.966263 0.000000
0.748433 0.959028 0.125000
0.713693 0.869637 0.216506
0.692136 0.886890 0.216506
0.538328 0.689803 0.216506
0.482030 0.617664 0.125000
0.482030 0.617664 -0.125000
0.538328 0.689803 -0.216506
0.615232 0.788346 -0.250000
0.748433 0.959028 -0.125000
0.744624 1.004009 0.000000
0.724672 0.977107 0.125000
0.595699 0.803208 0.250000
0.615232 0.788346 0.250000
0.521237 0.702807 0.216506
0.466727 0.629308 0.125000
0.461424 0.591260 0.000000
0.446774 0.602406 0.000000
0.461424 0.591260 0.000000
0.521237 0.702807 -0.216506
0.595699 0.803208 -0.250000
0.692136 0.886890 -0.216506
0.724672 0.977107 -0.125000
0.719760 1.021981 0.000000
0.700474 0.994597 0.125000
0.670162 0.903608 0.216506
0.575808 0.817585 0.250000
0.451142 0.640573 0.125000
0.446774 0.602406 0.000000
0.431856 0.613189 0.000000
0.466727 0.629308 -0.125000
0.503832 0.715387 -0.216506
0.575808 0.817585 -0.250000
0.670162 0.903608 -0.216506
0.647784 0.919783 -0.216506
0.700474 0.994597 -0.125000
0.694463 1.039337 0.000000
0.625016 0.935403 0.216506
0.647784 0.919783 0.216506
0.555570 0.831470 0.250000
0.486124 0.727536 0.216506
0.503832 0.715387 0.216506
0.435286 0.651451 0.125000
0.431856 0.613189 0.000000
0.416678 0.623602 0.000000
0.451142 0.640573 -0.125000
0.435286 0.651451 -0.125000
0.486124 0.727536 -0.216506
0.555570 0.831470 -0.250000
0.625016 0.935403 -0.216506
0.668747 1.056067 0.000000
0.675855 1.011488 0.125000
0.650828 1.027770 0.125000
0.534997 0.844854 0.250000
0.468123 0.739247 0.216506
0.419167 0.661937 0.125000
0.416678 0.623602 0.000000
0.419167 0.661937 -0.125000
0.534997 0.844854 -0.250000
0.601872 0.950460 -0.216506
0.675855 1.011488 -0.125000
0.650828 1.027770 -0.125000
0.625409 1.043432 0.125000
0.601872 0.950460 0.216506
0.578366 0.964945 0.216506
0.449840 0.750512 0.216506
0.402796 0.672025 0.125000
0.385577 0.643296 0.000000
0.401248 0.633640 0.000000
0.401248 0.633640 0.000000
0.402796 0.672025 -0.125000
0.468123 0.739247 -0.216506
0.449840 0.750512 -0.216506
0.578366 0.964945 -0.216506
0.625409 1.043432 -0.125000
0.642629 1.072161 0.000000
0.599614 1.058466 0.125000
0.554511 0.978848 0.216506
0.492898 0.870087 0.250000
0.514103 0.857729 0.250000
0.431286 0.761326 0.216506
0.386183 0.681708 0.125000
0.369674 0.652565 0.000000
0.369674 0.652565 0.000000
0.385577 0.643296 0.000000
0.386183 0.681708 -0.125000
0.431286 0.761326 -0.216506
0.514103 0.857729 -0.250000
0.492898 0.870087 -0.250000
0.599614 1.058466 -0.125000
0.589246 1.102401 0.000000
0.616123 1.087609 0.000000
0.573457 1.072863 0.125000
0.530321 0.992161 0.216506
0.471397 0.881921 0.250000
0.412472 0.771681 0.216506
0.369336 0.690980 0.125000
0.369336 0.690980 -0.125000
0.412472 0.771681 -0.216506
0.471397 0.881921 -0.250000
0.530321 0.992161 -0.216506
0.554511 0.978848 -0.216506
0.573457 1.072863 -0.125000
0.546955 1.086613 0.125000
0.505813 1.004877 0.216506
0.393410 0.781571 0.216506
0.352268 0.699836 0.125000
0.353548 0.661441 0.000000
0.337208 0.669918 0.000000
0.353548 0.661441 0.000000
0.352268 0.699836 -0.125000
0.393410 0.781571 -0.216506
0.505813 1.004877 -0.216506
0.546955 1.086613 -0.125000
0.534444 1.129987 0.000000
0.562014 1.116530 0.000000
0.480999 1.016988 0.216506
0.427555 0.903989 0.250000
0.449611 0.893224 0.250000
0.374111 0.790991 0.216506
0.334987 0.708270 0.125000
0.337208 0.669918 0.000000
0.320666 0.677992 0.000000
0.334987 0.708270 -0.125000
0.374111 0.790991 -0.216506
0.449611 0.893224 -0.250000
0.427555 0.903989 -0.250000
0.480999 1.016988 -0.216506
0.520123 1.099709 -0.125000
0.506551 1.142762 0.000000
0.520123 1.099709 0.125000
0.492978 1.112142 0.125000
0.455896 1.028486 0.216506
0.354586 0.799934 0.216506
0.317504 0.716278 0.125000
0.320666 0.677992 0.000000
0.303931 0.685657 0.000000
0.317504 0.716278 -0.125000
0.354586 0.799934 -0.216506
0.455896 1.028486 -0.216506
0.492978 1.112142 -0.125000
0.478355 1.154849 0.000000
0.465537 1.123905 0.125000
0.382684 0.923879 0.250000
0.405241 0.914210 0.250000
0.334848 0.808394 0.216506
0.287013 0.692910 0.000000
0.303931 0.685657 0.000000
0.287013 0.692910 0.000000
0.334848 0.808394 -0.216506
0.382684 0.923879 -0.250000
0.405241 0.914210 -0.250000
0.465537 1.123905 -0.125000
0.449869 1.166241 0.000000
0.404882 1.049617 0.216506
0.430519 1.039364 0.216506
0.314908 0.816369 0.216506
0.299830 0.723854 0.125000
0.281976 0.730994 0.125000
0.269921 0.699745 0.000000
0.299830 0.723854 -0.125000
0.281976 0.730994 -0.125000
0.314908 0.816369 -0.216506
0.359895 0.932993 -0.250000
0.430519 1.039364 -0.216506
0.404882 1.049617 -0.216506
0.437815 1.134992 -0.125000
0.421112 1.176930 0.000000
0.437815 1.134992 0.125000
0.379001 1.059237 0.216506
0.359895 0.932993 0.250000
0.294779 0.823851 0.216506
0.263951 0.737694 0.125000
0.252667 0.706158 0.000000
0.269921 0.699745 0.000000
0.252667 0.706158 0.000000
0.263951 0.737694 -0.125000
0.294779 0.823851 -0.216506
0.336890 0.941544 -0.250000
0.379001 1.059237 -0.216506
0.409829 1.145394 -0.125000
0.392102 1.186910 0.000000
0.409829 1.145394 0.125000
0.381596 1.155107 0.125000
0.352892 1.068219 0.216506
0.336890 0.941544 0.250000
0.274472 0.830837 0.216506
0.245768 0.743949 0.125000
0.235261 0.712146 0.000000
0.245768 0.743949 -0.125000
0.274472 0.830837 -0.216506
0.313682 0.949528 -0.250000
0.352892 1.068219 -0.216506
0.353133 1.164124 0.125000
0.290285 0.956940 0.250000
0.313682 0.949528 0.250000
0.253999 0.837323 0.216506
0.227436 0.749757 0.125000
0.235261 0.712146 0.000000
0.217713 0.717705 0.000000
0.227436 0.749757 -0.125000
0.253999 0.837323 -0.216506
0.290285 0.956940 -0.250000
0.353133 1.164124 -0.125000
0.381596 1.155107 -0.125000
0.362856 1.196175 0.000000
0.324458 1.172440 0.125000
0.300052 1.084248 0.216506
0.326570 1.076558 0.216506
0.266713 0.963776 0.250000
0.233374 0.843304 0.216506
0.208968 0.755112 0.125000
0.217713 0.717705 0.000000
0.200034 0.722832 0.000000
0.233374 0.843304 -0.216506
0.266713 0.963776 -0.250000
0.326570 1.076558 -0.216506
0.300052 1.084248 -0.216506
0.324458 1.172440 -0.125000
0.303725 1.212539 0.000000
0.333391 1.204720 0.000000
0.295587 1.180049 0.125000
0.242980 0.970031 0.250000
0.212608 0.848777 0.216506
0.190373 0.760013 0.125000
0.200034 0.722832 0.000000
0.182235 0.727524 0.000000
0.208968 0.755112 -0.125000
0.212608 0.848777 -0.216506
0.242980 0.970031 -0.250000
0.273353 1.091285 -0.216506
0.273876 1.219628 0.000000
0.266538 1.186948 0.125000
0.273353 1.091285 0.216506
0.219101 0.975702 0.250000
0.171664 0.764456 0.125000
0.182235 0.727524 0.000000
0.164326 0.731777 0.000000
0.190373 0.760013 -0.125000
0.171664 0.764456 -0.125000
0.219101 0.975702 -0.250000
0.246489 1.097665 -0.216506
0.295587 1.180049 -0.125000
0.243863 1.225982 0.000000
0.237329 1.193131 0.125000
0.246489 1.097665 0.216506
0.219477 1.103383 0.216506
0.170704 0.858187 0.216506
0.191713 0.853739 0.216506
0.152852 0.768439 0.125000
0.164326 0.731777 0.000000
0.146318 0.735589 0.000000
0.170704 0.858187 -0.216506
0.191713 0.853739 -0.216506
0.219477 1.103383 -0.216506
0.237329 1.193131 -0.125000
0.266538 1.186948 -0.125000
0.207976 1.198596 0.125000
0.192332 1.108437 0.216506
0.195090 0.980785 0.250000
0.170962 0.985278 0.250000
0.149592 0.862118 0.216506
0.128221 0.738958 0.000000
0.146318 0.735589 0.000000
0.128221 0.738958 0.000000
0.152852 0.768439 -0.125000
0.149592 0.862118 -0.216506
0.170962 0.985278 -0.250000
0.195090 0.980785 -0.250000
0.192332 1.108437 -0.216506
0.207976 1.198596 -0.125000
0.213702 1.231597 0.000000
0.178499 1.203340 0.125000
0.165072 1.112824 0.216506
0.146730 0.989177 0.250000
0.128389 0.865529 0.216506
0.133948 0.771959 0.125000
0.114962 0.775014 0.125000
0.110048 0.741882 0.000000
0.133948 0.771959 -0.125000
0.114962 0.775014 -0.125000
0.146730 0.989177 -0.250000
0.165072 1.112824 -0.216506
0.178499 1.203340 -0.125000
0.153013 1.240599 0.000000
0.183413 1.236471 0.000000
0.148913 1.207358 0.125000
0.122411 0.992480 0.250000
0.107109 0.868420 0.216506
0.095908 0.777601 0.125000
0.110048 0.741882 0.000000
0.091808 0.744360 0.000000
0.095908 0.777601 -0.125000
0.128389 0.865529 -0.216506
0.107109 0.868420 -0.216506
0.122411 0.992480 -0.250000
0.148913 1.207358 -0.125000
0.122521 1.243981 0.000000
0.119238 1.210649 0.125000
0.137712 1.116539 0.216506
0.110269 1.119583 0.216506
0.098017 0.995185 0.250000
0.085765 0.870787 0.216506
0.076796 0.779721 0.125000
0.091808 0.744360 0.000000
0.076796 0.779721 -0.125000
0.085765 0.870787 -0.216506
0.098017 0.995185 -0.250000
0.110269 1.119583 -0.216506
0.137712 1.116539 -0.216506
0.119238 1.210649 -0.125000
0.091956 1.246613 0.000000
0.089492 1.213210 0.125000
0.082760 1.121952 0.216506
0.073565 0.997290 0.250000
0.057638 0.781371 0.125000
0.073513 0.746389 0.000000
0.055174 0.747968 0.000000
0.073513 0.746389 0.000000
0.057638 0.781371 -0.125000
0.064369 0.872629 -0.216506
0.082760 1.121952 -0.216506
0.089492 1.213210 -0.125000
0.059691 1.215041 0.125000
0.049068 0.998795 0.250000
0.064369 0.872629 0.216506
0.042934 0.873946 0.216506
0.038444 0.782550 0.125000
0.055174 0.747968 0.000000
0.036801 0.749097 0.000000
0.038444 0.782550 -0.125000
0.049068 0.998795 -0.250000
0.073565 0.997290 -0.250000
0.055201 1.123645 -0.216506
0.061335 1.248494 0.000000
0.030677 1.249624 0.000000
0.029855 1.216140 0.125000
0.055201 1.123645 0.216506
0.024541 0.999699 0.250000
0.021474 0.874736 0.216506
0.019228 0.783258 0.125000
0.036801 0.749097 0.000000
0.019228 0.783258 -0.125000
0.042934 0.873946 -0.216506
0.021474 0.874736 -0.216506
0.024541 0.999699 -0.250000
0.027609 1.124661 -0.216506
0.059691 1.215041 -0.125000
0.027609 1.124661 0.216506
0.018406 0.749774 0.000000
0.018406 0.749774 0.000000
0.029855 1.216140 -0.125000
0.029855 -1.216140 0.125000
0.024541 -0.999699 0.250000
0.021474 -0.874736 0.216506
0.019228 -0.783258 0.125000
0.019228 -0.783258 -0.125000
0.021474 -0.874736 -0.216506
0.024541 -0.999699 -0.250000
0.029855 -1.216140 -0.125000
0.030677 -1.249624 0.000000
0.059691 -1.215041 0.125000
0.055201 -1.123645 0.216506
0.027609 -1.124661 0.216506
0.049068 -0.998795 0.250000
0.042934 -0.873946 0.216506
0.036801 -0.749097 0.000000
0.018406 -0.749774 0.000000
0.036801 -0.749097 0.000000
0.018406 -0.749774 0.000000
0.042934 -0.873946 -0.216506
0.049068 -0.998795 -0.250000
0.055201 -1.123645 -0.216506
0.027609 -1.124661 -0.216506
0.059691 -1.215041 -0.125000
0.061335 -1.248494 0.000000
0.089492 -1.213210 0.125000
0.073565 -0.997290 0.250000
0.064369 -0.872629 0.216506
0.038444 -0.782550 0.125000
0.055174 -0.747968 0.000000
0.055174 -0.747968 0.000000
0.038444 -0.782550 -0.125000
0.057638 -0.781371 -0.125000
0.064369 -0.872629 -0.216506
0.082760 -1.121952 -0.216506
0.091956 -1.246613 0.000000
0.119238 -1.210649 0.125000
0.110269 -1.119583 0.216506
0.082760 -1.121952 0.216506
0.098017 -0.995185 0.250000
0.085764 -0.870787 0.216506
0.057638 -0.781371 0.125000
0.073512 -0.746389 0.000000
0.073512 -0.746389 0.000000
0.085764 -0.870787 -0.216506
0.073565 -0.997290 -0.250000
0.098017 -0.995185 -0.250000
0.110269 -1.119583 -0.216506
0.089492 -1.213210 -0.125000
0.119238 -1.210649 -0.125000
0.153013 -1.240600 0.000000
0.122521 -1.243981 0.000000
0.137711 -1.116540 0.216506
0.122410 -0.992480 0.250000
0.107109 -0.868420 0.216506
0.076795 -0.779721 0.125000
0.091808 -0.744360 0.000000
0.091808 -0.744360 0.000000
0.076795 -0.779721 -0.125000
0.107109 -0.868420 -0.216506
0.122410 -0.992480 -0.250000
0.137711 -1.116540 -0.216506
0.148913 -1.207358 -0.125000
0.178498 -1.203340 0.125000
0.148913 -1.207358 0.125000
0.165071 -1.112824 0.216506
0.146730 -0.989177 0.250000
0.114962 -0.775014 0.125000
0.095908 -0.777601 0.125000
0.114962 -0.775014 -0.125000
0.095908 -0.777601 -0.125000
0.146730 -0.989177 -0.250000
0.178498 -1.203340 -0.125000
0.183413 -1.236471 0.000000
0.207976 -1.198597 0.125000
0.192332 -1.108437 0.216506
0.170961 -0.985278 0.250000
0.128389 -0.865529 0.216506
0.133947 -0.771959 0.125000
0.110048 -0.741882 0.000000
0.128221 -0.738958 0.000000
0.110048 -0.741882 0.000000
0.133947 -0.771959 -0.125000
0.128389 -0.865529 -0.216506
0.170961 -0.985278 -0.250000
0.192332 -1.108437 -0.216506
0.165071 -1.112824 -0.216506
0.207976 -1.198597 -0.125000
0.213702 -1.231597 0.000000
0.237328 -1.193132 0.125000
0.219476 -1.103384 0.216506
0.195090 -0.980785 0.250000
0.149591 -0.862118 0.216506
0.152852 -0.768439 0.125000
0.146318 -0.735589 0.000000
0.128221 -0.738958 0.000000
0.146318 -0.735589 0.000000
0.152852 -0.768439 -0.125000
0.149591 -0.862118 -0.216506
0.195090 -0.980785 -0.250000
0.219476 -1.103384 -0.216506
0.237328 -1.193132 -0.125000
0.273876 -1.219628 0.000000
0.243863 -1.225982 0.000000
0.266538 -1.186948 0.125000
0.246489 -1.097665 0.216506
0.219101 -0.975702 0.250000
0.170704 -0.858187 0.216506
0.191713 -0.853739 0.216506
0.171664 -0.764456 0.125000
0.164326 -0.731777 0.000000
0.191713 -0.853739 -0.216506
0.170704 -0.858187 -0.216506
0.219101 -0.975702 -0.250000
0.246489 -1.097665 -0.216506
0.266538 -1.186948 -0.125000
0.295587 -1.180049 0.125000
0.242980 -0.970031 0.250000
0.212608 -0.848777 0.216506
0.190373 -0.760013 0.125000
0.164326 -0.731777 0.000000
0.182235 -0.727524 0.000000
0.171664 -0.764456 -0.125000
0.212608 -0.848777 -0.216506
0.273353 -1.091285 -0.216506
0.295587 -1.180049 -0.125000
0.303725 -1.212539 0.000000
0.324458 -1.172440 0.125000
0.273353 -1.091285 0.216506
0.300052 -1.084248 0.216506
0.266713 -0.963776 0.250000
0.208968 -0.755112 0.125000
0.182235 -0.727524 0.000000
0.200034 -0.722832 0.000000
0.190373 -0.760013 -0.125000
0.208968 -0.755112 -0.125000
0.266713 -0.963776 -0.250000
0.242980 -0.970031 -0.250000
0.300052 -1.084248 -0.216506
0.324458 -1.172440 -0.125000
0.362856 -1.196175 0.000000
0.333391 -1.204720 0.000000
0.353133 -1.164124 0.125000
0.326570 -1.076558 0.216506
0.253999 -0.837323 0.216506
0.233374 -0.843304 0.216506
0.227436 -0.749757 0.125000
0.200034 -0.722832 0.000000
0.227436 -0.749757 -0.125000
0.233374 -0.843304 -0.216506
0.253999 -0.837323 -0.216506
0.290285 -0.956940 -0.250000
0.353133 -1.164124 -0.125000
0.392102 -1.186910 0.000000
0.352892 -1.068219 0.216506
0.290285 -0.956940 0.250000
0.313682 -0.949528 0.250000
0.274472 -0.830837 0.216506
0.245768 -0.743949 0.125000
0.217713 -0.717705 0.000000
0.235261 -0.712146 0.000000
0.217713 -0.717705 0.000000
0.274472 -0.830837 -0.216506
0.313682 -0.949528 -0.250000
0.352892 -1.068219 -0.216506
0.326570 -1.076558 -0.216506
0.409829 -1.145394 0.125000
0.381596 -1.155107 0.125000
0.379001 -1.059237 0.216506
0.336890 -0.941544 0.250000
0.294779 -0.823851 0.216506
0.263951 -0.737694 0.125000
0.235261 -0.712146 0.000000
0.252667 -0.706158 0.000000
0.245768 -0.743949 -0.125000
0.294779 -0.823851 -0.216506
0.336890 -0.941544 -0.250000
0.379001 -1.059237 -0.216506
0.381596 -1.155107 -0.125000
0.409829 -1.145394 -0.125000
0.449869 -1.166241 0.000000
0.421112 -1.176930 0.000000
0.437815 -1.134992 0.125000
0.404882 -1.049617 0.216506
0.359895 -0.932993 0.250000
0.314908 -0.816369 0.216506
0.281976 -0.730994 0.125000
0.252667 -0.706158 0.000000
0.281976 -0.730994 -0.125000
0.263951 -0.737694 -0.125000
0.314908 -0.816369 -0.216506
0.359895 -0.932993 -0.250000
0.437815 -1.134992 -0.125000
0.478355 -1.154849 0.000000
0.465537 -1.123905 0.125000
0.430519 -1.039364 0.216506
0.382684 -0.923879 0.250000
0.334848 -0.808394 0.216506
0.299830 -0.723854 0.125000
0.269921 -0.699745 0.000000
0.269921 -0.699745 0.000000
0.299830 -0.723854 -0.125000
0.382684 -0.923879 -0.250000
0.404882 -1.049617 -0.216506
0.465537 -1.123905 -0.125000
0.492978 -1.112142 0.125000
0.405241 -0.914210 0.250000
0.354586 -0.799934 0.216506
0.303931 -0.685658 0.000000
0.287013 -0.692910 0.000000
0.303931 -0.685658 0.000000
0.287013 -0.692910 0.000000
0.317504 -0.716278 -0.125000
0.334848 -0.808394 -0.216506
0.405241 -0.914210 -0.250000
0.430519 -1.039364 -0.216506
0.455896 -1.028486 -0.216506
0.492978 -1.112142 -0.125000
0.506551 -1.142763 0.000000
0.520123 -1.099709 0.125000
0.480999 -1.016988 0.216506
0.455896 -1.028486 0.216506
0.427555 -0.903990 0.250000
0.374110 -0.790991 0.216506
0.317504 -0.716278 0.125000
0.320666 -0.677992 0.000000
0.320666 -0.677992 0.000000
0.334986 -0.708270 -0.125000
0.354586 -0.799934 -0.216506
0.427555 -0.903990 -0.250000
0.520123 -1.099709 -0.125000
0.562014 -1.116531 0.000000
0.534443 -1.129987 0.000000
0.546955 -1.086613 0.125000
0.505812 -1.004878 0.216506
0.449611 -0.893225 0.250000
0.393410 -0.781571 0.216506
0.334986 -0.708270 0.125000
0.352267 -0.699836 0.125000
0.337208 -0.669918 0.000000
0.393410 -0.781571 -0.216506
0.374110 -0.790991 -0.216506
0.449611 -0.893225 -0.250000
0.505812 -1.004878 -0.216506
0.480999 -1.016988 -0.216506
0.546955 -1.086613 -0.125000
0.589245 -1.102402 0.000000
0.530321 -0.992162 0.216506
0.471396 -0.881921 0.250000
0.412472 -0.771681 0.216506
0.353547 -0.661441 0.000000
0.337208 -0.669918 0.000000
0.353547 -0.661441 0.000000
0.352267 -0.699836 -0.125000
0.369336 -0.690980 -0.125000
0.412472 -0.771681 -0.216506
0.530321 -0.992162 -0.216506
0.599613 -1.058467 0.125000
0.573457 -1.072863 0.125000
0.554510 -0.978848 0.216506
0.492898 -0.870087 0.250000
0.431286 -0.761326 0.216506
0.369336 -0.690980 0.125000
0.386182 -0.681708 0.125000
0.369673 -0.652565 0.000000
0.431286 -0.761326 -0.216506
0.492898 -0.870087 -0.250000
0.471396 -0.881921 -0.250000
0.554510 -0.978848 -0.216506
0.573457 -1.072863 -0.125000
0.599613 -1.058467 -0.125000
0.642628 -1.072161 0.000000
0.616122 -1.087609 0.000000
0.625409 -1.043432 0.125000
0.514102 -0.857729 0.250000
0.449840 -0.750513 0.216506
0.385577 -0.643297 0.000000
0.369673 -0.652565 0.000000
0.385577 -0.643297 0.000000
0.386182 -0.681708 -0.125000
0.449840 -0.750513 -0.216506
0.514102 -0.857729 -0.250000
0.625409 -1.043432 -0.125000
0.650828 -1.027770 0.125000
0.601872 -0.950460 0.216506
0.578365 -0.964945 0.216506
0.534997 -0.844854 0.250000
0.468123 -0.739247 0.216506
0.402796 -0.672025 0.125000
0.401248 -0.633640 0.000000
0.401248 -0.633640 0.000000
0.402796 -0.672025 -0.125000
0.419167 -0.661937 -0.125000
0.468123 -0.739247 -0.216506
0.534997 -0.844854 -0.250000
0.578365 -0.964945 -0.216506
0.601872 -0.950460 -0.216506
0.650828 -1.027770 -0.125000
0.668747 -1.056067 0.000000
0.675855 -1.011488 0.125000
0.625016 -0.935403 0.216506
0.486124 -0.727536 0.216506
0.419167 -0.661937 0.125000
0.416678 -0.623602 0.000000
0.416678 -0.623602 0.000000
0.435286 -0.651451 -0.125000
0.486124 -0.727536 -0.216506
0.625016 -0.935403 -0.216506
0.675855 -1.011488 -0.125000
0.694463 -1.039337 0.000000
0.700474 -0.994597 0.125000
0.647784 -0.919783 0.216506
0.555570 -0.831470 0.250000
0.575808 -0.817585 0.250000
0.503832 -0.715387 0.216506
0.435286 -0.651451 0.125000
0.451142 -0.640573 0.125000
0.431856 -0.613189 0.000000
0.503832 -0.715387 -0.216506
0.575808 -0.817585 -0.250000
0.555570 -0.831470 -0.250000
0.647784 -0.919783 -0.216506
0.700474 -0.994597 -0.125000
0.744624 -1.004009 0.000000
0.719760 -1.021981 0.000000
0.724672 -0.977107 0.125000
0.670162 -0.903608 0.216506
0.595699 -0.803208 0.250000
0.466727 -0.629308 0.125000
0.431856 -0.613189 0.000000
0.446774 -0.602406 0.000000
0.451142 -0.640573 -0.125000
0.521237 -0.702807 -0.216506
0.670162 -0.903608 -0.216506
0.724672 -0.977107 -0.125000
0.769040 -0.985433 0.000000
0.692136 -0.886890 0.216506
0.615232 -0.788346 0.250000
0.521237 -0.702807 0.216506
0.482030 -0.617664 0.125000
0.446774 -0.602406 0.000000
0.461424 -0.591260 0.000000
0.466727 -0.629308 -0.125000
0.482030 -0.617664 -0.125000
0.538328 -0.689803 -0.216506
0.595699 -0.803208 -0.250000
0.692136 -0.886890 -0.216506
0.748433 -0.959028 -0.125000
0.792992 -0.966263 0.000000
0.748433 -0.959028 0.125000
0.771744 -0.940372 0.125000
0.713693 -0.869637 0.216506
0.634393 -0.773010 0.250000
0.538328 -0.689803 0.216506
0.555094 -0.676384 0.216506
0.497043 -0.605649 0.125000
0.461424 -0.591260 0.000000
0.475795 -0.579758 0.000000
0.497043 -0.605649 -0.125000
0.634393 -0.773010 -0.250000
0.615232 -0.788346 -0.250000
0.713693 -0.869637 -0.216506
0.771744 -0.940372 -0.125000
0.816466 -0.946511 0.000000
0.794589 -0.921149 0.125000
0.734820 -0.851860 0.216506
0.653173 -0.757209 0.250000
0.571526 -0.662558 0.216506
0.511757 -0.593268 0.125000
0.475795 -0.579758 0.000000
0.489880 -0.567906 0.000000
0.571526 -0.662558 -0.216506
0.555094 -0.676384 -0.216506
0.653173 -0.757209 -0.250000
0.734820 -0.851860 -0.216506
0.839449 -0.926189 0.000000
0.755504 -0.833570 0.216506
0.671559 -0.740951 0.250000
0.587614 -0.648332 0.216506
0.526162 -0.580530 0.125000
0.489880 -0.567906 0.000000
0.503669 -0.555713 0.000000
0.511757 -0.593268 -0.125000
0.526162 -0.580530 -0.125000
0.587614 -0.648332 -0.216506
0.671559 -0.740951 -0.250000
0.755504 -0.833570 -0.216506
0.794589 -0.921149 -0.125000
0.816956 -0.901372 -0.125000
0.838830 -0.881052 0.125000
0.816956 -0.901372 0.125000
0.775733 -0.814778 0.216506
0.603348 -0.633717 0.216506
0.540250 -0.567443 0.125000
0.503669 -0.555713 0.000000
0.517155 -0.543186 0.000000
0.540250 -0.567443 -0.125000
0.603348 -0.633717 -0.216506
0.775733 -0.814778 -0.216506
0.838830 -0.881052 -0.125000
0.861925 -0.905309 0.000000
0.860199 -0.860200 0.125000
0.795495 -0.795496 0.216506
0.707106 -0.707107 0.250000
0.689540 -0.724248 0.250000
0.618718 -0.618719 0.216506
0.554013 -0.554014 0.125000
0.517155 -0.543186 0.000000
0.530330 -0.530330 0.000000
0.554013 -0.554014 -0.125000
0.618718 -0.618719 -0.216506
0.689540 -0.724248 -0.250000
0.707106 -0.707107 -0.250000
0.795495 -0.795496 -0.216506
0.883883 -0.883884 0.000000
0.905308 -0.861926 0.000000
0.881051 -0.838831 0.125000
0.814778 -0.775734 0.216506
0.724247 -0.689541 0.250000
0.633716 -0.603348 0.216506
0.567443 -0.540251 0.125000
0.530330 -0.530330 0.000000
0.543185 -0.517156 0.000000
0.633716 -0.603348 -0.216506
0.724247 -0.689541 -0.250000
0.814778 -0.775734 -0.216506
0.881051 -0.838831 -0.125000
0.860199 -0.860200 -0.125000
0.926189 -0.839449 0.000000
0.901371 -0.816956 0.125000
0.833570 -0.755504 0.216506
0.740951 -0.671559 0.250000
0.580530 -0.526162 0.125000
0.543185 -0.517156 0.000000
0.555713 -0.503669 0.000000
0.567443 -0.540251 -0.125000
0.580530 -0.526162 -0.125000
0.740951 -0.671559 -0.250000
0.833570 -0.755504 -0.216506
0.901371 -0.816956 -0.125000
0.946511 -0.816466 0.000000
0.851860 -0.734820 0.216506
0.757209 -0.653173 0.250000
0.662558 -0.571526 0.216506
0.648332 -0.587614 0.216506
0.593268 -0.511757 0.125000
0.555713 -0.503669 0.000000
0.567906 -0.489880 0.000000
0.593268 -0.511757 -0.125000
0.648332 -0.587614 -0.216506
0.662558 -0.571526 -0.216506
0.757209 -0.653173 -0.250000
0.851860 -0.734820 -0.216506
0.940372 -0.771744 0.125000
0.921149 -0.794589 0.125000
0.869637 -0.713693 0.216506
0.773010 -0.634394 0.250000
0.676384 -0.555094 0.216506
0.605649 -0.497043 0.125000
0.567906 -0.489880 0.000000
0.579758 -0.475795 0.000000
0.676384 -0.555094 -0.216506
0.773010 -0.634394 -0.250000
0.869637 -0.713693 -0.216506
0.940372 -0.771744 -0.125000
0.921149 -0.794589 -0.125000
0.985433 -0.769040 0.000000
0.966263 -0.792992 0.000000
0.959028 -0.748433 0.125000
0.886890 -0.692136 0.216506
0.689803 -0.538328 0.216506
0.617664 -0.482030 0.125000
0.579758 -0.475795 0.000000
0.591260 -0.461424 0.000000
0.605649 -0.497043 -0.125000
0.617664 -0.482030 -0.125000
0.788346 -0.615232 -0.250000
0.886890 -0.692136 -0.216506
0.959028 -0.748433 -0.125000
0.977107 -0.724672 0.125000
0.903608 -0.670162 0.216506
0.788346 -0.615232 0.250000
0.702807 -0.521237 0.216506
0.629308 -0.466727 0.125000
0.591260 -0.461424 0.000000
0.629308 -0.466727 -0.125000
0.702807 -0.521237 -0.216506
0.689803 -0.538328 -0.216506
0.803207 -0.595699 -0.250000
0.903608 -0.670162 -0.216506
0.977107 -0.724672 -0.125000
1.004009 -0.744624 0.000000
0.994597 -0.700474 0.125000
0.919783 -0.647784 0.216506
0.803207 -0.595699 0.250000
0.817585 -0.575808 0.250000
0.715387 -0.503832 0.216506
0.640572 -0.451142 0.125000
0.602406 -0.446775 0.000000
0.602406 -0.446775 0.000000
0.640572 -0.451142 -0.125000
0.715387 -0.503832 -0.216506
0.817585 -0.575808 -0.250000
0.919783 -0.647784 -0.216506
0.994597 -0.700474 -0.125000
1.021981 -0.719760 0.000000
1.011488 -0.675855 0.125000
0.935403 -0.625017 0.216506
0.727536 -0.486124 0.216506
0.623602 -0.416678 0.000000
0.613189 -0.431856 0.000000
0.623602 -0.416678 0.000000
0.613189 -0.431856 0.000000
0.651451 -0.435286 -0.125000
0.727536 -0.486124 -0.216506
0.831470 -0.555570 -0.250000
1.011488 -0.675855 -0.125000
1.056067 -0.668747 0.000000
1.039337 -0.694463 0.000000
0.950460 -0.601872 0.216506
0.831470 -0.555570 0.250000
0.739247 -0.468123 0.216506
0.661937 -0.419167 0.125000
0.651451 -0.435286 0.125000
0.633640 -0.401248 0.000000
0.661937 -0.419167 -0.125000
0.739247 -0.468123 -0.216506
0.844854 -0.534998 -0.250000
0.935403 -0.625017 -0.216506
0.950460 -0.601872 -0.216506
1.072161 -0.642628 0.000000
1.027770 -0.650828 0.125000
1.043432 -0.625409 0.125000
0.964945 -0.578365 0.216506
0.844854 -0.534998 0.250000
0.857729 -0.514103 0.250000
0.750513 -0.449840 0.216506
0.672025 -0.402796 0.125000
0.633640 -0.401248 0.000000
0.643296 -0.385577 0.000000
0.750513 -0.449840 -0.216506
0.964945 -0.578365 -0.216506
1.043432 -0.625409 -0.125000
1.027770 -0.650828 -0.125000
1.087609 -0.616123 0.000000
0.978848 -0.554510 0.216506
0.870087 -0.492898 0.250000
0.761326 -0.431286 0.216506
0.681708 -0.386182 0.125000
0.643296 -0.385577 0.000000
0.681708 -0.386182 -0.125000
0.672025 -0.402796 -0.125000
0.761326 -0.431286 -0.216506
0.870087 -0.492898 -0.250000
0.857729 -0.514103 -0.250000
0.978848 -0.554510 -0.216506
1.072863 -0.573457 0.125000
1.058466 -0.599614 0.125000
0.992162 -0.530321 0.216506
0.881921 -0.471397 0.250000
0.771681 -0.412472 0.216506
0.690980 -0.369336 0.125000
0.661441 -0.353547 0.000000
0.652565 -0.369674 0.000000
0.661441 -0.353547 0.000000
0.652565 -0.369674 0.000000
0.690980 -0.369336 -0.125000
0.771681 -0.412472 -0.216506
0.881921 -0.471397 -0.250000
0.992162 -0.530321 -0.216506
1.058466 -0.599614 -0.125000
1.072863 -0.573457 -0.125000
1.116530 -0.562015 0.000000
1.102402 -0.589246 0.000000
1.004877 -0.505813 0.216506
0.893224 -0.449612 0.250000
0.781571 -0.393410 0.216506
0.699835 -0.352268 0.125000
0.699835 -0.352268 -0.125000
0.781571 -0.393410 -0.216506
1.004877 -0.505813 -0.216506
1.129986 -0.534445 0.000000
1.086613 -0.546956 0.125000
1.099708 -0.520124 0.125000
0.903989 -0.427556 0.250000
0.790990 -0.374111 0.216506
0.677992 -0.320667 0.000000
0.669918 -0.337209 0.000000
0.677992 -0.320667 0.000000
0.669918 -0.337209 0.000000
0.708270 -0.334987 -0.125000
0.790990 -0.374111 -0.216506
0.893224 -0.449612 -0.250000
0.903989 -0.427556 -0.250000
1.016988 -0.481000 -0.216506
1.086613 -0.546956 -0.125000
1.099708 -0.520124 -0.125000
1.142762 -0.506552 0.000000
1.112142 -0.492979 0.125000
1.016988 -0.481000 0.216506
1.028486 -0.455897 0.216506
0.914210 -0.405242 0.250000
0.799933 -0.354587 0.216506
0.708270 -0.334987 0.125000
0.716277 -0.317504 0.125000
0.685657 -0.303931 0.000000
0.799933 -0.354587 -0.216506
0.914210 -0.405242 -0.250000
1.028486 -0.455897 -0.216506
1.123905 -0.465537 0.125000
1.039364 -0.430519 0.216506
0.923879 -0.382684 0.250000
0.723854 -0.299830 0.125000
0.692910 -0.287013 0.000000
0.685657 -0.303931 0.000000
0.692910 -0.287013 0.000000
0.716277 -0.317504 -0.125000
0.723854 -0.299830 -0.125000
0.808394 -0.334848 -0.216506
0.923879 -0.382684 -0.250000
1.039364 -0.430519 -0.216506
1.112142 -0.492979 -0.125000
1.123905 -0.465537 -0.125000
1.166241 -0.449869 0.000000
1.154849 -0.478355 0.000000
1.134992 -0.437815 0.125000
0.932993 -0.359895 0.250000
0.816369 -0.314908 0.216506
0.808394 -0.334848 0.216506
0.730994 -0.281976 0.125000
0.699745 -0.269922 0.000000
0.730994 -0.281976 -0.125000
0.816369 -0.314908 -0.216506
0.932993 -0.359895 -0.250000
1.134992 -0.437815 -0.125000
1.176930 -0.421113 0.000000
1.145394 -0.409829 0.125000
1.049617 -0.404882 0.216506
0.941544 -0.336890 0.250000
0.823851 -0.294779 0.216506
0.737694 -0.263951 0.125000
0.699745 -0.269922 0.000000
0.737694 -0.263951 -0.125000
0.823851 -0.294779 -0.216506
0.941544 -0.336890 -0.250000
1.049617 -0.404882 -0.216506
1.059237 -0.379001 -0.216506
1.145394 -0.409829 -0.125000
1.155107 -0.381596 0.125000
1.059237 -0.379001 0.216506
1.068219 -0.352892 0.216506
0.949528 -0.313682 0.250000
0.830837 -0.274472 0.216506
0.743949 -0.245768 0.125000
0.706158 -0.252668 0.000000
0.706158 -0.252668 0.000000
0.743949 -0.245768 -0.125000
0.830837 -0.274472 -0.216506
0.949528 -0.313682 -0.250000
1.068219 -0.352892 -0.216506
1.155107 -0.381596 -0.125000
1.196175 -0.362856 0.000000
1.186910 -0.392102 0.000000
1.076558 -0.326570 0.216506
0.956940 -0.290285 0.250000
0.837323 -0.253999 0.216506
0.749757 -0.227436 0.125000
0.717705 -0.217714 0.000000
0.712146 -0.235261 0.000000
0.717705 -0.217714 0.000000
0.712146 -0.235261 0.000000
0.749757 -0.227436 -0.125000
0.837323 -0.253999 -0.216506
0.956940 -0.290285 -0.250000
1.076558 -0.326570 -0.216506
1.204720 -0.333391 0.000000
1.164124 -0.353133 0.125000
1.172440 -0.324458 0.125000
1.084248 -0.300052 0.216506
0.963776 -0.266713 0.250000
0.755112 -0.208968 0.125000
0.755112 -0.208968 -0.125000
0.963776 -0.266713 -0.250000
1.084248 -0.300052 -0.216506
1.172440 -0.324458 -0.125000
1.164124 -0.353133 -0.125000
1.212539 -0.303725 0.000000
1.091285 -0.273353 0.216506
0.970031 -0.242980 0.250000
0.848777 -0.212608 0.216506
0.843304 -0.233374 0.216506
0.760013 -0.190373 0.125000
0.722832 -0.200035 0.000000
0.727523 -0.182235 0.000000
0.722832 -0.200035 0.000000
0.760013 -0.190373 -0.125000
0.843304 -0.233374 -0.216506
0.848777 -0.212608 -0.216506
0.970031 -0.242980 -0.250000
1.091285 -0.273353 -0.216506
1.180049 -0.295587 -0.125000
1.219628 -0.273876 0.000000
1.180049 -0.295587 0.125000
1.097665 -0.246489 0.216506
0.975702 -0.219101 0.250000
0.853739 -0.191714 0.216506
0.764456 -0.171664 0.125000
0.727523 -0.182235 0.000000
0.731777 -0.164326 0.000000
0.853739 -0.191714 -0.216506
1.097665 -0.246489 -0.216506
1.186948 -0.266538 -0.125000
1.225982 -0.243863 0.000000
1.186948 -0.266538 0.125000
1.193132 -0.237328 0.125000
1.103383 -0.219476 0.216506
0.858187 -0.170704 0.216506
0.768439 -0.152852 0.125000
0.731777 -0.164326 0.000000
0.768439 -0.152852 -0.125000
0.764456 -0.171664 -0.125000
0.858187 -0.170704 -0.216506
0.975702 -0.219101 -0.250000
1.103383 -0.219476 -0.216506
1.193132 -0.237328 -0.125000
1.231597 -0.213702 0.000000
1.198596 -0.207976 0.125000
1.108437 -0.192332 0.216506
0.980785 -0.195090 0.250000
0.985278 -0.170962 0.250000
0.771959 -0.133947 0.125000
0.735589 -0.146318 0.000000
0.738958 -0.128221 0.000000
0.735589 -0.146318 0.000000
0.771959 -0.133947 -0.125000
0.862118 -0.149591 -0.216506
0.980785 -0.195090 -0.250000
1.108437 -0.192332 -0.216506
1.198596 -0.207976 -0.125000
1.236471 -0.183413 0.000000
1.112824 -0.165071 0.216506
0.989177 -0.146730 0.250000
0.865529 -0.128389 0.216506
0.862118 -0.149591 0.216506
0.775014 -0.114962 0.125000
0.741882 -0.110048 0.000000
0.738958 -0.128221 0.000000
0.741882 -0.110048 0.000000
0.775014 -0.114962 -0.125000
0.865529 -0.128389 -0.216506
0.985278 -0.170962 -0.250000
0.989177 -0.146730 -0.250000
1.112824 -0.165071 -0.216506
1.203340 -0.178498 -0.125000
1.240599 -0.153014 0.000000
1.203340 -0.178498 0.125000
1.207358 -0.148914 0.125000
0.992479 -0.122411 0.250000
0.868420 -0.107110 0.216506
0.744360 -0.091808 0.000000
0.744360 -0.091808 0.000000
0.868420 -0.107110 -0.216506
0.992479 -0.122411 -0.250000
1.207358 -0.148914 -0.125000
1.243981 -0.122522 0.000000
1.119583 -0.110270 0.216506
1.116539 -0.137713 0.216506
0.995185 -0.098018 0.250000
0.779721 -0.076796 0.125000
0.777601 -0.095908 0.125000
0.746388 -0.073513 0.000000
0.777601 -0.095908 -0.125000
0.779721 -0.076796 -0.125000
0.995185 -0.098018 -0.250000
1.116539 -0.137713 -0.216506
1.119583 -0.110270 -0.216506
1.246613 -0.091956 0.000000
1.210648 -0.119239 0.125000
1.213210 -0.089492 0.125000
1.121952 -0.082761 0.216506
0.872629 -0.064369 0.216506
0.870787 -0.085765 0.216506
0.781371 -0.057638 0.125000
0.747968 -0.055174 0.000000
0.746388 -0.073513 0.000000
0.747968 -0.055174 0.000000
0.781371 -0.057638 -0.125000
0.870787 -0.085765 -0.216506
0.872629 -0.064369 -0.216506
1.121952 -0.082761 -0.216506
1.213210 -0.089492 -0.125000
1.210648 -0.119239 -0.125000
1.248494 -0.061335 0.000000
1.215041 -0.059692 0.125000
0.998795 -0.049068 0.250000
0.997290 -0.073565 0.250000
0.873946 -0.042935 0.216506
0.782550 -0.038445 0.125000
0.749097 -0.036801 0.000000
0.873946 -0.042935 -0.216506
0.998795 -0.049068 -0.250000
0.997290 -0.073565 -0.250000
1.215041 -0.059692 -0.125000
1.249624 -0.030677 0.000000
1.216140 -0.029855 0.125000
1.123645 -0.055202 0.216506
0.999699 -0.024542 0.250000
0.874736 -0.021474 0.216506
0.783258 -0.019228 0.125000
0.749097 -0.036801 0.000000
0.749774 -0.018406 0.000000
0.782550 -0.038445 -0.125000
0.783258 -0.019228 -0.125000
0.874736 -0.021474 -0.216506
0.999699 -0.024542 -0.250000
1.123645 -0.055202 -0.216506
1.124661 -0.027609 -0.216506
1.216140 -0.029855 -0.125000
1.124661 -0.027609 0.216506
0.749774 -0.018406 0.000000
-1.237360 -0.176862 -0.000006
-0.010640 1.227313 0.102821
-0.391503 0.931866 0.249291
-0.276597 0.823397 -0.212267
-0.088959 1.217752 -0.115873
-0.836438 -0.555923 -0.249714
-0.982040 -0.006498 0.248828
-0.645644 -0.691596 0.243650
-0.504199 0.910348 0.246252
-0.467093 0.816410 0.242542
-0.878013 0.553287 -0.246828
-1.110418 0.570904 0.020318
-0.939316 -0.522304 0.238043
-0.502114 1.056971 -0.182548
-0.261820 1.048801 0.235951
-1.224297 -0.121014 -0.097093
-0.488792 0.691177 -0.197248
-0.804353 0.833302 -0.193026
-0.093005 -1.244174 -0.033644
-1.161336 0.279235 0.156545
-0.416527 0.920039 -0.249345
-0.739365 0.563571 0.239593
-0.163821 -1.100944 -0.222389
-0.839933 -0.631895 0.244178
-1.202359 0.019962 0.145807
-0.760680 0.009331 -0.071409
-0.632072 0.428164 0.079331
-0.775953 -0.622135 0.249649
-0.564220 0.501368 0.046256
-0.475081 -0.617696 0.116518
-1.028004 0.542249 -0.189463
-0.338204 -1.127274 -0.176575
-1.042010 -0.393697 -0.221945
-0.593159 0.853789 -0.246461
-1.178884 0.408478 -0.033254
-0.092006 1.016665 -0.248631
-1.046093 -0.608242 -0.134498
-0.575951 0.973168 0.212572
-0.876144 0.041031 0.217555
-0.196562 0.771524 0.144019
-0.605176 -0.639572 0.219236
-0.742427 0.988942 -0.078858
-0.869210 0.250112 -0.231043
-0.766862 -0.436171 0.220078
-1.064851 -0.188684 -0.235787
-0.099361 0.996749 0.249888
-0.741193 0.574713 -0.242006
-1.056397 -0.510504 0.179772
-0.176919 0.735083 -0.052684
-0.720127 -0.944642 -0.164076
-0.300437 -1.142551 0.171413
-1.036713 0.443358 0.214754
-0.394870 1.138012 -0.142731
-0.776067 0.042703 -0.112407
-0.687370 1.041305 -0.033031
-0.431124 0.892288 0.249413
-0.072704 0.754150 -0.060410
-0.613176 1.081746 -0.054804
-0.195870 -0.767963 -0.138603
-0.764967 0.657706 0.249420
-0.980016 0.539166 -0.219651
-1.055879 -0.667269 0.014272
-0.311313 -0.733258 -0.144709
-0.097537 -1.230171 -0.086461
-0.639176 -0.422002 -0.086624
-0.296955 1.020699 0.241801
-0.205240 1.125845 -0.203492
-0.497079 0.946658 0.239923
-0.958621 0.685216 -0.174917
-0.362805 0.693054 0.122633
-0.623580 0.819797 0.248028
-0.983259 -0.607775 0.194978
-1.086565 0.614901 0.022948
-0.726061 -0.230503 0.074456
-0.995914 0.415275 -0.236610
-0.700192 0.278579 -0.040129
-0.853723 -0.163228 -0.212660
-0.597043 -0.897778 0.236899
-0.978004 -0.484374 -0.232405
-0.061898 -0.748045 0.009981
-0.731175 -0.174479 0.026862
-1.124084 0.546437 -0.000667
-0.292500 -0.992905 0.247358
-0.891667 0.845594 0.099891
-0.841492 -0.063909 -0.194941
-0.249247 -0.753545 0.140275
-0.176426 -0.879044 -0.227154
-1.049678 0.450040 0.205033
-0.921844 -0.598800 -0.229162
-0.194635 1.230583 0.042144
-0.840064 0.915495 -0.059167
-0.048578 -0.779770 -0.120633
-0.942778 0.616040 0.215647
-1.179047 -0.182349 -0.158127
-0.694178 0.995449 0.129280
-0.233006 -1.169560 -0.158792
-0.740558 0.710474 -0.248277
-0.111295 -1.139139 -0.203428
-0.677123 0.825000 -0.240602
-0.407580 0.901876 -0.249329
-0.566959 0.659544 0.213001
-0.919759 0.431062 0.248965
-0.760191 -0.975727 -0.078152
-0.830466 0.455486 0.243859
-0.671051 0.843161 0.237077
-0.201468 -0.859571 0.220416
-0.653943 -0.948718 0.198202
-0.208477 1.026402 -0.244923
-0.783041 -0.161825 -0.149163
-0.855033 0.054156 0.204352
-1.047799 -0.042969 0.244655
-0.878251 0.176176 -0.226746
-1.149733 -0.490144 0.000873
-0.163682 1.238152 0.015102
-0.108192 0.778988 0.129531
-0.462462 -0.635692 0.129005
-0.963944 -0.760829 0.101510
-1.130428 0.392031 0.154215
-1.042359 -0.159064 -0.243517
-0.400469 -0.740373 0.193052
-0.844746 -0.645315 -0.241800
-0.782044 -0.611821 0.249538
-0.291111 -1.065580 0.226533
-0.950334 0.065537 -0.244931
-0.140112 -1.159754 0.184282
-0.293410 -1.076845 0.220872
-0.699314 0.706549 -0.249617
-1.176682 -0.147113 0.166414
-0.985500 -0.117075 -0.249507
-0.598675 -0.552915 -0.167397
-1.227739 0.222898 0.032187
-0.005635 -0.770074 0.097928
-0.480641 0.589939 0.071949
-0.589937 -0.466970 -0.034113
-0.536336 1.033768 0.187364
-0.521140 -0.549355 -0.058240
-0.946934 0.049178 -0.244056
-0.795640 -0.114631 -0.154730
-1.052868 0.231629 -0.236937
-1.134233 -0.524415 0.004824
-0.240509 -1.224698 0.028620
-0.595078 -0.496623 -0.108049
-1.169794 -0.312889 -0.133242
-0.347984 -0.964556 0.248333
-1.205646 0.324455 0.021091
-0.744611 0.527166 -0.233695
-1.118264 0.345725 0.182240
-0.876962 0.329310 -0.241785
-0.181101 -0.795190 -0.168060
-1.132237 0.378273 0.157368
-1.184390 -0.068141 0.165771
-0.357568 -1.118320 0.179056
-0.132492 0.742250 0.042078
-0.001455 0.876799 0.217402
-0.551533 -0.590286 -0.159315
-0.795340 -0.462376 -0.236305
-0.577029 -0.783385 -0.248230
-0.041157 0.794451 -0.143028
-0.672184 -1.022033 -0.111135
-1.210664 -0.024007 -0.133303
-0.822271 -0.117455 -0.183298
-0.805413 -0.305332 0.207414
-0.365569 0.950711 -0.248782
-0.178470 -0.782020 0.152754
-1.080117 -0.628714 -0.002018
-1.138914 0.155633 0.200080
-0.789752 0.951639 -0.078722
-0.716600 -0.914929 -0.189577
-1.236995 -0.110185 -0.062194
-0.548769 0.997763 -0.207283
-1.222549 0.156138 -0.091065
-0.908224 0.403687 0.249601
-0.809484 0.269336 0.201897
-0.644490 0.385364 0.014098
-0.577787 0.483007 -0.037642
-1.095848 0.566355 -0.087806
-0.126363 -1.240593 -0.036681
-1.001859 0.471551 -0.225231
-0.584676 -0.902053 -0.237972
-0.446336 -0.688784 0.174032
-0.545537 0.902966 -0.243410
-0.583397 -1.079908 0.102763
-1.164649 0.178637 -0.175010
-1.216433 0.124150 0.112243
-0.436882 -1.061679 -0.201083
-0.967383 -0.256049 0.249950
-0.940086 -0.608000 -0.219147
-1.078474 0.432905 -0.189558
-0.214624 1.193828 0.130196
-1.057085 0.666406 -0.005517
-0.942783 0.734048 0.156150
-0.721759 0.949518 0.158524
-1.203766 0.111797 -0.136220
-1.058464 0.602975 -0.121572
-0.838114 0.339350 -0.230940
