0.046336 1.106089 0.225320 
0.979295 0.491627 -0.230913 
-0.698812 -0.277620 0.030406 
0.926121 0.475664 0.246157 
0.882934 0.227093 -0.233480 
0.609286 -0.968072 0.203888 
0.680701 -0.375418 0.112685 
-0.668632 1.021921 -0.115252 
-0.732673 -0.491199 0.220011 
0.992364 0.701647 0.126680 
-0.518793 -0.860800 -0.249667 
-0.647325 0.958423 0.194467 
1.114392 0.554043 -0.049120 
-0.975521 0.757231 0.083915 
-0.979718 0.471830 0.233750 
0.845292 0.388150 0.239759 
0.854389 -0.794445 0.185562 
-0.835329 -0.440956 -0.243336 
0.614452 -0.672373 -0.233194 
-0.760310 0.060262 -0.077122 
0.344315 -0.684901 -0.088461 
0.076369 -0.951830 -0.245390 
1.063272 -0.108790 -0.240069 
-0.736009 -0.149218 -0.015431 
-0.250959 -1.154513 -0.171339 
0.820688 -0.461397 0.242722 
0.061057 -0.769535 -0.101680 
0.192822 -1.220570 0.081458 
1.190397 0.034019 -0.160635 
-0.771768 0.429199 0.220522 
0.646270 -0.844895 -0.241661 
-0.164599 0.992642 0.249590 
-0.694637 1.017804 0.091629 
0.184228 1.131844 0.201925 
0.750188 0.351032 0.181220 
0.558016 -0.581372 -0.156991 
-0.892726 0.162501 -0.232031 
-0.610662 -0.634943 -0.219458 
0.721844 0.738885 -0.247780 
0.953367 -0.454725 0.243154 
0.427073 0.704017 0.176992 
-1.074058 0.533482 0.150732 
0.308912 -1.099115 -0.205316 
-0.926732 -0.602029 -0.226273 
1.176353 -0.385888 -0.074790 
1.042267 0.409048 0.219109 
0.759577 0.258973 -0.153225 
-0.960384 -0.161040 -0.248286 
1.087215 -0.477210 -0.164685 
0.557790 0.745467 0.240053 
-1.082979 -0.296059 -0.217613 
0.447693 -0.925779 0.248137 
0.281750 -1.204988 -0.076213 
1.007355 -0.578809 0.189851 
0.980735 0.297303 0.248374 
0.802764 -0.138672 -0.167013 
0.179459 -1.104269 0.219544 
-1.223402 0.253057 0.009455 
0.785648 0.496882 0.239547 
0.465063 1.137040 0.100625 
-1.001499 0.631413 0.168593 
0.359836 1.085817 0.203877 
-1.042200 -0.204786 0.241988 
0.664361 -1.032333 0.102276 
0.790573 0.824046 -0.205148 
-0.023562 -1.038727 -0.246591 
0.842299 0.118320 -0.200219 
-0.988420 0.347822 0.244827 
0.674272 -1.051357 -0.014273 
-0.218077 -1.115030 0.209026 
0.315494 0.875673 -0.239954 
0.754431 0.125462 0.083324 
0.401796 1.183350 0.003243 
0.697201 -0.559743 -0.225955 
1.224386 0.117251 0.097589 
-0.415660 0.693116 0.159645 
0.357546 0.673588 -0.076801 
1.018543 0.581101 0.180362 
-0.627584 -0.927882 -0.218849 
1.072018 0.403978 -0.202686 
0.527488 -0.540872 -0.049836 
0.283109 -0.972542 0.249149 
-0.677254 0.489129 0.187524 
-0.264078 -0.918547 0.245565 
-0.887508 -0.113970 0.226290 
-0.470433 -0.746650 -0.220212 
-0.353655 -1.085933 -0.205068 
0.202965 0.925053 -0.243830 
0.280196 -0.827293 0.215511 
0.910908 0.640700 0.222092 
-0.838490 0.059605 -0.192042 
-0.198610 0.785091 -0.161521 
-1.187806 -0.299612 -0.107709 
-0.787238 0.158139 -0.153695 
0.680380 -0.347963 -0.081562 
0.830588 0.924397 -0.058138 
-0.630417 -0.833371 0.245395 
-0.859379 0.534720 0.249199 
0.563030 -1.110428 -0.046762 
-0.920531 -0.729827 -0.178492 
-0.134657 -1.152404 -0.191216 
0.101773 -0.806174 0.164660 
0.409366 -0.814308 -0.233377 
0.419895 0.787293 -0.225027 
1.099106 0.139440 -0.224911 
1.113972 0.511843 0.105695 
-0.623168 -0.418126 0.007041 
0.192892 -0.751201 0.109021 
-0.963653 0.540414 -0.226424 
0.290529 -0.692679 0.017906 
-0.951543 0.802699 -0.047086 
-0.723092 0.396525 -0.178106 
0.041450 0.763778 0.083622 
-0.501987 -0.633630 -0.159909 
-0.665335 0.690044 -0.246119 
0.322117 0.752413 -0.171421 
0.538957 0.541535 -0.080986 
0.960840 -0.648608 -0.192082 
-0.301799 0.817263 -0.214015 
-1.131275 0.426985 0.135862 
0.973263 0.763433 -0.077924 
-0.447793 0.799976 0.235211 
0.462333 0.996622 -0.229472 
-1.085867 0.172059 -0.229085 
-0.352302 -1.176262 -0.101827 
0.330543 1.008343 -0.242186 
-0.243605 1.096459 0.217383 
-0.129867 -0.991114 0.249977 
0.948907 -0.812624 0.009768 
-0.296623 1.120593 -0.192126 
-0.753960 0.810683 -0.225295 
0.439318 0.609112 -0.016278 
-0.958247 -0.284344 -0.249974 
1.180346 0.401476 -0.037757 
0.060501 -1.158924 -0.191015 
-0.281896 1.206491 0.071805 
0.146817 -0.737393 -0.028501 
0.395546 -0.668285 0.111045 
-0.731749 -0.247071 -0.102465 
1.098221 -0.047990 0.229167 
-1.234088 -0.108386 0.072220 
-0.763840 0.929136 -0.145484 
0.107935 1.240747 -0.044368 
0.415176 -0.711368 -0.177214 
-0.758587 -0.619347 0.248646 
-0.923023 -0.249711 0.245651 
0.180586 -0.897064 0.234620 
-0.980327 0.076074 -0.248906 
-0.817859 0.696629 -0.238193 
-0.339492 -1.082570 0.210069 
0.886683 0.826600 -0.131283 
-0.582625 0.850202 0.247984 
-0.981890 0.719166 -0.123680 
-0.455570 -1.158110 -0.049196 
0.878248 0.871530 0.076911 
-0.140804 -0.866352 0.217880 
0.186912 -1.083343 -0.229150 
-1.161085 -0.447246 -0.050772 
1.199508 -0.009398 0.150268 
-0.839083 -0.248817 -0.216628 
-0.418548 1.144628 -0.120297 
0.622523 0.678351 -0.236546 
-1.160676 -0.123851 0.185050 
-0.436199 0.808888 -0.235963 
-0.200002 -0.872684 -0.226541 
-0.999383 -0.398943 -0.237597 
1.218587 0.271971 0.021558 
-1.099295 0.054778 0.228505 
-0.675218 -0.352504 -0.074222 
-0.210258 -0.730677 0.070196 
-0.385397 -0.825269 0.233189 
-1.017217 -0.038913 -0.248818 
-0.714838 0.772686 0.243867 
-0.161652 1.222147 0.090055 
-0.021512 -0.829145 -0.182226 
-0.824332 0.554227 -0.249564 
-1.004624 -0.729543 -0.063789 
0.483862 0.611814 0.118058 
-0.624990 1.080884 0.020518 
0.481713 1.060138 0.187516 
0.001488 0.994862 0.249664 
-0.725931 -0.439865 -0.199025 
1.163926 -0.405073 0.091211 
-0.548246 1.083762 -0.127898 
1.122257 -0.340046 -0.180398 
1.081178 0.618168 0.044633 
0.691592 0.291139 -0.006330 
-1.199460 0.022643 0.150096 
0.159834 -1.227388 -0.075473 
0.654972 0.840377 0.241220 
-0.636421 0.602340 0.217145 
-0.083493 -0.925507 -0.239456 
0.751407 0.940730 -0.143601 
-0.631521 -0.782163 -0.249649 
0.651963 -0.862328 0.235908 
-0.869111 0.414865 -0.247009 
-0.397181 -0.692246 -0.146917 
-0.158581 0.878655 0.225336 
0.447198 1.107625 -0.156477 
-0.558160 -1.038913 -0.173803 
0.959978 0.685084 -0.173750 
0.276741 1.113670 -0.201430 
0.695205 0.999903 0.122173 
-1.249429 0.005324 0.007710 
-1.099938 -0.566055 0.077518 
-0.707842 0.522717 -0.218947 
1.180899 0.221865 0.147236 
-0.896889 0.848453 0.084800 
1.013914 -0.720382 -0.052918 
-0.349744 1.025585 -0.235048 
-0.971817 0.323963 -0.248399 
0.407756 0.978326 0.242432 
-0.841204 -0.817440 0.180049 
-0.821727 -0.211619 0.198859 
-0.530112 0.717556 -0.224966 
-0.137974 -1.188337 0.154407 
-0.276378 1.211503 -0.058715 
1.244710 -0.007029 -0.048037 
-0.907274 -0.838246 0.082849 
0.638942 -0.610399 0.220780 
-0.036140 -0.919781 0.236478 
-0.687654 0.366502 0.116367 
-0.661003 0.354880 0.003950 
-0.532499 1.008352 0.206233 
0.587566 -0.945900 -0.222122 
-1.195426 -0.359601 0.024808 
-0.899993 -0.063633 -0.229954 
-0.523291 0.681987 0.206265 
-0.441994 -1.117977 0.146323 
-0.017404 1.105111 -0.226209 
1.035023 -0.277589 -0.239117 
0.433533 -0.614751 -0.033185 
0.158424 1.073177 -0.234655 
-0.951237 0.055014 0.244982 
0.730761 0.239312 0.095494 
-0.287794 -0.954675 -0.249812 
0.306711 1.180030 0.119289 
-0.155226 1.106633 -0.220185 
-0.815778 -0.704523 -0.237003 
1.079361 -0.605148 0.076489 
-0.695230 -0.989800 -0.135361 
-0.230246 -1.227872 -0.009670 
-0.544304 -0.689310 0.218158 
-0.627633 0.800323 -0.248879 
1.102781 -0.167205 0.221229 
0.865881 -0.013358 -0.210523 
0.609329 -0.447289 -0.051606 
0.338929 -0.991609 -0.244803 
-1.094477 -0.482377 -0.154752 
1.162752 -0.260472 0.159900 
0.416941 -0.810762 0.233489 
1.062152 0.192409 0.236457 
0.944965 -0.129096 0.245165 
0.755317 -0.085841 -0.069756 
0.786301 0.704767 0.243218 
0.107779 1.172643 -0.175775 
0.820229 0.526590 -0.248346 
0.585234 0.972165 -0.209991 
1.092995 -0.505513 0.143243 
0.837377 -0.502333 -0.248460 
0.087488 0.980599 -0.248988 
-1.138512 -0.436507 0.119233 
0.977858 -0.451447 -0.237269 
-0.302294 -1.180181 0.121275 
0.691249 -0.294501 0.021729 
-0.777935 0.884610 0.175269 
-1.053788 -0.337521 0.225581 
-1.149952 -0.278540 0.169359 
1.006757 -0.241859 0.247295 
0.560922 1.115726 0.018338 
-1.207314 0.222695 -0.102156 
-0.777224 0.312967 0.189674 
-0.866886 0.220731 0.226164 
0.868438 -0.869558 -0.099750 
0.552482 -1.052273 -0.163331 
0.757883 -0.934047 -0.145354 
0.500443 -0.629412 0.155053 
-1.137307 0.507111 0.045646 
-0.838395 0.781076 0.202514 
0.938659 0.179620 0.245550 
0.137224 0.955337 0.247427 
0.272879 0.952523 0.249404 
-0.515732 0.558615 0.070060 
0.785966 0.028474 -0.129560 
0.471214 -1.126206 -0.116175 
0.894580 0.408624 -0.248923 
0.798810 -0.260248 0.191639 
0.598083 0.570554 -0.179729 
-0.360794 1.090018 0.201014 
-1.135605 0.289100 -0.181076 
-0.491137 1.148306 -0.014927 
-1.095859 0.326035 0.204219 
0.244794 -0.745301 -0.126489 
-0.383053 -0.944802 0.248718 
-1.086540 -0.610089 -0.041213 
0.075842 -0.963956 0.247784 
-0.329711 0.771989 0.191061 
-0.137718 1.231329 -0.071723 
-0.031188 -0.818398 0.172022 
-0.574934 -1.060917 0.139598 
-0.328405 -0.678092 -0.039396 
-0.103146 -1.240480 0.047775 
0.867014 -0.883734 0.074635 
0.839368 0.272342 0.220200 
0.283472 -0.886229 -0.239863 
0.548053 0.964637 0.224165 
-0.437340 0.930909 -0.248129 
-0.726145 0.228279 -0.072714 
0.785927 0.926116 0.127659 
-0.533233 -0.548641 -0.084194 
0.672259 0.849481 -0.235145 
-0.598517 -0.486412 0.100237 
1.055993 -0.613501 -0.115153 
-0.700138 -0.371779 0.138851 
-0.628678 -0.467258 -0.124636 
-0.513662 -0.850972 0.249608 
0.456496 0.814858 0.241062 
-0.379759 -1.188430 0.033337 
-0.750473 -0.022307 0.012851 
0.937156 -0.145960 -0.244111 
-0.718321 -0.899787 0.198844 
-0.891201 0.782231 -0.166394 
0.134332 -0.849668 -0.206673 
0.535832 -0.763292 -0.240570 
0.203228 -0.970014 -0.249420 
0.281537 0.699932 0.044439 
-0.842287 -0.428609 0.243434 
0.726156 -0.930474 0.172770 
0.315168 0.742096 0.157485 
0.813031 0.659826 -0.244975 
0.855990 -0.241669 -0.223655 
0.713353 -0.455193 0.196963 
0.905974 -0.349231 -0.248096 
0.757037 -0.401966 -0.204587 
0.663140 -1.016458 -0.129143 
0.099746 1.203108 0.138748 
-0.428012 -0.994561 -0.235329 
-0.005071 1.209365 -0.135594 
-1.031476 0.605335 -0.154780 
0.722693 -0.753508 0.245580 
0.641014 0.651969 0.234379 
0.372347 -1.050339 0.221724 
-0.539907 0.532168 -0.062795 
0.046934 -0.751963 0.039389 
0.148796 0.738225 0.037425 
0.499349 -1.042125 0.195313 
-0.729164 -0.745423 0.245832 
-0.430474 -0.700503 0.175680 
-0.084067 0.768516 -0.104040 
0.008205 -1.104342 0.226644 
0.793743 -0.823919 -0.203730 
0.205550 0.747580 -0.108462 
-0.213891 -1.053046 -0.238125 
0.986338 0.289214 -0.248169 
-0.614612 -1.080060 -0.058492 
-1.219596 -0.237806 0.059017 
-0.692584 -1.005792 0.115332 
1.067664 0.071506 0.239643 
-1.015107 -0.704931 0.081027 
-0.439425 0.939120 0.247015 
-0.244522 0.914440 -0.243737 
-1.036679 -0.604032 -0.149844 
-1.029607 0.707381 -0.010911 
0.951948 0.004429 0.244805 
0.445698 -1.131563 0.125384 
0.257393 0.832246 0.213957 
0.955824 0.133001 -0.247410 
-0.795628 -0.956320 0.051596 
-0.081063 0.994805 -0.249880 
-0.386467 0.649223 0.049877 
0.556050 0.515540 0.063738 
0.725614 -0.214046 -0.054934 
-0.514140 -0.988353 0.221849 
-0.924150 -0.826223 -0.069921 
1.242803 0.117249 -0.024813 
1.219748 -0.259147 0.036624 
-0.323723 -0.839471 -0.228701 
0.737928 0.178257 -0.066727 
0.826556 -0.131122 0.188817 
-0.336349 0.876514 0.242189 
0.769848 0.408293 -0.214133 
-1.094117 0.599110 -0.034456 
-0.832568 0.290901 -0.219950 
-0.661249 0.911888 -0.215511 
1.202931 0.147599 -0.131802 
0.094368 -1.180458 0.168209 
-0.839331 0.090280 0.195201 
0.679741 0.373659 -0.109260 
0.742153 -0.684988 -0.249343 
0.528989 -0.720089 0.225654 
-0.605017 0.583851 -0.192227 
0.070278 -1.247739 0.003127 
-1.001912 0.221718 0.248284 
-0.731433 -0.857884 -0.214883 
-0.821472 0.935986 0.044847 
1.133522 -0.200983 -0.198969 
-0.308796 -0.759056 0.172543 
1.185230 0.278652 -0.122714 
1.069267 0.027661 -0.239806 
0.464615 -1.160220 -0.001748 
-0.836486 -0.874481 -0.134489 
0.113108 0.833793 0.192799 
-0.937790 -0.683678 0.190943 
-0.023363 1.249048 0.010145 
0.763597 -0.570977 0.245103 
0.889936 -0.565923 0.243480 
0.584349 -0.516260 0.117499 
0.855947 -0.619123 -0.243120 
-0.418271 1.156232 0.098433 
-0.868986 0.876448 -0.085941 
1.000216 -0.724677 0.083093 
1.174933 0.368200 0.094515 
-0.806034 -0.050020 -0.159013 
-0.751094 0.089154 0.054061 
-1.176875 0.272943 0.137453 
-0.095794 0.745670 0.027994 
0.114314 0.848617 -0.204042 
0.815349 -0.945354 -0.024480 
-1.188758 0.381170 -0.023499 
-0.268057 -0.756268 -0.153026 
-0.133463 0.882537 -0.225185 
0.763649 0.988318 0.014771 
-0.019096 0.821938 0.175579 
-0.750891 -0.546498 -0.239267 
1.140424 -0.510514 -0.007254 
0.706302 0.546155 -0.225319 
-1.231708 0.097731 -0.081900 
-1.147086 -0.203839 -0.187012 
-0.897681 0.671771 0.218352 
-0.880473 0.395554 0.247448 
-0.172312 0.777091 0.143701 
0.854993 0.103155 0.207298 
-0.337542 0.684167 -0.077765 
1.167077 -0.077864 -0.182945 
0.679746 0.536473 0.210485 
-0.225986 0.720831 -0.049422 
0.749914 0.044821 -0.019947 
1.048722 -0.367538 0.223249 
-1.139331 0.473967 -0.086725 
0.791610 0.816165 0.208433 
-1.012000 -0.044390 0.249146 
-1.229806 -0.130650 -0.078477 
0.933216 -0.681593 0.195265 
-0.081791 1.078746 0.235656 
0.549892 0.798663 -0.248016 
-0.079315 -0.753315 0.059705 
0.897626 -0.328864 0.245607 
-0.490316 0.633355 -0.151200 
0.084970 0.753491 -0.063720 
-1.059281 -0.500338 0.181397 
-1.240429 0.137273 0.029064 
-0.885266 -0.577170 0.243039 
0.903217 0.771592 0.164005 
-0.424576 -0.619636 0.018270 
0.466115 -0.962558 -0.239836 
-1.076157 0.429569 -0.192531 
0.354223 1.170777 -0.111427 
-0.628896 0.438607 -0.089021 
-0.636811 -0.587451 0.210792 
1.043319 0.658085 -0.088061 
0.922274 -0.757436 -0.157771 
-0.764575 -0.135857 0.110987 
0.197317 1.226377 0.060877 
-0.058793 1.200749 0.146426 
-0.754704 0.587030 0.245629 
-0.777576 0.198809 0.153292 
0.294409 -1.133347 0.181806 
0.666491 1.056146 -0.017030 
0.486101 0.667432 -0.178987 
1.198300 -0.141712 0.139661 
-0.267278 0.722261 0.098015 
0.557387 1.091935 -0.105677 
-0.711076 0.261648 0.060786 
0.223082 1.213274 -0.087623 
0.651558 0.442662 0.131377 
-0.539819 0.981603 -0.218810 
-0.140694 -0.753986 -0.089860 
-0.042343 -1.238843 -0.070085 
1.119371 0.313043 0.189425 
-0.512694 -0.575712 0.099586 
0.738373 -0.184483 0.072238 
0.001184 -1.225429 0.106878 
0.563733 -1.100114 0.080209 
-1.115652 0.057238 -0.220379 
0.625704 0.415259 0.015082 
-0.444809 0.609769 -0.046095 
-0.795793 -0.013808 0.143661 
1.242443 -0.073486 0.048498 
-0.016746 0.879519 -0.218836 
0.353370 -1.191855 0.056026 
-1.205727 -0.015627 -0.140846 
-0.525768 1.097670 0.123695 
-1.194638 0.152464 0.143150 
1.228488 -0.129011 -0.082868 
-0.522915 -1.128228 0.054056 
1.206157 -0.248656 -0.093824 
0.775803 0.012731 0.109721 
-1.130703 -0.084038 -0.210607 
