0.296280 1.214380 0.000000 
0.288823 1.216175 0.000000 
0.281355 1.217924 0.000000 
0.273877 1.219628 0.000000 
0.266388 1.221285 0.000000 
0.258889 1.222897 0.000000 
0.251381 1.224462 0.000000 
0.243863 1.225982 0.000000 
0.236336 1.227455 0.000000 
0.228800 1.228882 0.000000 
0.221255 1.230263 0.000000 
0.213702 1.231597 0.000000 
0.206141 1.232885 0.000000 
0.198573 1.234127 0.000000 
0.190996 1.235322 0.000000 
0.183413 1.236471 0.000000 
0.175823 1.237573 0.000000 
0.168226 1.238628 0.000000 
0.160623 1.239637 0.000000 
0.153013 1.240599 0.000000 
0.145398 1.241515 0.000000 
0.137778 1.242384 0.000000 
0.130152 1.243206 0.000000 
0.122521 1.243981 0.000000 
0.114886 1.244709 0.000000 
0.107247 1.245391 0.000000 
0.099603 1.246025 0.000000 
0.091956 1.246613 0.000000 
0.084305 1.247154 0.000000 
0.076651 1.247648 0.000000 
0.068994 1.248094 0.000000 
0.061335 1.248494 0.000000 
0.053673 1.248847 0.000000 
0.046009 1.249153 0.000000 
0.038344 1.249412 0.000000 
0.030677 1.249624 0.000000 
0.023008 1.249788 0.000000 
0.015339 1.249906 0.000000 
0.007670 1.249976 0.000000 
1.249925 0.000000 0.006135 
1.249699 0.000000 0.012267 
1.249323 0.000000 0.018391 
1.248796 0.000000 0.024504 
1.248120 0.000000 0.030603 
1.247294 0.000000 0.036683 
1.246319 0.000000 0.042740 
1.245196 0.000000 0.048773 
1.243926 0.000000 0.054775 
1.242508 0.000000 0.060745 
1.240944 0.000000 0.066678 
1.239235 0.000000 0.072571 
1.237382 0.000000 0.078420 
1.235386 0.000000 0.084222 
1.233248 0.000000 0.089974 
1.230970 0.000000 0.095671 
1.228552 0.000000 0.101310 
1.225997 0.000000 0.106889 
1.223306 0.000000 0.112403 
1.220480 0.000000 0.117849 
1.217522 0.000000 0.123225 
1.214432 0.000000 0.128526 
1.211213 0.000000 0.133749 
1.207867 0.000000 0.138893 
1.204396 0.000000 0.143952 
1.200802 0.000000 0.148925 
1.197087 0.000000 0.153808 
1.193253 0.000000 0.158598 
1.189302 0.000000 0.163293 
1.185238 0.000000 0.167890 
1.181062 0.000000 0.172385 
1.176777 0.000000 0.176777 
1.172385 0.000000 0.181062 
1.167890 0.000000 0.185238 
1.163293 0.000000 0.189302 
1.158598 0.000000 0.193253 
1.153808 0.000000 0.197087 
1.148925 0.000000 0.200802 
1.143952 0.000000 0.204396 
1.138893 0.000000 0.207867 
1.133749 0.000000 0.211213 
1.128526 0.000000 0.214432 
1.123224 0.000000 0.217522 
1.117849 0.000000 0.220480 
1.112403 0.000000 0.223306 
1.106889 0.000000 0.225997 
1.101310 0.000000 0.228552 
1.095671 0.000000 0.230970 
1.089974 0.000000 0.233248 
1.084222 0.000000 0.235386 
1.078420 0.000000 0.237382 
1.072571 0.000000 0.239235 
1.066678 0.000000 0.240944 
1.060745 0.000000 0.242508 
1.054775 0.000000 0.243926 
1.048773 0.000000 0.245196 
1.042740 0.000000 0.246319 
1.036683 0.000000 0.247294 
1.030603 0.000000 0.248120 
1.024504 0.000000 0.248796 
1.018391 0.000000 0.249323 
1.012267 0.000000 0.249699 
1.006135 0.000000 0.249925 
1.000000 0.000000 0.250000 
0.993865 0.000000 0.249925 
0.987733 0.000000 0.249699 
0.981609 0.000000 0.249323 
0.975496 0.000000 0.248796 
0.969397 0.000000 0.248120 
0.963317 0.000000 0.247294 
0.957260 0.000000 0.246319 
0.951227 0.000000 0.245196 
0.945225 0.000000 0.243926 
0.939255 0.000000 0.242508 
0.933322 0.000000 0.240944 
0.927429 0.000000 0.239235 
0.921580 0.000000 0.237382 
0.915778 0.000000 0.235386 
0.910026 0.000000 0.233248 
0.904329 0.000000 0.230970 
0.898690 0.000000 0.228552 
0.893111 0.000000 0.225997 
0.887597 0.000000 0.223306 
0.882151 0.000000 0.220480 
0.876775 0.000000 0.217522 
0.871474 0.000000 0.214432 
0.866251 0.000000 0.211213 
0.861107 0.000000 0.207867 
0.856048 0.000000 0.204396 
0.851075 0.000000 0.200802 
0.846192 0.000000 0.197087 
0.841402 0.000000 0.193253 
0.836707 0.000000 0.189302 
0.832110 0.000000 0.185238 
0.827615 0.000000 0.181062 
0.823223 0.000000 0.176777 
0.818938 0.000000 0.172385 
0.814762 0.000000 0.167890 
0.810698 0.000000 0.163293 
0.806747 0.000000 0.158598 
0.802913 0.000000 0.153808 
0.799198 0.000000 0.148925 
0.795604 0.000000 0.143952 
0.792133 0.000000 0.138893 
0.788787 0.000000 0.133749 
0.785568 0.000000 0.128526 
0.782478 0.000000 0.123225 
0.779520 0.000000 0.117849 
0.776694 0.000000 0.112403 
0.774003 0.000000 0.106889 
0.771448 0.000000 0.101310 
0.769030 0.000000 0.095671 
0.766752 0.000000 0.089974 
0.764614 0.000000 0.084222 
0.762618 0.000000 0.078420 
0.760765 0.000000 0.072571 
0.759056 0.000000 0.066678 
0.757492 0.000000 0.060745 
0.756074 0.000000 0.054775 
0.754804 0.000000 0.048773 
0.753681 0.000000 0.042740 
0.752706 0.000000 0.036683 
0.751880 0.000000 0.030603 
0.751204 0.000000 0.024504 
0.750677 0.000000 0.018391 
0.750301 0.000000 0.012267 
0.750075 0.000000 0.006135 
0.750075 0.000000 -0.006135 
0.750301 0.000000 -0.012267 
0.750677 0.000000 -0.018391 
0.751204 0.000000 -0.024504 
0.751880 0.000000 -0.030603 
0.752706 0.000000 -0.036683 
0.753681 0.000000 -0.042740 
0.754804 0.000000 -0.048773 
0.756074 0.000000 -0.054775 
0.757492 0.000000 -0.060745 
0.759056 0.000000 -0.066678 
0.760765 0.000000 -0.072571 
0.762618 0.000000 -0.078420 
0.764614 0.000000 -0.084222 
0.766752 0.000000 -0.089974 
0.769030 0.000000 -0.095671 
0.771448 0.000000 -0.101310 
0.774003 0.000000 -0.106889 
0.776694 0.000000 -0.112403 
0.779520 0.000000 -0.117849 
0.782478 0.000000 -0.123225 
0.785568 0.000000 -0.128526 
0.788787 0.000000 -0.133749 
0.792133 0.000000 -0.138893 
0.795604 0.000000 -0.143952 
0.799198 0.000000 -0.148925 
0.802913 0.000000 -0.153808 
0.806747 0.000000 -0.158598 
0.810698 0.000000 -0.163293 
0.814762 0.000000 -0.167890 
0.818938 0.000000 -0.172385 
0.823223 0.000000 -0.176777 
0.827615 0.000000 -0.181062 
0.832110 0.000000 -0.185238 
0.836707 0.000000 -0.189302 
0.841402 0.000000 -0.193253 
0.846192 0.000000 -0.197087 
0.851075 0.000000 -0.200802 
0.856048 0.000000 -0.204396 
0.861107 0.000000 -0.207867 
0.866251 0.000000 -0.211213 
0.871474 0.000000 -0.214432 
0.876775 0.000000 -0.217522 
0.882151 0.000000 -0.220480 
0.887597 0.000000 -0.223306 
0.893111 0.000000 -0.225997 
0.898690 0.000000 -0.228552 
0.904329 0.000000 -0.230970 
0.910026 0.000000 -0.233248 
0.915778 0.000000 -0.235386 
0.921580 0.000000 -0.237382 
0.927429 0.000000 -0.239235 
0.933322 0.000000 -0.240944 
0.939255 0.000000 -0.242508 
0.945225 0.000000 -0.243926 
0.951227 0.000000 -0.245196 
0.957260 0.000000 -0.246319 
0.963317 0.000000 -0.247294 
0.969397 0.000000 -0.248120 
0.975496 0.000000 -0.248796 
0.981609 0.000000 -0.249323 
0.987733 0.000000 -0.249699 
0.993865 0.000000 -0.249925 
1.000000 0.000000 -0.250000 
1.006135 0.000000 -0.249925 
1.012267 0.000000 -0.249699 
1.018391 0.000000 -0.249323 
1.024504 0.000000 -0.248796 
1.030603 0.000000 -0.248120 
1.036683 0.000000 -0.247294 
1.042740 0.000000 -0.246319 
1.048773 0.000000 -0.245196 
1.054775 0.000000 -0.243926 
1.060745 0.000000 -0.242508 
1.066678 0.000000 -0.240944 
1.072571 0.000000 -0.239235 
1.078420 0.000000 -0.237382 
1.084222 0.000000 -0.235386 
1.089974 0.000000 -0.233248 
1.095671 0.000000 -0.230970 
1.101310 0.000000 -0.228552 
1.106889 0.000000 -0.225997 
1.112403 0.000000 -0.223306 
1.117849 0.000000 -0.220480 
1.123224 0.000000 -0.217522 
1.128526 0.000000 -0.214432 
1.133749 0.000000 -0.211213 
1.138893 0.000000 -0.207867 
1.143952 0.000000 -0.204396 
1.148925 0.000000 -0.200802 
1.153808 0.000000 -0.197087 
1.158598 0.000000 -0.193253 
1.163293 0.000000 -0.189302 
1.167890 0.000000 -0.185238 
1.172385 0.000000 -0.181062 
1.176777 0.000000 -0.176777 
1.181062 0.000000 -0.172385 
1.185238 0.000000 -0.167890 
1.189302 0.000000 -0.163293 
1.193253 0.000000 -0.158598 
1.197087 0.000000 -0.153808 
1.200802 0.000000 -0.148925 
1.204396 0.000000 -0.143952 
1.207867 0.000000 -0.138893 
1.211213 0.000000 -0.133749 
1.214432 0.000000 -0.128526 
1.217522 0.000000 -0.123225 
1.220480 0.000000 -0.117849 
1.223306 0.000000 -0.112403 
1.225997 0.000000 -0.106889 
1.228552 0.000000 -0.101310 
1.230970 0.000000 -0.095671 
1.233248 0.000000 -0.089974 
1.235386 0.000000 -0.084222 
1.237382 0.000000 -0.078420 
1.239235 0.000000 -0.072571 
1.240944 0.000000 -0.066678 
1.242508 0.000000 -0.060745 
1.243926 0.000000 -0.054775 
1.245196 0.000000 -0.048773 
1.246319 0.000000 -0.042740 
1.247294 0.000000 -0.036683 
1.248120 0.000000 -0.030603 
1.248796 0.000000 -0.024504 
1.249323 0.000000 -0.018391 
1.249699 0.000000 -0.012267 
1.249925 0.000000 -0.006135 
0.883883 0.883884 0.000000 
0.883830 0.883830 0.006135 
0.883670 0.883671 0.012267 
0.883404 0.883405 0.018391 
0.883032 0.883032 0.024504 
0.882554 0.882554 0.030603 
0.881970 0.881970 0.036683 
0.881281 0.881281 0.042740 
0.880487 0.880487 0.048773 
0.879588 0.879588 0.054775 
0.878586 0.878586 0.060745 
0.877480 0.877480 0.066678 
0.876271 0.876272 0.072571 
0.874961 0.874961 0.078420 
0.873550 0.873550 0.084222 
0.872038 0.872038 0.089974 
0.870427 0.870427 0.095671 
0.868718 0.868718 0.101310 
0.866911 0.866911 0.106889 
0.865008 0.865008 0.112403 
0.863010 0.863010 0.117849 
0.860918 0.860918 0.123225 
0.858733 0.858733 0.128526 
0.856457 0.856457 0.133749 
0.854091 0.854091 0.138893 
0.851637 0.851637 0.143952 
0.849095 0.849095 0.148925 
0.846468 0.846468 0.153808 
0.843757 0.843757 0.158598 
0.840964 0.840964 0.163293 
0.838090 0.838090 0.167890 
0.835137 0.835137 0.172385 
0.832107 0.832107 0.176777 
0.829001 0.829001 0.181062 
0.825823 0.825823 0.185238 
0.822572 0.822573 0.189302 
0.819253 0.819253 0.193253 
0.815865 0.815865 0.197087 
0.812412 0.812413 0.200802 
0.808896 0.808896 0.204396 
0.805319 0.805319 0.207867 
0.801682 0.801682 0.211213 
0.797988 0.797988 0.214432 
0.794240 0.794240 0.217522 
0.790439 0.790439 0.220480 
0.786587 0.786588 0.223306 
0.782688 0.782689 0.225997 
0.778744 0.778744 0.228552 
0.774756 0.774756 0.230970 
0.770728 0.770728 0.233248 
0.766661 0.766661 0.235386 
0.762558 0.762558 0.237382 
0.758422 0.758422 0.239235 
0.754255 0.754255 0.240944 
0.750060 0.750060 0.242508 
0.745839 0.745839 0.243926 
0.741594 0.741594 0.245196 
0.737329 0.737329 0.246319 
0.733045 0.733045 0.247294 
0.728746 0.728746 0.248120 
0.724434 0.724434 0.248796 
0.720111 0.720111 0.249323 
0.715781 0.715781 0.249699 
0.711445 0.711445 0.249925 
0.707107 0.707107 0.250000 
0.702768 0.702769 0.249925 
0.698433 0.698433 0.249699 
0.694102 0.694102 0.249323 
0.689780 0.689780 0.248796 
0.685467 0.685467 0.248120 
0.681168 0.681168 0.247294 
0.676885 0.676885 0.246319 
0.672619 0.672619 0.245196 
0.668375 0.668375 0.243926 
0.664153 0.664154 0.242508 
0.659958 0.659958 0.240944 
0.655791 0.655791 0.239235 
0.651655 0.651655 0.237382 
0.647552 0.647553 0.235386 
0.643486 0.643486 0.233248 
0.639457 0.639457 0.230970 
0.635469 0.635470 0.228552 
0.631525 0.631525 0.225997 
0.627626 0.627626 0.223306 
0.623775 0.623775 0.220480 
0.619974 0.619974 0.217522 
0.616225 0.616225 0.214432 
0.612532 0.612532 0.211213 
0.608895 0.608895 0.207867 
0.605317 0.605317 0.204396 
0.601801 0.601801 0.200802 
0.598348 0.598348 0.197087 
0.594961 0.594961 0.193253 
0.591641 0.591641 0.189302 
0.588391 0.588391 0.185238 
0.585212 0.585212 0.181062 
0.582107 0.582107 0.176777 
0.579077 0.579077 0.172385 
0.576124 0.576124 0.167890 
0.573250 0.573250 0.163293 
0.570457 0.570457 0.158598 
0.567745 0.567746 0.153808 
0.565118 0.565118 0.148925 
0.562577 0.562577 0.143952 
0.560122 0.560122 0.138893 
0.557756 0.557756 0.133749 
0.555480 0.555480 0.128526 
0.553296 0.553296 0.123225 
0.551204 0.551204 0.117849 
0.549205 0.549206 0.112403 
0.547302 0.547303 0.106889 
0.545496 0.545496 0.101310 
0.543786 0.543786 0.095671 
0.542175 0.542175 0.089974 
0.540664 0.540664 0.084222 
0.539252 0.539252 0.078420 
0.537942 0.537942 0.072571 
0.536734 0.536734 0.066678 
0.535628 0.535628 0.060745 
0.534625 0.534625 0.054775 
0.533727 0.533727 0.048773 
0.532933 0.532933 0.042740 
0.532243 0.532243 0.036683 
0.531659 0.531660 0.030603 
0.531181 0.531181 0.024504 
0.530809 0.530809 0.018391 
0.530543 0.530543 0.012267 
0.530383 0.530383 0.006135 
0.530383 0.530383 -0.006135 
0.530543 0.530543 -0.012267 
0.530809 0.530809 -0.018391 
0.531181 0.531181 -0.024504 
0.531659 0.531660 -0.030603 
0.532243 0.532243 -0.036683 
0.532933 0.532933 -0.042740 
0.533727 0.533727 -0.048773 
0.534625 0.534625 -0.054775 
0.535628 0.535628 -0.060745 
0.536734 0.536734 -0.066678 
0.537942 0.537942 -0.072571 
0.539252 0.539252 -0.078420 
0.540664 0.540664 -0.084222 
0.542175 0.542175 -0.089974 
0.543786 0.543786 -0.095671 
0.545496 0.545496 -0.101310 
0.547302 0.547303 -0.106889 
0.549205 0.549206 -0.112403 
0.551204 0.551204 -0.117849 
0.553296 0.553296 -0.123225 
0.555480 0.555480 -0.128526 
0.557756 0.557756 -0.133749 
0.560122 0.560122 -0.138893 
0.562577 0.562577 -0.143952 
0.565118 0.565118 -0.148925 
0.567745 0.567746 -0.153808 
0.570457 0.570457 -0.158598 
0.573250 0.573250 -0.163293 
0.576124 0.576124 -0.167890 
0.579077 0.579077 -0.172385 
0.582107 0.582107 -0.176777 
0.585212 0.585212 -0.181062 
0.588391 0.588391 -0.185238 
0.591641 0.591641 -0.189302 
0.594961 0.594961 -0.193253 
0.598348 0.598348 -0.197087 
0.601801 0.601801 -0.200802 
0.605317 0.605317 -0.204396 
0.608895 0.608895 -0.207867 
0.612532 0.612532 -0.211213 
0.616225 0.616225 -0.214432 
0.619974 0.619974 -0.217522 
0.623775 0.623775 -0.220480 
0.627626 0.627626 -0.223306 
0.631525 0.631525 -0.225997 
0.635469 0.635470 -0.228552 
0.639457 0.639457 -0.230970 
0.643486 0.643486 -0.233248 
0.647552 0.647553 -0.235386 
0.651655 0.651655 -0.237382 
0.655791 0.655791 -0.239235 
0.659958 0.659958 -0.240944 
0.664153 0.664154 -0.242508 
0.668375 0.668375 -0.243926 
0.672619 0.672619 -0.245196 
0.676885 0.676885 -0.246319 
0.681168 0.681168 -0.247294 
0.685467 0.685467 -0.248120 
0.689780 0.689780 -0.248796 
0.694102 0.694102 -0.249323 
0.698433 0.698433 -0.249699 
0.702768 0.702769 -0.249925 
0.707107 0.707107 -0.250000 
0.711445 0.711445 -0.249925 
0.715781 0.715781 -0.249699 
0.720111 0.720111 -0.249323 
0.724434 0.724434 -0.248796 
0.728746 0.728746 -0.248120 
0.733045 0.733045 -0.247294 
0.737329 0.737329 -0.246319 
0.741594 0.741594 -0.245196 
0.745839 0.745839 -0.243926 
0.750060 0.750060 -0.242508 
0.754255 0.754255 -0.240944 
0.758422 0.758422 -0.239235 
0.762558 0.762558 -0.237382 
0.766661 0.766661 -0.235386 
0.770728 0.770728 -0.233248 
0.774756 0.774756 -0.230970 
0.778744 0.778744 -0.228552 
0.782688 0.782689 -0.225997 
0.786587 0.786588 -0.223306 
0.790439 0.790439 -0.220480 
0.794240 0.794240 -0.217522 
0.797988 0.797988 -0.214432 
0.801682 0.801682 -0.211213 
0.805319 0.805319 -0.207867 
0.808896 0.808896 -0.204396 
0.812412 0.812413 -0.200802 
0.815865 0.815865 -0.197087 
0.819253 0.819253 -0.193253 
0.822572 0.822573 -0.189302 
0.825823 0.825823 -0.185238 
0.829001 0.829001 -0.181062 
0.832107 0.832107 -0.176777 
0.835137 0.835137 -0.172385 
0.838090 0.838090 -0.167890 
0.840964 0.840964 -0.163293 
0.843757 0.843757 -0.158598 
0.846468 0.846468 -0.153808 
0.849095 0.849095 -0.148925 
0.851637 0.851637 -0.143952 
0.854091 0.854091 -0.138893 
0.856457 0.856457 -0.133749 
0.858733 0.858733 -0.128526 
0.860918 0.860918 -0.123225 
0.863010 0.863010 -0.117849 
0.865008 0.865008 -0.112403 
0.866911 0.866911 -0.106889 
0.868718 0.868718 -0.101310 
0.870427 0.870427 -0.095671 
0.872038 0.872038 -0.089974 
0.873550 0.873550 -0.084222 
0.874961 0.874961 -0.078420 
0.876271 0.876272 -0.072571 
0.877480 0.877480 -0.066678 
0.878586 0.878586 -0.060745 
0.879588 0.879588 -0.054775 
0.880487 0.880487 -0.048773 
0.881281 0.881281 -0.042740 
0.881970 0.881970 -0.036683 
0.882554 0.882554 -0.030603 
0.883032 0.883032 -0.024504 
0.883404 0.883405 -0.018391 
0.883670 0.883671 -0.012267 
0.883830 0.883830 -0.006135 
0.000000 1.249925 0.006135 
0.000000 1.249699 0.012267 
0.000000 1.249323 0.018391 
0.000000 1.248796 0.024504 
0.000000 1.248120 0.030603 
0.000000 1.247294 0.036683 
0.000000 1.246319 0.042740 
0.000000 1.245196 0.048773 
0.000000 1.243926 0.054775 
0.000000 1.242508 0.060745 
0.000000 1.240944 0.066678 
0.000000 1.239235 0.072571 
0.000000 1.237382 0.078420 
0.000000 1.235386 0.084222 
0.000000 1.233248 0.089974 
0.000000 1.230970 0.095671 
0.000000 1.228552 0.101310 
0.000000 1.225997 0.106889 
0.000000 1.223306 0.112403 
0.000000 1.220480 0.117849 
0.000000 1.217522 0.123225 
0.000000 1.214432 0.128526 
0.000000 1.211213 0.133749 
0.000000 1.207867 0.138893 
0.000000 1.204396 0.143952 
0.000000 1.200802 0.148925 
0.000000 1.197087 0.153808 
0.000000 1.193253 0.158598 
0.000000 1.189302 0.163293 
0.000000 1.185238 0.167890 
0.000000 1.181062 0.172385 
0.000000 1.176777 0.176777 
0.000000 1.172385 0.181062 
0.000000 1.167890 0.185238 
0.000000 1.163293 0.189302 
0.000000 1.158598 0.193253 
0.000000 1.153808 0.197087 
0.000000 1.148925 0.200802 
0.000000 1.143952 0.204396 
0.000000 1.138893 0.207867 
0.000000 1.133749 0.211213 
0.000000 1.128526 0.214432 
0.000000 1.123224 0.217522 
0.000000 1.117849 0.220480 
0.000000 1.112403 0.223306 
0.000000 1.106889 0.225997 
0.000000 1.101310 0.228552 
0.000000 1.095671 0.230970 
0.000000 1.089974 0.233248 
0.000000 1.084222 0.235386 
0.000000 1.078420 0.237382 
0.000000 1.072571 0.239235 
0.000000 1.066678 0.240944 
0.000000 1.060745 0.242508 
0.000000 1.054775 0.243926 
0.000000 1.048773 0.245196 
0.000000 1.042740 0.246319 
0.000000 1.036683 0.247294 
0.000000 1.030603 0.248120 
0.000000 1.024504 0.248796 
0.000000 1.018391 0.249323 
0.000000 1.012267 0.249699 
0.000000 1.006135 0.249925 
0.000000 1.000000 0.250000 
0.000000 0.993865 0.249925 
0.000000 0.987733 0.249699 
0.000000 0.981609 0.249323 
0.000000 0.975496 0.248796 
0.000000 0.969397 0.248120 
0.000000 0.963317 0.247294 
0.000000 0.957260 0.246319 
0.000000 0.951227 0.245196 
0.000000 0.945225 0.243926 
0.000000 0.939255 0.242508 
0.000000 0.933322 0.240944 
0.000000 0.927429 0.239235 
0.000000 0.921580 0.237382 
0.000000 0.915778 0.235386 
0.000000 0.910026 0.233248 
0.000000 0.904329 0.230970 
0.000000 0.898690 0.228552 
0.000000 0.893111 0.225997 
0.000000 0.887597 0.223306 
0.000000 0.882151 0.220480 
0.000000 0.876775 0.217522 
0.000000 0.871474 0.214432 
0.000000 0.866251 0.211213 
0.000000 0.861107 0.207867 
0.000000 0.856048 0.204396 
0.000000 0.851075 0.200802 
0.000000 0.846192 0.197087 
0.000000 0.841402 0.193253 
0.000000 0.836707 0.189302 
0.000000 0.832110 0.185238 
0.000000 0.827615 0.181062 
0.000000 0.823223 0.176777 
0.000000 0.818938 0.172385 
0.000000 0.814762 0.167890 
0.000000 0.810698 0.163293 
0.000000 0.806747 0.158598 
0.000000 0.802913 0.153808 
0.000000 0.799198 0.148925 
0.000000 0.795604 0.143952 
0.000000 0.792133 0.138893 
0.000000 0.788787 0.133749 
0.000000 0.785568 0.128526 
0.000000 0.782478 0.123225 
0.000000 0.779520 0.117849 
0.000000 0.776694 0.112403 
0.000000 0.774003 0.106889 
0.000000 0.771448 0.101310 
0.000000 0.769030 0.095671 
0.000000 0.766752 0.089974 
0.000000 0.764614 0.084222 
0.000000 0.762618 0.078420 
0.000000 0.760765 0.072571 
0.000000 0.759056 0.066678 
0.000000 0.757492 0.060745 
0.000000 0.756074 0.054775 
0.000000 0.754804 0.048773 
0.000000 0.753681 0.042740 
0.000000 0.752706 0.036683 
0.000000 0.751880 0.030603 
0.000000 0.751204 0.024504 
0.000000 0.750677 0.018391 
0.000000 0.750301 0.012267 
0.000000 0.750075 0.006135 
0.000000 0.750075 -0.006135 
0.000000 0.750301 -0.012267 
0.000000 0.750677 -0.018391 
0.000000 0.751204 -0.024504 
0.000000 0.751880 -0.030603 
0.000000 0.752706 -0.036683 
0.000000 0.753681 -0.042740 
0.000000 0.754804 -0.048773 
0.000000 0.756074 -0.054775 
0.000000 0.757492 -0.060745 
0.000000 0.759056 -0.066678 
0.000000 0.760765 -0.072571 
0.000000 0.762618 -0.078420 
0.000000 0.764614 -0.084222 
0.000000 0.766752 -0.089974 
0.000000 0.769030 -0.095671 
0.000000 0.771448 -0.101310 
0.000000 0.774003 -0.106889 
0.000000 0.776694 -0.112403 
0.000000 0.779520 -0.117849 
0.000000 0.782478 -0.123225 
0.000000 0.785568 -0.128526 
0.000000 0.788787 -0.133749 
0.000000 0.792133 -0.138893 
0.000000 0.795604 -0.143952 
0.000000 0.799198 -0.148925 
0.000000 0.802913 -0.153808 
0.000000 0.806747 -0.158598 
0.000000 0.810698 -0.163293 
0.000000 0.814762 -0.167890 
0.000000 0.818938 -0.172385 
0.000000 0.823223 -0.176777 
0.000000 0.827615 -0.181062 
0.000000 0.832110 -0.185238 
0.000000 0.836707 -0.189302 
0.000000 0.841402 -0.193253 
0.000000 0.846192 -0.197087 
0.000000 0.851075 -0.200802 
0.000000 0.856048 -0.204396 
0.000000 0.861107 -0.207867 
0.000000 0.866251 -0.211213 
0.000000 0.871474 -0.214432 
0.000000 0.876775 -0.217522 
0.000000 0.882151 -0.220480 
0.000000 0.887597 -0.223306 
0.000000 0.893111 -0.225997 
0.000000 0.898690 -0.228552 
0.000000 0.904329 -0.230970 
0.000000 0.910026 -0.233248 
0.000000 0.915778 -0.235386 
0.000000 0.921580 -0.237382 
0.000000 0.927429 -0.239235 
0.000000 0.933322 -0.240944 
0.000000 0.939255 -0.242508 
0.000000 0.945225 -0.243926 
0.000000 0.951227 -0.245196 
0.000000 0.957260 -0.246319 
0.000000 0.963317 -0.247294 
0.000000 0.969397 -0.248120 
0.000000 0.975496 -0.248796 
0.000000 0.981609 -0.249323 
0.000000 0.987733 -0.249699 
0.000000 0.993865 -0.249925 
0.000000 1.000000 -0.250000 
0.000000 1.006135 -0.249925 
0.000000 1.012267 -0.249699 
0.000000 1.018391 -0.249323 
0.000000 1.024504 -0.248796 
0.000000 1.030603 -0.248120 
0.000000 1.036683 -0.247294 
0.000000 1.042740 -0.246319 
0.000000 1.048773 -0.245196 
0.000000 1.054775 -0.243926 
0.000000 1.060745 -0.242508 
0.000000 1.066678 -0.240944 
0.000000 1.072571 -0.239235 
0.000000 1.078420 -0.237382 
0.000000 1.084222 -0.235386 
0.000000 1.089974 -0.233248 
0.000000 1.095671 -0.230970 
0.000000 1.101310 -0.228552 
0.000000 1.106889 -0.225997 
0.000000 1.112403 -0.223306 
0.000000 1.117849 -0.220480 
0.000000 1.123224 -0.217522 
0.000000 1.128526 -0.214432 
0.000000 1.133749 -0.211213 
0.000000 1.138893 -0.207867 
0.000000 1.143952 -0.204396 
0.000000 1.148925 -0.200802 
0.000000 1.153808 -0.197087 
0.000000 1.158598 -0.193253 
0.000000 1.163293 -0.189302 
0.000000 1.167890 -0.185238 
0.000000 1.172385 -0.181062 
0.000000 1.176777 -0.176777 
0.000000 1.181062 -0.172385 
0.000000 1.185238 -0.167890 
0.000000 1.189302 -0.163293 
0.000000 1.193253 -0.158598 
0.000000 1.197087 -0.153808 
0.000000 1.200802 -0.148925 
0.000000 1.204396 -0.143952 
0.000000 1.207867 -0.138893 
0.000000 1.211213 -0.133749 
0.000000 1.214432 -0.128526 
0.000000 1.217522 -0.123225 
0.000000 1.220480 -0.117849 
0.000000 1.223306 -0.112403 
0.000000 1.225997 -0.106889 
0.000000 1.228552 -0.101310 
0.000000 1.230970 -0.095671 
0.000000 1.233248 -0.089974 
0.000000 1.235386 -0.084222 
0.000000 1.237382 -0.078420 
0.000000 1.239235 -0.072571 
0.000000 1.240944 -0.066678 
0.000000 1.242508 -0.060745 
0.000000 1.243926 -0.054775 
0.000000 1.245196 -0.048773 
0.000000 1.246319 -0.042740 
0.000000 1.247294 -0.036683 
0.000000 1.248120 -0.030603 
0.000000 1.248796 -0.024504 
0.000000 1.249323 -0.018391 
0.000000 1.249699 -0.012267 
0.000000 1.249925 -0.006135 
-0.883884 0.883883 0.000000 
-0.883830 0.883830 0.006135 
-0.883671 0.883670 0.012267 
-0.883405 0.883404 0.018391 
-0.883033 0.883032 0.024504 
-0.882554 0.882554 0.030603 
-0.881970 0.881970 0.036683 
-0.881281 0.881281 0.042740 
-0.880487 0.880487 0.048773 
-0.879588 0.879588 0.054775 
-0.878586 0.878585 0.060745 
-0.877480 0.877480 0.066678 
-0.876272 0.876271 0.072571 
-0.874961 0.874961 0.078420 
-0.873550 0.873550 0.084222 
-0.872038 0.872038 0.089974 
-0.870427 0.870427 0.095671 
-0.868718 0.868718 0.101310 
-0.866911 0.866911 0.106889 
-0.865008 0.865008 0.112403 
-0.863010 0.863010 0.117849 
-0.860918 0.860918 0.123225 
-0.858733 0.858733 0.128526 
-0.856457 0.856457 0.133749 
-0.854091 0.854091 0.138893 
-0.851637 0.851637 0.143952 
-0.849095 0.849095 0.148925 
-0.846468 0.846468 0.153808 
-0.843757 0.843757 0.158598 
-0.840964 0.840963 0.163293 
-0.838090 0.838089 0.167890 
-0.835137 0.835137 0.172385 
-0.832107 0.832107 0.176777 
-0.829002 0.829001 0.181062 
-0.825823 0.825823 0.185238 
-0.822573 0.822572 0.189302 
-0.819253 0.819252 0.193253 
-0.815866 0.815865 0.197087 
-0.812413 0.812412 0.200802 
-0.808896 0.808896 0.204396 
-0.805319 0.805318 0.207867 
-0.801682 0.801682 0.211213 
-0.797988 0.797988 0.214432 
-0.794240 0.794239 0.217522 
-0.790439 0.790439 0.220480 
-0.786588 0.786587 0.223306 
-0.782689 0.782688 0.225997 
-0.778744 0.778744 0.228552 
-0.774756 0.774756 0.230970 
-0.770728 0.770728 0.233248 
-0.766661 0.766661 0.235386 
-0.762559 0.762558 0.237382 
-0.758422 0.758422 0.239235 
-0.754256 0.754255 0.240944 
-0.750060 0.750060 0.242508 
-0.745839 0.745839 0.243926 
-0.741594 0.741594 0.245196 
-0.737329 0.737329 0.246319 
-0.733045 0.733045 0.247294 
-0.728746 0.728746 0.248120 
-0.724434 0.724434 0.248796 
-0.720111 0.720111 0.249323 
-0.715781 0.715781 0.249699 
-0.711445 0.711445 0.249925 
-0.707107 0.707107 0.250000 
-0.702769 0.702768 0.249925 
-0.698433 0.698433 0.249699 
-0.694102 0.694102 0.249323 
-0.689780 0.689779 0.248796 
-0.685468 0.685467 0.248120 
-0.681168 0.681168 0.247294 
-0.676885 0.676885 0.246319 
-0.672620 0.672619 0.245196 
-0.668375 0.668375 0.243926 
-0.664154 0.664153 0.242508 
-0.659958 0.659958 0.240944 
-0.655791 0.655791 0.239235 
-0.651655 0.651655 0.237382 
-0.647553 0.647552 0.235386 
-0.643486 0.643486 0.233248 
-0.639457 0.639457 0.230970 
-0.635470 0.635469 0.228552 
-0.631525 0.631525 0.225997 
-0.627626 0.627626 0.223306 
-0.623775 0.623775 0.220480 
-0.619974 0.619974 0.217522 
-0.616226 0.616225 0.214432 
-0.612532 0.612531 0.211213 
-0.608895 0.608895 0.207867 
-0.605317 0.605317 0.204396 
-0.601801 0.601801 0.200802 
-0.598348 0.598348 0.197087 
-0.594961 0.594961 0.193253 
-0.591641 0.591641 0.189302 
-0.588391 0.588391 0.185238 
-0.585212 0.585212 0.181062 
-0.582107 0.582107 0.176777 
-0.579077 0.579077 0.172385 
-0.576124 0.576124 0.167890 
-0.573250 0.573250 0.163293 
-0.570457 0.570456 0.158598 
-0.567746 0.567745 0.153808 
-0.565119 0.565118 0.148925 
-0.562577 0.562577 0.143952 
-0.560122 0.560122 0.138893 
-0.557756 0.557756 0.133749 
-0.555480 0.555480 0.128526 
-0.553296 0.553296 0.123225 
-0.551204 0.551203 0.117849 
-0.549206 0.549205 0.112403 
-0.547303 0.547302 0.106889 
-0.545496 0.545496 0.101310 
-0.543787 0.543786 0.095671 
-0.542176 0.542175 0.089974 
-0.540664 0.540664 0.084222 
-0.539252 0.539252 0.078420 
-0.537942 0.537942 0.072571 
-0.536734 0.536734 0.066678 
-0.535628 0.535628 0.060745 
-0.534626 0.534625 0.054775 
-0.533727 0.533727 0.048773 
-0.532933 0.532933 0.042740 
-0.532244 0.532243 0.036683 
-0.531660 0.531659 0.030603 
-0.531181 0.531181 0.024504 
-0.530809 0.530809 0.018391 
-0.530543 0.530543 0.012267 
-0.530383 0.530383 0.006135 
-0.530383 0.530383 -0.006135 
-0.530543 0.530543 -0.012267 
-0.530809 0.530809 -0.018391 
-0.531181 0.531181 -0.024504 
-0.531660 0.531659 -0.030603 
-0.532244 0.532243 -0.036683 
-0.532933 0.532933 -0.042740 
-0.533727 0.533727 -0.048773 
-0.534626 0.534625 -0.054775 
-0.535628 0.535628 -0.060745 
-0.536734 0.536734 -0.066678 
-0.537942 0.537942 -0.072571 
-0.539252 0.539252 -0.078420 
-0.540664 0.540664 -0.084222 
-0.542176 0.542175 -0.089974 
-0.543787 0.543786 -0.095671 
-0.545496 0.545496 -0.101310 
-0.547303 0.547302 -0.106889 
-0.549206 0.549205 -0.112403 
-0.551204 0.551203 -0.117849 
-0.553296 0.553296 -0.123225 
-0.555480 0.555480 -0.128526 
-0.557756 0.557756 -0.133749 
-0.560122 0.560122 -0.138893 
-0.562577 0.562577 -0.143952 
-0.565119 0.565118 -0.148925 
-0.567746 0.567745 -0.153808 
-0.570457 0.570456 -0.158598 
-0.573250 0.573250 -0.163293 
-0.576124 0.576124 -0.167890 
-0.579077 0.579077 -0.172385 
-0.582107 0.582107 -0.176777 
-0.585212 0.585212 -0.181062 
-0.588391 0.588391 -0.185238 
-0.591641 0.591641 -0.189302 
-0.594961 0.594961 -0.193253 
-0.598348 0.598348 -0.197087 
-0.601801 0.601801 -0.200802 
-0.605317 0.605317 -0.204396 
-0.608895 0.608895 -0.207867 
-0.612532 0.612531 -0.211213 
-0.616226 0.616225 -0.214432 
-0.619974 0.619974 -0.217522 
-0.623775 0.623775 -0.220480 
-0.627626 0.627626 -0.223306 
-0.631525 0.631525 -0.225997 
-0.635470 0.635469 -0.228552 
-0.639457 0.639457 -0.230970 
-0.643486 0.643486 -0.233248 
-0.647553 0.647552 -0.235386 
-0.651655 0.651655 -0.237382 
-0.655791 0.655791 -0.239235 
-0.659958 0.659958 -0.240944 
-0.664154 0.664153 -0.242508 
-0.668375 0.668375 -0.243926 
-0.672620 0.672619 -0.245196 
-0.676885 0.676885 -0.246319 
-0.681168 0.681168 -0.247294 
-0.685468 0.685467 -0.248120 
-0.689780 0.689779 -0.248796 
-0.694102 0.694102 -0.249323 
-0.698433 0.698433 -0.249699 
-0.702769 0.702768 -0.249925 
-0.707107 0.707107 -0.250000 
-0.711445 0.711445 -0.249925 
-0.715781 0.715781 -0.249699 
-0.720111 0.720111 -0.249323 
-0.724434 0.724434 -0.248796 
-0.728746 0.728746 -0.248120 
-0.733045 0.733045 -0.247294 
-0.737329 0.737329 -0.246319 
-0.741594 0.741594 -0.245196 
-0.745839 0.745839 -0.243926 
-0.750060 0.750060 -0.242508 
-0.754256 0.754255 -0.240944 
-0.758422 0.758422 -0.239235 
-0.762559 0.762558 -0.237382 
-0.766661 0.766661 -0.235386 
-0.770728 0.770728 -0.233248 
-0.774756 0.774756 -0.230970 
-0.778744 0.778744 -0.228552 
-0.782689 0.782688 -0.225997 
-0.786588 0.786587 -0.223306 
-0.790439 0.790439 -0.220480 
-0.794240 0.794239 -0.217522 
-0.797988 0.797988 -0.214432 
-0.801682 0.801682 -0.211213 
-0.805319 0.805318 -0.207867 
-0.808896 0.808896 -0.204396 
-0.812413 0.812412 -0.200802 
-0.815866 0.815865 -0.197087 
-0.819253 0.819252 -0.193253 
-0.822573 0.822572 -0.189302 
-0.825823 0.825823 -0.185238 
-0.829002 0.829001 -0.181062 
-0.832107 0.832107 -0.176777 
-0.835137 0.835137 -0.172385 
-0.838090 0.838089 -0.167890 
-0.840964 0.840963 -0.163293 
-0.843757 0.843757 -0.158598 
-0.846468 0.846468 -0.153808 
-0.849095 0.849095 -0.148925 
-0.851637 0.851637 -0.143952 
-0.854091 0.854091 -0.138893 
-0.856457 0.856457 -0.133749 
-0.858733 0.858733 -0.128526 
-0.860918 0.860918 -0.123225 
-0.863010 0.863010 -0.117849 
-0.865008 0.865008 -0.112403 
-0.866911 0.866911 -0.106889 
-0.868718 0.868718 -0.101310 
-0.870427 0.870427 -0.095671 
-0.872038 0.872038 -0.089974 
-0.873550 0.873550 -0.084222 
-0.874961 0.874961 -0.078420 
-0.876272 0.876271 -0.072571 
-0.877480 0.877480 -0.066678 
-0.878586 0.878585 -0.060745 
-0.879588 0.879588 -0.054775 
-0.880487 0.880487 -0.048773 
-0.881281 0.881281 -0.042740 
-0.881970 0.881970 -0.036683 
-0.882554 0.882554 -0.030603 
-0.883033 0.883032 -0.024504 
-0.883405 0.883404 -0.018391 
-0.883671 0.883670 -0.012267 
-0.883830 0.883830 -0.006135 
-1.249925 0.000000 0.006135 
-1.249699 0.000000 0.012267 
-1.249323 0.000000 0.018391 
-1.248796 0.000000 0.024504 
-1.248120 0.000000 0.030603 
-1.247294 0.000000 0.036683 
-1.246319 0.000000 0.042740 
-1.245196 0.000000 0.048773 
-1.243926 0.000000 0.054775 
-1.242508 0.000000 0.060745 
-1.240944 0.000000 0.066678 
-1.239235 0.000000 0.072571 
-1.237382 0.000000 0.078420 
-1.235386 0.000000 0.084222 
-1.233248 0.000000 0.089974 
-1.230970 0.000000 0.095671 
-1.228552 0.000000 0.101310 
-1.225997 0.000000 0.106889 
-1.223306 0.000000 0.112403 
-1.220480 0.000000 0.117849 
-1.217522 0.000000 0.123225 
-1.214432 0.000000 0.128526 
-1.211213 0.000000 0.133749 
-1.207867 0.000000 0.138893 
-1.204396 0.000000 0.143952 
-1.200802 0.000000 0.148925 
-1.197087 0.000000 0.153808 
-1.193253 0.000000 0.158598 
-1.189302 0.000000 0.163293 
-1.185238 0.000000 0.167890 
-1.181062 0.000000 0.172385 
-1.176777 0.000000 0.176777 
-1.172385 0.000000 0.181062 
-1.167890 0.000000 0.185238 
-1.163293 0.000000 0.189302 
-1.158598 0.000000 0.193253 
-1.153808 0.000000 0.197087 
-1.148925 0.000000 0.200802 
-1.143952 0.000000 0.204396 
-1.138893 0.000000 0.207867 
-1.133749 0.000000 0.211213 
-1.128526 0.000000 0.214432 
-1.123224 0.000000 0.217522 
-1.117849 0.000000 0.220480 
-1.112403 0.000000 0.223306 
-1.106889 0.000000 0.225997 
-1.101310 0.000000 0.228552 
-1.095671 0.000000 0.230970 
-1.089974 0.000000 0.233248 
-1.084222 0.000000 0.235386 
-1.078420 0.000000 0.237382 
-1.072571 0.000000 0.239235 
-1.066678 0.000000 0.240944 
-1.060745 0.000000 0.242508 
-1.054775 0.000000 0.243926 
-1.048773 0.000000 0.245196 
-1.042740 0.000000 0.246319 
-1.036683 0.000000 0.247294 
-1.030603 0.000000 0.248120 
-1.024504 0.000000 0.248796 
-1.018391 0.000000 0.249323 
-1.012267 0.000000 0.249699 
-1.006135 0.000000 0.249925 
-1.000000 0.000000 0.250000 
-0.993865 0.000000 0.249925 
-0.987733 0.000000 0.249699 
-0.981609 0.000000 0.249323 
-0.975496 0.000000 0.248796 
-0.969397 0.000000 0.248120 
-0.963317 0.000000 0.247294 
-0.957260 0.000000 0.246319 
-0.951227 0.000000 0.245196 
-0.945225 0.000000 0.243926 
-0.939255 0.000000 0.242508 
-0.933322 0.000000 0.240944 
-0.927429 0.000000 0.239235 
-0.921580 0.000000 0.237382 
-0.915778 0.000000 0.235386 
-0.910026 0.000000 0.233248 
-0.904329 0.000000 0.230970 
-0.898690 0.000000 0.228552 
-0.893111 0.000000 0.225997 
-0.887597 0.000000 0.223306 
-0.882151 0.000000 0.220480 
-0.876775 0.000000 0.217522 
-0.871474 0.000000 0.214432 
-0.866251 0.000000 0.211213 
-0.861107 0.000000 0.207867 
-0.856048 0.000000 0.204396 
-0.851075 0.000000 0.200802 
-0.846192 0.000000 0.197087 
-0.841402 0.000000 0.193253 
-0.836707 0.000000 0.189302 
-0.832110 0.000000 0.185238 
-0.827615 0.000000 0.181062 
-0.823223 0.000000 0.176777 
-0.818938 0.000000 0.172385 
-0.814762 0.000000 0.167890 
-0.810698 0.000000 0.163293 
-0.806747 0.000000 0.158598 
-0.802913 0.000000 0.153808 
-0.799198 0.000000 0.148925 
-0.795604 0.000000 0.143952 
-0.792133 0.000000 0.138893 
-0.788787 0.000000 0.133749 
-0.785568 0.000000 0.128526 
-0.782478 0.000000 0.123225 
-0.779520 0.000000 0.117849 
-0.776694 0.000000 0.112403 
-0.774003 0.000000 0.106889 
-0.771448 0.000000 0.101310 
-0.769030 0.000000 0.095671 
-0.766752 0.000000 0.089974 
-0.764614 0.000000 0.084222 
-0.762618 0.000000 0.078420 
-0.760765 0.000000 0.072571 
-0.759056 0.000000 0.066678 
-0.757492 0.000000 0.060745 
-0.756074 0.000000 0.054775 
-0.754804 0.000000 0.048773 
-0.753681 0.000000 0.042740 
-0.752706 0.000000 0.036683 
-0.751880 0.000000 0.030603 
-0.751204 0.000000 0.024504 
-0.750677 0.000000 0.018391 
-0.750301 0.000000 0.012267 
-0.750075 0.000000 0.006135 
-0.750075 0.000000 -0.006135 
-0.750301 0.000000 -0.012267 
-0.750677 0.000000 -0.018391 
-0.751204 0.000000 -0.024504 
-0.751880 0.000000 -0.030603 
-0.752706 0.000000 -0.036683 
-0.753681 0.000000 -0.042740 
-0.754804 0.000000 -0.048773 
-0.756074 0.000000 -0.054775 
-0.757492 0.000000 -0.060745 
-0.759056 0.000000 -0.066678 
-0.760765 0.000000 -0.072571 
-0.762618 0.000000 -0.078420 
-0.764614 0.000000 -0.084222 
-0.766752 0.000000 -0.089974 
-0.769030 0.000000 -0.095671 
-0.771448 0.000000 -0.101310 
-0.774003 0.000000 -0.106889 
-0.776694 0.000000 -0.112403 
-0.779520 0.000000 -0.117849 
-0.782478 0.000000 -0.123225 
-0.785568 0.000000 -0.128526 
-0.788787 0.000000 -0.133749 
-0.792133 0.000000 -0.138893 
-0.795604 0.000000 -0.143952 
-0.799198 0.000000 -0.148925 
-0.802913 0.000000 -0.153808 
-0.806747 0.000000 -0.158598 
-0.810698 0.000000 -0.163293 
-0.814762 0.000000 -0.167890 
-0.818938 0.000000 -0.172385 
-0.823223 0.000000 -0.176777 
-0.827615 0.000000 -0.181062 
-0.832110 0.000000 -0.185238 
-0.836707 0.000000 -0.189302 
-0.841402 0.000000 -0.193253 
-0.846192 0.000000 -0.197087 
-0.851075 0.000000 -0.200802 
-0.856048 0.000000 -0.204396 
-0.861107 0.000000 -0.207867 
-0.866251 0.000000 -0.211213 
-0.871474 0.000000 -0.214432 
-0.876775 0.000000 -0.217522 
-0.882151 0.000000 -0.220480 
-0.887597 0.000000 -0.223306 
-0.893111 0.000000 -0.225997 
-0.898690 0.000000 -0.228552 
-0.904329 0.000000 -0.230970 
-0.910026 0.000000 -0.233248 
-0.915778 0.000000 -0.235386 
-0.921580 0.000000 -0.237382 
-0.927429 0.000000 -0.239235 
-0.933322 0.000000 -0.240944 
-0.939255 0.000000 -0.242508 
-0.945225 0.000000 -0.243926 
-0.951227 0.000000 -0.245196 
-0.957260 0.000000 -0.246319 
-0.963317 0.000000 -0.247294 
-0.969397 0.000000 -0.248120 
-0.975496 0.000000 -0.248796 
-0.981609 0.000000 -0.249323 
-0.987733 0.000000 -0.249699 
-0.993865 0.000000 -0.249925 
-1.000000 0.000000 -0.250000 
-1.006135 0.000000 -0.249925 
-1.012267 0.000000 -0.249699 
-1.018391 0.000000 -0.249323 
-1.024504 0.000000 -0.248796 
-1.030603 0.000000 -0.248120 
-1.036683 0.000000 -0.247294 
-1.042740 0.000000 -0.246319 
-1.048773 0.000000 -0.245196 
-1.054775 0.000000 -0.243926 
-1.060745 0.000000 -0.242508 
-1.066678 0.000000 -0.240944 
-1.072571 0.000000 -0.239235 
-1.078420 0.000000 -0.237382 
-1.084222 0.000000 -0.235386 
-1.089974 0.000000 -0.233248 
-1.095671 0.000000 -0.230970 
-1.101310 0.000000 -0.228552 
-1.106889 0.000000 -0.225997 
-1.112403 0.000000 -0.223306 
-1.117849 0.000000 -0.220480 
-1.123224 0.000000 -0.217522 
-1.128526 0.000000 -0.214432 
-1.133749 0.000000 -0.211213 
-1.138893 0.000000 -0.207867 
-1.143952 0.000000 -0.204396 
-1.148925 0.000000 -0.200802 
-1.153808 0.000000 -0.197087 
-1.158598 0.000000 -0.193253 
-1.163293 0.000000 -0.189302 
-1.167890 0.000000 -0.185238 
-1.172385 0.000000 -0.181062 
-1.176777 0.000000 -0.176777 
-1.181062 0.000000 -0.172385 
-1.185238 0.000000 -0.167890 
-1.189302 0.000000 -0.163293 
-1.193253 0.000000 -0.158598 
-1.197087 0.000000 -0.153808 
-1.200802 0.000000 -0.148925 
-1.204396 0.000000 -0.143952 
-1.207867 0.000000 -0.138893 
-1.211213 0.000000 -0.133749 
-1.214432 0.000000 -0.128526 
-1.217522 0.000000 -0.123225 
-1.220480 0.000000 -0.117849 
-1.223306 0.000000 -0.112403 
-1.225997 0.000000 -0.106889 
-1.228552 0.000000 -0.101310 
-1.230970 0.000000 -0.095671 
-1.233248 0.000000 -0.089974 
-1.235386 0.000000 -0.084222 
-1.237382 0.000000 -0.078420 
-1.239235 0.000000 -0.072571 
-1.240944 0.000000 -0.066678 
-1.242508 0.000000 -0.060745 
-1.243926 0.000000 -0.054775 
-1.245196 0.000000 -0.048773 
-1.246319 0.000000 -0.042740 
-1.247294 0.000000 -0.036683 
-1.248120 0.000000 -0.030603 
-1.248796 0.000000 -0.024504 
-1.249323 0.000000 -0.018391 
-1.249699 0.000000 -0.012267 
-1.249925 0.000000 -0.006135 
-0.883884 -0.883883 0.000000 
-0.883830 -0.883830 0.006135 
-0.883671 -0.883670 0.012267 
-0.883405 -0.883404 0.018391 
-0.883033 -0.883032 0.024504 
-0.882554 -0.882554 0.030603 
-0.881970 -0.881970 0.036683 
-0.881281 -0.881281 0.042740 
-0.880487 -0.880487 0.048773 
-0.879588 -0.879588 0.054775 
-0.878586 -0.878585 0.060745 
-0.877480 -0.877480 0.066678 
-0.876272 -0.876271 0.072571 
-0.874961 -0.874961 0.078420 
-0.873550 -0.873550 0.084222 
-0.872038 -0.872038 0.089974 
-0.870427 -0.870427 0.095671 
-0.868718 -0.868718 0.101310 
-0.866911 -0.866911 0.106889 
-0.865008 -0.865008 0.112403 
-0.863010 -0.863010 0.117849 
-0.860918 -0.860918 0.123225 
-0.858733 -0.858733 0.128526 
-0.856457 -0.856457 0.133749 
-0.854091 -0.854091 0.138893 
-0.851637 -0.851637 0.143952 
-0.849095 -0.849095 0.148925 
-0.846468 -0.846468 0.153808 
-0.843757 -0.843757 0.158598 
-0.840964 -0.840963 0.163293 
-0.838090 -0.838089 0.167890 
-0.835137 -0.835137 0.172385 
-0.832107 -0.832107 0.176777 
-0.829002 -0.829001 0.181062 
-0.825823 -0.825823 0.185238 
-0.822573 -0.822572 0.189302 
-0.819253 -0.819252 0.193253 
-0.815866 -0.815865 0.197087 
-0.812413 -0.812412 0.200802 
-0.808896 -0.808896 0.204396 
-0.805319 -0.805318 0.207867 
-0.801682 -0.801682 0.211213 
-0.797988 -0.797988 0.214432 
-0.794240 -0.794239 0.217522 
-0.790439 -0.790439 0.220480 
-0.786588 -0.786587 0.223306 
-0.782689 -0.782688 0.225997 
-0.778744 -0.778744 0.228552 
-0.774756 -0.774756 0.230970 
-0.770728 -0.770728 0.233248 
-0.766661 -0.766661 0.235386 
-0.762559 -0.762558 0.237382 
-0.758422 -0.758422 0.239235 
-0.754256 -0.754255 0.240944 
-0.750060 -0.750060 0.242508 
-0.745839 -0.745839 0.243926 
-0.741594 -0.741594 0.245196 
-0.737329 -0.737329 0.246319 
-0.733045 -0.733045 0.247294 
-0.728746 -0.728746 0.248120 
-0.724434 -0.724434 0.248796 
-0.720111 -0.720111 0.249323 
-0.715781 -0.715781 0.249699 
-0.711445 -0.711445 0.249925 
-0.707107 -0.707107 0.250000 
-0.702769 -0.702768 0.249925 
-0.698433 -0.698433 0.249699 
-0.694102 -0.694102 0.249323 
-0.689780 -0.689779 0.248796 
-0.685468 -0.685467 0.248120 
-0.681168 -0.681168 0.247294 
-0.676885 -0.676885 0.246319 
-0.672620 -0.672619 0.245196 
-0.668375 -0.668375 0.243926 
-0.664154 -0.664153 0.242508 
-0.659958 -0.659958 0.240944 
-0.655791 -0.655791 0.239235 
-0.651655 -0.651655 0.237382 
-0.647553 -0.647552 0.235386 
-0.643486 -0.643486 0.233248 
-0.639457 -0.639457 0.230970 
-0.635470 -0.635469 0.228552 
-0.631525 -0.631525 0.225997 
-0.627626 -0.627626 0.223306 
-0.623775 -0.623775 0.220480 
-0.619974 -0.619974 0.217522 
-0.616226 -0.616225 0.214432 
-0.612532 -0.612531 0.211213 
-0.608895 -0.608895 0.207867 
-0.605317 -0.605317 0.204396 
-0.601801 -0.601801 0.200802 
-0.598348 -0.598348 0.197087 
-0.594961 -0.594961 0.193253 
-0.591641 -0.591641 0.189302 
-0.588391 -0.588391 0.185238 
-0.585212 -0.585212 0.181062 
-0.582107 -0.582107 0.176777 
-0.579077 -0.579077 0.172385 
-0.576124 -0.576124 0.167890 
-0.573250 -0.573250 0.163293 
-0.570457 -0.570456 0.158598 
-0.567746 -0.567745 0.153808 
-0.565119 -0.565118 0.148925 
-0.562577 -0.562577 0.143952 
-0.560122 -0.560122 0.138893 
-0.557756 -0.557756 0.133749 
-0.555480 -0.555480 0.128526 
-0.553296 -0.553296 0.123225 
-0.551204 -0.551203 0.117849 
-0.549206 -0.549205 0.112403 
-0.547303 -0.547302 0.106889 
-0.545496 -0.545496 0.101310 
-0.543787 -0.543786 0.095671 
-0.542176 -0.542175 0.089974 
-0.540664 -0.540664 0.084222 
-0.539252 -0.539252 0.078420 
-0.537942 -0.537942 0.072571 
-0.536734 -0.536734 0.066678 
-0.535628 -0.535628 0.060745 
-0.534626 -0.534625 0.054775 
-0.533727 -0.533727 0.048773 
-0.532933 -0.532933 0.042740 
-0.532244 -0.532243 0.036683 
-0.531660 -0.531659 0.030603 
-0.531181 -0.531181 0.024504 
-0.530809 -0.530809 0.018391 
-0.530543 -0.530543 0.012267 
-0.530383 -0.530383 0.006135 
-0.530383 -0.530383 -0.006135 
-0.530543 -0.530543 -0.012267 
-0.530809 -0.530809 -0.018391 
-0.531181 -0.531181 -0.024504 
-0.531660 -0.531659 -0.030603 
-0.532244 -0.532243 -0.036683 
-0.532933 -0.532933 -0.042740 
-0.533727 -0.533727 -0.048773 
-0.534626 -0.534625 -0.054775 
-0.535628 -0.535628 -0.060745 
-0.536734 -0.536734 -0.066678 
-0.537942 -0.537942 -0.072571 
-0.539252 -0.539252 -0.078420 
-0.540664 -0.540664 -0.084222 
-0.542176 -0.542175 -0.089974 
-0.543787 -0.543786 -0.095671 
-0.545496 -0.545496 -0.101310 
-0.547303 -0.547302 -0.106889 
-0.549206 -0.549205 -0.112403 
-0.551204 -0.551203 -0.117849 
-0.553296 -0.553296 -0.123225 
-0.555480 -0.555480 -0.128526 
-0.557756 -0.557756 -0.133749 
-0.560122 -0.560122 -0.138893 
-0.562577 -0.562577 -0.143952 
-0.565119 -0.565118 -0.148925 
-0.567746 -0.567745 -0.153808 
-0.570457 -0.570456 -0.158598 
-0.573250 -0.573250 -0.163293 
-0.576124 -0.576124 -0.167890 
-0.579077 -0.579077 -0.172385 
-0.582107 -0.582107 -0.176777 
-0.585212 -0.585212 -0.181062 
-0.588391 -0.588391 -0.185238 
-0.591641 -0.591641 -0.189302 
-0.594961 -0.594961 -0.193253 
-0.598348 -0.598348 -0.197087 
-0.601801 -0.601801 -0.200802 
-0.605317 -0.605317 -0.204396 
-0.608895 -0.608895 -0.207867 
-0.612532 -0.612531 -0.211213 
-0.616226 -0.616225 -0.214432 
-0.619974 -0.619974 -0.217522 
-0.623775 -0.623775 -0.220480 
-0.627626 -0.627626 -0.223306 
-0.631525 -0.631525 -0.225997 
-0.635470 -0.635469 -0.228552 
-0.639457 -0.639457 -0.230970 
-0.643486 -0.643486 -0.233248 
-0.647553 -0.647552 -0.235386 
-0.651655 -0.651655 -0.237382 
-0.655791 -0.655791 -0.239235 
-0.659958 -0.659958 -0.240944 
-0.664154 -0.664153 -0.242508 
-0.668375 -0.668375 -0.243926 
-0.672620 -0.672619 -0.245196 
-0.676885 -0.676885 -0.246319 
-0.681168 -0.681168 -0.247294 
-0.685468 -0.685467 -0.248120 
-0.689780 -0.689779 -0.248796 
-0.694102 -0.694102 -0.249323 
-0.698433 -0.698433 -0.249699 
-0.702769 -0.702768 -0.249925 
-0.707107 -0.707107 -0.250000 
-0.711445 -0.711445 -0.249925 
-0.715781 -0.715781 -0.249699 
-0.720111 -0.720111 -0.249323 
-0.724434 -0.724434 -0.248796 
-0.728746 -0.728746 -0.248120 
-0.733045 -0.733045 -0.247294 
-0.737329 -0.737329 -0.246319 
-0.741594 -0.741594 -0.245196 
-0.745839 -0.745839 -0.243926 
-0.750060 -0.750060 -0.242508 
-0.754256 -0.754255 -0.240944 
-0.758422 -0.758422 -0.239235 
-0.762559 -0.762558 -0.237382 
-0.766661 -0.766661 -0.235386 
-0.770728 -0.770728 -0.233248 
-0.774756 -0.774756 -0.230970 
-0.778744 -0.778744 -0.228552 
-0.782689 -0.782688 -0.225997 
-0.786588 -0.786587 -0.223306 
-0.790439 -0.790439 -0.220480 
-0.794240 -0.794239 -0.217522 
-0.797988 -0.797988 -0.214432 
-0.801682 -0.801682 -0.211213 
-0.805319 -0.805318 -0.207867 
-0.808896 -0.808896 -0.204396 
-0.812413 -0.812412 -0.200802 
-0.815866 -0.815865 -0.197087 
-0.819253 -0.819252 -0.193253 
-0.822573 -0.822572 -0.189302 
-0.825823 -0.825823 -0.185238 
-0.829002 -0.829001 -0.181062 
-0.832107 -0.832107 -0.176777 
-0.835137 -0.835137 -0.172385 
-0.838090 -0.838089 -0.167890 
-0.840964 -0.840963 -0.163293 
-0.843757 -0.843757 -0.158598 
-0.846468 -0.846468 -0.153808 
-0.849095 -0.849095 -0.148925 
-0.851637 -0.851637 -0.143952 
-0.854091 -0.854091 -0.138893 
-0.856457 -0.856457 -0.133749 
-0.858733 -0.858733 -0.128526 
-0.860918 -0.860918 -0.123225 
-0.863010 -0.863010 -0.117849 
-0.865008 -0.865008 -0.112403 
-0.866911 -0.866911 -0.106889 
-0.868718 -0.868718 -0.101310 
-0.870427 -0.870427 -0.095671 
-0.872038 -0.872038 -0.089974 
-0.873550 -0.873550 -0.084222 
-0.874961 -0.874961 -0.078420 
-0.876272 -0.876271 -0.072571 
-0.877480 -0.877480 -0.066678 
-0.878586 -0.878585 -0.060745 
-0.879588 -0.879588 -0.054775 
-0.880487 -0.880487 -0.048773 
-0.881281 -0.881281 -0.042740 
-0.881970 -0.881970 -0.036683 
-0.882554 -0.882554 -0.030603 
-0.883033 -0.883032 -0.024504 
-0.883405 -0.883404 -0.018391 
-0.883671 -0.883670 -0.012267 
-0.883830 -0.883830 -0.006135 
0.000000 -1.249925 0.006135 
0.000000 -1.249699 0.012267 
0.000000 -1.249323 0.018391 
0.000000 -1.248796 0.024504 
0.000000 -1.248120 0.030603 
0.000000 -1.247294 0.036683 
0.000000 -1.246319 0.042740 
0.000000 -1.245196 0.048773 
0.000000 -1.243926 0.054775 
0.000000 -1.242508 0.060745 
0.000000 -1.240944 0.066678 
0.000000 -1.239235 0.072571 
0.000000 -1.237382 0.078420 
0.000000 -1.235386 0.084222 
0.000000 -1.233248 0.089974 
0.000000 -1.230970 0.095671 
0.000000 -1.228552 0.101310 
0.000000 -1.225997 0.106889 
0.000000 -1.223306 0.112403 
0.000000 -1.220480 0.117849 
0.000000 -1.217522 0.123225 
0.000000 -1.214432 0.128526 
0.000000 -1.211213 0.133749 
0.000000 -1.207867 0.138893 
0.000000 -1.204396 0.143952 
0.000000 -1.200802 0.148925 
0.000000 -1.197087 0.153808 
0.000000 -1.193253 0.158598 
0.000000 -1.189302 0.163293 
0.000000 -1.185238 0.167890 
0.000000 -1.181062 0.172385 
0.000000 -1.176777 0.176777 
0.000000 -1.172385 0.181062 
0.000000 -1.167890 0.185238 
0.000000 -1.163293 0.189302 
0.000000 -1.158598 0.193253 
0.000000 -1.153808 0.197087 
0.000000 -1.148925 0.200802 
0.000000 -1.143952 0.204396 
0.000000 -1.138893 0.207867 
0.000000 -1.133749 0.211213 
0.000000 -1.128526 0.214432 
0.000000 -1.123224 0.217522 
0.000000 -1.117849 0.220480 
0.000000 -1.112403 0.223306 
0.000000 -1.106889 0.225997 
0.000000 -1.101310 0.228552 
0.000000 -1.095671 0.230970 
0.000000 -1.089974 0.233248 
0.000000 -1.084222 0.235386 
0.000000 -1.078420 0.237382 
0.000000 -1.072571 0.239235 
0.000000 -1.066678 0.240944 
0.000000 -1.060745 0.242508 
0.000000 -1.054775 0.243926 
0.000000 -1.048773 0.245196 
0.000000 -1.042740 0.246319 
0.000000 -1.036683 0.247294 
0.000000 -1.030603 0.248120 
0.000000 -1.024504 0.248796 
0.000000 -1.018391 0.249323 
0.000000 -1.012267 0.249699 
0.000000 -1.006135 0.249925 
0.000000 -1.000000 0.250000 
0.000000 -0.993865 0.249925 
0.000000 -0.987733 0.249699 
0.000000 -0.981609 0.249323 
0.000000 -0.975496 0.248796 
0.000000 -0.969397 0.248120 
0.000000 -0.963317 0.247294 
0.000000 -0.957260 0.246319 
0.000000 -0.951227 0.245196 
0.000000 -0.945225 0.243926 
0.000000 -0.939255 0.242508 
0.000000 -0.933322 0.240944 
0.000000 -0.927429 0.239235 
0.000000 -0.921580 0.237382 
0.000000 -0.915778 0.235386 
0.000000 -0.910026 0.233248 
0.000000 -0.904329 0.230970 
0.000000 -0.898690 0.228552 
