ply
format ascii 1.0
element vertex 834
property float x
property float y
property float z
property float nx
property float ny
property float nz
element face 0
property list uchar int vertex_index
end_header
0 0.0705681 0.285189 -0.200843 -0.734279 0.648457
0.198814 -0.0370246 0.146892 0.281501 -0.397708 0.873262
-0.120608 0.038422 -0.0487194 0.596076 -0.212688 0.774246
-0.137845 0.0790471 0.0515101 -0.236102 0.89506 -0.378316
-0.104059 0.024663 0.454585 0.332987 0.908771 0.251504
0.108083 0.0422765 0.333049 0.294789 -0.771637 0.563627
-0.145432 0.0348538 0.17344 -0.580992 -0.813903 0.00322159
-0.100065 -0.0513553 -0.376324 -0.844671 0.396443 0.359672
0.118028 0.041112 -0.196005 -0.412042 0.118122 -0.903476
-0.0570634 0.0360556 -0.0710706 -0.302901 -0.0690539 0.950517
-0.143935 0.0406761 -0.037896 -0.256639 -0.103844 0.960913
-0.185207 -0.0280749 0.0870776 0.151973 0.0850954 -0.984715
-0.197749 -0.0465035 0.141781 -0.313535 -0.41342 0.854857
-0.12704 0.0837445 0.234926 -0.387251 0.909791 0.149385
0 -0.0333746 0.458089 -0.0155168 -0.957925 -0.2866
0.0297881 -0.053885 -0.390491 -0.0526337 0.969572 0.23908
0.10051 -0.114304 0.420915 0.101308 0.660803 -0.743691
-0.195017 0.00943397 0.157358 0.0810556 0.954653 0.286474
-0.0107777 0.00224776 0.4657 -0.347029 -0.831051 0.434656
0.153562 0.0184114 0.377046 -0.95082 0.289644 0.109765
-0.138043 0.0422765 0.298919 -0.978528 0.00519867 0.20605
0 0.109096 0.14472 -0.637271 0.437481 -0.634426
-0.197302 0.008102 0.377393 0 0 1
-0.119709 0.0430359 -0.111513 0.902391 -0.138275 0.408131
-0.201072 -0.0636844 -0.144449 -0.175583 -0.0471355 0.983335
-0.0979883 0.0383065 -0.179825 0.933242 -0.195416 0.301449
0.127176 0.047811 0.373671 0.244485 -0.212994 0.945971
0.198886 -0.0478215 -0.214828 -0.0339031 -0.109482 -0.99341
0.145661 0.0389246 0.0549018 0.346625 -0.889625 -0.297351
0.126512 0.0436285 -0.159499 0.526508 0.806634 0.268571
-0.0654137 0.0230013 0.461838 -0.0289207 0.999542 -0.00894745
-0.124815 0.0579714 0.342073 -0.151017 0.954079 0.258703
-0.134924 0.0446873 -0.119356 -0.990559 0.0770835 -0.113365
-0.203013 -0.046348 -0.1444 -0.206073 0.00206375 0.978534
0.046736 0.0361698 -0.242797 0.997993 0.0417393 -0.0476162
0.145915 0.0430424 -0.0587156 0.992294 0.121516 0.0242284
0.131525 0.0444581 -0.136117 0.746677 0.184016 0.639228
0.191319 -0.114664 -0.152598 -0.146169 -0.914684 0.376814
0 0.0252198 0.443547 0.00555044 0.571145 -0.82083
0.0540003 0.114808 0.176192 0.0467177 0.992606 0.112031
-0.131507 -0.0925388 0.4173 -0.210657 0.895624 0.391766
-0.189777 0.0094291 0.12317 0.0753157 0.995153 0.0632261
-0.153562 0.0184114 0.377046 -0.688018 -0.701464 -0.185958
-0.192321 -0.110837 -0.144547 0.138852 -0.763856 0.630273
-0.143045 0.0424348 -0.0508215 -0.857462 0.0955567 0.505596
0.0183078 0.0365794 -0.0784809 -0.978073 0 -0.208263
0.0967395 0.0935069 0.0727358 0.016355 0.729781 -0.683485
-0.203883 0.0259256 -0.119528 0.122813 0.566304 0.814995
-0.101608 0.03321 -0.258191 -0.943469 0.158972 -0.290849
-0.0695481 0.0422765 0.351617 0.966907 -0.0688899 0.245651
-0.203955 0.023391 -0.144133 -0.0443857 0.739825 0.671333
0.191599 0.0109491 0.046226 0 0 1
-0.208158 -0.0165944 -0.0389559 -0.0892385 -0.942036 -0.323427
0 -0.115093 -0.410194 0.438582 0.896765 0.0588043
0 0.0226286 0.454462 0.00224188 0.818324 -0.574753
0.200652 0.0194588 0.279013 0.464948 0.382339 -0.798524
0.0459742 0.115088 0.17617 -0.010122 0.971467 0.236958
0 0.0822191 0.25782 0.187332 -0.667841 0.720344
-0.0455504 0.080764 0.292918 0.333131 -0.143699 0.931866
0 0.00874908 -0.365942 -0.363047 0.517363 -0.774941
0.136389 0.0164948 -0.308893 -0.876128 0.157313 -0.455689
0.204902 -0.00714606 -0.144264 0.36769 0.00644408 0.929926
0.199343 0.0205097 0.231619 -0.242638 -0.0427247 -0.969176
0.204914 -0.0520624 -0.0380425 0 -1 0
0.15349 -0.114393 0.391208 0.718519 -0.258701 -0.645604
0.146094 0.0570596 -0.000819229 -0.162557 0.880145 -0.446005
0.183893 -0.115031 0.184789 0 0 -1
0.134132 0.0162811 -0.311203 -0.881838 0.140917 -0.450005
0.189 -0.109794 -0.0364531 -0.19736 -0.897703 -0.393926
-0.069923 0.010364 -0.356445 -0.202873 -0.231108 -0.951542
-0.147312 0.0309941 0.244562 -0.573277 -0.81771 0.0520022
0.131847 0.0374765 0.404884 -0.206952 0.384176 -0.899766
0 0.100512 0.0694826 -0.205256 0.955343 -0.21258
0.00350353 0.0418822 -0.215673 -0.626289 0.483473 0.611568
0.145598 0.058734 0.0029424 -0.0339593 0.91036 -0.412422
-0.196914 -0.0895176 -0.144509 -0.0654725 -0.189361 0.979722
0 0.036831 -0.21449 0.315711 -0.948839 -0.00553485
-0.125009 0.0755934 0.278037 -0.423943 0.877573 0.223915
-0.199569 -0.0193281 0.159071 -0.266523 -0.363105 0.892816
-0.150777 0.0243751 0.325062 -0.783408 -0.577534 -0.229623
0.127207 0.0842886 0.231313 0.467667 0.874719 0.127101
-0.18568 -0.0630788 0.0872108 0.111431 -0.0682756 -0.991424
-0.00696219 -0.0547696 -0.391871 -0.0734843 0.930108 0.35986
0.109816 -0.114217 0.416913 -0.922316 -0.261222 0.284773
-0.07138 0.0171447 -0.319252 -0.922438 -0.346636 -0.170153
0.204224 0.0198955 -0.0702114 -0.0435951 0.506345 -0.861229
-0.129078 0.0897157 0.184093 -0.627496 0.775518 0.0694312
0.106817 0.0125111 -0.338541 -0.706753 -0.365058 -0.605997
-0.0462204 0.107507 0.0959424 0.0903676 0.989542 -0.11243
0.140816 -0.0632944 0.424686 0.290775 0.916082 0.276124
-0.148395 0.0289733 0.272991 -0.610049 -0.785331 0.105332
0.0490037 0.0939305 0.0575941 0.154504 -0.185323 -0.970455
0.203989 0.0240109 -0.100997 -0.26588 0.75232 0.602762
0.188294 -0.114847 -0.195344 -0.135196 -0.987769 -0.0776878
-0.0557314 -0.0528009 -0.38725 0.244701 0.930354 0.273061
-0.0175136 0.0416755 -0.215673 0.244811 0.22769 -0.942457
-0.148869 0.0412659 -0.0255695 -0.330734 -0.18929 -0.924546
0.19877 0.00816697 0.359183 0.965555 -0.202406 0.163509
0.127343 0.015544 -0.318102 -0.794418 -0.0157527 -0.607167
-0.184751 -0.115085 0.273745 0.106267 -0.46008 -0.881495
0 0.0400587 -0.156356 0.998282 0.00862043 -0.0579489
0.0327456 0.0939465 0.0545713 0.214457 -0.270096 -0.938646
-0.0365259 0.114899 0.176152 0.0470538 0.994046 -0.0982804
-0.140048 0.0444303 -0.0924536 -0.981983 0.0808708 0.170792
0.0734639 0.038359 -0.215673 -0.11753 0.0446662 -0.992064
0.200909 0.0134108 -0.011358 0.884993 -0.155263 0.438953
-0.152254 0.0213073 0.353429 -0.739146 -0.644905 -0.194321
0.134257 0.0446655 -0.122712 0.945235 0.144606 0.29261
-0.185477 -0.0319646 0.0870988 0.131549 0.0548634 -0.98979
0.181741 -0.114604 0.0439554 -0.139355 -0.990207 0.00838084
0.0705029 0.0152531 -0.32931 -0.741301 -0.348073 -0.573863
-0.196697 0.00948484 0.170111 -0.0264049 0.574856 0.817829
-0.187868 0.0102912 0.064778 -0.700903 0 -0.713257
-0.154375 0.0165154 0.391205 -0.739513 -0.642811 -0.199788
0.19305 -0.0876401 -0.0163393 0.205943 0.976709 0.0602194
0.183026 -0.115089 0.311182 -0.0665723 -0.460536 0.885141
0.130904 0.0926183 0.0926745 0.501608 0.861366 -0.0802339
0.0559926 0.0397575 -0.215673 -0.819565 0.155086 -0.551599
-0.10265 0.0422765 0.336724 0.718863 -0.404993 0.564993
0 0.0199764 0.465375 0.00650899 0.827227 0.561831
0.0471833 0.0422765 0.357337 0.19779 -0.318858 0.926935
-0.0418664 0.0948933 0.0590218 -0.154835 -0.176173 -0.972105
-0.17316 0.007695 0.423653 -0.988803 -0.142952 -0.0428243
-0.0820566 0.00657565 0.45919 -0.0458394 -0.990386 -0.130518
-0.0983291 0.00739597 0.455926 0.26496 -0.960825 0.0813091
-0.185872 -0.039751 0.0871373 0.0501912 -0.00472791 -0.998728
0.0658954 0.113468 0.176238 0.147763 0.98894 0.0127859
0.140447 0.0427479 -0.0571538 0.933818 0.232846 0.271599
-0.185934 -0.0824743 0.118494 -0.0586889 -0.411189 0.909659
-0.124868 0.0422765 0.317581 0.0833799 -0.888671 0.4509
-0.0508007 0.0386198 -0.218512 0.991662 0.039482 -0.12267
-0.126517 -0.106966 0.412764 0.83272 -0.435221 0.342288
0.0483306 0.111244 0.114988 0.140284 0.982255 -0.124477
-0.0817115 -0.114541 0.428008 0.943024 -0.138682 0.302444
-0.0699602 0.0385996 -0.215673 -0.1466 0.264248 0.953248
-0.19375 0.00792285 0.396546 0.707867 -0.407099 0.57723
0 0.0312945 0.416228 -0.0216619 0.341682 -0.939566
0.146573 0.0553707 -0.0045876 -0.151756 0.892179 -0.425425
0.0740772 0.0234165 0.460607 -0.0429735 0.999039 -0.00865669
-0.125628 0.0786813 0.263703 -0.400154 0.900105 0.172302
-0.118247 0.014344 -0.327236 0.794064 -0.0141487 -0.607669
0.125376 0.0546375 0.352644 0.478258 0.181429 0.859275
0.0607536 0.0816611 0.292862 -0.036396 0.945208 0.324434
-0.189349 -0.114791 -0.183147 0.100248 -0.994694 -0.0230959
-0.203956 0.0246978 -0.10717 -0.123165 -0.914569 -0.38522
0.148869 0.0412659 -0.0255695 -0.843424 0.206602 -0.495935
0.192483 -0.114526 -0.109715 -0.54461 0.520246 -0.657832
-0.196136 0.00801393 0.387281 0 0 1
-0.0829164 0.0206979 -0.31896 -0.92937 0.173482 -0.325847
-0.184023 0.00120281 -0.307496 -0.804377 -0.201593 -0.558872
-0.208141 -0.0205443 -0.0388604 -0.200508 -0.916492 -0.346178
-0.187077 0.010166 0.0684636 -0.229425 -0.129732 -0.964642
0 0.0432107 -0.144598 0.984628 0.170416 -0.0382974
-0.00096569 -0.00152868 -0.37072 -0.327343 -0.615209 -0.717192
0.178709 -0.114923 0.119466 -0.151378 -0.756637 0.636071
-0.200633 -0.035257 -0.214571 -0.0785545 0.0354076 -0.996281
-0.188294 -0.114847 -0.195344 0.191168 -0.974683 -0.115963
-0.109961 0.0756039 0.293283 -0.136889 0.925626 0.352813
0.110704 0.0422765 0.33109 0.330467 -0.810363 0.483843
0.14148 -0.114208 0.4002 0.545668 -0.576282 -0.608396
-0.105397 0.0422765 0.334926 0.652516 -0.500936 0.568582
0.0673414 -0.114772 0.432419 -0.283189 -0.597843 -0.749926
0.198648 0.00959582 0.186358 0.109365 0.0699665 0.991536
-0.0429636 0.0987166 0.0680786 0.0118476 0.861987 -0.506792
0.186415 -0.114486 0.00705871 -0.0903328 -0.995893 0.00606765
0.0890667 0.0251547 -0.299945 0.873335 0.158576 -0.460586
0 0.0418909 -0.215673 0.0992565 0.990712 -0.0929451
-0.0910658 0.026536 -0.293569 -0.945937 0.127599 -0.298199
0.185872 -0.039751 0.0871373 -0.0734911 0.0154768 -0.997176
0 0.0948331 0.224614 0.536884 0.534297 0.652903
0.147832 0.0300229 0.258778 0.628961 -0.775056 -0.0608004
-0.0532028 0.113799 0.163613 0.025176 0.996463 -0.080177
0.0315022 0.0186871 -0.332622 0.961806 -0.0107819 -0.27352
0.0110733 -0.115976 0.440288 0.434135 -0.880692 -0.189494
0.12753 0.0853205 0.224078 0.466903 0.874485 0.131444
-0.199547 -0.0152399 0.1625 -0.282104 -0.36249 0.888267
-0.200267 0.0118702 0.321554 0.0514606 0.334313 0.941056
-0.179984 -0.115083 0.348509 -0.506821 0.206756 -0.83689
-0.203731 -0.0376545 -0.144373 -0.150472 0.0208969 0.988393
-0.144951 0.0368847 0.12127 -0.541824 -0.824696 -0.162183
0.197497 0.00952246 0.176566 0.0469808 0.538596 0.841253
-0.0575806 -0.114949 0.434873 0.931632 -0.0988216 0.34971
0.00631688 -0.115093 -0.410123 -0.199905 -0.342694 0.917932
0.183248 -0.00871116 0.0869618 -0.319292 0.355977 -0.878256
-0.126699 0.0825995 0.242141 -0.390236 0.908825 0.147485
0 -0.112218 0.441055 -0.769844 -0.615331 -0.169436
-0.127176 0.047811 0.373671 0.568909 0.770587 0.287294
0.0894339 0.0344416 -0.212732 0.448287 -0.682323 -0.577472
0 0.0402631 -0.141791 0.998653 -0.0455608 -0.0248246
-0.0167478 -0.0544082 -0.39143 -0.261267 0.887019 0.380705
0.0526358 -0.115046 0.435944 0.981491 -0.131139 -0.13956
0.195196 -0.090854 -0.0369695 0.23353 0.814685 -0.530804
0.00491652 0.0422765 0.362408 -0.785148 -0.151585 0.600471
-0.0323003 0.0362553 -0.0764236 0.04649 -0.174833 0.9835
-0.204657 -0.0202321 -0.144313 -0.145944 0.0664622 0.987058
0.111397 0.0132874 -0.334034 -0.963188 0 -0.26883
-0.195196 -0.090854 -0.0369695 -0.223287 0.551208 -0.803935
0.0551257 0.112062 0.185693 -0.0953131 0.965927 0.240625
-0.196768 -0.0603173 -0.215043 0.0788921 -0.0248575 -0.996573
0.147622 0.0173149 -0.29728 -0.799545 0.443569 0.404938
-0.0503616 0.113385 0.134308 0.0459339 0.996407 -0.0711521
0.0379517 0.0801472 0.292995 -0.16775 0.947519 0.272153
0 0.063658 -0.0291387 0.0838077 0.297599 0.951005
-0.0232705 -0.054151 -0.391013 -0.24919 0.919849 0.302957
-0.198822 0.00255602 0.181747 -0.104549 -0.199348 0.974336
-0.0606426 0.0836518 0.288339 0.158207 0.436041 0.885911
0.129155 0.04341 -0.0858169 0.95478 0.253227 -0.155793
0.0969106 0.0303694 -0.274335 0.909454 0.219235 -0.353311
0.0355366 0.0246987 -0.308907 0.979284 0.0283895 -0.20049
0.0518172 0.113998 0.148926 0.190811 0.978985 -0.0719763
-0.204849 0.00158152 -0.144229 -0.0697344 0.173859 0.982298
0.0350146 0.041042 -0.215673 0.328258 0.280731 0.901907
0.137175 0.0804872 0.0552422 0.240302 0.884959 -0.398877
0.115213 0.0425336 -0.124433 0.955121 0.15689 0.251255
-0.202801 0.0288036 -0.175144 0.00526842 0.999367 0.0351881
0.100619 0.0934339 0.0743597 0.0507667 0.814281 -0.578247
0.0770876 0.0937733 0.0654052 0.0401175 0.263791 -0.963745
0.125804 0.0922052 0.177233 0.526171 0.84628 0.0833882
0.187757 -0.0884666 0.0213913 0.0396864 0.998974 0.0218255
-0.200913 -0.0169808 0.293672 -0.00262159 -0.943056 -0.332623
-0.156541 0.017662 -0.287913 -0.672903 0.59317 0.441985
-0.0878761 0.0335631 -0.219338 -0.0584345 -0.631024 0.77356
0.1083 0.0439788 -0.215674 0.643531 0.582413 0.496652
-0.147832 0.0300229 0.258778 -0.59089 -0.804342 0.0623108
-0.145805 0.033968 0.19241 -0.598938 -0.800675 0.0138978
0.206715 -0.0402705 -0.038358 -0.0221017 -0.998157 0.056513
-0.197497 0.00952246 0.176566 -0.0209979 0.512098 0.85867
0.19156 -0.114442 -0.0605885 0.00824613 -0.576639 -0.816958
-0.157017 -0.115431 -0.331852 0.726843 0.685049 0.0490619
0.00410139 0.0939218 0.05211 0.121945 -0.332981 -0.935015
0.0105094 0.0418129 -0.215673 -0.45259 0.285252 0.844863
-0.207895 -0.00869572 -0.0391413 -0.222496 -0.838853 -0.49681
0.183604 -0.0855523 0.0790393 0.240759 0.887487 -0.392941
-0.0578354 0.040875 -0.175821 -0.970735 0.0498107 -0.234933
0.131627 0.0912988 0.0852433 0.521151 0.845209 -0.118419
-0.189405 0.0105475 0.0573838 0 0 -1
0.146319 0.0395933 0.0312165 -0.0246776 -0.999692 -0.00278551
0.192186 -0.114464 -0.0790221 0.0491298 -0.214472 -0.975494
-0.138161 0.0400332 -0.0406891 0.0353478 -0.124972 0.99153
-0.183893 -0.115031 0.184789 0 0 1
0.0699602 0.0385996 -0.215673 -0.249603 0.11464 -0.961538
-0.186057 -0.0514301 0.0871834 0.109272 -0.0425078 -0.993103
0.14748 0.0306787 0.249301 0.614622 -0.787034 -0.0530781
-0.201915 0.0286983 -0.193616 -0.0120543 0.994922 -0.0999272
-0.122367 -0.115352 -0.374129 -0.754704 0.59423 -0.278049
0.040619 0.0308048 -0.279001 0.988866 -0.00566269 -0.148701
-0.199097 0.0199501 0.226485 0 0 -1
-0.164649 0.00767666 0.42991 -0.992354 -0.0617619 0.106863
0.0707786 0.0158871 -0.325956 -0.866457 -0.184793 -0.463793
-0.175283 -0.114852 0.0915937 0.321687 -0.942539 -0.0902106
0.180835 -0.114631 0.0501023 -0.190647 -0.981445 0.0204662
0 -0.084196 -0.405001 0.0191262 -0.910197 -0.413734
-0.130904 0.0926183 0.0926745 -0.506845 0.858213 -0.0811108
0 0.106772 0.104067 -0.384281 0.790366 -0.477127
0.126896 -0.115367 -0.370093 -0.491672 -0.359194 -0.793245
-0.0797549 0.0182927 -0.328401 -0.913523 0.214584 -0.345586
0.0305364 0.021284 0.464861 0.596927 0.769672 0.226459
-0.00491642 0.0422765 0.362408 -0.951931 -0.0934472 0.291709
-0.126157 0.051244 0.363178 0.36619 0.892255 0.26417
0.129744 0.0912548 0.162183 0.604865 0.793805 0.0633381
0.124359 0.0433311 -0.0986403 0.962108 0.228132 -0.149347
-0.0781254 -0.0519536 -0.382705 -0.169812 0.916313 0.362678
-0.0624814 -0.114858 0.433697 0.909174 -0.0703913 0.410424
-0.0486574 0.115044 0.176177 -0.0344474 0.999373 -0.00818377
0.0568115 0.0422765 0.355121 0.214667 -0.412847 0.885142
-0.199183 -0.00398322 0.173643 -0.16642 -0.347877 0.922652
0.129426 0.0391692 -0.0447742 -0.0937826 -0.116821 0.988715
-0.124391 0.0703073 0.29948 -0.399332 0.881813 0.250878
0 0.105289 0.185111 0.693034 -0.264374 0.670679
-0.196156 -0.0621372 0.293414 -0.332307 0.937999 0.0986396
-0.102528 0.0337398 -0.25495 -0.942137 0.160931 -0.294074
-0.087592 0.0387959 -0.215673 0.204707 0.531663 0.821845
-0.169015 0.00768246 0.426863 -0.997877 -0.0646537 -0.00788454
0.18816 -0.088494 0.0179768 0.0291372 0.998952 0.03531
-0.0564479 -0.115154 -0.404894 -0.591423 0.677189 -0.43776
0 0.0365354 0.388825 -0.185968 -0.222175 0.957107
-0.148591 0.0286052 0.277727 -0.63655 -0.764236 0.103675
0.178914 -0.114691 0.0623927 -0.20427 -0.97523 0.0848534
-0.184881 -0.115084 0.269063 0.0611177 -0.397327 -0.91564
0.104523 0.0121019 -0.340786 0.585707 0.20564 -0.784002
0.169015 0.00768246 0.426863 0.591502 0.143204 0.793485
-0.127687 0.0858089 0.220456 -0.427519 0.893453 0.13773
-0.141681 0.0700243 0.0291362 0.0354433 0.857095 -0.513938
-0.148997 0.0278406 0.287199 -0.656592 -0.738725 0.152226
0.199019 0.00962514 0.189653 0 0.862681 0.505749
0.129314 0.0902931 0.176795 0.637085 0.767499 0.0711881
-0.00631688 -0.115093 -0.410123 -0.304391 0.904717 0.298049
0.101751 0.0395843 -0.166725 0.144189 -0.12577 -0.981525
-0.102747 0.0372581 -0.0561262 0.980027 -0.124964 0.154694
0.185078 -0.0708111 0.0872161 -0.0970588 -0.0495831 -0.994043
0 0.00171726 -0.369513 -0.246732 -0.374601 -0.893755
0.185176 -0.115067 0.226912 0.00425397 -0.0346374 0.999391
0.0579856 0.114492 0.176205 0.0852047 0.994729 0.0570405
-0.0446297 0.115093 0.176167 -0.0203587 0.99853 -0.0502405
0.0961783 0.0376078 -0.186388 0.528484 -0.187424 -0.827996
0.139606 0.0422765 0.296054 0.542577 0.206276 0.814285
0.1779 -0.114725 0.0685362 -0.181772 -0.978214 0.100279
-0.126809 0.0489585 0.370178 0.503534 0.817948 0.278235
0.203503 0.0280876 -0.150444 0.177595 0.930729 0.319693
-0.125073 0.015267 -0.320393 -0.433234 0.204481 0.877779
-0.0303524 0.0795119 0.29309 0.371193 -0.155781 0.915395
0.198077 -0.0500645 0.293458 -0.0577987 -0.997846 -0.0310353
-0.0864429 -0.114474 0.426358 0.944767 -0.0935988 0.314093
-0.116691 0.0250446 0.451114 0.471977 0.774692 0.420821
0.206703 0.00313906 -0.0394021 0.409387 -0.00129922 -0.91236
0.192477 -0.114498 -0.0974429 -0.20774 -0.78974 -0.577195
0.17634 -0.0198322 -0.331036 -0.0472233 -0.697272 -0.71525
0 0.102929 0.196499 0.711195 0.136038 0.689707
0.204242 0.0111369 -0.213221 0.397425 0.306389 -0.864974
-0.0645623 0.081686 0.292871 0.403416 0.080131 0.911501
-0.199537 0.0081221 0.342295 0.0673804 0.188597 0.97974
0.152981 -0.0185699 0.431041 -0.22796 -0.927341 0.296772
0.200633 -0.035257 -0.214571 0.0974511 -0.0433907 -0.994294
-0.0162156 0.00248007 0.465544 -0.465369 -0.849683 0.247933
0.17685 -0.11476 0.0746783 -0.270071 -0.958825 0.0878458
-0.184729 -0.0871567 0.0554004 -0.147044 0.985343 0.086471
-0.153891 -0.0148017 0.43129 -0.045649 -0.994999 0.0888467
0.196697 0.00948484 0.170111 0.0231791 0.581233 0.813407
0.145432 0.0348538 0.17344 0.566576 -0.823999 0.00415399
-0.079085 0.0271136 -0.262464 -0.851598 -0.523693 0.0229403
-0.0940168 0.0285108 -0.283972 -0.942992 0.182815 -0.278109
-0.0446015 0.103604 0.0818906 0.118094 0.986475 -0.113671
-0.0515071 -0.067286 -0.392748 -0.0207124 -0.933317 -0.358456
-0.0392745 0.0217074 0.46437 -0.40581 0.913242 0.0361505
0.0416383 0.0318445 -0.272988 0.984396 0.0821509 -0.155614
0.145606 0.0344223 0.182925 0.57335 -0.819251 0.00985475
-0.0966699 0.105205 0.176597 -0.280855 0.954903 0.0963359
-0.145897 0.0391929 0.0454262 -0.280742 -0.908608 -0.309218
0.115944 0.093065 0.081337 0.167226 0.931839 -0.322042
0.188169 -0.081459 0.128005 0.0381852 -0.350932 0.935622
0.135814 0.0833101 0.0627147 0.311899 0.892922 -0.324669
-0.176533 -0.1153 -0.280254 -0.718637 0.671513 0.180641
0.195447 0.00944371 0.160527 -0.0524174 0.895086 0.442802
0.153031 0.0196084 0.367602 -0.959058 0.249963 0.133139
-0.140816 -0.0632944 0.424686 -0.775896 0.618201 -0.125754
-0.190114 0.0144636 -0.283432 0.618197 -0.65197 0.439052
-0.135627 0.0318602 0.42203 0.46279 0.853942 0.237923
-0.203613 0.0277638 -0.144262 0.0155422 0.82287 0.568017
-0.195199 -0.098071 -0.144526 -0.0451535 -0.439011 0.897346
0.132531 0.0363411 0.408325 -0.235963 0.487467 -0.840653
-0.145119 -0.048493 0.427468 0.133959 0.712097 0.689183
-0.126524 0.0819981 0.245743 -0.399885 0.904926 0.145609
0.0570034 0.108244 0.210161 -0.143629 0.957526 0.25003
0.196288 0.0094691 0.166903 0.0091091 0.680515 0.732678
-0.141269 0.0442471 -0.0857144 -0.921067 0.0342745 -0.387894
-0.140893 0.0168731 -0.304261 -0.65416 0.0966072 0.750162
-0.145161 0.0380968 0.0833383 -0.531156 -0.811292 -0.24429
0.19835 -0.041722 0.144251 0.295055 -0.406382 0.864752
-0.200689 0.01878 0.284349 -0.0274887 0.576651 -0.816528
0.116322 0.0426781 -0.121198 0.95469 0.281071 0.0978072
-0.204077 0.00691136 -0.213373 -0.155053 0.214199 -0.964405
-0.184248 -0.115087 0.28779 0.175722 -0.976805 0.122369
-0.0355561 -0.0677892 -0.394694 -0.0707147 -0.951694 -0.298795
0.127246 0.0437836 -0.156165 0.61241 0.662394 0.431496
-0.145782 0.0365958 0.0868053 -0.508044 -0.824886 -0.2479
-0.145218 0.0354614 0.159212 -0.575881 -0.816801 -0.0346092
0.145223 0.0382383 0.078598 0.509632 -0.813094 -0.281341
-0.0518129 0.0390972 -0.212426 -0.923304 -0.153879 -0.351897
0.042658 0.0328252 -0.266967 0.991196 0.0417342 -0.125656
-0.201045 -0.0127577 0.293711 0.101716 -0.899465 -0.424991
0.0265244 0.00969839 -0.361958 0.841749 0.0139012 -0.539689
-0.149857 0.0261922 0.306135 -0.762672 -0.643064 -0.069283
0.17316 0.007695 0.423653 0.678399 0.0910154 0.729034
0.185477 -0.0319646 0.0870988 -0.0940057 0.084628 -0.991968
-0.20337 0.0283548 -0.156624 0.0378642 0.968774 0.245039
0.0651211 0.0938662 0.0616861 0.0588566 -0.0222664 -0.998018
-0.198319 0.0117987 0.197116 0.0208744 -0.106082 -0.994138
0.129413 0.0441755 -0.146151 0.701253 0.449013 0.553743
-0.0731119 0.0938092 0.0641062 0.00683624 0.199213 -0.979932
0.107832 -0.115302 -0.385033 0.689109 -0.254214 0.678604
-0.0449505 0.0939382 0.0567349 -0.143359 -0.198411 -0.969578
0.135125 0.0846923 0.0664563 0.367768 0.889853 -0.270017
-0.203211 0.0285639 -0.162802 0.0115366 0.989961 0.140871
0.143447 0.0652809 0.0179335 -0.107418 0.850252 -0.515299
0.145161 0.0380968 0.0833383 0.518869 -0.811847 -0.267728
-0.0629783 0.0392077 -0.215673 -0.159686 0.283366 0.945624
-0.1779 -0.114725 0.0685362 0.267719 -0.958069 0.102129
-0.0978626 0.0309632 -0.271114 -0.938631 0.199565 -0.281327
0.204026 -0.0333028 -0.144359 0.265804 -0.148072 0.952587
0 0.0976427 0.0580795 -0.107299 0.9186 -0.380342
0.0980971 0.0406766 -0.215673 0.087019 0.537084 0.839028
0.188557 -0.0933891 0.293364 0.243748 0.946467 -0.211632
0 0.0586457 -0.0396478 0.141948 0.41653 0.897972
0 0.0383933 0.377834 -0.0828246 -0.0614759 0.994666
0.198646 0.00549826 0.185989 0.0719511 0.231777 0.970104
0.0122991 0.0939307 0.0524258 0.163011 -0.273634 -0.94792
0.0797549 0.0182927 -0.328401 0.612078 0.0251227 -0.790398
-0.126166 0.0807369 0.252936 -0.377328 0.912385 0.158675
0.200105 0.0106496 0.326807 0.978076 0.12809 0.164195
0 -0.00833193 0.462062 -0.00211267 -0.997805 0.0661875
0 0.108014 0.115673 -0.456807 0.748993 -0.479934
0 -0.0112716 -0.375846 -0.0358684 -0.708738 -0.70456
-0.17969 -0.114943 0.128776 0.0536856 -0.741547 0.66875
0.111713 0.0377865 -0.0525088 -0.199924 -0.141754 0.969503
0.104125 0.102373 0.176746 0.316201 0.946333 0.0668678
0.0163953 0.0939352 0.0527027 0.160582 -0.380206 -0.910855
0.0570634 0.0360556 -0.0710706 -0.993705 0.0700549 -0.0874232
-0.0598176 0.0410686 -0.163594 -0.976805 0.0226751 -0.212927
0.111599 0.0454094 -0.215674 0.595473 0.639234 0.486613
0.1151 0.0975942 0.176988 0.35431 0.931561 0.081599
-0.146276 0.0329848 0.211378 -0.54001 -0.841311 0.0241753
-0.0564715 0.109588 0.202837 -0.220289 0.954644 0.20032
0.199238 0.0128433 0.000457824 0.816717 -0.263345 0.513443
0.0522874 0.11402 0.153816 0.190963 0.979565 -0.0631293
0.141871 0.0441377 -0.0823429 0.965603 0.0689852 -0.250704
0 -0.110482 -0.412801 0.253358 -0.587708 0.768381
0.0136384 0.0367176 -0.0790015 0.976108 -0.175504 0.128106
0.0396002 0.0297055 -0.285003 0.985772 0.0329292 -0.164829
0.158193 0.00412278 0.431845 0.484463 0.0121825 0.874727
0.0419353 0.11507 0.176161 -0.0128962 0.965441 0.260302
0 0.0330019 -0.249198 -0.988265 -0.115043 0.100482
-0.200702 0.0180116 0.289687 0.0242753 0.682596 -0.730392
0.0558393 0.0404852 -0.188037 -0.997508 0.0335626 0.0620541
0 -0.0231864 -0.381354 -0.120519 -0.856158 -0.502462
0 0.0435723 0.355944 -0.974822 -0.102476 0.198042
0.182725 -0.115089 0.315857 -0.113059 -0.371774 0.921413
-0.183444 -0.114557 0.0316589 0.125297 -0.99207 -0.00992406
-0.146573 0.0553707 -0.0045876 0.0155838 0.500248 -0.865742
-0.0637322 0.0408876 -0.139126 -0.988784 0.0148894 -0.148608
-0.181132 0.00660394 0.0868678 0.348411 0.632818 -0.691485
-0.189075 0.00943884 0.119095 -0.0306574 0.999509 -0.00641575
-0.129454 0.0420563 0.391064 0.690697 0.643188 0.330524
-0.196256 0.0119885 0.0197877 0.282264 -0.238016 0.929341
0.0919404 -0.115249 -0.393944 0.195697 0.76577 -0.612616
-0.0776152 0.0166234 -0.33467 -0.876049 0.215314 -0.431484
0.0970772 0.037962 -0.183105 0.514051 -0.137791 -0.84662
-0.141068 0.0715721 0.0328661 0.0403953 0.851695 -0.522479
0 0.0387359 -0.0835257 0.956654 0.0270506 0.289969
-0.0174313 0.0206814 0.465298 -0.156153 0.9185 0.363282
0.0536086 0.0422765 0.355899 0.200462 -0.422203 0.884059
-0.034906 0.0214941 0.464636 -0.399715 0.901644 0.165122
0.151015 0.0238931 0.329791 -0.951643 0.306219 0.0245952
0 0.0547092 0.32328 -0.940674 -0.296869 0.164322
-0.0928419 0.0935729 0.0711627 0.0116028 0.726062 -0.687531
-0.0488468 0.111925 0.119796 0.0514782 0.995423 -0.0805123
0.128827 0.0890722 0.191383 0.586764 0.805474 0.0831875
-0.0918682 0.035696 -0.202837 0.946898 -0.308071 0.0920707
-0.17634 -0.0198322 -0.331036 0.571584 0.809744 0.132689
0.182404 -0.115089 0.320531 -0.0662092 -0.29406 0.953491
0.176506 -0.114877 0.100874 -0.247374 -0.967667 -0.0492569
-0.179737 -0.115198 -0.262141 0.60917 0.78844 0.0852838
-0.185153 -0.11508 0.255013 0.116986 -0.265374 -0.957022
-0.204622 0.0103085 -0.144192 -0.132773 0.395702 0.908731
0.197749 -0.0465035 0.141781 0.355682 -0.415676 0.83708
0.140662 0.0443446 -0.0890845 0.927014 0.129166 -0.35208
0.0502224 -0.115141 -0.405962 0.980727 0.0923331 0.172189
-0.145223 0.0382383 0.078598 -0.505168 -0.823564 -0.257969
0.140893 0.0168731 -0.304261 -0.930311 0.289695 -0.22494
0.177056 0.00771386 0.420279 0.763768 -0.0404108 0.644225
-0.183851 -0.0860018 0.072312 -0.228288 0.967376 0.109856
-0.071071 0.0165177 -0.322603 -0.886683 -0.407739 -0.218042
-0.179488 -0.0105835 -0.322085 0.472906 0.615449 0.630542
-0.0632206 0.0360895 -0.069422 -0.68854 -0.105512 0.717481
0.192417 -0.114485 -0.0913043 0 0 -1
0.0666171 0.0402743 -0.120774 -0.993011 0.0182891 0.1166
0.198319 0.0117987 0.197116 -0.0786051 -0.255509 -0.963606
-0.189934 -0.0884036 0.0042894 -0.107567 0.992506 0.0579755
-0.145915 0.0430424 -0.0587156 -0.979112 0.167423 -0.115368
0.203922 0.0253365 -0.113348 0 0 1
-0.193065 0.00941117 0.143753 -0.0124766 0.988904 0.14803
0.204378 0.0153616 -0.213063 0.287522 0.472002 -0.833394
0.0817115 -0.114541 0.428008 -0.280451 0.413405 -0.866281
0.184248 -0.115087 0.28779 -0.0693354 -0.624225 -0.778161
-0.119098 -0.114151 0.412645 0.796372 -0.601356 0.0645237
-0.115738 0.0422765 0.326926 0.476472 -0.78981 0.386231
0.0631958 0.0422765 0.35345 0.223208 -0.374815 0.899829
0.0959524 0.0297628 -0.277551 0.916856 0.187958 -0.352204
-0.15251 0.0207537 0.358154 -0.72779 -0.661316 -0.181612
-0.132845 0.0433216 -0.0762328 0.0985905 0.104984 -0.989575
-0.126871 0.0831816 0.238535 -0.38298 0.911892 0.147581
-0.208077 -0.0126446 -0.0390497 -0.130708 -0.940913 -0.312406
-0.0713086 0.0383925 -0.0902199 -0.99924 0.0273345 0.0277783
-0.0575063 0.106735 0.217464 -0.208574 0.950883 0.228732
0.185873 -0.0592013 0.087204 -0.0540732 -0.0430938 -0.997607
-0.147894 0.0502201 -0.0159395 -0.0237277 0.203539 -0.978779
0.0451437 0.105012 0.0865497 0.0568753 0.985811 -0.15793
0.087593 -0.051658 -0.380208 0.755116 0.542549 0.368022
-0.108322 0.0932655 0.0777547 -0.13127 0.909932 -0.393436
0.130827 0.044376 -0.139464 0.690016 0.25778 0.676333
-0.203393 -0.042003 -0.144387 -0.148372 0.0179005 0.98877
0 -0.108182 0.442033 -0.89095 -0.452792 -0.0344702
0.145556 0.0387895 0.0596403 0.376131 -0.879314 -0.292116
0.0538311 0.0398942 -0.20024 -0.997714 0.0613865 -0.0282617
0.180519 -0.115088 0.343879 -0.0336382 -0.10866 0.99351
-0.0271437 0.00304342 0.46509 -0.506751 -0.837818 0.203137
-0.199699 0.00809558 0.337234 -0.0309223 0.146459 0.988733
0.125802 0.079392 0.260116 0.393671 0.906492 0.152626
0.0785354 0.0363362 -0.0648097 -0.578101 -0.13922 0.804001
0.198076 0.0124885 0.00824095 0.572987 -0.423654 0.701572
-0.145914 0.0337319 0.197152 -0.601353 -0.798923 0.00987631
0.142283 0.0684597 0.0254046 -0.0955562 0.83635 -0.539804
-0.071117 0.00590278 0.46094 -0.125728 -0.977548 0.169093
0.149857 0.0261922 0.306135 -0.955793 0.261668 -0.134126
-0.191842 -0.0818341 0.293374 -0.180703 0.944898 0.272973
-0.148097 0.0408272 -0.011382 -0.115782 -0.617218 -0.778226
-0.0997477 0.0321122 -0.264661 -0.923728 0.249945 -0.290266
-0.0808152 0.0191076 -0.325259 -0.926259 0.192925 -0.323766
-0.194138 0.0260382 -0.21379 0.570622 0.688257 -0.447988
0.124554 0.0601508 0.335007 0.613466 0.68718 0.389156
-0.138804 0.0445661 -0.0991878 -0.976201 0.0499137 0.211045
0.193328 -0.0768433 -0.215272 -0.148964 -0.135064 -0.979575
-0.199804 0.0130275 -0.0034613 0.126033 0.295828 0.94689
-0.184168 -0.0836331 0.105562 0.341663 -0.734734 0.586031
-0.145775 0.039059 0.0501638 -0.307527 -0.898658 -0.312795
0.0477995 0.0360698 -0.0733182 -1 0 0
0.157367 0.000327057 0.431829 0.147611 -0.358583 0.921753
-0.204489 -0.0245912 -0.144329 -0.131758 0.051384 0.989949
-0.0492722 -0.053068 -0.388244 0.160351 0.960118 0.229042
0.156337 0.0115967 0.424208 -0.22096 0.974882 0.02795
-0.0967395 0.0935069 0.0727358 0.00530386 0.75575 -0.654839
-0.0920558 0.0272072 -0.290374 -0.93956 0.163086 -0.301049
-0.0749503 -0.0520628 -0.383461 -0.0504249 0.942556 0.330221
-0.114458 -0.114181 0.414811 0.816121 -0.542888 0.198041
0 0.0590414 0.312407 -0.781666 -0.474789 0.404443
-0.100619 0.0934339 0.0743597 -0.0890195 0.871243 -0.482712
0.193065 0.00941117 0.143753 -0.0367003 0.986257 0.161091
-0.0286647 0.0939453 0.0539926 -0.186727 -0.329739 -0.925422
-0.14748 0.0306787 0.249301 -0.551732 -0.83225 0.0543254
0.141068 0.0715721 0.0328661 -0.0742237 0.840572 -0.53659
-0.177839 -0.115027 0.357403 -0.671731 -0.0354074 -0.739948
0 0.0561196 -0.0448904 0.279845 0.43221 0.857252
-0.155662 -0.00724843 0.431653 -0.213194 -0.958414 0.189713
-0.025202 -0.115105 -0.409092 -0.530466 -0.516723 -0.672015
-0.0786882 0.0174646 -0.331538 -0.900927 0.188032 -0.391119
-0.200732 -0.0211848 0.293636 -0.0404344 -0.945361 -0.323508
-0.0998158 0.0245118 0.455618 0.240313 0.957918 0.156978
0.149206 0.0274437 0.291934 0.0236114 -0.993072 -0.115109
-0.135125 0.0846923 0.0664563 -0.393583 0.884807 -0.249416
0.119723 0.0929519 0.0831951 0.19732 0.937738 -0.285853
0.129609 0.0158056 -0.315807 -0.779939 -0.00612983 -0.625826
0.148186 -0.0373198 0.429128 -0.218226 -0.970658 0.100997
0.087592 0.0387959 -0.215673 0.0242146 0.733909 -0.678816
0.20337 0.0283548 -0.156624 0.201254 0.958716 0.2009
0.153831 0.017793 0.381767 -0.962027 0.259893 0.083428
-0.0894339 0.0344416 -0.212732 0.840849 -0.46372 0.279172
0.144951 0.0368847 0.12127 0.543348 -0.823975 -0.160744
-0.0944169 0.0368708 -0.192961 0.963422 -0.201498 0.176682
-0.0436779 0.0337474 -0.260937 0.975864 0.160049 0.148573
0.0132805 0.112755 0.176133 -0.150008 0.915258 0.373898
-0.118143 0.0422765 0.324718 0.383442 -0.83332 0.398184
-0.196014 -0.0863945 -0.0336314 -0.30752 0.7827 -0.541121
0.186057 -0.0514301 0.0871834 -0.0681174 -0.0345133 -0.99708
0.201137 -0.0310563 -0.214476 0.0993958 -0.0421598 -0.994154
0.184925 -0.115057 0.212864 -0.208014 -0.207219 0.955924
-0.0297881 -0.053885 -0.390491 0.00265741 0.967562 0.252621
0.185153 -0.11508 0.255013 -0.114873 -0.428014 -0.896442
0.0789621 0.0422765 0.348399 0.258411 -0.488005 0.833712
-0.199177 0.00815578 0.351357 0.1991 0.125363 0.971928
0.0374997 0.0422765 0.359185 0.145538 -0.337348 0.930062
0.203613 0.0277638 -0.144262 0.0164389 0.863889 0.503413
0.0685124 0.0396474 -0.108545 -0.992499 -0.0404061 0.115379
-0.123941 -0.114128 0.4103 0.36069 -0.903657 -0.230881
-0.069451 0.0392704 -0.102434 -0.998394 0.0438358 -0.0358822
0.191806 -0.114448 -0.0667342 -0.0364098 -0.249265 -0.967751
0.17969 -0.114943 0.128776 -0.0442994 -0.618552 0.784494
0.186157 0.00619704 -0.299736 0.978881 -0.174356 -0.106729
-0.115944 0.093065 0.081337 -0.177126 0.933969 -0.310369
0.200403 0.0130448 0.316278 0.927115 0.360139 0.103719
0.190882 0.0108128 0.049955 -0.172413 0.00809663 0.984991
0.199508 -0.0436402 -0.214747 -0.0165561 -0.0908266 -0.995729
0.100681 0.0326675 -0.261428 0.919929 0.212245 -0.32967
-0.20028 0.0211538 0.257753 0.0344508 0.152618 0.987685
0.104694 0.0404334 -0.156926 0.136937 -0.505317 -0.851999
-0.0497866 0.038089 -0.224593 0.992713 0.120384 0.00534813
-0.0305364 0.021284 0.464861 -0.609437 0.779278 0.145987
-0.0155557 -0.0682495 -0.396184 -0.300606 -0.902924 -0.307188
-0.0508539 0.113682 0.139171 0.0389635 0.996409 -0.0751683
-0.0856394 0.0321847 -0.229263 -0.694206 -0.660008 0.28717
0.0839574 0.0214734 -0.315803 0.830917 0.185921 -0.524414
0.0151551 0.0783389 0.293274 -0.198465 0.978701 -0.0525027
0.109961 0.0756039 0.293283 0.193716 0.958599 0.208715
-0.181641 -0.11513 -0.250036 0.721826 -0.426302 -0.545191
-0.0477995 0.0360698 -0.0733182 -0.135048 -0.128339 0.982492
-0.150152 -0.0298384 0.430024 0.0158815 -0.998273 -0.0565604
0.189306 -0.114441 -0.0236959 -0.180708 -0.973955 -0.136956
-0.200698 0.0173205 0.294077 -0.00688291 0.796935 -0.604025
0.0852976 0.1089 0.176409 0.265587 0.963721 0.0265704
0.0891125 0.107743 0.176466 0.274995 0.960711 0.0375767
0.183999 0.00776774 0.413037 0.843773 -0.0435145 0.534934
-0.165397 0.0177219 -0.27848 -0.335531 -0.292564 0.895447
0.142872 0.0668784 0.0216706 -0.0944545 0.851832 -0.515229
0.183851 -0.0860018 0.072312 0.179537 0.977331 0.112206
0.0912857 0.024179 0.457507 -0.226726 0.97212 0.0598225
0.191001 -0.114687 -0.158714 -0.135924 -0.956136 0.259479
0.129078 0.0897157 0.184093 0.603022 0.794177 0.0751451
0.182611 -0.114579 0.0378075 -0.188704 -0.982026 -0.00405087
-0.150483 0.00770713 0.438087 -0.307017 -0.325082 0.894462
0.0952914 0.037244 -0.189674 0.577942 -0.243723 -0.778834
0.192339 -0.11456 -0.121979 -0.114485 -0.51518 -0.849401
-0.144554 0.0620382 0.0104477 0.0492134 0.834788 -0.548368
-0.0581295 0.104476 0.227161 -0.2203 0.94524 0.24081
0.105397 0.0422765 0.334926 0.301984 -0.719925 0.624911
-0.11053 0.0379358 -0.225615 -0.94135 0.00296519 -0.33742
-0.180835 -0.114631 0.0501023 0.152753 -0.987871 0.0278707
-0.18186 -0.112193 0.293359 0.313841 -0.632594 0.708045
0.158761 0.0177044 -0.28556 -0.621726 0.40246 0.671925
0.0785086 0.0265698 -0.265793 -0.969318 -0.186779 0.159799
-0.142283 0.0684597 0.0254046 0.0352778 0.860539 -0.508162
0.121035 0.0725849 0.29335 0.303802 0.919585 0.249133
0.0174078 0.113261 0.176134 -0.123579 0.918482 0.375657
0.190151 0.0106789 0.0536741 -0.055685 0.0453669 0.997417
0.133034 0.0887184 0.0777102 0.505676 0.848714 -0.154845
0.150082 0.0257542 0.310868 -0.953962 0.267328 -0.135989
0.130124 0.0442819 -0.142808 0.721151 0.352383 0.596462
-0.176506 -0.114877 0.100874 0.261309 -0.961088 -0.0895983
-0.0315023 0.0186871 -0.332622 0.976826 0.0306507 -0.211828
0.0717664 -0.0521766 -0.384181 -0.052893 0.969716 0.238438
0.176066 -0.111165 0.0870033 -0.329994 -0.942715 -0.048909
-0.0802817 0.0281821 -0.25581 -0.756559 -0.653906 0.0049725
0.084216 0.0312272 -0.235889 -0.938113 -0.231073 0.257973
0.0881445 0.0422765 0.344567 0.274974 -0.528233 0.803343
0.0232705 -0.054151 -0.391013 0.176694 0.860939 0.477036
0 0.0735141 -0.00802149 -0.0709081 -0.452162 -0.889113
0.124979 0.056868 0.345601 0.565678 0.380489 0.731599
-0.109108 0.0129063 -0.33629 0.71113 -0.078824 -0.698628
0.18101 -0.11497 0.142756 -0.0261312 -0.552592 0.833042
-0.0812911 -0.0518494 -0.381911 -0.54756 0.755407 0.359914
0.0375016 -0.115361 0.438488 0.933835 -0.348515 -0.0805587
0.0107778 0.00224776 0.4657 0.38079 -0.824432 0.418702
0.198465 -0.0809334 -0.144491 0.14455 -0.237029 0.960689
-0.0229752 0.0364559 -0.0778763 0.0833791 -0.218006 0.972379
-0.134005 0.034087 0.415189 0.623812 0.747749 0.227441
-0.0627603 0.0410023 -0.145244 -0.985596 0.0413681 -0.163979
-0.149206 0.0274437 0.291934 -0.712562 -0.685191 0.15089
-0.145494 0.0077352 0.440494 -0.0478896 -0.489149 0.870885
-0.17518 -0.115329 -0.286247 -0.764562 -0.618856 -0.180173
0.197491 -0.0831797 -0.0371825 0.251368 0.838304 -0.483798
0.195397 -0.0866896 -0.030165 0.248444 0.921625 -0.298133
0 0.10912 0.138914 -0.620381 0.513074 -0.593197
0.115584 0.0401658 -0.205903 -0.557165 0.110165 -0.823061
-0.146149 0.0332404 0.206636 -0.53402 -0.845043 0.0269393
-0.0475301 -0.0674245 -0.393309 -0.0520955 -0.931159 -0.360872
-0.198832 0.0192324 0.22139 0.0600095 -0.0660962 -0.996007
-0.0724241 0.0362089 -0.0667358 -0.697082 -0.0564037 0.71477
0.147148 0.0313015 0.239822 0.573628 -0.819008 -0.013264
-0.0345247 0.0232916 -0.314855 0.98318 0.178525 0.0385367
0.0439612 0.0422765 0.357995 0.19906 -0.308735 0.930085
0.191599 -0.114641 -0.146479 -0.175941 -0.848887 0.498433
-0.0735796 0.0208231 -0.299166 -0.922677 -0.385564 -0.00277382
0.035556 -0.0677892 -0.394694 0.0624207 -0.973321 -0.220793
-0.203656 -0.00153977 -0.213658 -0.132511 0.108759 -0.985197
0.12737 0.0848138 0.227697 0.476177 0.870466 0.124676
-0.182611 -0.114579 0.0378075 0.162166 -0.98676 -0.00274731
0.186653 -0.0882679 0.0316188 0.0245828 0.999639 -0.0108413
-0.103442 0.0342568 -0.251706 -0.931276 0.20963 -0.29796
-0.047754 0.0368646 -0.236735 0.968434 0.204799 0.142103
0.204157 0.0208054 -0.0763545 -0.612389 0.0779821 0.786701
-0.204026 -0.0333028 -0.144359 -0.172887 0.0306464 0.984465
-0.046736 0.0361698 -0.242797 0.970557 0.20106 0.132645
0.180331 -0.115884 0.293359 -0.5301 -0.81221 -0.243536
-0.0607535 0.0816611 0.292862 0.383081 -0.037349 0.922959
-0.191136 0.00941532 0.131359 0.096498 0.989955 0.103331
0.136497 0.0819083 0.0589768 0.257588 0.885941 -0.385691
0.0416076 0.0361206 -0.0746594 -0.967834 -0.20702 0.14297
-0.0350147 0.041042 -0.215673 -0.0284648 0.109602 -0.993568
0 0.0889345 0.0299814 -0.0148024 -0.20204 -0.979265
-0.147417 0.0404055 0.00281185 -0.115927 -0.933925 -0.338151
0.179488 -0.0105835 -0.322085 0.385509 -0.629282 -0.674824
0.116405 0.0404936 -0.202607 -0.453179 0.115994 -0.883841
0.113257 0.0422765 0.32905 0.388962 -0.789552 0.474675
-0.0656287 0.00554323 0.461697 -0.12764 -0.990613 0.0489206
0.0610704 0.0227885 0.462378 0.0714898 0.996203 0.049696
0.149149 0.0416475 -0.0384346 -0.464488 0.203852 -0.861798
0.151257 0.0233997 0.33452 -0.942795 0.327639 0.0615633
0.196014 -0.0863945 -0.0336314 0.317877 0.877082 -0.360112
-0.179893 -0.11466 0.0562482 0.141728 -0.988442 0.0538073
-0.191281 -0.115073 -0.144554 0.171052 -0.859376 0.481886
-0.192417 -0.114485 -0.0913042 -0.10272 -0.569242 0.815728
0.0275542 -0.0679936 -0.395398 0.199787 -0.907021 -0.370673
-0.183522 -0.085327 0.0823915 -0.207049 0.671818 -0.71119
-0.195447 0.00944371 0.160527 0.0479623 0.897433 0.438536
0.0820566 0.00657565 0.45919 0.0424022 -0.999099 0.001712
-0.182725 -0.115089 0.315857 0.0544241 0.0531674 -0.997101
-0.0621667 -0.052542 -0.386125 0.2251 0.960994 0.160687
0 -0.00771687 -0.374147 -0.118885 -0.647066 -0.753108
-0.147041 -0.115421 -0.347299 -0.543328 -0.416972 0.728649
-0.0651211 0.0938662 0.0616861 -0.00713144 0.0404075 -0.999158
0 -0.0730456 -0.401254 0.000717572 -0.881829 -0.47157
0.179698 -0.100012 0.0871112 -0.304197 -0.937943 -0.166512
0.111947 0.0420266 -0.134152 0.959295 0.0499128 0.27796
0.0763528 0.0243357 -0.279125 -0.964809 -0.211436 0.15633
-0.198465 -0.0809334 -0.144491 -0.127604 -0.103381 0.986423
-0.19771 -0.0852291 -0.1445 -0.113486 -0.158746 0.980775
0.195017 0.00943397 0.157358 -0.0723768 0.954514 0.289248
-0.145636 -0.114261 0.39733 -0.611927 -0.454903 -0.647
-0.0110732 -0.115976 0.440288 -0.825363 -0.523695 -0.210995
-0.126739 0.0433983 -0.0922224 0.98733 -0.158351 -0.0102226
-0.0531478 0.0813235 0.29287 0.368388 -0.0758784 0.926571
-0.101542 0.0416155 -0.215673 -0.287739 0.94108 -0.177695
-0.19243 -0.114543 -0.115848 0 0 1
-0.137433 -0.0743191 0.422192 -0.221199 0.921 0.32067
0.178592 -0.10375 0.08708 -0.253877 -0.964835 -0.0681248
-0.180705 -0.0962545 0.087138 0.311669 -0.615637 -0.723777
0.118143 0.0422765 0.324718 0.46977 -0.751158 0.463765
-0.00361895 0.111446 0.176131 0.0896747 0.995932 -0.00879969
-0.0722273 0.0378929 -0.0841178 -0.99726 -0.0112012 0.0731261
-0.0876612 0.0366023 -0.0617295 0.971158 -0.0849094 -0.222807
0.0276396 0.0363476 -0.07719 -1 0 0
-0.185997 -0.055318 0.0871949 0.0225254 -0.0667371 -0.997516
0.147474 0.0519507 -0.0121471 -0.273372 0.880248 -0.387855
-0.0987349 0.0781006 0.293174 -0.0245055 0.89832 0.438659
0.153874 -0.11543 -0.337128 -0.386938 -0.443623 0.80838
0.184536 -0.0203088 0.0870328 -0.148562 0.175509 -0.973204
-0.200598 0.0152316 0.305674 0.0861607 0.938556 0.334199
0 -0.082548 0.448059 -0.193331 0.961361 0.195981
0.120525 0.0146667 -0.32496 -0.647031 -0.0975499 -0.756197
0.147013 0.0401314 0.0122776 -0.599511 -0.70136 0.385592
-0.119626 0.0416808 -0.189392 -0.955975 0.138227 -0.258855
-0.0683728 0.0816188 0.292888 0.365714 0.336069 0.867935
-0.201171 -0.00425531 0.293798 -0.120154 -0.676415 -0.726654
-0.0396003 0.0297055 -0.285003 0.971963 0.189026 0.139849
0.135347 0.0431901 -0.0698596 0.959197 0.281596 0.0253809
0.208158 -0.0165944 -0.038956 0.148097 -0.93284 -0.328445
0.155769 0.0130752 0.414784 -0.60458 0.779488 -0.163956
0.20338 -0.0598934 -0.0378286 -0.140795 -0.979348 0.145102
-0.198562 0.0183349 0.216343 0.0523485 0.00162939 -0.998628
-0.0929272 0.00715413 0.457103 0.0182492 -0.999112 0.0379655
0.0378807 0.114956 0.176154 -0.0410498 0.958786 0.281148
0 -0.0457671 0.455809 0 -1 0
-0.128827 0.0890722 0.191383 -0.571387 0.815934 0.0881427
0 0.0526376 0.328716 -0.959637 -0.258653 0.110435
-0.184127 -0.109286 -0.215557 0.372431 -0.657697 -0.654775
0.192781 -0.098475 -0.0367596 0.0218207 -0.131375 -0.991093
0.0740025 0.021421 -0.295822 -0.962637 -0.260965 0.0722963
-0.128954 0.0894023 0.187739 -0.578922 0.810779 0.08653
0.18186 -0.112193 0.293359 -0.461895 -0.737501 -0.492692
0 0.0314034 -0.260725 -0.998452 -0.0240098 0.0501765
0.204444 0.0146707 -0.144172 0.241459 0.530644 0.812474
-0.06018 0.0911028 0.269947 -0.175678 0.956289 0.233771
-0.156624 0.0108347 0.428918 -0.985265 -0.00236797 0.171019
-0.159973 -0.115429 -0.326461 -0.716851 -0.653556 0.242876
0.183652 -0.115025 0.180113 -0.00425397 0.0346374 -0.999391
0.0365503 0.026043 -0.302948 0.978141 0.0539365 -0.200826
-0.146989 0.0316008 0.235082 -0.575814 -0.816849 0.0345758
0.196077 -0.0937983 -0.144518 0.119664 -0.365778 0.922977
-0.186415 -0.114486 0.00705871 0.101582 -0.994826 0.00155829
-0.0548366 0.0402151 -0.19414 -0.965458 0.0176706 -0.259958
0.0856394 0.0321847 -0.229263 -0.909995 -0.248021 0.332258
0.0759932 0.0812187 0.292941 0.0763688 0.967457 0.241236
-0.0536471 0.113559 0.168518 0.00116819 0.998417 -0.0562397
0.10435 0.0347611 -0.248457 0.927154 0.200121 -0.31676
-0.0942348 -0.0650853 -0.382308 -0.796693 -0.603432 0.0339087
0.135627 0.0318602 0.42203 -0.106096 0.655088 -0.748067
-0.0314747 -0.115112 -0.408489 -0.788441 0.382493 -0.481725
-0.183497 -0.084635 0.0923917 -0.0487165 -0.0529128 -0.99741
0.195406 -0.0661196 0.293403 0.274429 0.961603 -0.00299443
0.192495 -0.0878215 -0.0128924 0.143973 0.986646 0.0761691
-0.151015 0.0238931 0.329791 -0.786443 -0.571955 -0.233183
0.0345247 0.0232916 -0.314855 0.976948 0.0064066 -0.21338
0.20009 -0.0394518 -0.214662 0.0574199 -0.0620118 -0.996422
0.194987 0.0116747 0.0274079 0.147272 -0.266849 0.952419
-0.192436 0.00941014 0.139606 0.0786779 0.982574 0.168397
-0.084216 0.0312272 -0.235889 -0.820908 -0.552999 0.142485
0.150152 -0.0298384 0.430024 -0.246713 -0.934937 0.255002
-0.109816 -0.114217 0.416913 0.868927 -0.426168 0.251688
0.0863714 0.0326521 -0.225953 -0.888239 -0.22897 0.398251
0.0737189 0.111902 0.176282 0.219774 0.975468 0.0127185
0 0.0266922 -0.289434 -0.999408 -0.0298364 0.0171018
-0.144789 0.0434139 -0.0654707 -0.965417 0.0798814 -0.248173
0.183711 -0.0125685 0.0869857 -0.251873 0.29011 -0.923253
-0.201612 -0.0676938 -0.0376132 0 -1 0
-0.200592 0.0200418 0.273682 -0.0600095 0.0660962 0.996007
-0.186053 -0.0475388 0.08717 -0.0177668 -0.0393254 -0.999068
-0.0820537 0.0422765 0.347191 0.7201 -0.164995 0.673967
-0.13661 0.0431022 -0.066678 -0.493599 0.15075 -0.856524
0.197517 -0.0561607 -0.214976 0.0380952 -0.106227 -0.993612
0.0653741 -0.0524167 -0.385512 -0.215822 0.950618 0.223039
0.0827037 0.0238114 0.459167 -0.0753917 0.993608 0.0840189
-0.19835 -0.041722 0.144252 -0.296203 -0.397718 0.86838
-0.0839574 0.0214734 -0.315803 -0.91407 0.238504 -0.328011
0 0.0357145 -0.226078 -0.949837 -0.101231 0.295909
-0.187003 -0.0883532 0.0282123 -0.107768 0.994162 -0.00522515
0.0189181 -0.1151 -0.409568 -0.688343 0.322203 0.649899
-0.0608027 0.0410935 -0.157479 -0.978746 -0.00600222 -0.204988
-0.181707 -0.115089 0.329875 -0.200582 -0.14139 -0.96942
0.0492722 -0.053068 -0.388244 -0.165215 0.953939 0.250407
0.0621667 -0.052542 -0.386125 -0.22811 0.950004 0.21321
0.199512 0.0272029 -0.224235 -0.166399 0.578583 -0.798469
3.54363e-05 0.0775519 0.293359 -0.760605 0.588486 0.274161
0.119626 0.0416808 -0.189392 -0.366888 0.236219 -0.899774
-0.186321 -0.0881636 0.035023 -0.168154 0.985756 0.00301119
0.13466 0.0422765 0.3045 0.489288 -0.334363 0.805481
-0.128562 0.0883611 0.198666 -0.548975 0.830259 0.0964218
0.0546302 0.00480166 0.462991 0.265692 -0.961057 0.0760155
0.144959 0.0367203 0.126012 0.535123 -0.830881 -0.152579
0.0488468 0.111925 0.119796 0.147206 0.982155 -0.117059
0.102682 -0.115285 -0.388236 0.889963 -0.0358189 -0.454625
-0.0408892 0.0939431 0.0559438 -0.154238 -0.3598 -0.920193
-0.193738 -0.0740202 0.293386 -0.264348 0.924244 0.275486
0.0929273 0.00715413 0.457103 -0.0785557 -0.989315 0.122824
0.000265979 -0.0918481 0.446114 -0.276663 0.939036 0.204128
0.201072 -0.0636844 -0.144449 0.172284 -0.205738 0.963322
-0.148601 0.0411174 -0.020841 -0.136276 -0.445049 -0.885076
0.188841 -0.114819 -0.189247 -0.0644578 -0.996888 -0.0453815
-0.196085 -0.0562688 0.137364 -0.274974 -0.448064 0.850663
0.19375 0.00792285 0.396546 0.921759 -0.149327 0.357858
-0.191428 -0.0881185 -0.0060094 -0.153839 0.98497 0.0785315
0 0.0908424 0.0355471 -0.0283543 -0.157985 -0.987034
-0.132331 0.0900191 0.0814733 -0.520511 0.843297 -0.133861
-0.031556 -0.067895 -0.395066 -0.141588 -0.935152 -0.32472
-0.108796 0.037092 -0.232159 -0.950064 0.0535423 -0.307427
0.185723 -0.114968 -0.219693 -0.100542 -0.675503 -0.73047
-0.0405855 0.115042 0.176159 0.00963556 0.997525 -0.0696548
0.107812 0.10085 0.176825 0.327094 0.942411 0.0697877
0.199898 -0.0336809 0.293544 0.0848649 -0.958844 -0.270953
0.207829 -0.0284415 -0.0386638 0.117942 -0.985604 -0.121135
-0.189467 -0.0884567 0.00771583 -0.128027 0.990004 0.0591775
-0.206715 -0.0402705 -0.038358 -0.0233329 -0.998373 0.0520325
-0.139429 0.0445042 -0.0958214 -0.965109 0.0489508 0.257233
0.156624 0.0108347 0.428918 0.172 0.919552 0.353328
-0.0523651 0.0223567 0.463312 -0.245691 0.969239 0.0145666
0.0920558 0.0272072 -0.290374 0.898911 0.234887 -0.369846
0.203956 0.0246978 -0.10717 -0.611176 -0.572589 0.546449
0.146149 0.0332404 0.206636 0.550552 -0.834739 0.0101966
-0.111947 0.0420266 -0.134152 0.941422 -0.0968768 0.323016
0.192819 -0.0779381 0.293379 0.229464 0.948883 -0.216718
0 -0.0644227 -0.398179 0.0278747 -0.841952 -0.538832
-0.185873 -0.0592013 0.087204 0.00556625 -0.071045 -0.997458
0.00896745 0.03687 -0.0794362 0.969368 -0.13514 0.205093
-0.197887 0.00954463 0.179815 -0.0180252 0.53329 0.845741
0.0979883 0.0383065 -0.179825 0.363509 -0.192121 -0.911565
0.204059 0.0224973 -0.0886632 -0.231701 0 0.972787
0.084058 0.0384708 -0.215673 0.0519515 0.343016 -0.937892
-0.108732 0.0375987 -0.0537346 0.975108 -0.165015 0.148103
-0.191806 -0.114448 -0.0667342 0.638986 0.302421 0.707275
-0.189015 -0.0884894 0.0111392 -0.0430757 0.998381 0.0371596
0.184435 -0.115087 0.283109 -0.0528759 -0.553082 -0.831447
-0.0998461 0.0389657 -0.17327 0.944303 -0.124474 0.304626
0.145775 0.039059 0.0501638 0.337548 -0.896805 -0.28601
0.0997477 0.0321122 -0.264661 0.910366 0.251755 -0.328411
-0.177087 -0.11489 0.105518 0.236573 -0.97109 -0.0319023
-0.0656608 0.040523 -0.12689 -0.99278 0.0686395 -0.0983669
0.196256 0.0119885 0.0197877 0.378128 -0.278824 0.882766
-0.0810492 0.0937321 0.0667618 0.0411708 0.361166 -0.931592
