ply
format ascii 1.0
element vertex 817
property float x
property float y
property float z
property float nx
property float ny
property float nz
element face 0
property list uchar int vertex_index
end_header
-0.138864 0.00846929 -0.0451098 -0.658554 -0.719911 -0.219168
-0.0804201 0.0395064 0.120357 -0.282438 0.871686 0.400489
-0.0823158 -0.245546 0.0231975 0 0 1
-0.124662 0.0476673 -0.0097995 -0.838082 0.542878 -0.0538729
0.113256 -0.440508 -0.169515 -0.119093 0.762196 -0.636297
0.0550057 -0.0794049 0.0280169 0.831092 -0.430759 0.351756
-0.100983 0.0723427 -0.0160005 -0.93642 0.317124 -0.150165
-0.0656727 0.315017 0.00517285 -0.836068 -0.545285 0.0604523
0.0845327 -0.245546 0.013398 0.293781 0.0801316 0.952508
-0.0667972 -0.440508 0.192648 -0.156866 0.862765 -0.480655
-0.0144261 -0.0794049 -0.06005 -0.39242 -0.101332 -0.914187
-0.0910871 0.0723427 0.0464271 -0.844439 0.330755 0.421335
0.107762 0.0395064 0.0782996 0.347547 0.903662 0.250214
0.0391337 0.103251 0.0944607 0.374982 -0.237434 0.89611
-0.092308 0.0313455 -0.121931 -0.550121 0.394846 -0.735843
5.55112e-17 -0.298721 -0.138671 -0.408119 -0.385996 -0.827312
5.55112e-17 -0.340007 -0.180568 -0.1352 -0.811889 -0.567941
0.0848219 0.0476673 -0.0917618 0.574392 0.554786 -0.601902
-0.151844 0.0165338 0.0179604 -0.888055 -0.44692 0.107801
-0.0632308 0.103251 -0.0802273 -0.593634 -0.270276 -0.75799
0.06005 -0.0794049 0.0144261 0.863781 -0.473702 0.17172
-0.11104 0.00846929 0.0948463 -0.518063 -0.72491 0.454
-0.0447243 -0.245546 -0.0729661 0.589471 0.802587 0.0915318
-0.0464271 0.0723427 0.0910871 -0.425752 0.322288 0.845497
0.0959708 -0.321693 0.137675 0.521355 -0.454439 0.72227
-0.00475516 0.36742 -0.0198239 -0.200073 0.458566 -0.865845
0.167009 -0.321693 0.0164503 0.845837 -0.524947 0.0948176
0.0339287 0.0476673 0.120261 0.227965 0.532216 0.815339
0.0432463 0.0476673 0.117208 0.315558 0.497685 0.807919
-0.158559 -0.321693 -0.0549736 0 0 -1
5.55112e-17 -0.421455 0.20444 -0.00449473 -0.935258 0.353938
-0.0503148 -0.245546 -0.0692391 0.497158 0.838702 0.222291
-0.0743155 -0.440508 0.189885 0.938013 -0.118237 -0.325809
5.55112e-17 -0.0180697 0.0908622 0.000355844 -0.812131 0.583475
0.0166752 -0.245546 0.083858 0.993598 -0.0737402 -0.0855845
5.55112e-17 0.138401 -0.108566 -0.00523611 0.889571 -0.456767
0.121578 0.0560209 0.0291736 0.850782 0.487161 0.197091
0.135426 -0.440508 -0.152422 0.629273 -0.493796 -0.600151
-0.069464 0.0165338 0.136325 -0.398902 -0.471447 0.786521
-0.01539 0.315017 0.0640662 -0.362418 -0.5045 0.783667
0.0958423 0.0723427 -0.0353746 0.887286 0.322032 -0.330181
0.0437925 -0.0376687 -0.0602749 0.328162 -0.810195 -0.48569
0.0994086 0.0723427 -0.0238722 0.924892 0.293234 -0.242051
0.0373666 0.334423 -0.0190528 0.452516 0.867358 -0.207168
-0.109015 0.0560209 0.061046 -0.766069 0.49031 0.415612
0.0105063 -0.296632 -0.133337 -0.351428 -0.478725 -0.804562
-0.109047 -0.321693 0.127683 -0.563032 -0.50644 0.65308
5.55112e-17 -0.0205758 0.0881955 -0.00579696 -0.799883 0.600128
-0.095778 0.126224 -0.0441459 -0.537126 0.818349 -0.204453
-0.0891272 0.0723427 0.0499292 -0.828461 0.329052 0.453185
0.0291736 0.0560209 -0.121578 0.1999 0.499398 -0.842996
0.0381698 0.0641818 -0.103489 0.226497 0.777343 -0.586887
0.0199203 0.0723427 0.10018 0.216018 0.330804 0.918643
0.041447 0.334423 -0.00655442 0.569988 0.817221 -0.085229
0.0246433 0.126224 0.102622 0.469367 0.597927 0.649752
0.118911 0.0476673 -0.0386518 0.817233 0.511623 -0.265278
-0.106477 -0.321693 -0.129739 -0.780054 -0.0125955 0.625585
0.130542 0.0395064 0.0259606 0.385685 0.919249 0.0789195
-0.13157 0.0395064 0.020852 -0.334212 0.941473 0.0439472
-0.149627 -0.321693 0.0762433 -0.765451 -0.510517 0.391737
0.0160005 -0.440508 -0.20338 0.724009 -0.689785 -0.00275675
0.132181 0.0395064 0.0156471 0.408439 0.912263 0.0308942
-0.157402 -0.321693 0.058058 -0.80406 -0.518652 0.290668
-0.0326114 0.126224 -0.100373 -0.431483 0.672752 -0.601021
0.125466 0.0313455 0.0874565 0.744855 0.414256 0.523052
-0.0990552 0.00846929 0.107152 -0.441488 -0.741148 0.505754
0.0104421 0.0395064 -0.132791 0.0197467 0.930394 -0.366029
0.125915 0.00846929 0.0738014 0.58531 -0.73168 0.349366
0.110044 0.0641818 0.00867496 0.587621 0.807861 0.04542
0.136325 0.0165338 -0.069464 0.797976 -0.442426 -0.409259
0.144647 0.0395064 0.00568692 0.478129 0.878181 0.0138019
0.0413185 -0.296632 -0.127201 0.386768 -0.57447 -0.721384
0.0945571 0.0641818 0.0686929 0.427496 0.861829 0.272943
-0.0551342 0.126224 -0.0899947 -0.440448 0.751861 -0.490622
-0.0156471 0.0395064 0.132181 -0.0329833 0.915405 0.401181
-0.200745 -0.440508 0.0358565 -0.885051 -0.359399 0.295832
0.108212 0.0165338 0.108212 0.619069 -0.479022 0.622328
0.00828941 0.126224 -0.105224 0.339128 0.168534 -0.925521
0.147153 0.0165338 0.0415113 0.850846 -0.465223 0.244189
-0.143747 0.0395064 0.0170286 -0.51337 0.856902 0.0465734
-0.0734801 0.0560209 0.101144 -0.515898 0.471924 0.714939
0.0357601 0.334423 0.0219123 0.417505 0.872047 0.255388
0.127136 0.0165338 -0.0849504 0.744079 -0.442903 -0.500184
-0.0926293 -0.440508 -0.181789 0.411327 0.548436 0.72803
0.0208199 0.0395064 0.13157 0.0494641 0.927013 0.371754
-0.101593 0.0313455 -0.114317 -0.600865 0.426109 -0.676308
0.101593 0.0313455 -0.114317 0.609976 0.402376 -0.682658
-0.0231975 -0.245546 0.0823158 0.996263 -0.0743081 0.044018
-0.0514714 -0.440508 0.197307 -0.577281 -0.397447 -0.71329
-0.161483 -0.321693 0.0455596 -0.844498 -0.492466 0.210478
-0.0199845 -0.440508 -0.20293 0.383149 0.429928 0.817532
-0.0312299 -0.296632 0.13006 0.202329 0.592427 -0.779803
-0.0389409 -0.0376687 0.0635521 -0.293279 -0.806313 0.51366
0.0227798 0.0641818 -0.114542 0.0864643 0.885822 -0.455899
-0.147988 -0.321693 0.0791028 -0.761371 -0.505131 0.406394
0.0236152 -0.0794049 -0.0570298 0.574398 -0.188954 -0.796469
0.050122 0.0641818 0.0983805 0.27337 0.790675 0.547815
-0.0257679 0.0641818 0.107345 -0.147614 0.76894 0.622046
-0.0228441 0.00846929 -0.144229 -0.0265331 -0.781707 -0.623081
0.0097995 0.0476673 -0.124662 0.0574472 0.541496 -0.838738
-0.120968 -0.321693 0.116309 -0.573978 -0.586682 0.571273
0.0687892 0.00846929 -0.128711 0.269725 -0.760207 -0.591044
5.55112e-17 -0.0232425 0.0857215 -0.00082622 -0.771432 0.636311
0.0557447 0.0313455 0.142398 0.334332 0.362945 0.869766
5.55112e-17 -0.306914 -0.152487 0.103577 0.560874 0.821397
5.55112e-17 -0.288247 0.11769 0.0181487 0.482322 -0.875806
-0.012402 0.126224 -0.104742 -0.400886 0.308843 -0.8625
0.0640662 0.315017 -0.01539 0.850386 -0.498516 -0.168301
-0.0238722 0.103251 -0.0994086 -0.261283 -0.205962 -0.943033
0.149691 -0.440508 -0.138382 0.118439 -0.501623 0.85694
-0.0917618 0.0476673 0.0848219 -0.589094 0.558496 0.583996
0.0920189 0.126224 0.0515357 0.528603 0.808927 0.257324
0.116598 -0.296632 0.0652871 -0.637317 0.659664 -0.398334
0.0736087 -0.0376687 0.011663 0.547165 -0.830912 0.100977
-0.062781 -0.245546 -0.058058 0.392226 0.830139 0.396267
5.55112e-17 -0.342674 0.182238 0.0175079 -0.82777 0.560795
5.55112e-17 -0.105751 -0.0621706 0.0180456 -0.755034 -0.655438
-0.0479051 0.126224 -0.094043 -0.420032 0.753192 -0.506237
0.0113738 0.0395064 -0.144422 0.0336687 0.868372 -0.494769
-0.00475516 0.36742 0.0198239 -0.201302 0.468118 0.860432
0.152358 -0.321693 -0.0702351 0.786726 -0.498943 -0.36348
-0.0132374 0.36742 -0.0155185 -0.586612 0.47007 -0.659485
5.55112e-17 -0.303894 -0.148053 -0.0757309 -0.468783 -0.880061
-0.013398 -0.245546 -0.0845327 0.897135 0.0863396 -0.433238
-0.0996657 0.0641818 0.0610782 -0.460935 0.847859 0.262055
-0.0948463 0.00846929 -0.11104 -0.425208 -0.733442 -0.530341
0.127683 -0.321693 0.109047 0.617242 -0.550459 0.562144
0.0489011 0.0641818 0.106059 0.221667 0.874278 0.431859
0.00600822 0.0165338 -0.152776 0.0200034 -0.405681 -0.913796
-0.107345 0.0641818 -0.0257679 -0.601664 0.785645 -0.144093
0.0418005 -0.245546 -0.0746047 0.563009 0.580848 0.587909
-0.0120164 0.0723427 -0.101465 -0.151221 0.362679 -0.919563
5.55112e-17 0.0723427 -0.102236 -0.0123298 0.261346 -0.965166
0.0279527 -0.440508 -0.201966 0.900139 -0.417373 0.124695
-0.0996657 0.0641818 -0.0610782 -0.459638 0.84872 -0.261546
-0.11814 0.00846929 0.0858179 -0.543566 -0.734795 0.405726
-0.0773357 0.0560209 -0.0981235 -0.548273 0.420508 -0.72289
0.01539 0.315017 0.0640662 0.371381 -0.518929 0.769928
0.0256393 0.00846929 0.143651 0.0462269 -0.788542 0.613241
0.0160005 -0.440508 0.20338 -0.953066 -0.23226 -0.194217
0.123795 0.0165338 -0.0899304 0.726599 -0.439525 -0.528082
0.028531 -0.0376687 0.0688535 0.227152 -0.784855 0.576546
0.0849182 -0.245546 -0.0100565 0.0460262 -0.0484443 -0.997765
5.55112e-17 -0.345501 -0.183749 -0.140824 -0.831933 -0.536709
-0.0105063 -0.296632 0.133337 0.128461 0.60388 -0.786655
5.55112e-17 -0.365614 -0.193227 -0.183524 0.743705 0.642823
-0.0702351 -0.321693 -0.152358 0.878869 -0.0313732 -0.476031
0.043664 -0.0794049 0.043664 0.742749 -0.362229 0.563128
5.55112e-17 0.000244137 0.118044 0.00853685 -0.907395 0.420192
0.0286274 0.126224 0.101497 0.442318 0.680296 0.584424
5.55112e-17 0.0641818 0.110397 -0.0012752 0.859956 0.510367
-0.0722914 0.0723427 0.0722914 -0.661965 0.351938 0.661772
0.0561624 0.315017 0.0344107 0.745309 -0.530602 0.403703
5.55112e-17 -0.24047 -0.0841793 -0.487271 0.850855 0.196504
-0.111393 0.0476673 0.0567728 -0.736635 0.556343 0.384513
0.0257679 0.0641818 0.107345 0.146352 0.775264 0.614449
0.0418326 0.334423 -0.00327721 0.511058 0.858926 -0.0326464
-0.0160005 0.0723427 0.100983 -0.178665 0.311999 0.933132
0.058058 -0.245546 -0.062781 0.7566 0.135878 0.639604
0.101144 0.0560209 0.0734801 0.723192 0.449099 0.524693
0.186833 -0.440508 0.0817053 0.133334 0.180393 -0.974515
-0.0809984 0.0641818 0.0748938 -0.433565 0.803912 0.40712
-0.142398 0.0313455 0.0557447 -0.866556 0.373646 0.33086
0.0475195 -0.245546 0.0711026 -0.636948 0.584598 -0.502535
5.55112e-17 -0.121527 0.0624276 0.0182867 -0.902036 0.431274
5.55112e-17 -0.13727 0.0640019 -0.00390717 -0.950395 0.311022
5.55112e-17 0.245778 -0.103971 0.022064 0.954903 0.296097
0.116116 0.0395064 -0.0650301 0.352067 0.918424 -0.180405
0.0205629 0.126224 -0.103425 0.439504 0.561542 -0.701076
0.133337 -0.296632 0.0105063 -0.724192 0.687656 -0.0517236
-0.0849504 0.0723427 -0.0567407 -0.776777 0.330698 -0.535963
-0.0144261 0.370408 -0.0144261 -0.56094 0.620063 -0.548515
0.0667972 -0.440508 0.192648 -0.666938 0.578771 -0.469274
-0.113642 0.0641818 -0.0272779 -0.497457 0.860578 -0.109279
5.55112e-17 0.0641818 -0.110397 -0.000507502 0.860284 -0.509814
-0.124855 0.0395064 -0.0460737 -0.382379 0.915802 -0.122852
-0.0344107 0.315017 0.0561624 -0.544561 -0.485233 0.684107
-0.123506 0.0560209 0.0195669 -0.886633 0.440799 0.139926
-0.12357 -0.296632 -0.0511823 -0.798572 -0.471775 0.37378
0.0160005 0.0723427 -0.100983 0.186154 0.324763 -0.927295
-0.116309 -0.321693 0.120968 -0.576084 -0.586919 0.568905
-0.104935 -0.296632 0.0827334 0.596857 0.662068 -0.453242
-0.0904766 -0.321693 0.141338 -0.496368 -0.45671 0.738265
0.0732231 -0.321693 -0.151009 0.47948 -0.718341 -0.504068
-0.0462665 -0.296632 0.125369 0.237834 0.632637 -0.737025
-0.106284 0.0395064 -0.098252 -0.365933 0.864474 -0.344643
0.106477 -0.321693 -0.129739 -0.547766 -0.107266 -0.829727
-0.069464 0.0165338 -0.136325 -0.402278 -0.451859 -0.796239
0.0653193 0.0476673 -0.106606 0.430502 0.549976 -0.715677
0.0529173 0.0165338 -0.143458 0.293752 -0.477353 -0.828157
0.131924 0.0313455 -0.0773357 0.786661 0.413275 -0.458659
-0.0586042 0.126224 0.0876814 -0.455276 0.764545 0.456284
0.0802273 0.0723427 -0.0632308 0.739057 0.333727 -0.585168
5.55112e-17 0.36742 0.0204022 -0.00950412 0.447659 0.894154
0.0386518 0.0476673 0.118911 0.267942 0.506726 0.819412
0.026057 -0.296632 0.131056 -0.165051 0.602176 -0.781116
0.072452 -0.0376687 -0.0173821 0.538925 -0.832593 -0.127865
0.102011 0.0641818 0.0422503 0.561677 0.791276 0.241665
-0.0478408 0.0476673 -0.115506 -0.319444 0.550875 -0.771033
-0.157627 -0.440508 0.129353 -0.404849 0.374998 0.833951
-0.0742834 -0.0376687 0.00584757 -0.531113 -0.845729 0.0515945
0.0317118 0.0641818 0.112389 0.122602 0.871177 0.475415
-0.0652871 -0.296632 -0.116598 -0.0443894 -0.61544 -0.786933
5.55112e-17 0.327772 -0.0524032 0.00315965 0.757411 -0.652931
5.55112e-17 0.175671 -0.113642 -0.00364216 0.992312 -0.12371
0.0246433 0.126224 -0.102622 0.445477 0.598489 -0.665853
-0.121353 -0.296632 0.0559374 0.72142 0.614563 -0.319164
0.101915 0.0723427 -0.00803237 0.954241 0.291578 -0.0663842
0.0834403 0.00846929 -0.119714 0.355279 -0.754725 -0.551513
-0.108212 -0.296632 -0.0786209 -0.679711 -0.621323 -0.389807
-0.186833 -0.440508 0.0817053 0.552263 0.602589 -0.576101
0.119168 -0.296632 0.0607247 -0.654489 0.67559 -0.339446
0.0848219 0.0560209 0.0917618 0.614138 0.445268 0.65159
-0.0451098 0.00846929 -0.138864 -0.156833 -0.768768 -0.62
0.0827013 0.103251 0.0600822 0.784378 -0.269984 0.558444
-0.0946535 0.0165338 0.120068 -0.55162 -0.436176 0.710961
-0.0972238 0.103251 0.0315833 -0.912989 -0.272225 0.303881
0.00989588 -0.321693 0.167523 0.0983926 -0.593323 0.798928
0.0272458 0.334423 0.0319046 0.326607 0.868578 0.372694
0.101272 -0.321693 -0.133819 -0.699685 -0.219418 -0.679924
-0.101465 0.0723427 -0.0120164 -0.932083 0.348024 -0.100502
0.0357601 0.334423 -0.0219123 0.419396 0.873301 -0.247896
5.55112e-17 0.354343 0.0237116 -0.0038917 0.468033 0.883702
0.123217 -0.321693 -0.113899 0.112358 -0.420331 -0.900387
-0.0291736 0.0476673 0.121578 -0.187714 0.530613 0.826567
-0.177869 -0.440508 -0.0996014 -0.481981 0.0908175 0.871462
-0.0809984 0.0641818 -0.0748938 -0.433816 0.80411 -0.406462
0.122895 0.00846929 -0.0786851 0.568781 -0.735165 -0.368808
0.0389409 -0.0376687 0.0635521 0.315855 -0.797957 0.513322
-0.161483 -0.321693 -0.0455596 -0.550153 -0.1468 0.822059
0.20338 -0.440508 -0.0160005 0.628025 -0.249928 -0.736968
0.100983 0.103251 0.0160005 0.956139 -0.253342 0.147022
-0.162382 -0.321693 0.0423788 -0.815993 -0.54832 0.183031
0.146992 -0.440508 0.141306 -0.245439 0.482341 0.840896
0.00989588 -0.321693 -0.167523 0.951819 0.271481 0.142614
0.191267 -0.440508 0.0705564 -0.278305 -0.847015 -0.452894
-0.0205629 0.126224 -0.103425 -0.437534 0.569025 -0.696258
-0.111104 -0.296632 -0.0742513 -0.696319 -0.630128 -0.343626
-0.143073 0.0395064 -0.0226513 -0.49104 0.868903 -0.062354
-0.0199845 -0.245546 0.0832154 0.901997 0.0149553 0.431483
0.0243863 0.0476673 0.122542 0.161022 0.52762 0.83408
5.55112e-17 -0.0629867 0.0638413 0.00316825 -0.219407 0.975628
0.0464271 0.103251 -0.0910871 0.437346 -0.243449 -0.865714
-0.0397763 -0.440508 0.199942 -0.412851 0.709902 -0.570607
-0.150559 0.0313455 0.0268924 -0.914131 0.36838 0.169294
0.118204 0.0313455 0.0970311 0.702367 0.416188 0.577467
-0.0441459 0.126224 0.095778 -0.429309 0.728268 0.534154
-0.0612709 0.0641818 -0.0917297 -0.334774 0.782559 -0.524908
0.00800024 -0.440508 0.203701 -0.856579 0.515971 0.00674472
-0.0146832 0.0560209 -0.124084 -0.0968767 0.431707 -0.896797
0.0636807 0.00846929 -0.131313 0.243959 -0.761085 -0.601027
-0.0746368 0.126224 0.0746368 -0.456503 0.82187 0.340785
-0.10018 0.103251 0.0199203 -0.951368 -0.247701 0.183145
-0.175909 -0.440508 -0.103104 -0.57177 -0.0711913 0.817319
-0.0804201 0.0395064 -0.120357 -0.283142 0.870677 -0.402185
-0.103778 0.0165338 0.112293 -0.60316 -0.454608 0.655385
5.55112e-17 0.237777 -0.106349 -0.00948105 0.963084 0.269033
-0.0386518 0.0560209 -0.118911 -0.271193 0.434719 -0.858763
-0.169515 -0.440508 -0.113256 -0.821237 0 0.570587
-0.126687 0.0395064 0.0411579 -0.348552 0.930593 0.111838
5.55112e-17 0.0560209 -0.125048 0.00406723 0.431916 -0.901905
-0.0746047 -0.245546 -0.0418005 0.279988 0.814951 0.507406
0.101144 0.0476673 -0.0734801 0.681413 0.548351 -0.484755
-0.0156471 0.0395064 -0.132181 -0.0259376 0.93218 -0.361066
0.130478 0.0165338 0.0799382 0.762038 -0.451492 0.464168
-0.0243863 0.0476673 0.122542 -0.156539 0.569903 0.806663
-0.138382 -0.440508 -0.149691 0.641374 -0.423864 0.639515
0.0199203 0.0723427 -0.10018 0.214474 0.327837 -0.920067
-0.0353746 0.0723427 -0.0958423 -0.342638 0.313079 -0.885766
0.10818 0.0641818 0.0215268 0.568679 0.81573 0.105775
-0.129353 -0.440508 -0.157627 -0.553288 0.738299 -0.38573
-0.0983162 0.103251 0.0277278 -0.924973 -0.268685 0.268764
-0.0311013 0.0395064 -0.129514 -0.0957819 0.925855 -0.365537
-0.0104421 0.0395064 0.132791 -0.0135801 0.940281 0.340129
0.161483 -0.321693 0.0455596 0.811528 -0.544393 0.21227
5.55112e-17 0.349427 0.0261855 -0.000953361 0.567623 0.823288
-0.0100565 -0.245546 0.0849182 -0.999857 -0.0123775 0.0115536
5.55112e-17 -0.296632 0.133755 0.00736147 0.54956 -0.835422
0.0326114 0.126224 0.100373 0.445665 0.651986 0.613431
-0.0917618 0.0560209 -0.0848219 -0.65145 0.44656 -0.613349
5.55112e-17 0.308398 -0.0710062 0.00884137 -0.673023 -0.739569
-0.0539133 0.0641818 -0.09626 -0.30982 0.77625 -0.549043
0.109562 0.0641818 -0.0404189 0.511548 0.832936 -0.211037
0.07393 0.0395064 0.110654 0.218179 0.928113 0.301669
-0.0403868 0.126224 -0.097513 -0.407893 0.726509 -0.553
0.0515357 0.126224 -0.0920189 0.388284 0.815457 -0.429261
-0.0782996 0.0395064 -0.107762 -0.25618 0.906922 -0.33446
0.129514 0.0395064 0.0311013 0.363496 0.925667 0.104931
-0.0363063 -0.0794049 0.0499614 -0.699049 -0.317314 0.640813
-0.152551 0.0165338 -0.0120164 -0.902366 -0.426018 -0.0651416
0.0958423 0.0723427 0.0353746 0.887182 0.32287 0.32964
-0.109015 0.0476673 0.061046 -0.746259 0.53009 0.402619
-0.113578 0.0395064 0.0695925 -0.356051 0.908443 0.218994
0.0511823 -0.296632 -0.12357 0.61879 -0.475373 -0.625395
0.115441 0.0641818 -0.0182817 0.515398 0.853856 -0.0727674
0.0877456 -0.321693 -0.143169 0 0 -1
0.0792635 0.0641818 0.0857536 0.362503 0.840838 0.401975
-0.151844 0.0165338 -0.0179604 -0.888604 -0.44568 -0.10841
5.55112e-17 -0.00492871 -0.108373 0.00363226 -0.877793 -0.479026
-0.183459 -0.440508 0.0889987 -0.753062 -0.151125 0.640359
-0.00517285 0.315017 -0.0656727 -0.177825 -0.518164 -0.836591
0.0358565 -0.440508 -0.200713 0.945212 -0.311353 0.098152
0.0361135 0.0641818 0.111168 0.167485 0.87159 0.460737
0.116309 -0.321693 0.120968 0.586001 -0.531203 0.611904
-0.0981235 -0.296632 0.0907016 0.546998 0.667962 -0.504598
-0.152904 0.0313455 0.00298804 -0.904686 0.425786 0.0157763
-0.066733 0.0313455 0.137611 -0.397817 0.400204 0.825578
0.181789 -0.440508 0.0926293 -0.783006 0.556346 -0.278173
-0.124084 0.0560209 -0.0146832 -0.905188 0.410667 -0.109483
-0.0635521 -0.0376687 -0.0389409 -0.454332 -0.838256 -0.301511
-0.114317 0.0313455 0.101593 -0.676173 0.426088 0.601032
-0.122542 0.0476673 0.0243863 -0.813819 0.559638 0.156536
-0.0653193 0.0476673 -0.106606 -0.445341 0.526875 -0.723929
5.55112e-17 -0.434147 0.204311 -0.79301 -0.309 -0.525027
0.0650622 -0.245546 -0.055584 0.797828 -0.00235615 0.60288
0.121353 -0.296632 -0.0559374 -0.735737 0.614938 0.283799
0.135843 -0.321693 0.0987018 0.707361 -0.49287 0.506674
-0.0602749 -0.0376687 0.0437925 -0.446894 -0.826253 0.342917
-0.146992 -0.440508 -0.141306 0.913904 0 -0.40593
0.0640019 0.0165338 -0.138864 0.366286 -0.447084 -0.816058
0.0864926 0.0395064 0.101272 0.228107 0.92877 0.292152
0.133755 -0.296632 5.55112e-17 -0.789754 0.613352 0.00936644
0.0970311 0.0313455 0.118204 0.577482 0.421959 0.698903
-0.0357601 0.334423 -0.0219123 -0.407543 0.878644 -0.248785
-0.00459452 0.0641818 -0.116694 -0.0143217 0.881067 -0.472775
-0.00967098 -0.0794049 -0.0609818 -0.290782 -0.079723 -0.953462
-0.0146832 0.0476673 -0.124084 -0.0890744 0.540381 -0.836693
0.0215268 0.0641818 -0.10818 0.100887 0.825455 -0.555378
0.0570298 -0.0794049 0.0236152 0.847624 -0.437996 0.29949
-0.0557447 0.0313455 -0.142398 -0.328771 0.392799 -0.858847
-0.00327721 0.334423 -0.0418326 -0.0287591 0.851371 -0.523775
-0.124662 0.0560209 -0.0097995 -0.901644 0.426359 -0.0724935
-0.107152 0.00846929 -0.0990552 -0.486921 -0.734705 -0.472351
0.109562 0.0641818 -0.0129803 0.587275 0.807297 -0.0581318
0.106606 -0.440508 0.173949 -0.0894847 0.374717 -0.922811
-0.0987018 -0.321693 -0.135843 -0.878869 0.0313732 0.476031
0.0720986 0.0313455 0.13488 0.430662 0.423217 0.797131
0.113674 0.0395064 -0.0896092 0.391308 0.866203 -0.310759
5.55112e-17 0.0761983 0.102236 0.00445846 0.163605 0.986516
-0.00584757 -0.0376687 -0.0742834 -0.0928239 -0.653141 -0.751525
-0.0160647 0.334423 -0.0387482 -0.208016 0.844385 -0.493704
5.55112e-17 -0.00139447 -0.114767 0.00982949 -0.894802 -0.446354
-0.121321 0.00846929 -0.0810627 -0.571573 -0.726204 -0.38201
-0.130542 0.0395064 -0.0259606 -0.376609 0.923887 -0.067817
-0.0559374 -0.296632 -0.121353 0.374078 -0.437255 -0.817847
-0.071713 0.0641818 -0.0839544 -0.383438 0.814529 -0.435337
0.0243863 0.0560209 0.122542 0.163044 0.453364 0.876286
5.55112e-17 0.163141 0.112614 0.0116294 0.974869 0.222473
-0.0164503 -0.321693 -0.167009 -0.967465 0.225854 0.114022
5.55112e-17 -0.0952126 -0.0620099 -0.00560173 -0.243307 -0.969933
0.0432463 0.0560209 0.117208 0.338919 0.414292 0.844687
-0.163925 -0.321693 -0.0359529 -0.584996 -0.23311 0.776814
0.120261 0.0560209 0.0339287 0.86612 0.439455 0.238151
-0.125434 -0.321693 0.111457 -0.669649 -0.43051 0.60517
-0.0239365 0.0165338 0.151137 -0.137179 -0.436905 0.888986
5.55112e-17 -0.418275 0.204344 -0.00253169 -0.994663 0.10315
-0.10018 0.0641818 0.0461701 -0.523464 0.818192 0.237799
5.55112e-17 -0.408764 0.203572 0 -0.980155 0.198231
-0.010667 0.36742 -0.0173821 -0.486549 0.449736 -0.749005
-0.0695925 0.0395064 -0.113578 -0.215146 0.908857 -0.357339
5.55112e-17 0.0078267 0.14243 0.0049139 -0.887938 0.459937
-0.0201452 0.370408 -0.00318082 -0.817298 0.563413 -0.120788
0.0604677 0.0395064 -0.118686 0.169298 0.932717 -0.318399
-0.102075 0.103251 -0.00401619 -0.966726 -0.253249 -0.0361347
0.10018 0.0641818 0.0461701 0.529246 0.814106 0.239018
-0.201516 -0.440508 -0.0319367 0.72021 0.471621 -0.508794
-0.160583 -0.321693 -0.0487083 -0.34741 0.15926 0.92409
-0.0858179 0.00846929 0.11814 -0.363075 -0.751782 0.550455
0.0811912 0.0476673 -0.0950712 0.545816 0.525782 -0.652409
0.118686 0.0395064 -0.0604677 0.319097 0.932311 -0.170212
-0.0662831 0.00846929 -0.130092 -0.263389 -0.756807 -0.598222
0.0142976 0.00846929 0.145225 -0.0305047 -0.808954 0.58708
0.0917618 0.0560209 0.0848219 0.652356 0.449079 0.61054
-0.0381698 0.0641818 0.103489 -0.234502 0.75798 0.608666
0.0294949 -0.321693 0.16521 0.186826 -0.5147 0.836767
0.120357 0.0395064 -0.0804201 0.402218 0.87061 -0.2833
0.116502 0.0641818 0.00915691 0.477738 0.877452 0.0429417
0.0605962 0.0395064 0.131442 0.219968 0.851344 0.476265
0.0041447 0.126224 -0.105385 0.174785 -0.00122316 -0.984606
5.55112e-17 0.269168 0.0948463 -0.0409292 0.986368 -0.159383
0.0828298 0.126224 0.0652871 0.505634 0.79624 0.332168
-0.144229 0.00846929 0.0228441 -0.696545 -0.708704 0.112091
0.0339287 0.0560209 -0.120261 0.243095 0.447114 -0.86081
-0.0811912 0.0560209 -0.0950712 -0.567561 0.474354 -0.672951
0.124855 0.0395064 0.0460737 0.371395 0.919559 0.128359
0.122542 0.0560209 -0.0243863 0.877529 0.451208 -0.162339
5.55112e-17 0.323852 0.0571905 0.0335913 0.58569 0.809839
-0.137675 -0.321693 -0.0959708 0.725897 0 -0.687803
0.0652871 0.126224 -0.0828298 0.405634 0.83562 -0.370406
0.118718 -0.321693 0.118718 0.550297 -0.633768 0.543609
5.55112e-17 0.00419606 0.128261 -0.00514148 -0.926194 0.377013
-0.0137193 0.0641818 -0.115987 -0.0587075 0.857752 -0.5107
-0.0950712 0.0476673 0.0811912 -0.653777 0.522889 0.546957
-0.0610782 0.00846929 -0.132502 -0.237568 -0.762892 -0.601296
0.14937 0.0313455 -0.0327721 0.903251 0.376527 -0.205826
5.55112e-17 0.0395064 -0.133209 0.000872736 0.928067 -0.372411
0.0566764 -0.0376687 0.048387 0.406625 -0.832189 0.376985
-0.0750224 0.103251 -0.0693354 -0.705745 -0.277923 -0.651677
-0.16521 -0.321693 0.0294949 -0.850152 -0.518115 0.0938062
-0.0427644 0.0723427 -0.09279 -0.408673 0.327556 -0.851876
-0.104132 0.0641818 0.0530458 -0.429131 0.875057 0.223878
0.129353 -0.440508 -0.157627 0.326359 0.635934 0.699341
0.137611 0.0313455 -0.066733 0.822016 0.408718 -0.396534
5.55112e-17 0.249762 -0.102622 -0.0256499 0.966454 0.255556
-0.143105 0.00846929 0.0284667 -0.680234 -0.719067 0.142214
-0.044403 0.0313455 0.14635 -0.267173 0.397957 0.877638
0.0926293 -0.440508 -0.181789 -0.278549 0.772419 0.57077
-0.0205629 0.126224 0.103425 -0.451558 0.545986 0.705687
5.55112e-17 -0.0952126 0.0620099 -0.0249759 -0.305979 0.95171
0.070717 0.0395064 0.126301 0.239382 0.878608 0.413211
-0.117208 0.0560209 0.0432463 -0.832285 0.447774 0.326804
-0.103778 0.0165338 -0.112293 -0.603228 -0.453834 -0.655859
-0.13006 -0.296632 0.0312299 0.734174 0.620826 -0.274888
0.0715845 0.126224 -0.0774321 0.423857 0.838926 -0.34139
-0.0277278 0.0723427 0.0983162 -0.284681 0.307639 0.907918
-0.0534313 0.103251 -0.0871673 -0.504801 -0.260122 -0.823112
-0.0160005 0.103251 -0.100983 -0.188245 -0.200815 -0.961372
0.09626 0.0641818 0.0539133 0.549593 0.776147 0.3091
5.55112e-17 -0.321693 -0.167909 -0.427591 0.791128 0.437359
0.0146832 0.0560209 -0.124084 0.10612 0.463822 -0.87955
0.0315833 0.0723427 -0.0972238 0.317903 0.300191 -0.899346
-0.0197275 -0.321693 0.166624 -0.160578 -0.550812 0.819036
0.0432463 0.0560209 -0.117208 0.323542 0.424058 -0.845869
-0.0228441 0.00846929 0.144229 -0.0331861 -0.787311 0.615662
0.0715845 0.126224 0.0774321 0.420521 0.844308 0.332124
0.0910871 0.103251 0.0464271 0.8616 -0.255404 0.438651
0.0799382 0.0165338 0.130478 0.454604 -0.465624 0.759295
-0.0566764 -0.0376687 0.048387 -0.405087 -0.833023 0.376798
-0.120261 0.0560209 0.0339287 -0.845522 0.47785 0.238226
-0.119168 -0.296632 -0.0607247 -0.810975 -0.585072 -0.00324542
-0.101497 0.126224 0.0286274 -0.565057 0.813381 0.138285
0.203862 -0.440508 -0.00401619 0.923282 0.384122 0
0.0941715 0.0395064 -0.0941715 0.299762 0.905897 -0.299155
0.0732231 -0.321693 0.151009 0.353877 -0.606578 0.711923
0.1984 -0.440508 0.047648 0.601065 -0.747428 0.282969
-0.173949 -0.440508 -0.106606 -0.675919 0.0495258 0.73531
5.55112e-17 -0.294223 0.128197 0.00470239 0.446647 -0.894698
0.123056 -0.440508 -0.162575 -0.416921 0.637155 -0.648236
-0.0294949 -0.321693 -0.16521 -0.807482 0 0.589893
0.00334147 -0.245546 0.0854644 -0.843678 -0.397289 0.361066
5.55112e-17 -0.110988 -0.0622348 -0.00767007 -0.856356 -0.516329
-0.0295913 -0.245546 0.0802273 0.884581 -0.0232348 0.465807
0.106059 0.0641818 0.0489011 0.442771 0.867077 0.228322
-0.083858 -0.245546 0.0166752 0 0 1
-0.131056 -0.296632 -0.026057 -0.628827 -0.154609 0.762019
5.55112e-17 -0.179006 0.0695282 -0.309519 0.86529 -0.394298
-0.14484 0.0395064 5.55112e-17 -0.501025 0.865433 0.000241746
5.55112e-17 -0.377631 -0.197404 -0.0552826 0.942102 0.330739
-0.0961314 -0.440508 -0.179829 -0.806701 -0.40246 0.432734
-0.0209484 0.0313455 0.151491 -0.109817 0.428413 0.896885
5.55112e-17 0.0993636 -0.102236 0.00562261 -0.114279 -0.993433
0.010667 0.370408 -0.0173821 0.408515 0.649004 -0.641802
0.00915691 0.0641818 0.116502 0.036298 0.885871 0.46251
-0.0144261 0.370408 0.0144261 -0.546843 0.621888 0.560553
-0.0648694 0.0641818 -0.0970953 -0.285953 0.844468 -0.452885
-0.0864926 0.0395064 -0.101272 -0.268482 0.90688 -0.324786
-0.144261 -0.440508 0.144261 0.161501 0.0877292 -0.982965
-0.135811 0.0395064 0.0500899 -0.473497 0.864496 0.168662
0.0683073 0.0641818 -0.0866211 0.38714 0.780177 -0.491373
-0.0802273 0.0723427 0.0632308 -0.738172 0.338196 0.583717
-0.0437925 -0.0376687 0.0602749 -0.325608 -0.80856 0.490112
5.55112e-17 0.284076 0.0872316 -0.015659 0.891998 -0.451769
-0.0230047 -0.321693 0.166238 -0.179296 -0.516505 0.837302
-0.108212 0.0165338 -0.108212 -0.615354 -0.487615 -0.619331
-0.0732231 -0.321693 0.151009 -0.356763 -0.604942 0.711874
-0.0246433 0.126224 0.102622 -0.454492 0.624575 0.635093
0.117176 0.0395064 -0.0851432 0.398615 0.872126 -0.28373
0.0773357 0.0560209 0.0981235 0.550106 0.417003 0.723528
0.16778 -0.321693 0.00330934 0.882649 -0.469553 0.0212388
0.0792635 0.0641818 -0.0857536 0.365738 0.838035 -0.404887
0.111104 -0.296632 0.0742513 -0.629332 0.666096 -0.400322
0.044403 0.0313455 -0.14635 0.261224 0.425607 -0.866383
0.0129482 0.334423 0.0399048 0.154064 0.856658 0.492342
-0.108212 -0.296632 0.0786209 0.636005 0.632664 -0.441852
-0.043664 -0.0794049 -0.043664 -0.75579 -0.333952 -0.563256
-0.0824121 0.0395064 -0.104517 -0.239166 0.931975 -0.272438
-0.0146832 0.0560209 0.124084 -0.105627 0.412562 0.904785
0.0291736 0.0560209 0.121578 0.202451 0.497667 0.84341
-0.0362742 -0.296632 -0.128614 0.752113 -0.240876 -0.613437
0.199942 -0.440508 -0.0397763 -0.980737 0.159707 -0.11247
0.0181853 0.36742 0.00925329 0.786557 0.477474 0.391595
-0.0570298 -0.0794049 -0.0236152 -0.851955 -0.432751 -0.294785
-0.129064 0.0395064 0.0657691 -0.45439 0.861805 0.225436
-0.149948 0.0165338 -0.0298162 -0.874527 -0.453867 -0.170903
-0.0299447 0.0641818 0.106156 -0.168153 0.793516 0.584856
-0.0802273 -0.245546 0.0295913 0 0 1
-0.0866211 0.0641818 -0.0683073 -0.480288 0.789815 -0.381466
-0.0298162 0.0165338 -0.149948 -0.153742 -0.487387 -0.859545
-0.0827013 0.103251 -0.0600822 -0.784104 -0.264155 -0.561607
0.157402 -0.321693 -0.058058 0.798578 -0.526136 -0.292325
-0.114542 0.0641818 0.0227798 -0.484233 0.870206 0.0908858
5.55112e-17 -0.0346485 0.0765967 0.00285103 -0.66473 0.747079
0.0827013 0.103251 -0.0600822 0.781279 -0.27621 -0.559743
-0.0436961 -0.440508 0.199171 0.731299 0.504944 0.458513
0.120261 0.0476673 -0.0339287 0.814679 0.53364 -0.226993
0.0658655 0.315017 5.55112e-17 0.857006 -0.515274 -0.00577485
5.55112e-17 -0.220132 0.0785887 -0.370264 0.892392 -0.257955
0.126687 0.0395064 -0.0411579 0.360628 0.92438 -0.124376
0.0708777 -0.0376687 0.0230368 0.51484 -0.837618 0.182579
-0.0774321 0.126224 -0.0715845 -0.466694 0.820347 -0.330496
-0.196215 -0.440508 0.0553591 0.685305 -0.424555 -0.591702
-0.0848219 0.0560209 0.0917618 -0.611198 0.447243 0.653001
-0.0137193 0.0641818 0.115987 -0.04913 0.860411 0.507227
-0.137611 0.0313455 0.066733 -0.826731 0.39804 0.397594
0.0896092 0.0395064 -0.113674 0.311255 0.862368 -0.399302
-0.0722914 0.0641818 0.0916976 -0.280697 0.888326 0.363437
0.0693354 0.103251 0.0750224 0.654856 -0.275136 0.703892
-0.155121 -0.321693 -0.064259 0.481511 -0.00560761 -0.876422
-0.111457 -0.321693 -0.125434 -0.580485 0.75383 -0.307859
5.55112e-17 0.0641818 -0.116887 0.00437023 0.907029 -0.421046
0.152647 0.0313455 0.00899626 0.904926 0.422637 0.0498671
0.0277278 0.0723427 0.0983162 0.276528 0.302697 0.912089
-0.124502 0.00846929 0.0763075 -0.584472 -0.724207 0.365947
-0.00401619 0.0723427 -0.102075 -0.0819593 0.285885 -0.954753
-0.131924 0.0313455 -0.0773357 -0.788843 0.406704 -0.460781
0.19403 -0.440508 0.0630381 -0.849743 0.358423 -0.386613
0.00517285 0.315017 -0.0656727 0.183456 -0.518428 -0.83521
0.0166752 -0.245546 -0.083858 -0.118336 0.895731 0.428559
0.0827013 0.0723427 0.0600822 0.773416 0.320335 0.547004
-0.0802273 0.0723427 -0.0632308 -0.738769 0.336036 -0.584209
5.55112e-17 0.347114 -0.0276956 0.00648824 0.593621 -0.804719
-0.00330934 -0.321693 -0.16778 -0.905118 0.320371 0.279506
0.142398 0.0313455 -0.0557447 0.849074 0.413127 -0.32924
-0.0165146 0.370408 -0.0119843 -0.661462 0.598838 -0.451509
0.149691 -0.440508 0.138382 -0.0349748 -0.673726 0.738153
0.125466 0.0313455 -0.0874565 0.744319 0.411491 -0.52599
0.100983 0.103251 -0.0160005 0.956154 -0.252876 -0.147725
0.137771 0.0395064 0.0447564 0.435504 0.887071 0.153106
5.55112e-17 -0.374611 0.196375 0 0.980155 -0.198231
0.124662 0.0476673 -0.0097995 0.828308 0.557474 -0.0559406
0.160583 -0.321693 -0.0487083 0.800286 -0.556049 -0.224393
-0.0236152 -0.0794049 -0.0570298 -0.5686 -0.183519 -0.801882
-0.0097995 0.334423 0.0408045 -0.104472 0.843031 0.527622
-0.101497 0.126224 -0.0286274 -0.562034 0.815934 -0.135535
0.067247 -0.321693 0.15374 0.360236 -0.525867 0.770516
0.0849504 0.103251 -0.0567407 0.805308 -0.25178 -0.536737
-0.0567407 0.103251 -0.0849504 -0.540965 -0.25005 -0.803014
5.55112e-17 -0.0424238 -0.071713 0.000662412 -0.498579 -0.866844
0.129064 0.0395064 -0.0657691 0.44485 0.866464 -0.226603
-0.00828941 0.126224 -0.105224 -0.334532 0.152157 -0.93002
0.0652871 -0.296632 0.116598 -0.388041 0.645982 -0.657368
-0.0230368 -0.0376687 -0.0708777 -0.193707 -0.761774 -0.618205
0.0103136 0.315017 0.0650622 0.314189 -0.493776 0.810846
-0.165049 -0.440508 -0.119907 -0.659379 0.653138 -0.372331
0.0848219 0.0476673 0.0917618 0.592223 0.512656 0.621656
-0.0990552 0.00846929 -0.107152 -0.451392 -0.738468 -0.50091
-0.147988 0.0313455 0.0386196 -0.884448 0.400478 0.239517
-0.0792635 0.0641818 -0.0857536 -0.335166 0.863123 -0.377733
-0.0203701 0.315017 0.0626525 -0.414497 -0.528597 0.740796
-0.055327 -0.440508 -0.196215 -0.793441 -0.481916 -0.371764
0.0849182 -0.245546 0.0100565 0.945536 -0.00740535 -0.325435
0.0277278 0.103251 0.0983162 0.287334 -0.222269 0.931684
0.0635521 -0.0376687 0.0389409 0.456679 -0.836928 0.301654
5.55112e-17 -0.24047 0.0841793 -0.84595 0.533144 -0.0112439
0.0664117 -0.0376687 0.0338324 0.49076 -0.830081 0.264802
0.0294949 -0.321693 -0.16521 0.960516 0.120413 0.250818
5.55112e-17 -0.334609 -0.177162 -0.107711 -0.807944 -0.579331
0.0173821 0.370408 0.010667 0.686202 0.598601 0.413284
-0.101144 0.0560209 0.0734801 -0.709808 0.480788 0.514797
0.14137 0.0165338 -0.0585721 0.833918 -0.435271 -0.339294
0.114542 0.0641818 -0.0227798 0.507191 0.856631 -0.0945606
0.116598 -0.296632 -0.0652871 -0.714122 0.652306 0.254023
5.55112e-17 -0.386852 -0.199813 -0.0234778 0.963502 0.266671
-0.0685322 0.126224 0.0802595 -0.471403 0.779526 0.412453
-0.121578 0.0560209 -0.0291736 -0.858978 0.468195 -0.207246
0.0465878 0.315017 0.0465878 0.646008 -0.503379 0.573831
-0.0896092 0.0395064 -0.113674 -0.311638 0.866848 -0.389173
0.169515 -0.440508 -0.113256 -0.463861 0.483741 0.742178
-0.028531 -0.0376687 0.0688535 -0.229806 -0.781495 0.580047
0.0742513 -0.296632 0.111104 -0.39993 0.630354 -0.665364
0.0824121 0.0395064 0.104517 0.231162 0.933888 0.272794
-0.0413185 -0.296632 0.127201 0.209371 0.634327 -0.744173
0.00523711 -0.296632 -0.13353 -0.516743 -0.402662 -0.755539
-0.124084 0.0476673 -0.0146832 -0.849954 0.51969 -0.0866068
0.044403 0.0313455 0.14635 0.2569 0.450266 0.855139
0.0509574 0.0395064 -0.123056 0.153449 0.921232 -0.357469
0.0315833 0.103251 -0.0972238 0.309135 -0.226155 -0.923737
0.0607247 -0.296632 0.119168 -0.32302 0.67393 -0.664437
0.00584757 -0.0376687 0.0742834 0.0948761 -0.654592 0.750005
0.162382 -0.321693 0.0423788 0.878732 -0.432185 0.202598
-0.165852 -0.321693 0.0262819 -0.850178 -0.522113 0.0677927
0.143073 0.0395064 0.0226513 0.516792 0.853452 0.067424
-0.152904 0.0313455 -0.00298804 -0.900471 0.434631 -0.0157348
0.072452 -0.0376687 0.0173821 0.539202 -0.832479 0.127438
0.09279 0.0723427 0.0427644 0.849586 0.346164 0.397963
0.139313 0.0395064 -0.0392944 0.523804 0.838186 -0.151901
-0.0746047 -0.245546 0.0418005 -0.199496 0.0030262 -0.979894
5.55112e-17 0.273024 -0.0931755 -0.0357789 -0.701267 0.712
0.0199203 0.103251 0.10018 0.212053 -0.206523 0.955187
0.202448 -0.440508 0.0239686 0.174023 0.653598 -0.736563
0.101465 0.0723427 -0.0120164 0.947021 0.3045 -0.102127
0.0853681 0.126224 -0.062042 0.503171 0.810013 -0.301161
0.0427644 0.103251 0.09279 0.40397 -0.251489 0.879523
0.0197275 -0.321693 -0.166624 0.955201 0.234405 0.18068
0.0120164 0.0165338 0.152551 0.0499038 -0.395951 0.916914
-0.0729661 -0.245546 0.0447243 -0.724213 -0.02697 -0.689048
0.0920189 0.126224 -0.0515357 0.530231 0.808033 -0.256782
-0.173949 -0.440508 0.106606 0.355347 -0.863628 -0.357596
-0.113449 0.0560209 -0.0523068 -0.81202 0.442822 -0.380173
-0.101144 0.0476673 -0.0734801 -0.681557 0.551713 -0.480721
-0.0617529 -0.0794049 5.55112e-17 -0.890718 -0.454443 0.0101733
0.060532 -0.245546 0.060532 -0.434164 0.0376853 0.900045
-0.0554234 0.0395064 -0.133819 -0.195382 0.855332 -0.479826
-0.0899304 0.0165338 0.123795 -0.522007 -0.438072 0.731848
5.55112e-17 -0.116257 0.0623312 0.0192711 -0.885474 0.464289
0.00584757 -0.0376687 -0.0742834 0.0988046 -0.657733 -0.746743
0.100373 0.126224 0.0326114 0.551123 0.819452 0.15736
-0.132084 -0.296632 -0.0209163 -0.380237 -0.00788173 0.924856
-0.0899304 0.0165338 -0.123795 -0.520747 -0.444475 -0.728879
-0.120357 0.0395064 0.0804201 -0.401565 0.871955 0.28007
0.151491 0.0313455 0.0209484 0.896694 0.427209 0.115903
-0.00655442 0.334423 -0.041447 -0.0586135 0.870469 -0.488721
-0.104742 0.126224 0.012402 -0.574763 0.815616 0.0664706
5.55112e-17 0.00162571 0.121417 0.00865416 -0.915286 0.402711
-0.123056 -0.440508 -0.162575 -0.541495 0.552806 -0.633394
0.195122 -0.440508 0.0591825 -0.723232 0.349387 -0.595705
-0.132084 -0.296632 0.0209163 0.72622 0.591153 -0.350917
0.0584757 0.00846929 -0.133691 0.215531 -0.767602 -0.603601
-0.0386518 0.0476673 0.118911 -0.275911 0.502246 0.819526
0.0549736 -0.321693 0.158559 0.28167 -0.571994 0.77038
0.0280169 -0.0794049 -0.0550057 0.63547 -0.234439 -0.735675
0.203701 -0.440508 -0.00800024 -0.486198 0.86554 -0.120214
0.0182817 0.0641818 -0.115441 0.0656975 0.878022 -0.47409
0.0917618 0.0476673 -0.0848219 0.619844 0.516251 -0.590997
0.0786209 -0.296632 0.108212 -0.42566 0.659938 -0.619109
-0.0199845 -0.440508 0.20293 0.537209 -0.6217 0.569996
0.0972238 0.0723427 0.0315833 0.899025 0.30841 0.310866
5.55112e-17 -0.142507 -0.064516 0.0227416 -0.965312 -0.260107
0.113256 -0.440508 0.169515 -0.352479 -0.693944 -0.627854
-0.0119843 0.370408 -0.0165146 -0.463793 0.634692 -0.618112
-0.0499292 0.0723427 0.0891272 -0.454015 0.33017 0.827562
0.0945571 0.0641818 -0.0686929 0.427273 0.861792 -0.273409
0.0120164 0.0723427 -0.101465 0.155487 0.308528 -0.938421
5.55112e-17 -0.389936 0.200617 0.00449473 0.935258 -0.353938
5.55112e-17 0.188234 0.11361 0.0597663 0.994494 0.086075
-0.0198239 0.36742 0.00475516 -0.878045 0.439682 0.188988
-0.0811912 0.0476673 0.0950712 -0.55598 0.510376 0.656051
-0.110044 0.0641818 0.00867496 -0.56099 0.826971 0.0375277
0.0338002 0.0395064 0.140856 0.12776 0.85252 0.50684
0.0500899 0.0395064 -0.135811 0.172125 0.856283 -0.486982
-0.0264426 -0.245546 0.081384 0.78455 -0.130654 0.606144
-0.0172857 0.0641818 0.109047 -0.0764063 0.815282 0.574
5.55112e-17 -0.345501 0.183749 0.192442 -0.811562 0.551665
0.0295913 -0.245546 -0.0802273 0.187298 0.870825 0.454514
0.092308 0.0313455 -0.121931 0.55064 0.385786 -0.740246
0.0423788 -0.321693 -0.162382 1 0 0
-0.0853038 -0.245546 -0.00671506 -0.170048 0.0787635 0.982283
-0.0827334 -0.296632 -0.104935 -0.461525 -0.572096 -0.678012
-0.0236152 -0.0794049 0.0570298 -0.570153 -0.21073 0.794052
0.117208 0.0476673 0.0432463 0.813092 0.487694 0.317861
0.00401619 -0.440508 -0.203862 -0.341374 -0.939692 -0.0210469
-0.0773357 0.0313455 0.131924 -0.460057 0.411115 0.786977
-0.0478408 0.0560209 -0.115506 -0.375017 0.40553 -0.833611
-0.0693354 0.103251 0.0750224 -0.651865 -0.273542 0.707281
-0.0315833 0.0723427 -0.0972238 -0.319758 0.286642 -0.903101
5.55112e-17 0.305089 0.0735444 0.00617991 -0.700166 0.713953
-0.0252217 0.315017 0.0608533 -0.453905 -0.5039 0.734885
0.201516 -0.440508 0.0319367 0.704087 0.627278 0.332841
-0.0750224 0.0723427 0.0693354 -0.695866 0.317508 0.644173
0.160101 -0.440508 0.126205 -0.719538 0.369568 -0.587949
-0.0262819 -0.321693 -0.165852 -0.975289 0.141439 0.169724
0.0165146 0.126224 -0.104228 0.44219 0.434442 -0.784683
-0.0845327 -0.245546 0.013398 0.461622 -0.191268 0.866211
-0.0635521 -0.0376687 0.0389409 -0.460257 -0.832259 0.309046
0.0824121 0.0395064 -0.104517 0.21723 0.94207 -0.255569
-0.103875 -0.321693 -0.131763 -0.885846 -0.00183416 0.463976
5.55112e-17 0.284076 -0.0872316 -0.205425 0.584672 0.78483
-0.144904 0.00846929 0.0171571 -0.691957 -0.71697 0.0845541
0.106477 -0.321693 0.129739 0.538627 -0.556264 0.632813
0.0554234 0.0395064 -0.133819 0.183408 0.876027 -0.446025
0.0777534 0.103251 0.0664117 0.734879 -0.260595 0.626133
0.148792 0.0165338 -0.035728 0.87057 -0.44507 -0.209812
-0.0319046 -0.440508 -0.201516 -0.0732484 -0.527894 -0.846146
0.0097995 0.0560209 0.124662 0.0593749 0.428987 0.901357
0.0600822 0.0723427 0.0827013 0.552749 0.310153 0.773482
-0.101883 0.0641818 -0.057062 -0.441067 0.86196 -0.249969
0.0586042 0.126224 -0.0876814 0.395259 0.834874 -0.383086
-0.0386518 0.0476673 -0.118911 -0.274468 0.503642 -0.819153
-0.00401619 0.0723427 0.102075 -0.0608653 0.29458 0.953686
5.55112e-17 -0.383768 0.19901 0.00438465 0.979725 -0.2003
-0.116598 -0.440508 0.167266 0.258983 0.775288 0.57607
0.0889987 -0.440508 -0.183459 -0.30084 -0.0591816 -0.951837
-0.0650622 -0.245546 0.055584 -0.793789 -0.00577127 -0.608166
-0.135426 -0.440508 -0.152422 0.893217 -0.0310684 0.44855
-0.0396157 0.00846929 -0.140438 -0.127619 -0.773088 -0.621328
-0.0550057 -0.0794049 0.0280169 -0.830263 -0.428797 0.356085
0.132727 -0.296632 -0.0157113 -0.76839 0.632049 0.100459
0.0823158 -0.245546 -0.0231975 -0.0498763 0.0454649 -0.99772
0.0626525 0.315017 0.0203701 0.82454 -0.505289 0.25459
0.0849504 0.0723427 -0.0567407 0.773391 0.342029 -0.533744
0.103875 -0.321693 -0.131763 -0.593267 -0.123377 -0.795495
-0.139506 -0.321693 -0.0932077 0.838227 -0.532459 0.117738
-0.105224 0.126224 0.00828941 -0.586197 0.809159 0.0404191
-0.0758899 0.0641818 0.0888702 -0.327466 0.861884 0.387199
5.55112e-17 -0.267137 -0.09626 -0.953781 -0.231986 0.191011
0.086846 -0.296632 -0.10169 0.858512 -0.0633759 0.508862
5.55112e-17 -0.331911 0.175491 0.0088369 -0.770437 0.637454
-0.0173821 -0.0376687 0.072452 -0.155833 -0.734713 0.660236
0.0408045 0.334423 0.0097995 0.577082 0.808104 0.118089
-0.0179604 0.0165338 0.151844 -0.0965368 -0.43131 0.897024
5.55112e-17 -0.306914 0.152487 0.000390712 0.780389 0.625294
-0.0853038 -0.245546 0.00671506 -0.208976 0.0170086 0.977773
5.55112e-17 0.280381 0.0892236 -0.0343282 0.924178 -0.380416
-0.0399048 0.334423 0.0129482 -0.499013 0.856106 0.134421
-0.00517285 0.315017 0.0656727 -0.192072 -0.512903 0.836683
0.039198 -0.321693 0.163282 0.220296 -0.526024 0.821443
0.0981235 -0.296632 -0.0907016 -0.72554 0.627269 0.283063
0.114028 -0.296632 -0.0698816 -0.733398 0.638396 0.233619
-0.0559374 -0.296632 0.121353 0.308337 0.60161 -0.736881
-0.120068 0.0165338 -0.0946535 -0.708826 -0.434612 -0.555588
0.123056 -0.440508 0.162575 0.907022 -0.15397 0.391923
5.55112e-17 -0.00888064 0.102236 -0.000711583 -0.855023 0.51859
0.0391337 0.0723427 0.0944607 0.374801 0.301176 0.876822
-0.131056 -0.296632 0.026057 0.74103 0.607073 -0.286944
-0.0932077 -0.321693 -0.139506 -0.874644 0.00661557 0.484721
-0.101915 0.103251 -0.00803237 -0.961788 -0.264664 -0.0701193
0.0854644 -0.245546 0.00334147 0.342548 0.00174404 -0.939499
0.1459 0.00846929 -0.00285952 0.691632 -0.722125 -0.0134479
-0.0199203 0.103251 0.10018 -0.224789 -0.208275 0.951889
5.55112e-17 -0.0232425 -0.0857215 0.000170226 -0.773413 -0.633903
0.0970953 0.0641818 -0.0648694 0.42027 0.86509 -0.273846
0.200745 -0.440508 0.0358565 -0.576008 -0.803166 -0.152115
-0.0941394 0.0641818 -0.0576724 -0.487399 0.817047 -0.30802
0.03274 -0.245546 -0.0790707 0.228534 0.831634 0.506119
-0.111168 0.0641818 0.0361135 -0.491251 0.855971 0.161199
-0.0605962 0.0395064 -0.131442 -0.217603 0.863802 -0.454418
5.55112e-17 -0.256728 0.0901232 -0.275929 -0.877046 0.39326
0.0864926 0.0395064 -0.101272 0.260914 0.907653 -0.32877
5.55112e-17 0.00162571 -0.121417 0.00878172 -0.914959 -0.403451
-0.189885 -0.440508 0.0743155 0.320388 -0.706887 0.630604
-0.0664117 0.0723427 0.0777534 -0.632117 0.293193 0.717263
0.128711 0.00846929 -0.0687892 0.610173 -0.720109 -0.330352
0.139506 -0.321693 -0.0932077 0.641604 -0.512515 -0.570677
-0.043664 -0.0794049 0.043664 -0.74068 -0.363586 0.564977
0.0880669 0.00846929 0.116341 0.373779 -0.750445 0.545088
0.0476159 -0.440508 -0.1984 0.998995 -0.0204402 0.0398933
-0.116502 0.0641818 -0.00915691 -0.504666 0.862266 -0.0425315
0.0338002 0.0395064 -0.140856 0.128264 0.851893 -0.507766
0.0509574 0.0395064 0.123056 0.130422 0.937214 0.323451
0.0891272 0.0723427 0.0499292 0.829174 0.332256 0.44953
-0.152197 0.0313455 -0.0150045 -0.899689 0.428857 -0.081495
0.10908 0.00846929 0.0969347 0.502726 -0.730392 0.462378
0.136325 0.0165338 0.069464 0.79111 -0.457879 0.405575
0.0609818 -0.0794049 -0.00967098 0.877853 -0.46414 -0.118104
-0.169515 -0.440508 0.113256 -0.298202 0.464119 -0.834068
0.0462665 -0.296632 0.125369 -0.250426 0.607431 -0.753866
0.0298162 0.0165338 -0.149948 0.156126 -0.475381 -0.865816
-0.177869 -0.440508 0.0996014 0.241106 -0.770679 0.589849
0.00925329 0.36742 0.0181853 0.373992 0.514479 0.771649
0.035728 0.0165338 -0.148792 0.18776 -0.487335 -0.85279
5.55112e-17 -0.0473396 0.0692391 -0.000576954 -0.421165 0.906984
0.0791028 -0.321693 0.147988 0.412482 -0.496252 0.763932
-0.055584 -0.245546 0.0650622 -0.78455 0.130654 -0.606144
0.20293 -0.440508 -0.0199845 -0.726953 -0.158033 0.668255
5.55112e-17 0.327772 0.0524032 0.00252592 0.858652 0.512553
-0.08932 0.0641818 -0.0649016 -0.460792 0.817269 -0.346037
0.0195669 0.0560209 -0.123506 0.144465 0.457742 -0.87727
5.55112e-17 -0.415094 0.204247 -0.00438465 -0.979725 0.2003
5.55112e-17 0.241826 0.10532 0.0343282 -0.924178 0.380416
-0.0432463 0.0476673 -0.117208 -0.319012 0.459921 -0.828676
0.0750224 0.103251 -0.0693354 0.706271 -0.276474 -0.651724
5.55112e-17 -0.251233 0.0876493 -0.523715 -0.759947 0.384971
0.146382 -0.321693 -0.0819945 0.70238 -0.572083 -0.423536
-0.0839544 0.0641818 0.071713 -0.43843 0.811505 0.386315
-0.149948 0.0165338 0.0298162 -0.874438 -0.454081 0.170789
5.55112e-17 0.0239557 -0.153033 -0.000445869 -0.0123321 -0.999924
0.00658655 -0.321693 -0.167652 0.858584 0.460954 0.224401
0.0317118 0.0641818 -0.112389 0.145365 0.846342 -0.51242
-0.0387482 0.334423 -0.0160647 -0.455916 0.874693 -0.164479
5.55112e-17 -0.380715 -0.198207 0.0116959 0.998545 0.0526459
0.130478 0.0165338 -0.0799382 0.761627 -0.451972 -0.464376
5.55112e-17 0.196587 -0.113256 0.00948105 -0.963084 -0.269033
0.0600822 0.0723427 -0.0827013 0.55206 0.315138 -0.771957
-0.098252 0.0395064 -0.106284 -0.344392 0.864763 -0.365484
0.0839544 0.0641818 0.0716809 0.449658 0.805943 0.38505
0.0299447 0.0641818 0.106156 0.161699 0.806495 0.568699
0.0944607 0.0723427 -0.0391337 0.867326 0.342963 -0.360725
0.0832154 -0.245546 0.0199845 -0.106867 -0.127882 0.986015
5.55112e-17 -0.0346485 -0.0765967 0.000923275 -0.665906 -0.746035
0.0848219 0.0560209 -0.0917618 0.611158 0.450227 -0.650985
-0.0845327 -0.245546 -0.013398 -0.161353 0.176805 0.97093
-0.143169 -0.321693 0.0877456 -0.718433 -0.528748 0.451972
0.0648694 0.0641818 0.0970953 0.271475 0.865721 0.420509
-0.0591825 -0.440508 -0.195122 0.848044 -0.240899 -0.472006
0.0827334 -0.296632 -0.104935 0.970018 -0.14602 0.194278
-0.0652871 0.126224 -0.0828298 -0.46694 0.768119 -0.438133
0.135843 -0.321693 -0.0987018 0.618489 -0.498883 -0.607113
-0.0246433 0.126224 -0.102622 -0.439615 0.638254 -0.631958
0.00318082 0.36742 0.0201452 0.11874 0.479473 0.869487
-0.067247 -0.321693 -0.15374 0.891442 0.00771882 -0.453069
-0.156278 -0.321693 0.0611746 -0.822501 -0.474101 0.314197
0.144775 -0.321693 0.084854 0.665942 -0.647747 0.37006
-0.0780747 0.0641818 0.0780747 -0.337499 0.87847 0.338207
-0.061046 0.0476673 0.109015 -0.403923 0.529866 0.745713
-0.110236 0.0313455 -0.105995 -0.651776 0.440441 -0.617414
-0.00658655 -0.321693 0.167652 -0.0953895 -0.575941 0.811907
0.0103136 0.315017 -0.0650622 0.300229 -0.504481 -0.809544
5.55112e-17 -0.365614 0.193227 0.0632954 0.901131 -0.428902
5.55112e-17 -0.256728 -0.0901232 -0.98117 0.00907908 0.192934
-0.0959708 -0.321693 0.137675 -0.513533 -0.490415 0.704114
0.048387 -0.0376687 -0.0566764 0.344237 -0.828651 -0.441404
5.55112e-17 0.175671 0.113642 -0.0354195 0.991472 0.125415
0.123795 0.0165338 0.0899304 0.724518 -0.44475 0.526565
-0.00655442 0.334423 0.041447 -0.0570361 0.87615 0.478652
0.0160647 0.334423 0.0387482 0.197565 0.844253 0.498202
0.077657 -0.245546 -0.0357923 0.433946 -0.106152 0.894663
-0.10169 -0.296632 0.086846 0.623536 0.574896 -0.529808
0.0611746 -0.321693 -0.156278 -0.0711737 -0.728395 0.681451
0.0722914 0.103251 -0.0722914 0.68227 -0.268594 -0.679974
-0.181789 -0.440508 -0.0926293 -0.513999 0.0277617 0.857342
0.105192 0.00846929 -0.101144 0.478875 -0.737658 -0.475961
0.0097995 0.334423 0.0408045 0.109452 0.844089 0.524914
0.0969347 0.00846929 0.10908 0.426404 -0.746311 0.511077
-0.0418326 0.334423 -0.00327721 -0.490786 0.870412 -0.0388797
-0.129353 -0.440508 0.157627 0.632523 0.684345 -0.362748
-0.1281 0.0395064 0.0361135 -0.418561 0.898232 0.134112
-0.146029 0.00846929 5.55112e-17 -0.697358 -0.716723 0.000126384
