ply
format ascii 1.0
element vertex 1699
property float x
property float y
property float z
end_header
0.178724 0.023562 -0.302497
0.178870 0.024135 -0.298080
0.179017 0.024707 -0.293664
0.179165 0.025278 -0.289247
0.179311 0.025845 -0.284830
0.179456 0.026411 -0.280413
0.179589 0.026969 -0.275994
0.179705 0.027512 -0.271573
0.179802 0.028034 -0.267149
0.179880 0.028528 -0.262721
0.179936 0.028978 -0.258289
0.179973 0.029380 -0.253851
0.179994 0.029730 -0.249409
0.179999 0.030022 -0.244963
0.179988 0.030248 -0.240513
0.179958 0.030385 -0.236059
0.179911 0.030424 -0.231604
0.179847 0.030365 -0.227149
0.179768 0.030196 -0.222698
0.179672 0.029903 -0.218254
0.179560 0.029471 -0.213820
0.179428 0.028863 -0.209408
0.179278 0.028067 -0.205027
0.179111 0.027076 -0.200687
0.178925 0.025866 -0.196404
0.178722 0.024418 -0.192198
0.178501 0.022710 -0.188091
0.178263 0.020725 -0.184113
0.178009 0.018450 -0.180294
0.177741 0.015888 -0.176661
0.177464 0.013117 -0.173183
0.177188 0.010346 -0.169705
0.176909 0.007520 -0.166274
0.176623 0.004484 -0.163025
0.176337 0.001449 -0.159775
0.176048 -0.001736 -0.156678
0.175756 -0.005042 -0.153705
0.175465 -0.008408 -0.150806
0.175173 -0.011978 -0.148154
0.174883 -0.015591 -0.145568
0.174598 -0.019397 -0.143268
0.174319 -0.023275 -0.141100
0.174049 -0.027275 -0.139155
0.173798 -0.031380 -0.137449
0.173562 -0.035546 -0.135888
0.173351 -0.039774 -0.134500
0.173178 -0.044037 -0.133213
0.173043 -0.048289 -0.131889
0.172954 -0.052484 -0.130396
0.172923 -0.056528 -0.128547
0.172955 -0.060267 -0.126153
0.173047 -0.063519 -0.123140
0.173183 -0.066200 -0.119604
0.173345 -0.068374 -0.115719
0.173522 -0.069915 -0.111542
0.173701 -0.071212 -0.107290
0.173882 -0.072246 -0.102960
0.174059 -0.073039 -0.098583
0.174235 -0.073696 -0.094179
0.174408 -0.074245 -0.089763
0.174576 -0.074626 -0.085326
0.174744 -0.075008 -0.080890
0.174906 -0.075253 -0.076445
0.175065 -0.075435 -0.071995
0.175224 -0.075618 -0.067546
0.175393 -0.075771 -0.063096
0.175577 -0.075891 -0.058646
0.175808 -0.076035 -0.054198
0.176068 -0.076195 -0.049753
0.176353 -0.076369 -0.045310
0.176667 -0.076558 -0.040869
0.177008 -0.076762 -0.036431
0.177365 -0.076975 -0.031994
0.177738 -0.077198 -0.027560
0.178130 -0.077431 -0.023128
0.178531 -0.077670 -0.018696
0.178939 -0.077914 -0.014266
0.179354 -0.078162 -0.009836
0.179769 -0.078412 -0.005407
0.180182 -0.078662 -0.000977
0.180591 -0.078911 0.003453
0.180991 -0.079158 0.007884
0.181377 -0.079399 0.012317
0.181749 -0.079635 0.016750
0.182106 -0.079864 0.021186
0.182434 -0.080081 0.025624
0.182736 -0.080286 0.030065
0.183012 -0.080480 0.034508
0.183259 -0.080661 0.038954
0.183456 -0.080819 0.043403
0.183616 -0.080959 0.047853
0.183734 -0.081081 0.052306
0.183810 -0.081183 0.056760
-0.112466 0.014101 -0.439687
-0.109990 0.017496 -0.441065
-0.107186 0.020664 -0.442351
-0.103992 0.023494 -0.443502
-0.100526 0.026037 -0.444538
-0.096871 0.028342 -0.445476
-0.093048 0.030401 -0.446315
-0.089089 0.032227 -0.447059
-0.085030 0.033855 -0.447722
-0.080893 0.035302 -0.448312
-0.076694 0.036587 -0.448836
-0.072446 0.037728 -0.449302
-0.068160 0.038741 -0.449716
-0.063841 0.039627 -0.450078
-0.059497 0.040400 -0.450395
-0.055136 0.041084 -0.450676
-0.050762 0.041693 -0.450926
-0.046375 0.042221 -0.451144
-0.041978 0.042663 -0.451326
-0.037575 0.043057 -0.451489
-0.033166 0.043390 -0.451628
-0.028752 0.043657 -0.451740
-0.024336 0.043895 -0.451840
-0.019916 0.044062 -0.451911
-0.015495 0.044203 -0.451973
-0.011073 0.044296 -0.452014
-0.006650 0.044357 -0.452042
-0.002226 0.044382 -0.452057
0.002197 0.044380 -0.452056
0.006621 0.044355 -0.452042
0.011044 0.044290 -0.452011
0.015466 0.044197 -0.451970
0.019887 0.044050 -0.451906
0.024307 0.043884 -0.451835
0.028722 0.043640 -0.451732
0.033136 0.043369 -0.451619
0.037545 0.043037 -0.451480
0.041948 0.042638 -0.451316
0.046344 0.042192 -0.451131
0.050731 0.041665 -0.450914
0.055105 0.041054 -0.450663
0.059465 0.040367 -0.450381
0.063809 0.039592 -0.450064
0.068128 0.038710 -0.449703
0.072414 0.037697 -0.449289
0.076663 0.036558 -0.448824
0.080864 0.035275 -0.448301
0.085003 0.033832 -0.447712
0.089063 0.032209 -0.447051
0.093025 0.030388 -0.446310
0.096851 0.028334 -0.445473
0.100510 0.026034 -0.444536
0.103979 0.023494 -0.443502
0.107173 0.020665 -0.442351
0.109977 0.017497 -0.441065
0.112453 0.014101 -0.439688
0.098264 0.035907 0.415738
0.098381 0.036039 0.411287
0.098497 0.036172 0.406836
0.098626 0.036305 0.402385
0.098755 0.036439 0.397934
0.098897 0.036573 0.393483
0.099039 0.036708 0.389033
0.099190 0.036843 0.384583
0.099343 0.036978 0.380133
0.099503 0.037113 0.375683
0.099665 0.037249 0.371233
0.099833 0.037384 0.366783
0.100002 0.037518 0.362334
0.100174 0.037652 0.357884
0.100349 0.037786 0.353435
0.100525 0.037919 0.348986
0.100701 0.038051 0.344537
0.100879 0.038183 0.340087
0.101056 0.038312 0.335638
0.101232 0.038442 0.331188
0.101406 0.038569 0.326738
0.101580 0.038694 0.322289
0.101750 0.038818 0.317839
0.101917 0.038941 0.313389
0.102080 0.039061 0.308939
0.102238 0.039179 0.304489
0.102393 0.039296 0.300038
0.102539 0.039409 0.295587
0.102684 0.039522 0.291136
0.102817 0.039630 0.286685
0.102948 0.039737 0.282233
0.103067 0.039840 0.277781
0.103181 0.039941 0.273329
0.103285 0.040039 0.268876
0.103382 0.040134 0.264424
0.103468 0.040227 0.259971
0.103546 0.040316 0.255517
0.103614 0.040403 0.251064
0.103683 0.040477 0.246610
0.103765 0.040517 0.242157
0.103869 0.040514 0.237703
0.103987 0.040474 0.233250
0.104116 0.040402 0.228798
0.104251 0.040301 0.224346
0.104389 0.040173 0.219895
0.104527 0.040018 0.215445
0.104661 0.039842 0.210996
0.104787 0.039646 0.206547
0.104904 0.039434 0.202099
0.105007 0.039207 0.197651
0.105094 0.038969 0.193204
0.105162 0.038720 0.188757
0.105208 0.038462 0.184309
0.105228 0.038198 0.179863
0.105220 0.037930 0.175416
0.105190 0.037657 0.170969
0.105152 0.037377 0.166524
0.105118 0.037082 0.162079
0.105087 0.036775 0.157635
0.105058 0.036459 0.153191
0.105032 0.036132 0.148748
0.105009 0.035792 0.144307
0.104988 0.035443 0.139866
0.104970 0.035087 0.135426
0.104954 0.034722 0.130985
0.104941 0.034348 0.126547
0.104929 0.033968 0.122108
0.104919 0.033582 0.117670
0.104912 0.033191 0.113232
0.104906 0.032793 0.108795
0.104902 0.032394 0.104359
0.104899 0.031990 0.099922
0.104896 0.031585 0.095485
0.104896 0.031178 0.091050
0.104896 0.030770 0.086613
0.104897 0.030362 0.082177
0.104899 0.029955 0.077741
0.104901 0.029549 0.073305
0.104903 0.029144 0.068869
0.104906 0.028741 0.064432
0.104909 0.028343 0.059995
0.104913 0.027947 0.055558
0.105218 0.027719 0.046679
0.105524 0.027882 0.042238
0.105835 0.028044 0.037797
0.106150 0.028207 0.033356
0.106466 0.028370 0.028915
0.106785 0.028533 0.024475
0.107107 0.028696 0.020035
0.107430 0.028859 0.015595
0.107754 0.029022 0.011155
0.108079 0.029186 0.006715
0.108405 0.029350 0.002275
0.108731 0.029514 -0.002165
0.109058 0.029679 -0.006604
0.109385 0.029844 -0.011044
0.109712 0.030009 -0.015484
0.110039 0.030175 -0.019923
0.110366 0.030342 -0.024363
0.110692 0.030509 -0.028803
0.111018 0.030676 -0.033243
0.111343 0.030844 -0.037682
0.111667 0.031013 -0.042122
0.111990 0.031182 -0.046562
0.112312 0.031352 -0.051002
0.112633 0.031523 -0.055442
0.112952 0.031695 -0.059882
0.113270 0.031867 -0.064322
0.113908 0.032215 -0.073202
0.114231 0.032389 -0.077642
0.114563 0.032563 -0.082081
0.114900 0.032737 -0.086519
0.115240 0.032911 -0.090957
0.115589 0.033083 -0.095395
0.115938 0.033256 -0.099833
0.116293 0.033427 -0.104270
0.116650 0.033598 -0.108707
0.117009 0.033769 -0.113144
0.117371 0.033937 -0.117581
0.117733 0.034106 -0.122018
0.118096 0.034271 -0.126455
0.118460 0.034436 -0.130892
0.118823 0.034600 -0.135329
0.119186 0.034761 -0.139766
0.119549 0.034922 -0.144203
0.119908 0.035079 -0.148641
0.120267 0.035236 -0.153078
0.120623 0.035389 -0.157516
0.120976 0.035541 -0.161954
0.121328 0.035692 -0.166392
0.121671 0.035837 -0.170831
0.122015 0.035982 -0.175271
0.122351 0.036123 -0.179710
0.122682 0.036261 -0.184151
0.123012 0.036398 -0.188591
0.123327 0.036528 -0.193033
0.123642 0.036657 -0.197475
0.123946 0.036782 -0.201917
0.124241 0.036902 -0.206361
0.124533 0.037021 -0.210804
0.124807 0.037131 -0.215249
0.125080 0.037241 -0.219695
0.125332 0.037342 -0.224141
0.125578 0.037441 -0.228588
0.125811 0.037533 -0.233035
0.126025 0.037619 -0.237484
0.126234 0.037702 -0.241934
0.126413 0.037773 -0.246384
0.126592 0.037843 -0.250835
0.126731 0.037898 -0.255287
0.126868 0.037952 -0.259739
0.126968 0.037992 -0.264193
0.127056 0.038027 -0.268646
0.127106 0.038047 -0.273101
0.127138 0.038061 -0.277556
0.127008 0.037732 -0.281987
0.126794 0.037159 -0.286400
0.126588 0.036521 -0.290803
0.126387 0.035834 -0.295201
0.126190 0.035098 -0.299589
0.125997 0.034342 -0.303975
0.125806 0.033560 -0.308357
0.125619 0.032755 -0.312734
0.125432 0.031940 -0.317110
0.125248 0.031102 -0.321481
0.125065 0.030258 -0.325852
0.124884 0.029399 -0.330219
0.124704 0.028534 -0.334585
0.124525 0.027658 -0.338950
0.124346 0.026778 -0.343313
0.124169 0.025889 -0.347675
0.123993 0.024996 -0.352035
0.123817 0.024097 -0.356395
0.123642 0.023195 -0.360754
0.123467 0.022289 -0.365112
0.123293 0.021381 -0.369470
0.123120 0.020469 -0.373827
0.122947 0.019557 -0.378184
0.122774 0.018642 -0.382540
0.122602 0.017728 -0.386897
0.122430 0.016812 -0.391253
0.122259 0.015897 -0.395609
0.122087 0.014983 -0.399966
0.121916 0.014071 -0.404323
0.121745 0.013161 -0.408681
0.121574 0.012253 -0.413039
0.121404 0.011349 -0.417397
0.121233 0.010451 -0.421757
0.121062 0.009556 -0.426118
0.120891 0.008671 -0.430481
0.120720 0.007791 -0.434844
0.104835 0.029737 0.047270
0.104754 0.031920 0.043399
0.104673 0.034104 0.039528
0.104592 0.036289 0.035658
0.104510 0.038475 0.031788
0.104429 0.040661 0.027919
0.104347 0.042847 0.024049
0.104265 0.045033 0.020180
0.104183 0.047220 0.016310
0.104101 0.049407 0.012441
0.104019 0.051594 0.008572
0.103938 0.053781 0.004703
0.103855 0.055969 0.000834
0.103773 0.058156 -0.003035
0.103691 0.060343 -0.006903
0.103608 0.062531 -0.010772
0.103526 0.064719 -0.014640
0.103444 0.066906 -0.018509
0.103362 0.069094 -0.022378
0.103280 0.071282 -0.026246
0.103197 0.073470 -0.030115
0.103115 0.075658 -0.033983
0.103032 0.077846 -0.037852
0.102950 0.080034 -0.041721
0.102868 0.082221 -0.045589
0.102785 0.084409 -0.049457
0.102702 0.086597 -0.053326
0.102620 0.088785 -0.057194
0.102537 0.090973 -0.061063
0.102455 0.093160 -0.064932
0.102464 0.092987 -0.069402
0.102475 0.092755 -0.073868
0.102488 0.092472 -0.078332
0.102502 0.092150 -0.082793
0.102517 0.091797 -0.087252
0.102532 0.091420 -0.091708
0.102548 0.091028 -0.096164
0.102563 0.090628 -0.100619
0.102577 0.090226 -0.105074
0.102592 0.089829 -0.109529
0.102605 0.089443 -0.113985
0.102617 0.089073 -0.118443
0.102628 0.088724 -0.122901
0.102637 0.088402 -0.127363
0.102644 0.088110 -0.131826
0.102649 0.087855 -0.136291
0.102653 0.087640 -0.140759
0.102653 0.087470 -0.145228
0.102651 0.087349 -0.149700
0.102646 0.087282 -0.154172
0.102640 0.087220 -0.158644
0.102635 0.087145 -0.163116
0.102630 0.087035 -0.167588
0.102626 0.086900 -0.172059
0.102623 0.086748 -0.176529
0.102620 0.086562 -0.180998
0.102617 0.086366 -0.185466
0.102615 0.086143 -0.189934
0.102613 0.085906 -0.194400
0.102612 0.085655 -0.198866
0.102611 0.085384 -0.203331
0.102610 0.085104 -0.207794
0.102610 0.084810 -0.212258
0.102610 0.084506 -0.216720
0.102610 0.084196 -0.221182
0.102610 0.083875 -0.225644
0.102610 0.083552 -0.230105
0.102611 0.083225 -0.234565
0.102611 0.082899 -0.239026
0.102611 0.082576 -0.243487
0.102611 0.082259 -0.247949
0.102611 0.081950 -0.252411
0.102610 0.081661 -0.256875
0.102609 0.081398 -0.261339
0.102606 0.081171 -0.265807
0.102603 0.080999 -0.270276
0.102597 0.080910 -0.274748
0.102588 0.080950 -0.279220
0.102588 0.080772 -0.283687
0.102607 0.080127 -0.288110
0.102641 0.079063 -0.292453
0.102688 0.077682 -0.296706
0.102742 0.076118 -0.300896
0.102799 0.074508 -0.305069
0.102854 0.072982 -0.309273
0.102902 0.071632 -0.313536
0.102949 0.070333 -0.317816
0.102997 0.069021 -0.322092
0.103046 0.067675 -0.326357
0.103095 0.066313 -0.330617
0.103145 0.064921 -0.334867
0.103196 0.063510 -0.339111
0.103248 0.062074 -0.343347
0.103300 0.060615 -0.347575
0.103353 0.059139 -0.351797
0.103407 0.057633 -0.356008
0.103462 0.056117 -0.360216
0.103518 0.054568 -0.364411
0.103574 0.053008 -0.368603
0.103631 0.051426 -0.372786
0.103688 0.049826 -0.376963
0.103746 0.048214 -0.381135
0.103805 0.046576 -0.385296
0.103864 0.044930 -0.389454
0.103923 0.043269 -0.393607
0.103984 0.041592 -0.397754
0.104044 0.039907 -0.401897
0.104104 0.038213 -0.406035
0.104165 0.036509 -0.410170
0.104226 0.034802 -0.414304
0.104287 0.033092 -0.418436
0.104348 0.031381 -0.422569
0.104409 0.029675 -0.426703
0.104469 0.027977 -0.430841
0.104529 0.026290 -0.434983
0.104589 0.024621 -0.439132
-0.102468 0.093160 -0.064932
-0.099746 0.094462 -0.061683
-0.097046 0.095770 -0.058417
-0.094342 0.097077 -0.055156
-0.091606 0.098375 -0.051917
-0.088809 0.099654 -0.048723
-0.085921 0.100906 -0.045600
-0.082915 0.102116 -0.042574
-0.079763 0.103275 -0.039679
-0.076421 0.104355 -0.036974
-0.072894 0.105350 -0.034481
-0.069178 0.106244 -0.032237
-0.065283 0.107024 -0.030274
-0.061226 0.107681 -0.028615
-0.057035 0.108210 -0.027273
-0.052742 0.108611 -0.026247
-0.048377 0.108890 -0.025524
-0.043970 0.109056 -0.025080
-0.039542 0.109121 -0.024886
-0.035110 0.109154 -0.024773
-0.030691 0.109275 -0.024445
-0.026299 0.109495 -0.023876
-0.021938 0.109788 -0.023134
-0.017589 0.110109 -0.022327
-0.013233 0.110416 -0.021557
-0.008852 0.110669 -0.020925
-0.004441 0.110836 -0.020509
-0.000010 0.110888 -0.020378
0.004419 0.110820 -0.020548
0.008827 0.110645 -0.020983
0.013208 0.110391 -0.021620
0.017565 0.110087 -0.022382
0.021917 0.109773 -0.023171
0.026283 0.109489 -0.023893
0.030677 0.109273 -0.024450
0.035096 0.109154 -0.024773
0.039529 0.109121 -0.024886
0.043956 0.109056 -0.025079
0.048364 0.108890 -0.025524
0.052728 0.108611 -0.026247
0.057022 0.108210 -0.027273
0.061212 0.107682 -0.028615
0.065269 0.107025 -0.030274
0.069165 0.106244 -0.032237
0.072880 0.105350 -0.034481
0.076407 0.104355 -0.036974
0.079750 0.103275 -0.039679
0.082901 0.102117 -0.042574
0.085907 0.100906 -0.045600
0.088795 0.099655 -0.048723
0.091592 0.098375 -0.051917
0.094328 0.097078 -0.055156
0.097033 0.095770 -0.058418
0.099732 0.094462 -0.061683
-0.102660 0.087279 -0.154325
-0.099659 0.090606 -0.154346
-0.096592 0.093871 -0.154364
-0.093446 0.097061 -0.154380
-0.090211 0.100160 -0.154394
-0.086876 0.103151 -0.154404
-0.083429 0.106013 -0.154413
-0.079848 0.108705 -0.154418
-0.076143 0.111223 -0.154422
-0.072312 0.113543 -0.154424
-0.068355 0.115643 -0.154424
-0.064273 0.117485 -0.154421
-0.060074 0.119044 -0.154418
-0.055783 0.120328 -0.154413
-0.051417 0.121328 -0.154407
-0.046996 0.122043 -0.154401
-0.042538 0.122476 -0.154393
-0.038061 0.122637 -0.154386
-0.033582 0.122690 -0.154374
-0.029103 0.122817 -0.154352
-0.024627 0.123009 -0.154322
-0.020153 0.123241 -0.154289
-0.015679 0.123482 -0.154255
-0.011204 0.123698 -0.154226
-0.006727 0.123859 -0.154204
-0.002247 0.123946 -0.154193
0.002233 0.123938 -0.154193
0.006712 0.123845 -0.154206
0.011189 0.123680 -0.154229
0.015664 0.123464 -0.154258
0.020138 0.123228 -0.154291
0.024613 0.123002 -0.154323
0.029089 0.122815 -0.154352
0.033568 0.122690 -0.154374
0.038047 0.122636 -0.154386
0.042524 0.122476 -0.154394
0.046982 0.122043 -0.154401
0.051403 0.121328 -0.154408
0.055769 0.120328 -0.154413
0.060060 0.119044 -0.154418
0.064259 0.117485 -0.154422
0.068341 0.115643 -0.154424
0.072298 0.113543 -0.154424
0.076130 0.111223 -0.154422
0.079835 0.108706 -0.154418
0.083415 0.106013 -0.154413
0.086862 0.103152 -0.154404
0.090197 0.100161 -0.154393
0.093432 0.097062 -0.154380
0.096578 0.093872 -0.154364
0.099645 0.090606 -0.154346
0.037756 0.109136 -0.024835
0.037754 0.110108 -0.029225
0.037752 0.111067 -0.033618
0.037750 0.111980 -0.038021
0.037749 0.112867 -0.042428
0.037747 0.113721 -0.046843
0.037746 0.114529 -0.051266
0.037745 0.115317 -0.055693
0.037744 0.116051 -0.060129
0.037743 0.116754 -0.064570
0.037742 0.117428 -0.069015
0.037742 0.118044 -0.073469
0.037742 0.118631 -0.077927
0.037741 0.119184 -0.082389
0.037740 0.119681 -0.086858
0.037739 0.120145 -0.091330
0.037739 0.120576 -0.095806
0.037738 0.120951 -0.100287
0.037737 0.121290 -0.104770
0.037736 0.121595 -0.109256
0.037734 0.121860 -0.113744
0.037732 0.122077 -0.118236
0.037730 0.122261 -0.122728
0.037727 0.122412 -0.127222
0.037724 0.122530 -0.131716
0.037720 0.122607 -0.136212
0.037715 0.122655 -0.140708
0.037710 0.122677 -0.145204
0.037703 0.122674 -0.149701
0.037689 0.122519 -0.158692
0.037682 0.122259 -0.163180
0.037675 0.121867 -0.167658
0.037669 0.121351 -0.172124
0.037663 0.120707 -0.176574
0.037657 0.119924 -0.181001
0.037652 0.119042 -0.185410
0.037647 0.118068 -0.189799
0.037643 0.117009 -0.194169
0.037639 0.115844 -0.198512
0.037634 0.114609 -0.202835
0.037631 0.113315 -0.207141
0.037628 0.111961 -0.211429
0.037625 0.110537 -0.215693
0.037622 0.109074 -0.219945
0.037618 0.107576 -0.224184
0.037616 0.106024 -0.228404
0.037614 0.104447 -0.232615
0.037612 0.102850 -0.236818
0.037610 0.101215 -0.241007
0.037608 0.099568 -0.245191
0.037607 0.097905 -0.249368
0.037605 0.096226 -0.253539
0.037603 0.094540 -0.257707
0.037602 0.092843 -0.261871
0.037601 0.091143 -0.266034
0.037600 0.089440 -0.270196
0.037599 0.087737 -0.274357
0.037598 0.086034 -0.278518
0.052842 0.036068 0.416730
0.052741 0.036386 0.412302
0.052669 0.036766 0.407878
0.052629 0.037215 0.403460
0.052611 0.037715 0.399047
0.052615 0.038267 0.394640
0.052630 0.038853 0.390238
0.052652 0.039469 0.385840
0.052675 0.040099 0.381444
0.052693 0.040735 0.377049
0.052700 0.041366 0.372653
0.052690 0.041983 0.368255
0.052663 0.042580 0.363855
0.052612 0.043150 0.359451
0.052542 0.043681 0.355042
0.052467 0.044181 0.350630
0.052396 0.044635 0.346213
0.052327 0.045044 0.341792
0.052263 0.045416 0.337367
0.052200 0.045752 0.332939
0.052140 0.046052 0.328509
0.052084 0.046319 0.324076
0.052030 0.046543 0.319641
0.051978 0.046737 0.315205
0.051930 0.046900 0.310767
0.051883 0.047034 0.306328
0.051839 0.047140 0.301889
0.051798 0.047214 0.297449
0.051759 0.047259 0.293008
0.051722 0.047278 0.288567
0.051687 0.047274 0.284126
0.051655 0.047245 0.279686
0.051624 0.047195 0.275245
0.051596 0.047119 0.270805
0.051570 0.047021 0.266365
0.051545 0.046903 0.261926
0.051523 0.046767 0.257487
0.051502 0.046613 0.253049
0.051485 0.046443 0.248611
0.051481 0.046258 0.244174
0.051493 0.046064 0.239737
0.051519 0.045861 0.235301
0.051558 0.045650 0.230865
0.051609 0.045431 0.226430
0.051670 0.045205 0.221995
0.051737 0.044972 0.217561
0.051809 0.044734 0.213127
0.051885 0.044491 0.208693
0.051963 0.044245 0.204260
0.052039 0.043995 0.199826
0.052114 0.043742 0.195393
0.052184 0.043488 0.190960
0.052247 0.043232 0.186527
0.052303 0.042976 0.182094
0.052349 0.042721 0.177660
0.052383 0.042466 0.173227
0.052413 0.042208 0.168794
0.052452 0.041942 0.164360
0.052502 0.041667 0.159928
0.052560 0.041385 0.155497
0.052625 0.041095 0.151066
0.052698 0.040800 0.146635
0.052777 0.040500 0.142205
0.052861 0.040195 0.137775
0.052949 0.039887 0.133346
0.053041 0.039577 0.128917
0.053136 0.039265 0.124488
0.053233 0.038952 0.120059
0.053331 0.038639 0.115630
0.053430 0.038326 0.111201
0.053527 0.038015 0.106772
0.053624 0.037706 0.102343
0.053719 0.037400 0.097913
0.053810 0.037098 0.093484
0.053899 0.036801 0.089054
-0.052584 0.043492 0.356690
-0.048081 0.043481 0.357152
-0.043675 0.043464 0.358187
-0.039398 0.043442 0.359681
-0.035249 0.043418 0.361497
-0.031192 0.043391 0.363513
-0.027198 0.043363 0.365653
-0.023226 0.043335 0.367835
-0.019235 0.043308 0.369978
-0.015187 0.043282 0.372014
-0.011024 0.043260 0.373800
-0.006724 0.043242 0.375216
-0.002278 0.043232 0.376052
0.002246 0.043232 0.376043
0.006689 0.043243 0.375176
0.010984 0.043261 0.373745
0.015145 0.043283 0.371955
0.019195 0.043308 0.369925
0.023190 0.043336 0.367788
0.027167 0.043364 0.365616
0.031166 0.043391 0.363486
0.035228 0.043418 0.361478
0.039381 0.043443 0.359671
0.043659 0.043465 0.358184
0.048067 0.043481 0.357152
0.052570 0.043492 0.356690
0.096095 0.035808 0.415524
0.095992 0.035975 0.411061
0.095888 0.036141 0.406598
0.095768 0.036329 0.402137
0.095645 0.036521 0.397675
0.095508 0.036730 0.393215
0.095365 0.036945 0.388756
0.095212 0.037175 0.384297
0.095053 0.037411 0.379839
0.094884 0.037660 0.375382
0.094710 0.037914 0.370925
0.094529 0.038179 0.366469
0.094343 0.038448 0.362015
0.094149 0.038727 0.357560
0.093954 0.039008 0.353106
0.093753 0.039296 0.348653
0.093550 0.039585 0.344200
0.093345 0.039878 0.339747
0.093139 0.040171 0.335294
0.092932 0.040464 0.330841
0.092727 0.040755 0.326389
0.092524 0.041043 0.321935
0.092324 0.041326 0.317481
0.092127 0.041605 0.313027
0.091938 0.041873 0.308572
0.091752 0.042137 0.304117
0.091577 0.042385 0.299660
0.091409 0.042626 0.295202
0.091251 0.042851 0.290744
0.091105 0.043062 0.286284
0.090967 0.043261 0.281823
0.090849 0.043434 0.277361
0.090736 0.043600 0.272898
0.090647 0.043735 0.268434
0.090567 0.043857 0.263970
0.090507 0.043954 0.259504
0.090463 0.044029 0.255037
0.090434 0.044085 0.250571
0.090433 0.044104 0.246103
0.090484 0.044057 0.241637
0.090585 0.043947 0.237172
0.090723 0.043789 0.232710
0.090893 0.043591 0.228251
0.091089 0.043362 0.223794
0.091304 0.043109 0.219339
0.091533 0.042839 0.214886
0.091767 0.042564 0.210433
0.092001 0.042291 0.205981
0.092229 0.042029 0.201527
0.092444 0.041783 0.197072
0.092642 0.041563 0.192614
0.092815 0.041377 0.188154
0.092958 0.041231 0.183692
0.093068 0.041131 0.179227
0.093139 0.041082 0.174761
0.093203 0.041045 0.170295
0.093294 0.040976 0.165829
0.093457 0.040815 0.161368
0.093677 0.040582 0.156913
0.093938 0.040299 0.152462
0.094241 0.039962 0.148018
0.094595 0.039562 0.143583
0.094976 0.039127 0.139154
0.095383 0.038660 0.134730
0.095830 0.038142 0.130315
0.096294 0.037602 0.125905
0.096776 0.037040 0.121500
0.097285 0.036446 0.117102
0.097805 0.035836 0.112707
0.098336 0.035213 0.108316
0.098881 0.034574 0.103928
0.099431 0.033927 0.099542
0.099985 0.033275 0.095158
0.100541 0.032622 0.090774
0.101095 0.031971 0.086389
0.101644 0.031328 0.082003
0.102186 0.030693 0.077614
0.102711 0.030080 0.073221
0.103217 0.029492 0.068821
0.103699 0.028934 0.064416
0.169524 0.003364 0.335048
0.169915 0.005026 0.339152
0.170234 0.006690 0.343260
0.170343 0.008357 0.347378
0.170278 0.010025 0.351494
0.170087 0.011692 0.355610
0.169592 0.013350 0.359704
0.168952 0.014999 0.363779
0.168113 0.016637 0.367825
0.166968 0.018248 0.371804
0.165632 0.019836 0.375730
0.164092 0.021399 0.379595
0.162193 0.022906 0.383321
0.160071 0.024368 0.386936
0.157719 0.025779 0.390429
0.155106 0.027125 0.393763
0.152181 0.028377 0.396864
0.149042 0.029551 0.399776
0.145698 0.030643 0.402486
0.142146 0.031641 0.404965
0.138362 0.032509 0.407126
0.134440 0.033284 0.409058
0.130398 0.033968 0.410766
0.126226 0.034536 0.412188
0.121955 0.034986 0.413322
0.117631 0.035357 0.414263
0.113251 0.035633 0.414971
0.108832 0.035795 0.415395
0.104400 0.035898 0.415678
0.099956 0.035905 0.415722
0.091081 0.035830 0.415636
0.086638 0.035853 0.415747
0.082195 0.035878 0.415866
0.077752 0.035906 0.415991
0.073309 0.035935 0.416122
0.068867 0.035965 0.416256
0.064424 0.035995 0.416391
0.059981 0.036025 0.416524
0.055538 0.036053 0.416654
0.051096 0.036075 0.416771
0.046652 0.036083 0.416851
0.042207 0.036071 0.416882
0.037762 0.036046 0.416877
0.033318 0.036005 0.416834
0.028874 0.035954 0.416764
0.024431 0.035894 0.416669
0.019988 0.035830 0.416559
0.015545 0.035763 0.416441
0.011103 0.035699 0.416325
0.006660 0.035644 0.416225
0.002215 0.035608 0.416162
-0.002229 0.035607 0.416160
-0.006674 0.035643 0.416222
-0.011117 0.035697 0.416321
-0.015560 0.035761 0.416437
-0.020002 0.035828 0.416556
-0.024445 0.035893 0.416667
-0.028888 0.035953 0.416763
-0.033332 0.036004 0.416833
-0.037777 0.036045 0.416877
-0.042221 0.036071 0.416882
-0.046666 0.036083 0.416852
-0.051109 0.036075 0.416771
-0.055553 0.036052 0.416654
-0.059996 0.036025 0.416524
-0.064438 0.035995 0.416391
-0.068881 0.035965 0.416256
-0.073323 0.035935 0.416122
-0.077766 0.035906 0.415991
-0.082209 0.035878 0.415865
-0.086652 0.035852 0.415747
-0.091095 0.035830 0.415636
-0.095539 0.035810 0.415536
-0.099970 0.035905 0.415722
-0.104414 0.035898 0.415677
-0.108846 0.035795 0.415395
-0.113265 0.035633 0.414971
-0.117645 0.035356 0.414263
-0.121969 0.034985 0.413322
-0.126240 0.034535 0.412188
-0.130412 0.033967 0.410766
-0.134454 0.033283 0.409058
-0.138376 0.032509 0.407126
-0.142160 0.031640 0.404965
-0.145712 0.030643 0.402486
-0.149056 0.029551 0.399776
-0.152195 0.028377 0.396864
-0.155120 0.027125 0.393763
-0.157733 0.025779 0.390429
-0.160085 0.024367 0.386937
-0.162207 0.022905 0.383321
-0.164106 0.021399 0.379595
-0.165647 0.019835 0.375730
-0.166982 0.018247 0.371804
-0.168127 0.016636 0.367824
-0.168966 0.014998 0.363779
-0.169606 0.013349 0.359704
-0.170100 0.011691 0.355611
-0.170292 0.010024 0.351495
-0.170357 0.008357 0.347378
-0.170248 0.006689 0.343259
-0.169929 0.005025 0.339152
-0.169538 0.003363 0.335048
-0.096290 -0.056059 0.407198
-0.097130 -0.051811 0.408237
-0.097952 -0.047563 0.409290
-0.098767 -0.043315 0.410346
-0.099581 -0.039066 0.411400
-0.100396 -0.034816 0.412451
-0.101214 -0.030566 0.413495
-0.102035 -0.026314 0.414533
-0.102847 -0.022060 0.415572
-0.103649 -0.017805 0.416611
-0.104442 -0.013549 0.417651
-0.105229 -0.009291 0.418691
-0.106011 -0.005033 0.419730
-0.106788 -0.000772 0.420768
-0.107563 0.003489 0.421802
-0.108335 0.007751 0.422833
-0.109023 0.012028 0.423858
-0.109486 0.016338 0.424874
-0.109409 0.020662 0.425861
-0.108637 0.024911 0.426789
-0.106752 0.028810 0.427572
-0.103606 0.031834 0.428081
-0.099610 0.033693 0.428279
-0.095268 0.034581 0.428240
-0.090832 0.034820 0.428051
-0.086394 0.034603 0.427763
-0.081995 0.034026 0.427400
-0.077623 0.033291 0.427007
-0.073278 0.032413 0.426587
-0.068970 0.031378 0.426140
-0.064675 0.030298 0.425686
-0.060402 0.029130 0.425221
-0.056139 0.027934 0.424755
-0.051884 0.026705 0.424288
-0.047633 0.025464 0.423827
-0.043383 0.024218 0.423368
-0.039125 0.022991 0.422926
-0.034865 0.021771 0.422490
-0.030584 0.020613 0.422082
-0.026294 0.019487 0.421687
-0.021981 0.018443 0.421327
-0.017642 0.017499 0.421002
-0.013285 0.016633 0.420706
-0.008882 0.016005 0.420495
-0.004459 0.015549 0.420342
-0.000013 0.015315 0.420265
0.004433 0.015555 0.420344
0.008854 0.016021 0.420501
0.013256 0.016654 0.420714
0.017614 0.017520 0.421009
0.021951 0.018468 0.421335
0.026265 0.019510 0.421696
0.030555 0.020638 0.422091
0.034835 0.021795 0.422498
0.039095 0.023016 0.422936
0.043353 0.024243 0.423377
0.047604 0.025488 0.423835
0.051855 0.026727 0.424296
0.056111 0.027954 0.424763
0.060375 0.029148 0.425229
0.064647 0.030315 0.425693
0.068944 0.031391 0.426146
0.073252 0.032424 0.426592
0.077598 0.033300 0.427012
0.081970 0.034032 0.427404
0.086370 0.034605 0.427765
0.090808 0.034821 0.428053
0.095244 0.034579 0.428241
0.099586 0.033689 0.428279
0.103582 0.031831 0.428081
0.106730 0.028809 0.427571
0.108618 0.024911 0.426790
0.109393 0.020662 0.425862
0.109471 0.016339 0.424875
0.109009 0.012028 0.423857
0.108321 0.007752 0.422833
0.107549 0.003489 0.421802
0.106775 -0.000772 0.420768
0.105997 -0.005032 0.419731
0.105215 -0.009291 0.418692
0.104428 -0.013549 0.417652
0.103634 -0.017805 0.416611
0.102833 -0.022060 0.415571
0.102021 -0.026313 0.414533
0.101200 -0.030565 0.413495
0.100382 -0.034816 0.412451
0.099567 -0.039065 0.411400
0.098753 -0.043314 0.410346
0.097938 -0.047563 0.409290
0.097116 -0.051811 0.408237
0.096277 -0.056059 0.407198
0.095392 -0.059638 0.409585
0.095861 -0.061972 0.413283
0.096744 -0.063401 0.417387
-0.095405 -0.059651 0.409599
-0.095884 -0.061986 0.413317
-0.096747 -0.063422 0.417439
-0.095450 -0.065065 0.421315
-0.092667 -0.066633 0.424383
-0.089093 -0.068014 0.426653
-0.085182 -0.069240 0.428407
-0.081102 -0.070354 0.429827
-0.076914 -0.071367 0.430979
-0.072667 -0.072310 0.431958
-0.068379 -0.073196 0.432807
-0.064061 -0.074033 0.433551
-0.059713 -0.074807 0.434171
-0.055346 -0.075537 0.434716
-0.050968 -0.076234 0.435204
-0.046573 -0.076878 0.435615
-0.042168 -0.077480 0.435971
-0.037756 -0.078053 0.436292
-0.033332 -0.078568 0.436551
-0.028903 -0.079042 0.436774
-0.024468 -0.079483 0.436968
-0.020025 -0.079853 0.437113
-0.015578 -0.080174 0.437230
-0.011127 -0.080444 0.437322
-0.006670 -0.080631 0.437378
-0.002211 -0.080724 0.437404
0.002249 -0.080722 0.437403
0.006708 -0.080626 0.437377
0.011165 -0.080439 0.437321
0.015616 -0.080167 0.437229
0.020063 -0.079845 0.437110
0.024506 -0.079475 0.436965
0.028941 -0.079033 0.436769
0.033370 -0.078557 0.436545
0.037793 -0.078042 0.436286
0.042205 -0.077469 0.435965
0.046610 -0.076865 0.435607
0.051005 -0.076222 0.435197
0.055383 -0.075524 0.434707
0.059749 -0.074793 0.434160
0.064098 -0.074020 0.433541
0.068415 -0.073181 0.432794
0.072702 -0.072295 0.431944
0.076949 -0.071352 0.430961
0.081135 -0.070337 0.429806
0.085215 -0.069224 0.428387
0.089126 -0.067996 0.426629
0.092689 -0.066613 0.424345
0.095462 -0.065043 0.421269
0.108883 0.010859 0.423582
0.104409 0.011003 0.423594
0.099937 0.010714 0.423598
0.095478 0.010247 0.423598
0.091030 0.009691 0.423597
0.086589 0.009078 0.423595
0.082154 0.008432 0.423592
0.077721 0.007764 0.423588
0.073291 0.007080 0.423585
0.068863 0.006380 0.423580
0.064436 0.005677 0.423576
0.060009 0.004970 0.423571
0.055582 0.004266 0.423566
0.051154 0.003566 0.423561
0.046726 0.002871 0.423556
0.042295 0.002193 0.423551
0.037862 0.001526 0.423547
0.033427 0.000875 0.423543
0.028987 0.000258 0.423538
0.024543 -0.000333 0.423534
0.020096 -0.000893 0.423531
0.015641 -0.001392 0.423527
0.011179 -0.001823 0.423525
0.006710 -0.002166 0.423524
0.002233 -0.002377 0.423524
-0.002248 -0.002380 0.423524
-0.006725 -0.002174 0.423524
-0.011195 -0.001833 0.423525
-0.015657 -0.001404 0.423527
-0.020111 -0.000904 0.423530
-0.024559 -0.000345 0.423534
-0.029003 0.000246 0.423538
-0.033443 0.000863 0.423542
-0.037878 0.001515 0.423547
-0.042311 0.002181 0.423551
-0.046742 0.002860 0.423556
-0.051170 0.003556 0.423561
-0.055598 0.004256 0.423566
-0.060024 0.004962 0.423571
-0.064451 0.005668 0.423575
-0.068878 0.006373 0.423580
-0.073306 0.007073 0.423584
-0.077736 0.007759 0.423588
-0.082168 0.008428 0.423592
-0.086604 0.009075 0.423595
-0.091044 0.009689 0.423597
-0.095493 0.010245 0.423598
-0.099950 0.010713 0.423598
-0.104423 0.011002 0.423594
-0.108898 0.010859 0.423582
0.101700 -0.027978 0.414127
0.097425 -0.027487 0.415378
0.093123 -0.027027 0.416547
0.088797 -0.026599 0.417639
0.084451 -0.026201 0.418656
0.080086 -0.025831 0.419601
0.075705 -0.025487 0.420480
0.071310 -0.025169 0.421296
0.066902 -0.024874 0.422051
0.062483 -0.024603 0.422748
0.058055 -0.024354 0.423390
0.053618 -0.024126 0.423978
0.049174 -0.023919 0.424515
0.044722 -0.023731 0.425001
0.040265 -0.023567 0.425430
0.035801 -0.023421 0.425811
0.031334 -0.023294 0.426147
0.026864 -0.023183 0.426439
0.022390 -0.023090 0.426688
0.017914 -0.023017 0.426886
0.013435 -0.022962 0.427038
0.008955 -0.022923 0.427151
0.004474 -0.022901 0.427223
-0.004489 -0.022900 0.427224
-0.008970 -0.022923 0.427152
-0.013450 -0.022962 0.427041
-0.017929 -0.023016 0.426890
-0.022405 -0.023089 0.426691
-0.026879 -0.023182 0.426443
-0.031350 -0.023292 0.426152
-0.035817 -0.023419 0.425816
-0.040280 -0.023565 0.425435
-0.044738 -0.023729 0.425007
-0.049189 -0.023917 0.424520
-0.053633 -0.024125 0.423983
-0.058070 -0.024352 0.423394
-0.062498 -0.024602 0.422753
-0.066917 -0.024873 0.422055
-0.071324 -0.025168 0.421300
-0.075720 -0.025486 0.420483
-0.080100 -0.025830 0.419603
-0.084465 -0.026201 0.418657
-0.088811 -0.026599 0.417640
-0.093137 -0.027027 0.416548
-0.097439 -0.027487 0.415378
-0.101714 -0.027978 0.414127
-0.092079 -0.055515 0.408588
-0.087893 -0.054942 0.410044
-0.083731 -0.054346 0.411554
-0.079586 -0.053732 0.413106
-0.075453 -0.053104 0.414685
-0.071325 -0.052471 0.416275
-0.067194 -0.051841 0.417856
-0.063052 -0.051219 0.419412
-0.058890 -0.050615 0.420922
-0.054703 -0.050036 0.422369
-0.050484 -0.049488 0.423737
-0.046233 -0.048977 0.425011
-0.041946 -0.048509 0.426181
-0.037626 -0.048085 0.427238
-0.033275 -0.047710 0.428179
-0.028895 -0.047381 0.429002
-0.024489 -0.047106 0.429695
-0.020062 -0.046884 0.430256
-0.015621 -0.046708 0.430706
-0.011169 -0.046573 0.431056
-0.006709 -0.046477 0.431308
-0.002242 -0.046437 0.431425
0.002225 -0.046438 0.431423
0.006691 -0.046479 0.431305
0.011152 -0.046574 0.431053
0.015603 -0.046710 0.430701
0.020044 -0.046887 0.430249
0.024471 -0.047110 0.429686
0.028877 -0.047385 0.428994
0.033256 -0.047713 0.428170
0.037608 -0.048089 0.427228
0.041928 -0.048513 0.426170
0.046214 -0.048981 0.425000
0.050466 -0.049492 0.423727
0.054685 -0.050039 0.422359
0.058872 -0.050618 0.420913
0.063034 -0.051222 0.419404
0.067178 -0.051843 0.417850
0.071309 -0.052473 0.416270
0.075438 -0.053106 0.414682
0.079571 -0.053732 0.413104
0.083716 -0.054346 0.411553
0.087879 -0.054942 0.410043
0.092065 -0.055514 0.408588
-0.096252 -0.062413 0.414501
-0.092010 -0.062417 0.415972
-0.087766 -0.062422 0.417438
-0.083516 -0.062430 0.418886
-0.079256 -0.062437 0.420306
-0.074984 -0.062445 0.421689
-0.070698 -0.062454 0.423025
-0.066395 -0.062463 0.424307
-0.062074 -0.062472 0.425527
-0.057734 -0.062481 0.426680
-0.053376 -0.062489 0.427761
-0.049001 -0.062497 0.428766
-0.044607 -0.062504 0.429692
-0.040195 -0.062510 0.430527
-0.035768 -0.062516 0.431277
-0.031329 -0.062520 0.431943
-0.026877 -0.062523 0.432528
-0.022415 -0.062526 0.433030
-0.017945 -0.062527 0.433455
-0.013467 -0.062527 0.433773
-0.008983 -0.062526 0.434015
-0.004497 -0.062524 0.434184
0.004481 -0.062524 0.434183
0.008967 -0.062526 0.434012
0.013451 -0.062528 0.433770
0.017929 -0.062527 0.433451
0.022399 -0.062526 0.433025
0.026861 -0.062523 0.432522
0.031312 -0.062520 0.431937
0.035752 -0.062515 0.431270
0.040179 -0.062510 0.430519
0.044591 -0.062503 0.429684
0.048984 -0.062497 0.428759
0.053361 -0.062488 0.427755
0.057718 -0.062480 0.426674
0.062058 -0.062472 0.425522
0.066379 -0.062463 0.424303
0.070683 -0.062454 0.423022
0.074969 -0.062445 0.421687
0.079241 -0.062437 0.420305
0.083501 -0.062429 0.418885
0.087751 -0.062422 0.417437
0.091995 -0.062416 0.415972
0.096238 -0.062412 0.414501
0.177212 0.019786 -0.320204
0.176140 0.017816 -0.324034
0.175068 0.015846 -0.327865
0.173869 0.013895 -0.331667
0.172658 0.011947 -0.335467
0.171448 0.009998 -0.339267
0.170112 0.008071 -0.343036
0.168762 0.006146 -0.346801
0.167413 0.004221 -0.350566
0.165929 0.002321 -0.354292
0.164437 0.000422 -0.358017
0.162937 -0.001475 -0.361739
0.161298 -0.003344 -0.365416
0.159660 -0.005213 -0.369094
0.157984 -0.007074 -0.372757
0.156193 -0.008910 -0.376380
0.154403 -0.010746 -0.380003
0.152527 -0.012562 -0.383592
0.150577 -0.014360 -0.387151
0.148626 -0.016157 -0.390710
0.146520 -0.017915 -0.394199
0.144399 -0.019668 -0.397682
0.142206 -0.021401 -0.401128
0.139903 -0.023102 -0.404521
0.137600 -0.024804 -0.407912
0.135100 -0.026443 -0.411193
0.132600 -0.028082 -0.414474
0.129944 -0.029667 -0.417657
0.127230 -0.031230 -0.420801
0.124380 -0.032740 -0.423847
0.121431 -0.034210 -0.426821
0.118342 -0.035617 -0.429676
0.115137 -0.036970 -0.432432
0.111752 -0.038225 -0.435007
0.108272 -0.039430 -0.437486
0.104539 -0.040466 -0.439646
0.100706 -0.041422 -0.441654
0.096663 -0.042195 -0.443315
0.092455 -0.042759 -0.444571
0.088142 -0.043147 -0.445486
0.083723 -0.043267 -0.445884
0.079306 -0.043062 -0.445643
0.074967 -0.042625 -0.444943
0.070723 -0.041972 -0.443816
0.068840 0.037541 -0.442846
0.070423 0.033353 -0.442899
0.071425 0.028981 -0.442953
0.072158 0.024554 -0.443008
0.072719 0.020102 -0.443063
0.073150 0.015636 -0.443118
0.073477 0.011160 -0.443173
0.073713 0.006680 -0.443228
0.073862 0.002195 -0.443283
0.073931 -0.002292 -0.443338
0.073923 -0.006779 -0.443392
0.073836 -0.011265 -0.443447
0.073671 -0.015749 -0.443501
0.073425 -0.020230 -0.443555
0.073090 -0.024705 -0.443610
0.072661 -0.029171 -0.443664
0.072124 -0.033626 -0.443717
0.071451 -0.038062 -0.443770
0.068547 -0.046471 -0.443869
0.066589 -0.050508 -0.443915
0.064589 -0.054526 -0.443961
0.062562 -0.058529 -0.444007
0.060484 -0.062506 -0.444051
0.058295 -0.066423 -0.444094
0.055965 -0.070256 -0.444135
0.053382 -0.073921 -0.444174
0.050328 -0.077194 -0.444204
0.046459 -0.079412 -0.444220
0.042017 -0.079818 -0.444212
0.037596 -0.079086 -0.444193
0.033236 -0.078024 -0.444171
0.028882 -0.076937 -0.444150
0.024502 -0.075963 -0.444131
0.020086 -0.075163 -0.444116
0.015642 -0.074544 -0.444103
0.011179 -0.074089 -0.444093
0.006704 -0.073763 -0.444085
0.002218 -0.073651 -0.444079
-0.002268 -0.073646 -0.444079
-0.006755 -0.073758 -0.444084
-0.011230 -0.074073 -0.444092
-0.015694 -0.074519 -0.444102
-0.020140 -0.075129 -0.444115
-0.024556 -0.075927 -0.444130
-0.028937 -0.076898 -0.444149
-0.033291 -0.077986 -0.444169
-0.037648 -0.079057 -0.444192
-0.042066 -0.079816 -0.444212
-0.046513 -0.079440 -0.444220
-0.050380 -0.077218 -0.444205
-0.053428 -0.073942 -0.444174
-0.056002 -0.070271 -0.444136
-0.058325 -0.066433 -0.444094
-0.060508 -0.062512 -0.444051
-0.062583 -0.058533 -0.444007
-0.064606 -0.054528 -0.443961
-0.066604 -0.050510 -0.443915
-0.068561 -0.046471 -0.443869
-0.070514 -0.042432 -0.443822
-0.071464 -0.038063 -0.443770
-0.072136 -0.033626 -0.443717
-0.072673 -0.029171 -0.443663
-0.073104 -0.024705 -0.443609
-0.073439 -0.020231 -0.443556
-0.073684 -0.015750 -0.443501
-0.073849 -0.011266 -0.443447
-0.073935 -0.006779 -0.443393
-0.073944 -0.002292 -0.443338
-0.073875 0.002194 -0.443283
-0.073726 0.006679 -0.443228
-0.073490 0.011160 -0.443173
-0.073163 0.015636 -0.443118
-0.072732 0.020102 -0.443063
-0.072171 0.024554 -0.443008
-0.071438 0.028980 -0.442953
-0.070437 0.033353 -0.442898
-0.068853 0.037541 -0.442847
-0.073953 -0.003941 -0.443358
-0.069549 -0.003928 -0.444392
-0.065140 -0.003916 -0.445402
-0.060723 -0.003905 -0.446376
-0.056294 -0.003894 -0.447297
-0.051852 -0.003884 -0.448149
-0.047391 -0.003876 -0.448897
-0.042914 -0.003868 -0.449542
-0.038421 -0.003862 -0.450054
-0.033915 -0.003858 -0.450456
-0.029401 -0.003854 -0.450749
-0.024883 -0.003851 -0.450952
-0.020362 -0.003850 -0.451089
-0.015839 -0.003849 -0.451175
-0.011316 -0.003848 -0.451222
-0.006793 -0.003848 -0.451240
-0.002270 -0.003848 -0.451238
0.002254 -0.003848 -0.451239
0.006777 -0.003848 -0.451239
0.011301 -0.003848 -0.451219
0.015824 -0.003849 -0.451171
0.020346 -0.003850 -0.451082
0.024867 -0.003851 -0.450943
0.029386 -0.003854 -0.450737
0.033899 -0.003858 -0.450440
0.038405 -0.003862 -0.450038
0.042898 -0.003869 -0.449525
0.047375 -0.003876 -0.448882
0.051837 -0.003885 -0.448138
0.056280 -0.003894 -0.447289
0.060709 -0.003905 -0.446370
0.065127 -0.003917 -0.445400
0.069536 -0.003928 -0.444391
0.073940 -0.003940 -0.443358
-0.000239 0.074672 -0.309602
0.004217 0.074368 -0.310320
0.008580 0.073895 -0.311447
0.012906 0.073375 -0.312691
0.017226 0.072845 -0.313957
0.021549 0.072321 -0.315210
0.025889 0.071816 -0.316413
0.030255 0.071344 -0.317533
0.034642 0.070902 -0.318578
0.039057 0.070504 -0.319518
0.043511 0.070176 -0.320281
0.047987 0.069900 -0.320916
0.052493 0.069701 -0.321360
0.057021 0.069629 -0.321489
0.061544 0.069660 -0.321364
0.066052 0.069812 -0.320942
0.070453 0.070202 -0.319933
0.074666 0.070797 -0.318421
0.078602 0.071606 -0.316381
0.082176 0.072633 -0.313807
0.085098 0.073922 -0.310592
0.087412 0.075367 -0.307002
0.089320 0.076897 -0.303204
0.090567 0.078528 -0.299164
0.091483 0.080186 -0.295063
0.092011 0.081874 -0.290891
0.092296 0.083567 -0.286706
0.092241 0.085269 -0.282507
0.123254 0.056571 -0.280754
0.124864 0.059792 -0.283371
0.125025 0.062785 -0.286660
0.123944 0.065275 -0.290195
0.122016 0.067241 -0.293710
0.119549 0.068771 -0.297110
0.116716 0.069937 -0.300369
0.113627 0.070800 -0.303487
0.110360 0.071417 -0.306481
0.106936 0.071785 -0.309338
0.103401 0.071944 -0.312076
0.099758 0.071940 -0.314674
0.096036 0.071871 -0.317156
0.092235 0.071746 -0.319513
0.088361 0.071570 -0.321745
0.084418 0.071348 -0.323850
0.080408 0.071083 -0.325818
0.076332 0.070779 -0.327641
0.072205 0.070448 -0.329338
0.068031 0.070095 -0.330911
0.063815 0.069727 -0.332364
0.059561 0.069348 -0.333698
0.055272 0.068963 -0.334917
0.050946 0.068580 -0.335998
0.046594 0.068204 -0.336970
0.042220 0.067839 -0.337840
0.037826 0.067490 -0.338610
0.033414 0.067162 -0.339286
0.028986 0.066860 -0.339855
0.024543 0.066593 -0.340325
0.020092 0.066359 -0.340712
0.015632 0.066159 -0.341020
0.011165 0.065998 -0.341254
0.006694 0.065892 -0.341395
0.002220 0.065834 -0.341463
-0.002255 0.065830 -0.341467
-0.006730 0.065882 -0.341407
-0.011201 0.065988 -0.341267
-0.015668 0.066145 -0.341042
-0.020128 0.066340 -0.340741
-0.024581 0.066571 -0.340362
-0.029025 0.066836 -0.339900
-0.033453 0.067139 -0.339328
-0.037865 0.067467 -0.338657
-0.042260 0.067817 -0.337891
-0.046635 0.068182 -0.337024
-0.050987 0.068559 -0.336053
-0.055311 0.068946 -0.334966
-0.059599 0.069332 -0.333746
-0.063852 0.069714 -0.332410
-0.068067 0.070085 -0.330954
-0.072239 0.070440 -0.329376
-0.076364 0.070773 -0.327673
-0.080437 0.071079 -0.325844
-0.084443 0.071346 -0.323868
-0.088383 0.071569 -0.321758
-0.092254 0.071745 -0.319521
-0.096052 0.071871 -0.317160
-0.099773 0.071940 -0.314676
-0.103415 0.071944 -0.312076
-0.106950 0.071784 -0.309338
-0.110373 0.071417 -0.306481
-0.113641 0.070799 -0.303487
-0.116729 0.069937 -0.300369
-0.119563 0.068770 -0.297110
-0.122030 0.067240 -0.293710
-0.123958 0.065275 -0.290195
-0.125038 0.062784 -0.286660
-0.124878 0.059792 -0.283370
-0.123267 0.056571 -0.280754
-0.131524 0.037104 -0.279165
-0.135885 0.036142 -0.279176
-0.140246 0.035178 -0.279189
-0.144607 0.034214 -0.279202
-0.148968 0.033249 -0.279216
-0.153329 0.032285 -0.279231
-0.157690 0.031323 -0.279247
-0.162052 0.030362 -0.279264
-0.166414 0.029404 -0.279283
-0.170777 0.028448 -0.279301
-0.175140 0.027496 -0.279321
-0.179505 0.026548 -0.279341
-0.180264 0.022151 -0.279417
-0.181004 0.017752 -0.279491
-0.181679 0.013342 -0.279567
-0.182309 0.008926 -0.279642
-0.182894 0.004503 -0.279717
-0.183405 0.000071 -0.279793
-0.183882 -0.004365 -0.279868
-0.184277 -0.008809 -0.279944
-0.184617 -0.013256 -0.280020
-0.184912 -0.017708 -0.280095
-0.185104 -0.022165 -0.280171
-0.185246 -0.026624 -0.280246
-0.185331 -0.031085 -0.280322
-0.185309 -0.035546 -0.280398
-0.185226 -0.040006 -0.280473
-0.185079 -0.044465 -0.280548
-0.184830 -0.048919 -0.280623
-0.184500 -0.053368 -0.280698
-0.184098 -0.057811 -0.280772
-0.183619 -0.062247 -0.280847
-0.183026 -0.066668 -0.280921
-0.182355 -0.071079 -0.280994
-0.181605 -0.075476 -0.281067
-0.180774 -0.079859 -0.281140
-0.179837 -0.084221 -0.281212
-0.178814 -0.088564 -0.281283
-0.177711 -0.092886 -0.281354
-0.176530 -0.097188 -0.281425
-0.108000 0.039587 0.249131
-0.112324 0.038641 0.249152
-0.116636 0.037647 0.249172
-0.120941 0.036620 0.249191
-0.125240 0.035567 0.249210
-0.129533 0.034493 0.249228
-0.133821 0.033399 0.249246
-0.138105 0.032288 0.249263
-0.142385 0.031160 0.249280
-0.146660 0.030015 0.249296
-0.150930 0.028853 0.249311
-0.155196 0.027672 0.249325
-0.159454 0.026469 0.249339
-0.163707 0.025241 0.249351
-0.167949 0.023982 0.249361
-0.172180 0.022683 0.249369
-0.176334 0.021196 0.249371
-0.179677 0.018397 0.249351
-0.181924 0.014612 0.249314
-0.183467 0.010474 0.249269
-0.184599 0.006200 0.249220
-0.185474 0.001865 0.249169
-0.186169 -0.002506 0.249117
-0.186655 -0.006904 0.249064
-0.187067 -0.011310 0.249010
-0.187384 -0.015724 0.248956
-0.187607 -0.020143 0.248901
-0.187799 -0.024564 0.248845
-0.187893 -0.028989 0.248790
-0.187975 -0.033413 0.248734
-0.187992 -0.037838 0.248678
-0.187992 -0.042264 0.248622
-0.187948 -0.046689 0.248565
-0.187888 -0.051114 0.248508
-0.187798 -0.055538 0.248452
-0.187692 -0.059962 0.248395
-0.187568 -0.064386 0.248338
-0.187430 -0.068809 0.248281
-0.187283 -0.073232 0.248223
-0.187126 -0.077654 0.248166
-0.186966 -0.082077 0.248109
-0.186805 -0.086499 0.248051
-0.186648 -0.090922 0.247993
-0.186501 -0.095345 0.247935
-0.186375 -0.099768 0.247878
-0.186274 -0.104193 0.247820
-0.176989 0.017548 0.172755
-0.177766 0.013133 0.172701
-0.178464 0.008704 0.172647
-0.179102 0.004266 0.172594
-0.179690 -0.000178 0.172540
-0.180216 -0.004631 0.172486
-0.180706 -0.009087 0.172432
-0.181168 -0.013547 0.172379
-0.181586 -0.018011 0.172325
-0.181979 -0.022477 0.172271
-0.182354 -0.026945 0.172218
-0.182688 -0.031416 0.172164
-0.183008 -0.035888 0.172110
-0.183304 -0.040362 0.172057
-0.183575 -0.044837 0.172003
-0.183832 -0.049313 0.171949
-0.184061 -0.053791 0.171896
-0.184274 -0.058270 0.171842
-0.184471 -0.062749 0.171788
-0.184639 -0.067229 0.171734
-0.184794 -0.071710 0.171680
-0.184927 -0.076191 0.171626
-0.185035 -0.080674 0.171572
-0.185125 -0.085156 0.171518
-0.185190 -0.089639 0.171464
-0.185224 -0.094123 0.171410
-0.185231 -0.098606 0.171355
-0.185208 -0.103089 0.171301
-0.109321 0.026501 0.051504
-0.113711 0.025447 0.051878
-0.118101 0.024393 0.052260
-0.122491 0.023340 0.052645
-0.126880 0.022286 0.053032
-0.131270 0.021233 0.053417
-0.135660 0.020180 0.053800
-0.140050 0.019127 0.054179
-0.144440 0.018074 0.054554
-0.148832 0.017021 0.054921
-0.153224 0.015968 0.055279
-0.157617 0.014916 0.055628
-0.162011 0.013864 0.055966
-0.166406 0.012811 0.056291
-0.170801 0.011760 0.056601
-0.175199 0.010708 0.056893
-0.176751 0.006453 0.057069
-0.178037 0.002108 0.057198
-0.179114 -0.002294 0.057291
-0.180026 -0.006734 0.057357
-0.180804 -0.011201 0.057400
-0.181469 -0.015685 0.057424
-0.182040 -0.020183 0.057434
-0.182528 -0.024691 0.057431
-0.182944 -0.029205 0.057417
-0.183295 -0.033726 0.057393
-0.183586 -0.038250 0.057361
-0.183821 -0.042777 0.057321
-0.184004 -0.047307 0.057275
-0.184138 -0.051839 0.057223
-0.184224 -0.056372 0.057165
-0.184257 -0.060905 0.057100
-0.184242 -0.065439 0.057032
-0.184180 -0.069971 0.056958
-0.184070 -0.074503 0.056880
-0.183910 -0.079034 0.056799
-0.183697 -0.083562 0.056743
-0.183389 -0.088084 0.056847
-0.182995 -0.092593 0.057115
-0.182544 -0.097088 0.057495
-0.182096 -0.101584 0.057865
-0.181755 -0.106101 0.058017
-0.113646 0.032065 -0.069414
-0.118000 0.031075 -0.069087
-0.122344 0.030075 -0.068680
-0.126678 0.029063 -0.068193
-0.131004 0.028044 -0.067657
-0.135322 0.027016 -0.067079
-0.139637 0.025981 -0.066481
-0.143948 0.024937 -0.065879
-0.148260 0.023887 -0.065289
-0.152574 0.022830 -0.064735
-0.156894 0.021767 -0.064231
-0.161220 0.020698 -0.063809
-0.165555 0.019625 -0.063491
-0.169896 0.018548 -0.063303
-0.171321 0.014374 -0.063139
-0.172423 0.010101 -0.063059
-0.173286 0.005771 -0.063039
-0.173960 0.001408 -0.063063
-0.174501 -0.002974 -0.063118
-0.174938 -0.007367 -0.063195
-0.175289 -0.011768 -0.063288
-0.175564 -0.016173 -0.063396
-0.175774 -0.020582 -0.063513
-0.175931 -0.024993 -0.063638
-0.176042 -0.029405 -0.063768
-0.176114 -0.033818 -0.063902
-0.176149 -0.038232 -0.064038
-0.176151 -0.042645 -0.064174
-0.176116 -0.047058 -0.064310
-0.176054 -0.051471 -0.064444
-0.175970 -0.055884 -0.064575
-0.175863 -0.060296 -0.064703
-0.175735 -0.064708 -0.064825
-0.175582 -0.069120 -0.064939
-0.175412 -0.073531 -0.065045
-0.175235 -0.077942 -0.065136
-0.175070 -0.082354 -0.065179
-0.174923 -0.086767 -0.065182
-0.174789 -0.091181 -0.065159
-0.174662 -0.095594 -0.065129
-0.174536 -0.100008 -0.065111
-0.174402 -0.104421 -0.065134
-0.140633 -0.110322 0.390644
-0.140710 -0.105876 0.390596
-0.140822 -0.101432 0.390506
-0.141053 -0.096998 0.390264
-0.141356 -0.092576 0.389925
-0.141734 -0.088167 0.389486
-0.142226 -0.083790 0.388885
-0.142766 -0.079428 0.388214
-0.143420 -0.075111 0.387369
-0.144139 -0.070829 0.386418
-0.144918 -0.066578 0.385368
-0.145802 -0.062401 0.384129
-0.146732 -0.058261 0.382802
-0.147728 -0.054179 0.381347
-0.148796 -0.050179 0.379726
-0.149904 -0.046230 0.378012
-0.151066 -0.042358 0.376159
-0.152279 -0.038581 0.374152
