-1.057295000000000096e+00 6.103499999999999481e-01 1.160889999999999977e-01 -7.593976259231567383e-01 4.420101344585418701e-01 4.774329960346221924e-01
-2.461569999999999869e-01 7.150840000000000529e-01 -5.366699999999999943e-02 3.069258630275726318e-01 -9.333938360214233398e-01 -1.859370172023773193e-01
-8.240169999999999995e-01 6.408160000000000522e-01 2.456230000000000080e-01 -1.456129997968673706e-01 1.282976865768432617e-01 9.809874892234802246e-01
-5.834709999999999619e-01 -1.102659999999999973e+00 3.409600000000000131e-02 -4.545085728168487549e-01 -8.807021379470825195e-01 1.333629935979843140e-01
-1.122740000000000071e+00 5.175239999999999840e-01 7.977700000000000069e-02 -8.597673177719116211e-01 3.874740898609161377e-01 3.326618671417236328e-01
-1.210523999999999933e+00 -3.104180000000000272e-01 3.706999999999999792e-03 -9.653793573379516602e-01 -2.604099214076995850e-01 1.514368876814842224e-02
-5.224720000000000475e-01 7.078780000000000072e-01 2.188910000000000022e-01 2.981494367122650146e-01 -3.704931437969207764e-01 8.796827197074890137e-01
-9.999199999999999755e-02 1.245184000000000069e+00 -1.120900000000000021e-02 -8.827829360961914062e-02 9.949914813041687012e-01 -4.689283296465873718e-02
-3.576920000000000099e-01 -1.165575999999999945e+00 1.194009999999999933e-01 -2.732358276844024658e-01 -8.318652510643005371e-01 4.830552041530609131e-01
-7.540839999999999765e-01 7.799270000000000369e-01 -2.346149999999999902e-01 -2.553389668464660645e-01 2.306193113327026367e-01 -9.389444589614868164e-01
-1.141731000000000051e+00 -4.209979999999999833e-01 -1.240720000000000017e-01 -8.169979453086853027e-01 -2.995935976505279541e-01 -4.927048087120056152e-01
-7.137879999999999781e-01 -9.551349999999999563e-01 -1.589289999999999869e-01 -4.768406450748443604e-01 -6.177971363067626953e-01 -6.252597570419311523e-01
-1.128919000000000006e+00 -5.165999999999999481e-01 -6.411799999999999444e-02 -8.794991374015808105e-01 -4.012621939182281494e-01 -2.558707594871520996e-01
-9.278980000000000006e-01 1.447859999999999980e-01 -2.422549999999999981e-01 2.301684767007827759e-01 -1.855409145355224609e-02 -9.729738831520080566e-01
-3.865930000000000200e-01 7.432379999999999542e-01 1.895880000000000065e-01 2.892130017280578613e-01 -5.671160817146301270e-01 7.711907029151916504e-01
-1.009034999999999904e+00 -7.119469999999999965e-01 -8.400499999999999634e-02 -7.754292488098144531e-01 -5.347921848297119141e-01 -3.357182741165161133e-01
-1.096678000000000042e+00 -2.019700000000000106e-01 -2.213380000000000070e-01 -4.654294848442077637e-01 -5.995897203683853149e-02 -8.830516934394836426e-01
-1.481389999999999929e-01 1.238448999999999911e+00 3.532799999999999829e-02 -1.318784058094024658e-01 9.808410406112670898e-01 1.433841884136199951e-01
-9.314649999999999874e-01 -5.963399999999999812e-01 -2.258469999999999922e-01 -3.846731185913085938e-01 -2.144141495227813721e-01 -8.978046774864196777e-01
-9.723929999999999518e-01 6.165059999999999985e-01 1.988890000000000102e-01 -5.107256770133972168e-01 3.235107660293579102e-01 7.965551614761352539e-01
-7.428050000000000486e-01 -7.324279999999999680e-01 2.457519999999999982e-01 -1.506695151329040527e-01 -1.383815407752990723e-01 9.788510203361511230e-01
-5.388669999999999849e-01 9.705529999999999990e-01 2.238100000000000089e-01 -1.966286748647689819e-01 4.021715819835662842e-01 8.942008614540100098e-01
-6.689030000000000253e-01 -6.418019999999999836e-01 -2.386800000000000033e-01 2.129027545452117920e-01 1.784398853778839111e-01 -9.606412649154663086e-01
-9.555829999999999602e-01 -1.457130000000000092e-01 -2.477219999999999978e-01 1.501556336879730225e-01 8.789910003542900085e-03 -9.886232614517211914e-01
-7.577530000000000099e-01 3.887000000000000177e-02 -6.543999999999999817e-02 9.591129422187805176e-01 -3.812570124864578247e-02 -2.804439961910247803e-01
-1.197726999999999986e+00 -1.832850000000000035e-01 1.321549999999999947e-01 -8.443939685821533203e-01 -1.355570703744888306e-01 5.182887315750122070e-01
-8.226970000000000116e-01 -3.664879999999999804e-01 2.291580000000000006e-01 3.613390922546386719e-01 1.569595932960510254e-01 9.191287755966186523e-01
-7.929819999999999647e-01 9.446080000000000032e-01 -8.844499999999999584e-02 -5.680574178695678711e-01 7.446301579475402832e-01 -3.504805564880371094e-01
-7.454769999999999452e-01 9.625200000000000422e-02 2.601200000000000040e-02 9.855263233184814453e-01 -1.248205453157424927e-01 1.147066801786422729e-01
-3.970489999999999853e-01 9.710299999999999487e-01 2.445819999999999939e-01 -9.423398971557617188e-02 1.925717741250991821e-01 9.767476916313171387e-01
-9.537459999999999827e-01 8.040040000000000520e-01 -3.438399999999999790e-02 -7.539443373680114746e-01 6.401007771492004395e-01 -1.477799266576766968e-01
-7.517859999999999543e-01 1.363699999999999982e-02 2.980599999999999916e-02 9.922722578048706055e-01 -3.470968455076217651e-02 1.191261857748031616e-01
-7.259290000000000465e-01 -3.624279999999999724e-01 -1.632969999999999977e-01 6.681079864501953125e-01 3.413915038108825684e-01 -6.611229181289672852e-01
-5.456210000000000226e-01 -1.094908999999999910e+00 1.110669999999999991e-01 -3.884527683258056641e-01 -8.121631741523742676e-01 4.353108406066894531e-01
-7.557509999999999506e-01 -1.308719999999999883e-01 8.969499999999999695e-02 9.190514087677001953e-01 1.490562856197357178e-01 3.648652732372283936e-01
-7.574990000000000334e-01 -4.635239999999999916e-01 -2.229800000000000115e-01 3.766017556190490723e-01 2.473334074020385742e-01 -8.927471041679382324e-01
-8.697219999999999951e-01 4.840389999999999970e-01 -2.496990000000000043e-01 1.170988380908966064e-02 -8.486371487379074097e-03 -9.998953938484191895e-01
-5.079600000000000087e-02 8.739620000000000166e-01 -2.167520000000000002e-01 2.412750720977783203e-01 -5.026655793190002441e-01 -8.301287889480590820e-01
-9.224700000000000122e-01 -2.208100000000000063e-01 -2.441280000000000117e-01 1.903149783611297607e-01 7.545536756515502930e-02 -9.788190126419067383e-01
-3.401399999999999979e-01 -7.639690000000000092e-01 1.882300000000000084e-01 2.412280291318893433e-01 6.090551614761352539e-01 7.555533647537231445e-01
-6.224079999999999613e-01 7.904689999999999772e-01 -2.495970000000000133e-01 -1.515602599829435349e-02 3.856390714645385742e-02 -9.991411566734313965e-01
-8.142789999999999750e-01 -8.523500000000000520e-02 1.717039999999999955e-01 7.081314325332641602e-01 6.902650743722915649e-02 7.026984691619873047e-01
-1.227970000000000006e+00 2.243040000000000034e-01 -2.479200000000000154e-02 -9.850655198097229004e-01 1.571522504091262817e-01 -7.034914195537567139e-02
-6.758330000000000171e-01 8.440760000000000485e-01 -2.358200000000000018e-01 -1.739665865898132324e-01 2.763575613498687744e-01 -9.451783895492553711e-01
-2.701100000000000168e-01 1.164986999999999995e+00 1.548980000000000079e-01 -1.986244767904281616e-01 7.486508488655090332e-01 6.325110793113708496e-01
-1.144592000000000054e+00 -4.222879999999999967e-01 1.177229999999999943e-01 -8.406212925910949707e-01 -2.924659848213195801e-01 4.558723568916320801e-01
-1.821579999999999866e-01 -1.226904999999999912e+00 -6.801999999999999713e-02 -1.309854984283447266e-01 -9.504780173301696777e-01 -2.818408310413360596e-01
-8.340809999999999613e-01 -7.480809999999999960e-01 2.187429999999999930e-01 -3.687596917152404785e-01 -3.416547477245330811e-01 8.644583225250244141e-01
-1.369589999999999974e-01 7.445720000000000116e-01 5.766600000000000198e-02 1.566897183656692505e-01 -9.590886831283569336e-01 2.357906848192214966e-01
-9.369459999999999456e-01 -4.297100000000000225e-02 2.420120000000000049e-01 2.319940924644470215e-01 2.668477222323417664e-02 9.723511338233947754e-01
-1.134276999999999980e+00 -4.967079999999999829e-01 7.401099999999999346e-02 -8.912826776504516602e-01 -3.512938022613525391e-01 2.867189645767211914e-01
-1.053846999999999978e+00 7.625400000000000234e-02 -2.430900000000000005e-01 -2.341668009757995605e-01 1.225113868713378906e-02 -9.721191525459289551e-01
-7.016689999999999872e-01 -3.632529999999999926e-01 1.350079999999999891e-01 7.479194402694702148e-01 3.854744732379913330e-01 5.403942465782165527e-01
-8.413400000000000045e-02 -9.077020000000000088e-01 -2.334519999999999929e-01 4.572824016213417053e-02 3.765701055526733398e-01 -9.252588152885437012e-01
-1.064259999999999984e+00 -1.506760000000000044e-01 2.380079999999999973e-01 -3.132007718086242676e-01 -5.382132902741432190e-02 9.481605291366577148e-01
-2.376469999999999971e-01 7.119029999999999525e-01 -8.338999999999999191e-03 3.416846990585327148e-01 -9.396092891693115234e-01 -1.965057291090488434e-02
-4.517309999999999937e-01 -9.390659999999999563e-01 -2.459719999999999962e-01 -5.605459958314895630e-02 -1.412014663219451904e-01 -9.883926510810852051e-01
-1.150956000000000090e+00 3.612730000000000108e-01 -1.401100000000000123e-01 -8.006699681282043457e-01 2.606065273284912109e-01 -5.394551157951354980e-01
-8.855520000000000058e-01 -2.074999999999999900e-01 2.327599999999999947e-01 3.348292708396911621e-01 5.095972120761871338e-02 9.408997893333435059e-01
-5.725800000000000334e-02 -8.172960000000000225e-01 1.723379999999999912e-01 2.049271613359451294e-01 7.416605949401855469e-01 6.387052536010742188e-01
-5.413080000000000114e-01 6.854789999999999495e-01 2.154949999999999921e-01 3.199417591094970703e-01 -3.865529298782348633e-01 8.649936318397521973e-01
-1.341620000000000035e-01 8.930329999999999657e-01 -2.303510000000000002e-01 3.036844730377197266e-02 -3.771648705005645752e-01 -9.256481528282165527e-01
-8.952259999999999662e-01 -4.476689999999999836e-01 -2.499379999999999935e-01 -6.977089680731296539e-03 -4.465576421353034675e-05 -9.999756813049316406e-01
-8.911320000000000352e-01 -3.844960000000000044e-01 -2.480739999999999890e-01 1.020837798714637756e-01 3.097327612340450287e-02 -9.942935109138488770e-01
-2.703670000000000240e-01 -7.217719999999999692e-01 9.926699999999999413e-02 3.233936727046966553e-01 8.662684559822082520e-01 3.807827234268188477e-01
-5.430939999999999657e-01 5.904220000000000024e-01 -1.528789999999999871e-01 5.323931574821472168e-01 -5.786613225936889648e-01 -6.178258061408996582e-01
-5.809560000000000279e-01 -7.556270000000000486e-01 -2.450430000000000108e-01 1.093696802854537964e-01 1.450282782316207886e-01 -9.833641052246093750e-01
-4.416269999999999918e-01 -1.067668999999999979e+00 1.955159999999999954e-01 -2.238714396953582764e-01 -5.781604051589965820e-01 7.846095561981201172e-01
-6.786929999999999907e-01 3.198329999999999784e-01 -4.429999999999999910e-03 9.056524634361267090e-01 -4.238553941249847412e-01 -1.184057071805000305e-02
-5.863920000000000243e-01 -8.765880000000000338e-01 2.434820000000000040e-01 -1.117262318730354309e-01 -2.098636478185653687e-01 9.713261723518371582e-01
-6.794400000000000439e-01 -4.021049999999999902e-01 -1.340679999999999927e-01 7.208035588264465332e-01 4.229397773742675781e-01 -5.491485595703125000e-01
-7.166919999999999957e-01 4.568559999999999843e-01 1.997670000000000001e-01 4.896765649318695068e-01 -3.423856794834136963e-01 8.018658757209777832e-01
-2.659150000000000125e-01 1.092589000000000032e+00 2.167290000000000050e-01 -1.357049942016601562e-01 4.723256230354309082e-01 8.709148764610290527e-01
-3.729790000000000050e-01 6.574200000000000044e-01 5.133499999999999869e-02 4.723179042339324951e-01 -8.505192995071411133e-01 2.313712239265441895e-01
-5.947149999999999936e-01 6.180949999999999500e-01 -2.050059999999999938e-01 4.018627703189849854e-01 -3.883638083934783936e-01 -8.292647004127502441e-01
-4.898759999999999781e-01 5.942300000000000360e-01 -9.792299999999999616e-02 5.994868278503417969e-01 -7.021842598915100098e-01 -3.841261863708496094e-01
-9.790039999999999853e-01 -5.293670000000000320e-01 -2.224180000000000046e-01 -4.159427583217620850e-01 -2.073746472597122192e-01 -8.854305744171142578e-01
-6.749530000000000252e-01 -9.714709999999999734e-01 1.696850000000000025e-01 -3.994559049606323242e-01 -6.151671409606933594e-01 6.797090172767639160e-01
-2.244399999999999867e-02 8.191910000000000025e-01 1.725579999999999892e-01 2.840514183044433594e-01 -6.859453320503234863e-01 6.699208021163940430e-01
-8.351100000000000190e-01 3.837180000000000035e-01 -2.359890000000000043e-01 2.715231478214263916e-01 -1.117528751492500305e-01 -9.559218287467956543e-01
-2.289660000000000029e-01 -1.180223999999999940e+00 1.462839999999999974e-01 -1.509335935115814209e-01 -8.027089834213256836e-01 5.769552588462829590e-01
-6.414410000000000389e-01 -4.997550000000000048e-01 -1.652909999999999935e-01 5.793071389198303223e-01 4.453221559524536133e-01 -6.827089190483093262e-01
-4.514230000000000187e-01 -6.691829999999999723e-01 1.585580000000000045e-01 4.364979565143585205e-01 6.445963382720947266e-01 6.276664137840270996e-01
-1.105739999999999945e+00 4.674400000000000083e-02 2.254839999999999900e-01 -4.367359578609466553e-01 1.807177625596523285e-02 8.994081616401672363e-01
-7.943679999999999630e-01 -1.852020000000000055e-01 -1.682279999999999887e-01 7.175451517105102539e-01 1.928435564041137695e-01 -6.692834496498107910e-01
-3.862129999999999730e-01 8.172530000000000072e-01 -2.307669999999999999e-01 1.632564961910247803e-01 -3.347010612487792969e-01 -9.280746579170227051e-01
-6.735790000000000388e-01 -9.941769999999999774e-01 -1.482920000000000071e-01 -4.509237408638000488e-01 -6.681954264640808105e-01 -5.917623043060302734e-01
-9.116319999999999979e-01 4.170329999999999870e-01 -2.498319999999999985e-01 2.066547313006594777e-05 2.511069923639297485e-02 -9.996846914291381836e-01
-5.980090000000000128e-01 -6.393149999999999666e-01 -2.167379999999999862e-01 3.467350304126739502e-01 3.380976617336273193e-01 -8.749084472656250000e-01
-9.824060000000000015e-01 -7.496239999999999570e-01 8.134399999999999964e-02 -7.592869400978088379e-01 -5.683844089508056641e-01 3.168951570987701416e-01
-2.992300000000000168e-02 1.204010999999999942e+00 1.431379999999999875e-01 1.777996718883514404e-01 8.027548789978027344e-01 5.691853165626525879e-01
-4.710799999999999987e-01 -9.696390000000000287e-01 2.369360000000000077e-01 -1.593221575021743774e-01 -2.688814401626586914e-01 9.499048590660095215e-01
-8.339550000000000018e-01 -2.538850000000000273e-01 -2.143380000000000007e-01 4.812467396259307861e-01 1.428661644458770752e-01 -8.648645877838134766e-01
-6.922840000000000105e-01 -9.271390000000000464e-01 -1.940119999999999900e-01 -3.920400440692901611e-01 -4.947499036788940430e-01 -7.755817770957946777e-01
-2.158500000000000002e-02 7.616779999999999662e-01 -7.500099999999999822e-02 2.723333537578582764e-01 -9.089785814285278320e-01 -3.155828416347503662e-01
-1.117979999999999946e-01 1.229143000000000097e+00 8.587400000000000588e-02 -8.253520727157592773e-02 9.292684793472290039e-01 3.600668311119079590e-01
-5.820959999999999468e-01 9.203550000000000342e-01 2.332369999999999999e-01 -1.871562749147415161e-01 3.205952048301696777e-01 9.285424947738647461e-01
-3.685289999999999955e-01 8.901919999999999833e-01 2.470839999999999981e-01 3.970405831933021545e-02 -1.343018263578414917e-01 9.901447296142578125e-01
-1.467009999999999981e-01 -8.290969999999999729e-01 1.932480000000000031e-01 1.086944714188575745e-01 6.507562398910522461e-01 7.514664530754089355e-01
-3.944449999999999901e-01 1.179403999999999897e+00 -5.373200000000000198e-02 -3.090594708919525146e-01 9.231573343276977539e-01 -2.286106497049331665e-01
-1.068397999999999959e+00 5.892159999999999620e-01 1.175220000000000015e-01 -7.596797943115234375e-01 4.334174990653991699e-01 4.848049283027648926e-01
-1.155815999999999955e+00 2.330309999999999881e-01 -1.741189999999999960e-01 -7.092086672782897949e-01 1.487298756837844849e-01 -6.891316771507263184e-01
-9.478900000000000103e-01 -3.185020000000000073e-01 2.499989999999999990e-01 7.892354042269289494e-04 -4.602668341249227524e-03 9.999891519546508789e-01
-9.749860000000000193e-01 -4.169649999999999745e-01 -2.423210000000000086e-01 -2.246613204479217529e-01 -9.794232249259948730e-02 -9.695022702217102051e-01
-7.611240000000000228e-01 -2.713920000000000221e-01 1.594990000000000019e-01 7.091585993766784668e-01 2.617619335651397705e-01 6.546562314033508301e-01
-9.692570000000000352e-01 -4.303469999999999795e-01 -2.423170000000000046e-01 -2.300122082233428955e-01 -1.047432944178581238e-01 -9.675346016883850098e-01
-1.081055000000000099e+00 -4.653660000000000019e-01 -1.764630000000000087e-01 -6.598957180976867676e-01 -2.904970049858093262e-01 -6.929278969764709473e-01
-6.324400000000000022e-01 9.047159999999999647e-01 2.269150000000000056e-01 -2.441998422145843506e-01 3.342534601688385010e-01 9.102972149848937988e-01
-6.781129999999999658e-01 -7.189020000000000410e-01 2.492340000000000111e-01 4.472833871841430664e-02 6.578288972377777100e-03 9.989774823188781738e-01
-7.423410000000000286e-01 -3.719580000000000108e-01 -1.830110000000000070e-01 6.025963425636291504e-01 3.128206729888916016e-01 -7.341803908348083496e-01
-1.233390999999999904e+00 8.291999999999999371e-02 8.012199999999999878e-02 -9.389079809188842773e-01 6.027183309197425842e-02 3.388497233390808105e-01
-7.962789999999999591e-01 -9.573270000000000390e-01 4.561699999999999783e-02 -6.374590396881103516e-01 -7.485322356224060059e-01 1.826069355010986328e-01
-6.869420000000000526e-01 -3.939259999999999984e-01 1.376050000000000051e-01 7.392379641532897949e-01 3.837172389030456543e-01 5.534332394599914551e-01
-4.203700000000000214e-01 -6.784750000000000503e-01 1.470180000000000098e-01 4.492977857589721680e-01 6.730965971946716309e-01 5.874286890029907227e-01
-7.088210000000000344e-01 -6.313739999999999908e-01 2.442689999999999861e-01 1.265491843223571777e-01 1.483047157526016235e-01 9.808114171028137207e-01
-4.226530000000000009e-01 -9.566339999999999844e-01 -2.452310000000000045e-01 -7.632382959127426147e-02 -1.711642444133758545e-01 -9.822818040847778320e-01
-7.722919999999999785e-01 9.479400000000000048e-01 -1.123230000000000062e-01 -5.355420708656311035e-01 7.205815315246582031e-01 -4.404054880142211914e-01
-5.348519999999999941e-01 1.006637000000000004e+00 -2.065259999999999874e-01 -2.796673178672790527e-01 5.000797510147094727e-01 -8.195769786834716797e-01
-8.527059999999999640e-01 7.397759999999999891e-01 -2.138889999999999958e-01 -3.952562808990478516e-01 3.464972972869873047e-01 -8.507127761840820312e-01
-9.080460000000000198e-01 -3.582150000000000056e-01 -2.484409999999999952e-01 8.499476313591003418e-02 1.238107495009899139e-02 -9.963045120239257812e-01
-5.694390000000000285e-01 5.192290000000000516e-01 9.895199999999999829e-02 6.891281008720397949e-01 -6.136253476142883301e-01 3.854430317878723145e-01
-9.267220000000000457e-01 -8.236799999999999677e-02 2.398339999999999916e-01 2.563234269618988037e-01 1.552605628967285156e-02 9.664663672447204590e-01
-7.894199999999999828e-02 -1.234228000000000103e+00 -7.837900000000000422e-02 -2.917519584298133850e-02 -9.450067281723022461e-01 -3.257470726966857910e-01
-1.171710000000000029e+00 -3.783610000000000029e-01 -9.452599999999999891e-02 -8.805434107780456543e-01 -2.744716107845306396e-01 -3.864047527313232422e-01
-2.842680000000000207e-01 1.010223000000000093e+00 -2.445050000000000001e-01 -5.371964350342750549e-02 1.920531839132308960e-01 -9.799131155014038086e-01
-7.464150000000000507e-01 2.748709999999999765e-01 -1.429300000000000015e-01 7.623481154441833496e-01 -2.962135076522827148e-01 -5.753980875015258789e-01
-1.008416999999999897e+00 -7.341149999999999620e-01 3.486899999999999722e-02 -8.154229521751403809e-01 -5.627030730247497559e-01 1.358329057693481445e-01
-3.306299999999999795e-01 1.054397999999999946e+00 -2.263199999999999934e-01 -1.403468251228332520e-01 3.921744823455810547e-01 -9.091215133666992188e-01
-1.039728999999999903e+00 -6.638549999999999729e-01 -8.781700000000000617e-02 -7.975621819496154785e-01 -4.955982565879821777e-01 -3.439140617847442627e-01
-3.857240000000000113e-01 -9.123679999999999568e-01 -2.493849999999999956e-01 6.747750448994338512e-04 2.564047835767269135e-02 -9.996709823608398438e-01
-9.989419999999999966e-01 -7.132519999999999971e-01 -1.026799999999999935e-01 -7.518181800842285156e-01 -5.201675891876220703e-01 -4.052099585533142090e-01
-5.212860000000000271e-01 5.447159999999999780e-01 4.188800000000000162e-02 6.877171397209167480e-01 -6.994226574897766113e-01 1.945584863424301147e-01
-1.111024999999999929e+00 -5.170869999999999633e-01 1.067010000000000042e-01 -8.149635195732116699e-01 -3.917441964149475098e-01 4.270491898059844971e-01
-1.087825999999999960e+00 3.162989999999999968e-01 -2.111860000000000126e-01 -5.280035138130187988e-01 1.608093529939651489e-01 -8.338780403137207031e-01
-8.827390000000000514e-01 7.522600000000000120e-02 -2.219329999999999914e-01 4.416234791278839111e-01 -3.591063991189002991e-02 -8.964814543724060059e-01
-6.150700000000000056e-01 -1.073703000000000074e+00 -7.656599999999999517e-02 -4.529623389244079590e-01 -8.307033181190490723e-01 -3.236618340015411377e-01
-5.387859999999999872e-01 -1.079944000000000015e+00 1.393330000000000124e-01 -3.792394697666168213e-01 -7.509708404541015625e-01 5.405739545822143555e-01
-1.214061000000000057e+00 2.570399999999999907e-01 -6.592800000000000049e-02 -9.437037706375122070e-01 1.998091042041778564e-01 -2.636274993419647217e-01
-7.281630000000000047e-01 -3.975020000000000220e-01 1.824149999999999938e-01 5.707798600196838379e-01 3.083143234252929688e-01 7.610207796096801758e-01
-1.114732000000000056e+00 5.044530000000000403e-01 -1.105339999999999934e-01 -8.307535052299499512e-01 3.548179566860198975e-01 -4.288971722126007080e-01
-5.555729999999999835e-01 1.118381999999999987e+00 1.772400000000000017e-02 -4.435922503471374512e-01 8.916380405426025391e-01 9.059520065784454346e-02
-1.099201000000000095e+00 -5.274000000000000216e-02 -2.285979999999999956e-01 -4.132051765918731689e-01 -1.811403036117553711e-02 -9.104577898979187012e-01
-1.878399999999999861e-02 -1.249227000000000087e+00 8.278999999999999901e-03 2.029952257871627808e-01 -9.778255224227905273e-01 5.148017033934593201e-02
-5.238700000000000301e-02 -1.246965000000000101e+00 -2.834199999999999914e-02 1.196374148130416870e-01 -9.912344217300415039e-01 -5.604694411158561707e-02
-4.229459999999999886e-01 1.167770999999999892e+00 6.183099999999999707e-02 -3.421392738819122314e-01 9.029973745346069336e-01 2.598776817321777344e-01
-2.651519999999999988e-01 -8.635340000000000238e-01 2.304910000000000014e-01 1.225584223866462708e-01 3.653528988361358643e-01 9.227657914161682129e-01
-9.287009999999999987e-01 4.492630000000000234e-01 -2.479200000000000015e-01 -1.297847628593444824e-01 5.268607661128044128e-02 -9.901414513587951660e-01
-1.177448000000000050e+00 -1.536510000000000098e-01 1.645439999999999958e-01 -7.529014348983764648e-01 -1.145096421241760254e-01 6.480948925018310547e-01
-6.949049999999999949e-01 1.034931999999999963e+00 3.888300000000000090e-02 -5.722935199737548828e-01 8.070166707038879395e-01 1.456164568662643433e-01
-2.730499999999999941e-02 -1.051517999999999953e+00 -2.440309999999999979e-01 2.164033055305480957e-01 -2.344118654727935791e-01 -9.477450847625732422e-01
-4.407550000000000079e-01 -1.150279000000000051e+00 9.304400000000000170e-02 -3.470498323440551758e-01 -8.592055439949035645e-01 3.759284615516662598e-01
-1.160180999999999907e+00 -4.154860000000000220e-01 -9.163899999999999824e-02 -8.795310854911804199e-01 -3.141157031059265137e-01 -3.574301600456237793e-01
-2.512579999999999814e-01 7.754419999999999646e-01 1.675999999999999990e-01 2.260676920413970947e-01 -6.978917717933654785e-01 6.795883774757385254e-01
-3.584769999999999901e-01 -1.081746000000000096e+00 -2.067450000000000121e-01 -2.058551013469696045e-01 -5.258340239524841309e-01 -8.253013491630554199e-01
-6.834300000000000097e-02 7.507620000000000404e-01 -4.155400000000000066e-02 1.347504705190658569e-01 -9.756476879119873047e-01 -1.730721592903137207e-01
-7.886130000000000084e-01 -9.686730000000000063e-01 -1.304199999999999977e-02 -6.296968460083007812e-01 -7.753080725669860840e-01 -4.877635091543197632e-02
-8.723570000000000491e-01 -2.307369999999999977e-01 2.300300000000000122e-01 3.805481493473052979e-01 5.213092267513275146e-02 9.232904911041259766e-01
-8.296839999999999771e-01 7.774929999999999897e-01 2.084080000000000099e-01 -4.108507633209228516e-01 4.027591347694396973e-01 8.179160952568054199e-01
-9.555510000000000392e-01 -7.650069999999999926e-01 -1.095030000000000031e-01 -7.169498801231384277e-01 -5.593252778053283691e-01 -4.160985648632049561e-01
-9.826139999999999874e-01 7.687070000000000292e-01 -3.398799999999999738e-02 -7.581232190132141113e-01 6.382933855056762695e-01 -1.335318386554718018e-01
-1.219870999999999928e+00 -2.078530000000000100e-01 7.645399999999999419e-02 -9.391006231307983398e-01 -1.491380333900451660e-01 3.095929324626922607e-01
-4.038229999999999875e-01 6.340770000000000017e-01 2.701699999999999935e-02 5.301218032836914062e-01 -8.356707096099853516e-01 1.436154097318649292e-01
-8.593840000000000368e-01 4.163529999999999731e-01 -2.454010000000000080e-01 1.509069204330444336e-01 -5.794865265488624573e-02 -9.868480563163757324e-01
-7.938300000000000356e-01 1.559180000000000010e-01 1.605800000000000005e-01 7.542289495468139648e-01 -1.666505187749862671e-01 6.351111531257629395e-01
-1.138573999999999975e+00 -4.094539999999999846e-01 -1.347639999999999949e-01 -7.925260663032531738e-01 -2.899712920188903809e-01 -5.364877581596374512e-01
-9.717489999999999739e-01 -7.588169999999999638e-01 -8.990499999999999881e-02 -7.391547560691833496e-01 -5.798370838165283203e-01 -3.426942527294158936e-01
-2.955439999999999734e-01 7.048210000000000308e-01 8.176500000000000434e-02 3.665061593055725098e-01 -8.717654347419738770e-01 3.251127898693084717e-01
-7.398500000000000076e-01 8.724640000000000173e-01 2.038069999999999882e-01 -3.731401264667510986e-01 4.416066706180572510e-01 8.159350752830505371e-01
-1.226706000000000074e+00 -2.305709999999999982e-01 2.626300000000000162e-02 -9.767077565193176270e-01 -1.906736046075820923e-01 9.841523319482803345e-02
-1.175113999999999992e+00 -3.803889999999999771e-01 8.316300000000000081e-02 -8.917912840843200684e-01 -2.916259765625000000e-01 3.459228277206420898e-01
-4.767930000000000224e-01 1.089062999999999892e+00 -1.629359999999999975e-01 -2.944534122943878174e-01 6.878333687782287598e-01 -6.634624600410461426e-01
-1.040086999999999984e+00 5.277249999999999996e-01 1.859220000000000039e-01 -6.149998903274536133e-01 2.921694219112396240e-01 7.324016094207763672e-01
-1.326420000000000099e-01 -9.170239999999999503e-01 2.385309999999999930e-01 5.192656815052032471e-02 3.046557903289794922e-01 9.510459303855895996e-01
-1.099340000000000039e-01 8.287639999999999452e-01 1.880539999999999989e-01 3.617922961711883545e-02 -6.466616988182067871e-01 7.619183659553527832e-01
-9.493249999999999744e-01 1.010619999999999991e-01 2.453519999999999868e-01 1.748229265213012695e-01 -1.867835409939289093e-02 9.844227433204650879e-01
-3.073000000000000176e-01 1.010251999999999928e+00 -2.432199999999999918e-01 -7.843683660030364990e-02 2.168876826763153076e-01 -9.730402827262878418e-01
-3.811880000000000268e-01 -6.915210000000000523e-01 1.342629999999999935e-01 4.311789572238922119e-01 7.211407423019409180e-01 5.422552227973937988e-01
-7.422870000000000301e-01 9.055360000000000076e-01 -1.819310000000000094e-01 -4.053254425525665283e-01 5.741242766380310059e-01 -7.114018797874450684e-01
-6.955930000000000168e-01 3.321250000000000036e-01 -9.935099999999999487e-02 8.201296925544738770e-01 -4.028522670269012451e-01 -4.063216745853424072e-01
-1.211978999999999917e+00 -5.747399999999999731e-02 1.297030000000000127e-01 -8.637641072273254395e-01 -5.362528935074806213e-02 5.010349154472351074e-01
-8.379320000000000102e-01 2.733010000000000161e-01 2.196680000000000021e-01 4.436575174331665039e-01 -1.207190155982971191e-01 8.880287408828735352e-01
-7.794440000000000257e-01 7.321520000000000250e-01 -2.398720000000000019e-01 -1.967707425355911255e-01 1.986915022134780884e-01 -9.601057171821594238e-01
-1.692240000000000133e-01 -1.010895000000000099e+00 -2.483599999999999974e-01 -1.639499329030513763e-02 -8.063148707151412964e-02 -9.966090917587280273e-01
-4.507880000000000220e-01 -6.273969999999999825e-01 -1.029250000000000026e-01 5.398889183998107910e-01 7.339537143707275391e-01 -4.121064543724060059e-01
-7.437380000000000102e-01 1.035449999999999982e-01 -1.470100000000000053e-02 9.916030764579772949e-01 -1.200064346194267273e-01 -4.818398132920265198e-02
-6.976040000000000019e-01 -4.773069999999999813e-01 1.961620000000000030e-01 5.215786099433898926e-01 3.391321897506713867e-01 7.829080820083618164e-01
-1.239784999999999915e+00 1.581839999999999913e-01 1.691000000000000012e-03 -9.911951422691345215e-01 1.322926431894302368e-01 5.554524250328540802e-03
-9.306740000000000013e-01 -8.332950000000000079e-01 -1.092800000000000021e-02 -7.449901700019836426e-01 -6.659864187240600586e-01 -3.810167312622070312e-02
-9.803250000000000020e-01 1.049930000000000030e-01 2.490819999999999979e-01 5.858222395181655884e-02 -4.796214867383241653e-03 9.982710480690002441e-01
-7.501349999999999962e-01 -9.845140000000000002e-01 7.548799999999999955e-02 -5.638430714607238770e-01 -7.662173509597778320e-01 3.082077801227569580e-01
-8.237569999999999615e-01 -5.306220000000000381e-01 2.486839999999999884e-01 5.195951461791992188e-02 3.958849236369132996e-02 9.978641867637634277e-01
-1.390740000000000032e-01 -7.943010000000000348e-01 -1.575920000000000099e-01 1.638868153095245361e-01 7.638376951217651367e-01 -6.242540478706359863e-01
-1.418969999999999954e-01 -1.122438999999999965e+00 -2.122239999999999960e-01 -3.423492610454559326e-02 -5.159845352172851562e-01 -8.559135198593139648e-01
-7.362849999999999673e-01 9.890120000000000022e-01 -8.965099999999999458e-02 -5.360575318336486816e-01 7.644519805908203125e-01 -3.581278324127197266e-01
-1.172180999999999917e+00 -2.560299999999999798e-01 -1.498800000000000132e-01 -7.846434712409973145e-01 -1.882739365100860596e-01 -5.906670093536376953e-01
-9.060610000000000053e-01 8.487329999999999597e-01 -6.425300000000000455e-02 -7.248356342315673828e-01 6.440740823745727539e-01 -2.445033639669418335e-01
-9.185189999999999744e-01 2.347839999999999927e-01 -2.440279999999999949e-01 1.869071871042251587e-01 -4.391587525606155396e-02 -9.813954830169677734e-01
-1.154482999999999926e+00 -5.374000000000000304e-02 1.952019999999999866e-01 -6.165671348571777344e-01 -4.224145039916038513e-02 7.861683368682861328e-01
-1.113040000000000002e-01 1.243171000000000026e+00 2.700299999999999923e-02 -1.085305660963058472e-01 9.876738190650939941e-01 1.127905026078224182e-01
-1.196331000000000033e+00 1.132190000000000002e-01 -1.471240000000000048e-01 -8.094825148582458496e-01 7.324729859828948975e-02 -5.825572013854980469e-01
-1.072902999999999940e+00 -4.249000000000000173e-03 2.386810000000000043e-01 -3.040902316570281982e-01 -8.685358799993991852e-03 9.526036381721496582e-01
-8.799770000000000092e-01 -6.625069999999999570e-01 2.280669999999999920e-01 -3.307099342346191406e-01 -2.363381981849670410e-01 9.136602878570556641e-01
-6.151600000000000124e-02 9.166910000000000336e-01 -2.358850000000000113e-01 1.497759073972702026e-01 -3.249635100364685059e-01 -9.337911605834960938e-01
-1.125714000000000103e+00 2.299400000000000055e-01 2.004599999999999993e-01 -5.922898650169372559e-01 1.209601461887359619e-01 7.965936660766601562e-01
-1.099736000000000047e+00 3.740260000000000251e-01 -1.900159999999999905e-01 -6.269508004188537598e-01 2.226463258266448975e-01 -7.465662956237792969e-01
-6.220590000000000286e-01 -5.708400000000000141e-01 -1.952889999999999904e-01 4.540635943412780762e-01 4.248895347118377686e-01 -7.831315994262695312e-01
-5.451719999999999899e-01 -8.504589999999999650e-01 2.493279999999999941e-01 -2.726987376809120178e-02 -6.852703541517257690e-02 9.972765445709228516e-01
-8.741889999999999938e-01 -6.220729999999999871e-01 -2.386709999999999943e-01 -2.565366327762603760e-01 -1.889789700508117676e-01 -9.478796720504760742e-01
-1.032362999999999920e+00 6.371210000000000484e-01 1.299089999999999967e-01 -7.335721254348754883e-01 4.498237371444702148e-01 5.094414353370666504e-01
-7.659059999999999757e-01 -4.933620000000000227e-01 -2.332730000000000081e-01 2.754834592342376709e-01 1.957005560398101807e-01 -9.411748647689819336e-01
-7.177750000000000519e-01 3.220370000000000177e-01 -1.298630000000000062e-01 7.676353454589843750e-01 -3.636865019798278809e-01 -5.277006626129150391e-01
-7.485380000000000367e-01 8.887620000000000520e-01 1.896730000000000083e-01 -4.213900566101074219e-01 4.813527166843414307e-01 7.685896158218383789e-01
-4.032430000000000181e-01 -9.335999999999999854e-01 -2.488829999999999931e-01 -2.561060152947902679e-02 -6.337665766477584839e-02 -9.976609349250793457e-01
-8.102300000000000058e-01 4.259870000000000045e-01 -2.347430000000000072e-01 2.856217920780181885e-01 -1.483630090951919556e-01 -9.467885494232177734e-01
-1.808500000000000038e-02 1.208099999999999952e+00 1.372480000000000089e-01 2.096386402845382690e-01 8.101546168327331543e-01 5.474496483802795410e-01
-1.247281000000000084e+00 -2.982599999999999835e-02 3.371099999999999791e-02 -9.937856197357177734e-01 -2.678530663251876831e-02 1.080405041575431824e-01
-1.118924000000000030e+00 -1.171589999999999993e-01 -2.164369999999999905e-01 -4.985925555229187012e-01 -6.669829040765762329e-02 -8.642666339874267578e-01
-8.478750000000000453e-01 -9.130279999999999507e-01 -4.152600000000000041e-02 -6.771675944328308105e-01 -7.186032533645629883e-01 -1.582827568054199219e-01
-1.033851000000000075e+00 1.871200000000000085e-01 2.442640000000000089e-01 -2.198765426874160767e-01 3.667770326137542725e-02 9.748379588127136230e-01
-3.349650000000000127e-01 9.605949999999999767e-01 2.488599999999999979e-01 -2.404839359223842621e-02 8.544825017452239990e-02 9.960523247718811035e-01
-9.223839999999999817e-01 -1.167600000000000061e-02 -2.371469999999999967e-01 3.066219091415405273e-01 7.630951702594757080e-03 -9.518008232116699219e-01
-5.222069999999999768e-01 8.714049999999999851e-01 -2.489580000000000126e-01 -3.087884001433849335e-02 5.082260072231292725e-02 -9.982301592826843262e-01
-7.605359999999999898e-01 -8.339399999999999591e-02 -8.424399999999999944e-02 9.307651519775390625e-01 1.003264263272285461e-01 -3.515833020210266113e-01
-1.292520000000000058e-01 8.312389999999999501e-01 -1.926110000000000044e-01 8.833500742912292480e-02 -6.572975516319274902e-01 -7.484363317489624023e-01
-6.158559999999999590e-01 1.086680000000000090e+00 1.428699999999999935e-02 -4.801796972751617432e-01 8.755338191986083984e-01 5.355494469404220581e-02
-3.948499999999999788e-01 7.641229999999999967e-01 2.066000000000000059e-01 2.484637051820755005e-01 -4.953907728195190430e-01 8.323783278465270996e-01
-1.237637000000000098e+00 1.485720000000000096e-01 3.914499999999999924e-02 -9.762324094772338867e-01 1.351805031299591064e-01 1.694001555442810059e-01
-1.795390000000000041e-01 -1.115955999999999948e+00 -2.129040000000000099e-01 -9.888525307178497314e-02 -5.083408951759338379e-01 -8.554596900939941406e-01
-5.239030000000000076e-01 -5.482019999999999671e-01 -6.362500000000000100e-02 6.737881302833557129e-01 6.981826424598693848e-01 -2.419721782207489014e-01
-6.588199999999999612e-02 8.361899999999999888e-01 -1.904569999999999874e-01 1.158927977085113525e-01 -6.742793321609497070e-01 -7.293258905410766602e-01
-7.917560000000000153e-01 5.508769999999999500e-01 2.473090000000000011e-01 9.636615216732025146e-02 -5.863692238926887512e-02 9.936172366142272949e-01
-6.998790000000000289e-01 1.033265000000000100e+00 -2.964999999999999927e-02 -5.735234022140502930e-01 8.079099059104919434e-01 -1.354710161685943604e-01
-9.074969999999999981e-01 -4.033499999999999863e-01 -2.495479999999999920e-01 2.249732799828052521e-02 6.794066866859793663e-04 -9.997466206550598145e-01
-2.650899999999999923e-01 7.953540000000000054e-01 -1.900799999999999990e-01 2.054478675127029419e-01 -6.200371980667114258e-01 -7.571955323219299316e-01
-1.517719999999999902e-01 -1.239028000000000018e+00 -2.592099999999999960e-02 -1.298178732395172119e-01 -9.859035015106201172e-01 -1.055535525083541870e-01
-7.044789999999999663e-01 7.642099999999999449e-01 2.465050000000000019e-01 -1.343695223331451416e-01 1.131755188107490540e-01 9.844471216201782227e-01
-1.165623999999999993e+00 2.367000000000000007e-02 -1.863019999999999954e-01 -6.762565374374389648e-01 4.262604750692844391e-03 -7.366539239883422852e-01
-5.625489999999999657e-01 -1.046307000000000098e+00 1.640020000000000089e-01 -3.769933283329010010e-01 -6.575389504432678223e-01 6.523178219795227051e-01
-1.835170000000000134e-01 9.568010000000000126e-01 -2.483160000000000089e-01 4.304333031177520752e-02 -1.178964897990226746e-01 -9.920926094055175781e-01
-6.998680000000000456e-01 3.765080000000000093e-01 1.418300000000000116e-01 7.061798572540283203e-01 -4.121508300304412842e-01 5.757097005844116211e-01
-4.604409999999999892e-01 -1.137477000000000071e+00 1.032829999999999998e-01 -3.556917607784271240e-01 -8.395189046859741211e-01 4.107204973697662354e-01
-2.613860000000000072e-01 8.258450000000000513e-01 2.106850000000000112e-01 1.676828116178512573e-01 -5.056988596916198730e-01 8.462572097778320312e-01
-6.500080000000000302e-01 7.352980000000000071e-01 2.487870000000000081e-01 3.432275727391242981e-02 -1.839342527091503143e-02 9.992415308952331543e-01
-7.134279999999999511e-01 -2.736959999999999948e-01 -8.127199999999999702e-02 8.775792717933654785e-01 3.576489090919494629e-01 -3.192834258079528809e-01
-9.716690000000000049e-01 6.530449999999999866e-01 1.820489999999999886e-01 -5.688604116439819336e-01 3.880108594894409180e-01 7.251519560813903809e-01
-8.773140000000000382e-01 -8.084459999999999980e-01 -1.581789999999999863e-01 -5.664972066879272461e-01 -5.231896638870239258e-01 -6.366738080978393555e-01
-1.663769999999999971e-01 -1.140146000000000104e+00 1.982839999999999880e-01 -8.304911851882934570e-02 -6.079756021499633789e-01 7.896001935005187988e-01
-7.867060000000000164e-01 -9.471019999999999994e-01 9.472700000000000564e-02 -5.869119167327880859e-01 -7.153238058090209961e-01 3.792706727981567383e-01
-9.618649999999999700e-01 2.170130000000000114e-01 -2.490860000000000019e-01 4.261592403054237366e-02 1.702953362837433815e-03 -9.990900158882141113e-01
-4.244080000000000075e-01 9.664390000000000480e-01 2.432999999999999885e-01 -1.097634136676788330e-01 2.086403816938400269e-01 9.718133807182312012e-01
-7.381320000000000103e-01 -6.119710000000000427e-01 2.461710000000000009e-01 1.153719127178192139e-01 9.977074712514877319e-02 9.882991313934326172e-01
-9.830999999999999739e-01 -7.190569999999999462e-01 -1.218199999999999977e-01 -7.213317751884460449e-01 -5.055032968521118164e-01 -4.734414815902709961e-01
-7.837380000000000457e-01 -9.010559999999999681e-01 1.568370000000000042e-01 -5.022555589675903320e-01 -5.967312455177307129e-01 6.258204579353332520e-01
-7.513189999999999591e-01 -1.098500000000000032e-01 6.707899999999999974e-02 9.559063911437988281e-01 1.332702189683914185e-01 2.616907656192779541e-01
-9.122869999999999591e-01 4.550770000000000093e-01 -2.487199999999999966e-01 -6.725888699293136597e-02 4.076936095952987671e-02 -9.969022870063781738e-01
-7.653240000000000043e-01 2.837930000000000175e-01 1.688919999999999866e-01 7.113111019134521484e-01 -2.403263151645660400e-01 6.605147123336791992e-01
-6.140799999999999592e-01 5.270510000000000472e-01 -1.608630000000000060e-01 5.720998644828796387e-01 -4.904718101024627686e-01 -6.573728919029235840e-01
-7.549740000000000339e-01 -5.064429999999999765e-01 -2.325969999999999982e-01 2.855753004550933838e-01 1.920133829116821289e-01 -9.389237165451049805e-01
-5.718440000000000190e-01 -9.442840000000000122e-01 2.268689999999999873e-01 -2.149572372436523438e-01 -3.534847795963287354e-01 9.104074835777282715e-01
-1.216858999999999913e+00 -2.806480000000000086e-01 -1.722399999999999973e-02 -9.687176942825317383e-01 -2.437909543514251709e-01 -4.638907685875892639e-02
-7.561769999999999881e-01 -9.930299999999999683e-01 -2.658500000000000099e-02 -5.970974564552307129e-01 -7.961052060127258301e-01 -9.844382107257843018e-02
-7.486159999999999481e-01 4.641200000000000186e-02 1.680999999999999986e-03 9.977499246597290039e-01 -6.127148121595382690e-02 2.722054906189441681e-02
-1.203175000000000106e+00 -3.353920000000000234e-01 1.414699999999999985e-02 -9.610069990158081055e-01 -2.678570747375488281e-01 6.868904829025268555e-02
-9.806629999999999514e-01 -5.673589999999999467e-01 2.111349999999999894e-01 -4.768625199794769287e-01 -2.712181508541107178e-01 8.360878229141235352e-01
-8.014040000000000052e-01 8.948249999999999815e-01 -1.477600000000000025e-01 -5.496819615364074707e-01 5.995787382125854492e-01 -5.816829204559326172e-01
-5.851189999999999447e-01 9.469370000000000287e-01 2.223199999999999898e-01 -2.302322685718536377e-01 3.948392570018768311e-01 8.894352912902832031e-01
-5.158909999999999885e-01 -7.441609999999999614e-01 2.313850000000000073e-01 1.843917369842529297e-01 3.049899339675903320e-01 9.343344569206237793e-01
-1.165049999999999919e+00 4.368090000000000028e-01 -5.037200000000000011e-02 -9.326260685920715332e-01 3.019906878471374512e-01 -1.975100040435791016e-01
-3.833860000000000046e-01 1.086821000000000037e+00 1.980560000000000098e-01 -2.253527194261550903e-01 5.764089226722717285e-01 7.854737043380737305e-01
-4.479799999999999893e-01 6.706969999999999876e-01 1.577649999999999886e-01 4.647558033466339111e-01 -6.307148337364196777e-01 6.214506030082702637e-01
-1.560699999999999935e-02 -8.101310000000000455e-01 -1.620659999999999878e-01 2.617249488830566406e-01 7.387282848358154297e-01 -6.211122870445251465e-01
-8.946129999999999916e-01 6.926780000000000159e-01 2.121800000000000075e-01 -4.178093969821929932e-01 3.340037465095520020e-01 8.449122905731201172e-01
-7.024299999999999988e-02 8.729689999999999950e-01 -2.169220000000000037e-01 8.740936219692230225e-02 -4.936222434043884277e-01 -8.652725815773010254e-01
-1.109294000000000002e+00 5.750469999999999748e-01 -6.427999999999999686e-03 -8.894261717796325684e-01 4.557525813579559326e-01 -3.479462116956710815e-02
-5.245699999999999807e-01 5.832209999999999894e-01 -1.264379999999999948e-01 6.042795181274414062e-01 -6.152643561363220215e-01 -5.062568783760070801e-01
-1.797469999999999901e-01 -7.329029999999999712e-01 4.530499999999999805e-02 2.400805801153182983e-01 9.510524868965148926e-01 1.945776939392089844e-01
-1.607439999999999980e-01 1.238647000000000054e+00 1.365000000000000067e-02 -1.196120455861091614e-01 9.910604953765869141e-01 5.909464508295059204e-02
-1.019009000000000054e+00 6.405500000000000083e-02 -2.486170000000000047e-01 -9.314854443073272705e-02 4.965355619788169861e-04 -9.956520795822143555e-01
-4.073939999999999784e-01 6.630300000000000082e-01 -1.143620000000000053e-01 4.864792227745056152e-01 -7.344464063644409180e-01 -4.732085764408111572e-01
-1.834469999999999990e-01 -1.208120000000000083e+00 -1.138350000000000056e-01 -1.182345449924468994e-01 -8.825331926345825195e-01 -4.551438093185424805e-01
-4.084189999999999765e-01 9.758710000000000440e-01 2.428289999999999893e-01 -1.171673983335494995e-01 2.174356281757354736e-01 9.690167903900146484e-01
-7.994179999999999620e-01 -3.305560000000000165e-01 -2.098720000000000030e-01 4.831798970699310303e-01 1.997078657150268555e-01 -8.524399995803833008e-01
-5.670950000000000157e-01 -6.375920000000000476e-01 2.020470000000000044e-01 4.230740964412689209e-01 4.226908981800079346e-01 8.014616370201110840e-01
-4.977690000000000170e-01 8.387369999999999548e-01 -2.483849999999999947e-01 5.548447743058204651e-02 -8.525890111923217773e-02 -9.948127269744873047e-01
-3.306549999999999767e-01 -1.096411999999999942e+00 2.030039999999999900e-01 -1.853608042001724243e-01 -5.471717715263366699e-01 8.162379860877990723e-01
-1.000108999999999915e+00 -4.810740000000000016e-01 2.239710000000000034e-01 -4.004338979721069336e-01 -2.117888927459716797e-01 8.915144801139831543e-01
-7.413530000000000397e-01 -2.715000000000000191e-01 -1.340709999999999957e-01 7.889518737792968750e-01 2.973940372467041016e-01 -5.376911759376525879e-01
-4.613729999999999776e-01 9.798829999999999485e-01 -2.352410000000000057e-01 -1.188689395785331726e-01 3.101929426193237305e-01 -9.432129263877868652e-01
-7.910810000000000342e-01 -1.952760000000000051e-01 -1.672349999999999948e-01 7.178660631179809570e-01 1.947932094335556030e-01 -6.683741211891174316e-01
-1.379740000000000133e-01 1.238580999999999932e+00 4.029900000000000149e-02 -1.196704283356666565e-01 9.801179170608520508e-01 1.582652628421783447e-01
-3.763079999999999758e-01 1.180752000000000024e+00 7.095799999999999330e-02 -3.263339698314666748e-01 9.053766131401062012e-01 2.716603577136993408e-01
-2.149969999999999937e-01 -1.071339999999999959e+00 2.319710000000000105e-01 -6.382528692483901978e-02 -3.460986018180847168e-01 9.360246658325195312e-01
-8.303850000000000398e-01 2.667180000000000106e-01 -2.146540000000000115e-01 4.778282642364501953e-01 -1.548148542642593384e-01 -8.647037148475646973e-01
-1.816039999999999877e-01 8.095780000000000198e-01 -1.824560000000000071e-01 1.613751202821731567e-01 -6.562346816062927246e-01 -7.370983958244323730e-01
-5.993950000000000111e-01 9.260439999999999783e-01 2.272659999999999958e-01 -2.261677980422973633e-01 3.594020307064056396e-01 9.053608179092407227e-01
-4.075929999999999831e-01 -6.313819999999999988e-01 2.390700000000000117e-02 5.626181960105895996e-01 8.222232460975646973e-01 8.607909828424453735e-02
-7.175900000000000334e-02 1.222369999999999957e+00 -1.086649999999999977e-01 -3.286931291222572327e-02 8.935155868530273438e-01 -4.478274881839752197e-01
-1.147685000000000066e+00 -1.600769999999999971e-01 1.924760000000000082e-01 -6.284354925155639648e-01 -1.128820776939392090e-01 7.696274518966674805e-01
-1.010081000000000007e+00 5.890609999999999458e-01 1.832580000000000042e-01 -5.861611366271972656e-01 3.464269638061523438e-01 7.323958277702331543e-01
-7.738070000000000226e-01 -4.769229999999999858e-01 2.325699999999999990e-01 3.035381138324737549e-01 1.745157986879348755e-01 9.367009997367858887e-01
-6.366349999999999509e-01 7.593269999999999742e-01 2.494079999999999908e-01 1.834838651120662689e-02 -7.984021067386493087e-05 9.998316764831542969e-01
-2.689499999999999877e-02 1.063339000000000034e+00 -2.416840000000000099e-01 1.864503622055053711e-01 2.261362820863723755e-01 -9.560850858688354492e-01
-1.138160000000000061e+00 3.496079999999999743e-01 1.609130000000000005e-01 -7.246015667915344238e-01 2.333774715662002563e-01 6.484501361846923828e-01
-7.505199999999999649e-01 -4.147919999999999940e-01 2.048659999999999926e-01 4.670125842094421387e-01 2.655823230743408203e-01 8.434247374534606934e-01
-9.563999999999999585e-03 1.024594000000000005e+00 -2.483799999999999897e-01 1.459221839904785156e-01 7.692595571279525757e-02 -9.863007068634033203e-01
-5.522989999999999844e-01 -7.047320000000000251e-01 -2.265600000000000114e-01 2.516636550426483154e-01 3.192397058010101318e-01 -9.136473536491394043e-01
-7.806830000000000158e-01 3.220400000000000346e-02 -1.207499999999999962e-01 8.625144958496093750e-01 -4.680221155285835266e-02 -5.038633942604064941e-01
-1.105043999999999915e+00 -5.062569999999999570e-01 -1.263819999999999943e-01 -7.852506637573242188e-01 -3.699298501014709473e-01 -4.965212643146514893e-01
-1.223205000000000098e+00 2.483990000000000087e-01 2.711200000000000068e-02 -9.741873145103454590e-01 1.899816095829010010e-01 1.219268664717674255e-01
-1.061150000000000038e+00 4.012319999999999776e-01 -2.101329999999999865e-01 -5.189241170883178711e-01 1.852148473262786865e-01 -8.345137834548950195e-01
-1.212955000000000005e+00 -3.002850000000000241e-01 -5.949000000000000295e-03 -9.667118787765502930e-01 -2.551454007625579834e-01 -1.920940913259983063e-02
-7.522299999999999542e-01 -1.097280000000000061e-01 6.969200000000000395e-02 9.532198309898376465e-01 1.299275904893875122e-01 2.729301154613494873e-01
