3.535470000000000002e-01 -6.614409999999999457e-01 0.000000000000000000e+00 -9.094746708869934082e-01 -4.157572388648986816e-01 -1.328648184426128864e-03
3.372080000000000077e-01 -6.699180000000000135e-01 0.000000000000000000e+00 -9.152104854583740234e-01 -4.029748141765594482e-01 -1.040669507347047329e-03
3.535470000000000002e-01 -6.614409999999999457e-01 0.000000000000000000e+00 -9.094746708869934082e-01 -4.157572388648986816e-01 -1.328648184426128864e-03
4.124720000000000053e-01 -7.716809999999999503e-01 -2.165060000000000040e-01 8.844388723373413086e-01 4.579032063484191895e-01 -8.995810896158218384e-02
6.161219999999999475e-01 -1.087609000000000048e+00 0.000000000000000000e+00 9.021683335304260254e-01 4.313841462135314941e-01 1.437861501472070813e-04
5.303210000000000424e-01 -9.921619999999999884e-01 2.165060000000000040e-01 -8.559633493423461914e-01 -5.146155357360839844e-01 4.997628554701805115e-02
5.545099999999999474e-01 -9.788480000000000514e-01 2.165060000000000040e-01 -8.428992629051208496e-01 -5.357008576393127441e-01 5.045131221413612366e-02
4.312860000000000027e-01 -7.613259999999999472e-01 2.165060000000000040e-01 8.721721172332763672e-01 4.812963306903839111e-01 8.757664263248443604e-02
3.696729999999999738e-01 -6.525649999999999507e-01 0.000000000000000000e+00 -9.015406966209411621e-01 -4.326917231082916260e-01 -1.449335715733468533e-03
5.545099999999999474e-01 -9.788480000000000514e-01 -2.165060000000000040e-01 -8.414363265037536621e-01 -5.378324985504150391e-01 -5.216465890407562256e-02
5.303210000000000424e-01 -9.921619999999999884e-01 -2.165060000000000040e-01 -8.545285463333129883e-01 -5.168128609657287598e-01 -5.182083323597908020e-02
6.426279999999999770e-01 -1.072160999999999920e+00 0.000000000000000000e+00 8.914538025856018066e-01 4.531116485595703125e-01 1.691396464593708515e-04
5.783650000000000180e-01 -9.649450000000000527e-01 2.165060000000000040e-01 -8.292295932769775391e-01 -5.565860271453857422e-01 5.089368671178817749e-02
4.498400000000000176e-01 -7.505129999999999857e-01 2.165060000000000040e-01 8.602510690689086914e-01 5.022602677345275879e-01 8.776478469371795654e-02
3.696729999999999738e-01 -6.525649999999999507e-01 0.000000000000000000e+00 -9.015406966209411621e-01 -4.326917231082916260e-01 -1.449335715733468533e-03
3.855770000000000031e-01 -6.432970000000000077e-01 0.000000000000000000e+00 -8.979183435440063477e-01 -4.401582181453704834e-01 -1.806854503229260445e-03
4.312860000000000027e-01 -7.613259999999999472e-01 -2.165060000000000040e-01 8.727961778640747070e-01 4.798714518547058105e-01 -8.916416019201278687e-02
4.498400000000000176e-01 -7.505129999999999857e-01 -2.165060000000000040e-01 8.609192371368408203e-01 5.008571147918701172e-01 -8.921997249126434326e-02
5.783650000000000180e-01 -9.649450000000000527e-01 -2.165060000000000040e-01 -8.277143239974975586e-01 -5.586854219436645508e-01 -5.253222957253456116e-02
6.018719999999999626e-01 -9.504599999999999715e-01 2.165060000000000040e-01 -8.152481317520141602e-01 -5.768210887908935547e-01 5.145836994051933289e-02
4.012479999999999936e-01 -6.336399999999999810e-01 0.000000000000000000e+00 -8.920391798019409180e-01 -4.519523978233337402e-01 -2.225294243544340134e-03
3.855770000000000031e-01 -6.432970000000000077e-01 0.000000000000000000e+00 -8.979183435440063477e-01 -4.401582181453704834e-01 -1.806854503229260445e-03
4.012479999999999936e-01 -6.336399999999999810e-01 0.000000000000000000e+00 -8.920391798019409180e-01 -4.519523978233337402e-01 -2.225294243544340134e-03
6.018719999999999626e-01 -9.504599999999999715e-01 -2.165060000000000040e-01 -8.136866092681884766e-01 -5.788921713829040527e-01 -5.289620906114578247e-02
6.687469999999999803e-01 -1.056067000000000089e+00 0.000000000000000000e+00 8.801870346069335938e-01 4.746269881725311279e-01 1.906644902192056179e-04
6.944630000000000525e-01 -1.039336999999999955e+00 0.000000000000000000e+00 8.683293461799621582e-01 4.959880411624908447e-01 2.412347384961321950e-04
4.861240000000000006e-01 -7.275359999999999605e-01 2.165060000000000040e-01 8.345447778701782227e-01 5.432408452033996582e-01 9.178441762924194336e-02
4.681230000000000113e-01 -7.392469999999999875e-01 2.165060000000000040e-01 8.477189540863037109e-01 5.226786136627197266e-01 9.044178575277328491e-02
4.166779999999999928e-01 -6.236019999999999897e-01 0.000000000000000000e+00 -8.750436305999755859e-01 -4.840382039546966553e-01 -2.382323844358325005e-03
4.166779999999999928e-01 -6.236019999999999897e-01 0.000000000000000000e+00 -8.750436305999755859e-01 -4.840382039546966553e-01 -2.382323844358325005e-03
4.681230000000000113e-01 -7.392469999999999875e-01 -2.165060000000000040e-01 8.484326004981994629e-01 5.213876962661743164e-01 -9.119699895381927490e-02
4.861240000000000006e-01 -7.275359999999999605e-01 -2.165060000000000040e-01 8.352075219154357910e-01 5.421276688575744629e-01 -9.233580529689788818e-02
7.197599999999999554e-01 -1.021981000000000028e+00 0.000000000000000000e+00 8.559699058532714844e-01 5.170256495475769043e-01 1.520607765996828675e-04
6.250160000000000160e-01 -9.354029999999999845e-01 2.165060000000000040e-01 -8.005976676940917969e-01 -5.969673395156860352e-01 5.170476436614990234e-02
6.477840000000000265e-01 -9.197830000000000172e-01 2.165060000000000040e-01 -7.855602502822875977e-01 -6.165741682052612305e-01 5.226269364356994629e-02
5.038319999999999466e-01 -7.153869999999999951e-01 2.165060000000000040e-01 8.211503624916076660e-01 5.630857944488525391e-01 9.298647940158843994e-02
4.318560000000000176e-01 -6.131889999999999841e-01 0.000000000000000000e+00 -8.596776127815246582e-01 -5.108295083045959473e-01 -2.741340547800064087e-03
6.477840000000000265e-01 -9.197830000000000172e-01 -2.165060000000000040e-01 -7.840494513511657715e-01 -6.184012889862060547e-01 -5.335163325071334839e-02
6.250160000000000160e-01 -9.354029999999999845e-01 -2.165060000000000040e-01 -7.990735769271850586e-01 -5.988861322402954102e-01 -5.307390540838241577e-02
7.446239999999999526e-01 -1.004008999999999929e+00 0.000000000000000000e+00 8.430866003036499023e-01 5.377777814865112305e-01 1.770493399817496538e-04
6.701620000000000354e-01 -9.036079999999999668e-01 2.165060000000000040e-01 -7.700238227844238281e-01 -6.358358263969421387e-01 5.268766358494758606e-02
4.467740000000000045e-01 -6.024059999999999970e-01 0.000000000000000000e+00 -8.443087339401245117e-01 -5.358501076698303223e-01 -2.737035276368260384e-03
4.318560000000000176e-01 -6.131889999999999841e-01 0.000000000000000000e+00 -8.596776127815246582e-01 -5.108295083045959473e-01 -2.741340547800064087e-03
4.467740000000000045e-01 -6.024059999999999970e-01 0.000000000000000000e+00 -8.443087339401245117e-01 -5.358501076698303223e-01 -2.737035276368260384e-03
5.038319999999999466e-01 -7.153869999999999951e-01 -2.165060000000000040e-01 8.218964338302612305e-01 5.619771480560302734e-01 -9.310148656368255615e-02
6.701620000000000354e-01 -9.036079999999999668e-01 -2.165060000000000040e-01 -7.684685587882995605e-01 -6.376258730888366699e-01 -5.375312641263008118e-02
7.690399999999999459e-01 -9.854330000000000034e-01 0.000000000000000000e+00 8.296604752540588379e-01 5.582683086395263672e-01 1.455599413020536304e-04
5.383280000000000287e-01 -6.898030000000000550e-01 2.165060000000000040e-01 7.929376959800720215e-01 6.012269258499145508e-01 9.887362271547317505e-02
5.212369999999999504e-01 -7.028069999999999595e-01 2.165060000000000040e-01 8.073837161064147949e-01 5.822080373764038086e-01 9.573509544134140015e-02
4.614240000000000008e-01 -5.912600000000000078e-01 0.000000000000000000e+00 -8.304686546325683594e-01 -5.570598840713500977e-01 -2.467656740918755531e-03
5.212369999999999504e-01 -7.028069999999999595e-01 -2.165060000000000040e-01 8.083177208900451660e-01 5.809477567672729492e-01 -9.550987184047698975e-02
5.383280000000000287e-01 -6.898030000000000550e-01 -2.165060000000000040e-01 7.940129637718200684e-01 5.999247431755065918e-01 -9.815119206905364990e-02
7.929920000000000302e-01 -9.662629999999999830e-01 0.000000000000000000e+00 8.157370686531066895e-01 5.784229040145874023e-01 1.680396235315129161e-04
6.921359999999999735e-01 -8.868899999999999562e-01 2.165060000000000040e-01 -7.540268898010253906e-01 -6.546896100044250488e-01 5.314994230866432190e-02
7.136930000000000218e-01 -8.696369999999999933e-01 2.165060000000000040e-01 -7.374669909477233887e-01 -6.732408404350280762e-01 5.375168099999427795e-02
5.550939999999999763e-01 -6.763839999999999852e-01 2.165060000000000040e-01 7.780941724777221680e-01 6.200749874114990234e-01 1.003822535276412964e-01
4.614240000000000008e-01 -5.912600000000000078e-01 0.000000000000000000e+00 -8.304686546325683594e-01 -5.570598840713500977e-01 -2.467656740918755531e-03
4.757950000000000235e-01 -5.797579999999999956e-01 0.000000000000000000e+00 -8.061619997024536133e-01 -5.916914939880371094e-01 -2.001019427552819252e-03
7.136930000000000218e-01 -8.696369999999999933e-01 -2.165060000000000040e-01 -7.360965013504028320e-01 -6.746884584426879883e-01 -5.438215658068656921e-02
6.921359999999999735e-01 -8.868899999999999562e-01 -2.165060000000000040e-01 -7.527527809143066406e-01 -6.560987234115600586e-01 -5.382945761084556580e-02
8.164660000000000251e-01 -9.465109999999999912e-01 0.000000000000000000e+00 8.013218045234680176e-01 5.982335805892944336e-01 1.585502905072644353e-04
5.715259999999999785e-01 -6.625579999999999803e-01 2.165060000000000040e-01 7.627309560775756836e-01 6.382870674133300781e-01 1.040723547339439392e-01
4.757950000000000235e-01 -5.797579999999999956e-01 0.000000000000000000e+00 -8.061619997024536133e-01 -5.916914939880371094e-01 -2.001019427552819252e-03
4.898799999999999821e-01 -5.679060000000000219e-01 0.000000000000000000e+00 -7.849224209785461426e-01 -6.195917129516601562e-01 -1.724507310427725315e-03
5.550939999999999763e-01 -6.763839999999999852e-01 -2.165060000000000040e-01 7.794324755668640137e-01 6.185954809188842773e-01 -9.911928325891494751e-02
7.348200000000000287e-01 -8.518599999999999506e-01 -2.165060000000000040e-01 -7.196240425109863281e-01 -6.922425627708435059e-01 -5.423679202795028687e-02
7.555039999999999534e-01 -8.335700000000000331e-01 2.165060000000000040e-01 -7.029780149459838867e-01 -7.090561389923095703e-01 5.532912164926528931e-02
7.348200000000000287e-01 -8.518599999999999506e-01 2.165060000000000040e-01 -7.205541133880615234e-01 -6.912873983383178711e-01 5.406895652413368225e-02
5.876139999999999697e-01 -6.483320000000000194e-01 2.165060000000000040e-01 7.466799616813659668e-01 6.567293405532836914e-01 1.057154312729835510e-01
4.898799999999999821e-01 -5.679060000000000219e-01 0.000000000000000000e+00 -7.849224209785461426e-01 -6.195917129516601562e-01 -1.724507310427725315e-03
5.876139999999999697e-01 -6.483320000000000194e-01 -2.165060000000000040e-01 7.482640743255615234e-01 6.553561687469482422e-01 -1.030005142092704773e-01
5.715259999999999785e-01 -6.625579999999999803e-01 -2.165060000000000040e-01 7.641959786415100098e-01 6.368424296379089355e-01 -1.021580696105957031e-01
7.555039999999999534e-01 -8.335700000000000331e-01 -2.165060000000000040e-01 -7.019960880279541016e-01 -7.100452184677124023e-01 -5.511224642395973206e-02
8.394490000000000007e-01 -9.261890000000000400e-01 0.000000000000000000e+00 7.864428162574768066e-01 6.176631450653076172e-01 1.652629725867882371e-04
7.757330000000000059e-01 -8.147780000000000022e-01 2.165060000000000040e-01 -6.851883530616760254e-01 -7.262551188468933105e-01 5.541167780756950378e-02
5.171550000000000313e-01 -5.431859999999999467e-01 0.000000000000000000e+00 -7.487297058105468750e-01 -6.628737449645996094e-01 -1.505768974311649799e-03
5.036690000000000333e-01 -5.557130000000000125e-01 0.000000000000000000e+00 -7.647975683212280273e-01 -6.442680358886718750e-01 -1.858872477896511555e-03
5.171550000000000313e-01 -5.431859999999999467e-01 0.000000000000000000e+00 -7.487297058105468750e-01 -6.628737449645996094e-01 -1.505768974311649799e-03
5.036690000000000333e-01 -5.557130000000000125e-01 0.000000000000000000e+00 -7.647975683212280273e-01 -6.442680358886718750e-01 -1.858872477896511555e-03
6.033479999999999954e-01 -6.337169999999999748e-01 -2.165060000000000040e-01 7.316213250160217285e-01 6.737464666366577148e-01 -1.039035916328430176e-01
8.619250000000000522e-01 -9.053090000000000304e-01 0.000000000000000000e+00 7.709986567497253418e-01 6.368367075920104980e-01 1.944901887327432632e-04
7.954949999999999521e-01 -7.954959999999999809e-01 2.165060000000000040e-01 -6.665676236152648926e-01 -7.432823777198791504e-01 5.673455819487571716e-02
6.033479999999999954e-01 -6.337169999999999748e-01 2.165060000000000040e-01 7.296569943428039551e-01 6.753889918327331543e-01 1.070068329572677612e-01
5.303299999999999681e-01 -5.303299999999999681e-01 0.000000000000000000e+00 -7.318440675735473633e-01 -6.814702153205871582e-01 -1.600084942765533924e-03
5.303299999999999681e-01 -5.303299999999999681e-01 0.000000000000000000e+00 -7.318440675735473633e-01 -6.814702153205871582e-01 -1.600084942765533924e-03
6.187179999999999902e-01 -6.187190000000000190e-01 -2.165060000000000040e-01 7.146655321121215820e-01 6.914721131324768066e-01 -1.054491251707077026e-01
7.757330000000000059e-01 -8.147780000000000022e-01 -2.165060000000000040e-01 -6.846481561660766602e-01 -7.268136143684387207e-01 -5.476307123899459839e-02
7.954949999999999521e-01 -7.954959999999999809e-01 -2.165060000000000040e-01 -6.660682559013366699e-01 -7.438180446624755859e-01 -5.556793510913848877e-02
9.053080000000000016e-01 -8.619259999999999700e-01 0.000000000000000000e+00 7.389478683471679688e-01 6.737625598907470703e-01 2.975405368488281965e-04
8.838829999999999742e-01 -8.838840000000000030e-01 0.000000000000000000e+00 7.552313208580017090e-01 6.554582715034484863e-01 2.795097534544765949e-04
8.147780000000000022e-01 -7.757340000000000346e-01 2.165060000000000040e-01 -6.472571492195129395e-01 -7.600699663162231445e-01 5.789464712142944336e-02
6.187179999999999902e-01 -6.187190000000000190e-01 2.165060000000000040e-01 7.124966979026794434e-01 6.930285096168518066e-01 1.098178476095199585e-01
6.337159999999999460e-01 -6.033479999999999954e-01 2.165060000000000040e-01 6.947292089462280273e-01 7.103527784347534180e-01 1.129169613122940063e-01
5.431850000000000289e-01 -5.171559999999999491e-01 0.000000000000000000e+00 -7.195325493812561035e-01 -6.944546699523925781e-01 -2.371460432186722755e-03
6.337159999999999460e-01 -6.033479999999999954e-01 -2.165060000000000040e-01 6.972522735595703125e-01 7.088117599487304688e-01 -1.068884655833244324e-01
8.147780000000000022e-01 -7.757340000000000346e-01 -2.165060000000000040e-01 -6.472874879837036133e-01 -7.601661682128906250e-01 -5.627001449465751648e-02
9.261890000000000400e-01 -8.394490000000000007e-01 0.000000000000000000e+00 7.223716974258422852e-01 6.915048956871032715e-01 2.655135467648506165e-04
8.335700000000000331e-01 -7.555039999999999534e-01 2.165060000000000040e-01 -6.278879046440124512e-01 -7.760972976684570312e-01 5.856497958302497864e-02
6.483320000000000194e-01 -5.876139999999999697e-01 2.165060000000000040e-01 6.759686470031738281e-01 7.276911139488220215e-01 1.163268461823463440e-01
5.431850000000000289e-01 -5.171559999999999491e-01 0.000000000000000000e+00 -7.195325493812561035e-01 -6.944546699523925781e-01 -2.371460432186722755e-03
6.483320000000000194e-01 -5.876139999999999697e-01 -2.165060000000000040e-01 6.788203716278076172e-01 7.262719273567199707e-01 -1.083144098520278931e-01
8.518599999999999506e-01 -7.348200000000000287e-01 2.165060000000000040e-01 -6.075896620750427246e-01 -7.919695377349853516e-01 6.015847995877265930e-02
6.625579999999999803e-01 -5.715259999999999785e-01 2.165060000000000040e-01 6.571083664894104004e-01 7.445188760757446289e-01 1.178999021649360657e-01
5.679060000000000219e-01 -4.898799999999999821e-01 0.000000000000000000e+00 -6.862353086471557617e-01 -7.273762822151184082e-01 -2.195002976804971695e-03
5.557130000000000125e-01 -5.036690000000000333e-01 0.000000000000000000e+00 -7.011275291442871094e-01 -7.130327224731445312e-01 -2.127252053469419479e-03
5.679060000000000219e-01 -4.898799999999999821e-01 0.000000000000000000e+00 -6.862353086471557617e-01 -7.273762822151184082e-01 -2.195002976804971695e-03
5.557130000000000125e-01 -5.036690000000000333e-01 0.000000000000000000e+00 -7.011275291442871094e-01 -7.130327224731445312e-01 -2.127252053469419479e-03
6.625579999999999803e-01 -5.715259999999999785e-01 -2.165060000000000040e-01 6.605092287063598633e-01 7.430363893508911133e-01 -1.078170910477638245e-01
8.335700000000000331e-01 -7.555039999999999534e-01 -2.165060000000000040e-01 -6.282207965850830078e-01 -7.759819626808166504e-01 -5.648535862565040588e-02
8.518599999999999506e-01 -7.348200000000000287e-01 -2.165060000000000040e-01 -6.084954738616943359e-01 -7.914645671844482422e-01 -5.759464576840400696e-02
9.465109999999999912e-01 -8.164660000000000251e-01 0.000000000000000000e+00 7.052844762802124023e-01 7.089243531227111816e-01 1.234719384228810668e-04
8.696369999999999933e-01 -7.136930000000000218e-01 2.165060000000000040e-01 -5.870127081871032715e-01 -8.072470426559448242e-01 6.138700619339942932e-02
6.763839999999999852e-01 -5.550939999999999763e-01 2.165060000000000040e-01 6.376615166664123535e-01 7.604355216026306152e-01 1.229864731431007385e-01
5.797579999999999956e-01 -4.757950000000000235e-01 0.000000000000000000e+00 -6.715523600578308105e-01 -7.409532070159912109e-01 -2.376185031607747078e-03
8.696369999999999933e-01 -7.136930000000000218e-01 -2.165060000000000040e-01 -5.884800553321838379e-01 -8.064172267913818359e-01 -5.815944075584411621e-02
9.854330000000000034e-01 -7.690399999999999459e-01 0.000000000000000000e+00 6.699675917625427246e-01 7.423904538154602051e-01 1.362281727779190987e-05
9.662629999999999830e-01 -7.929920000000000302e-01 0.000000000000000000e+00 6.878640651702880859e-01 7.258394956588745117e-01 6.203883094713091850e-05
8.868899999999999562e-01 -6.921359999999999735e-01 2.165060000000000040e-01 -5.658909678459167480e-01 -8.220493197441101074e-01 6.326288729906082153e-02
6.898030000000000550e-01 -5.383280000000000287e-01 2.165060000000000040e-01 6.173506379127502441e-01 7.759794592857360840e-01 1.293604820966720581e-01
5.797579999999999956e-01 -4.757950000000000235e-01 0.000000000000000000e+00 -6.715523600578308105e-01 -7.409532070159912109e-01 -2.376185031607747078e-03
5.912600000000000078e-01 -4.614240000000000008e-01 0.000000000000000000e+00 -6.569248437881469727e-01 -7.539500594139099121e-01 -2.998005133122205734e-03
6.763839999999999852e-01 -5.550939999999999763e-01 -2.165060000000000040e-01 6.416843533515930176e-01 7.590137720108032227e-01 -1.101781129837036133e-01
6.898030000000000550e-01 -5.383280000000000287e-01 -2.165060000000000040e-01 6.223045587539672852e-01 7.746058106422424316e-01 -1.127958148717880249e-01
8.868899999999999562e-01 -6.921359999999999735e-01 -2.165060000000000040e-01 -5.680870413780212402e-01 -8.208422064781188965e-01 -5.912037938833236694e-02
9.036079999999999668e-01 -6.701620000000000354e-01 2.165060000000000040e-01 -5.444077253341674805e-01 -8.362947106361389160e-01 6.504867970943450928e-02
6.024059999999999970e-01 -4.467749999999999777e-01 0.000000000000000000e+00 -6.448940634727478027e-01 -7.642620801925659180e-01 -3.902645083144307137e-03
5.912600000000000078e-01 -4.614240000000000008e-01 0.000000000000000000e+00 -6.569248437881469727e-01 -7.539500594139099121e-01 -2.998005133122205734e-03
6.024059999999999970e-01 -4.467749999999999777e-01 0.000000000000000000e+00 -6.448940634727478027e-01 -7.642620801925659180e-01 -3.902645083144307137e-03
7.028069999999999595e-01 -5.212369999999999504e-01 -2.165060000000000040e-01 6.027354598045349121e-01 7.898032069206237793e-01 -1.136702522635459900e-01
9.036079999999999668e-01 -6.701620000000000354e-01 -2.165060000000000040e-01 -5.476109385490417480e-01 -8.346042633056640625e-01 -5.964946374297142029e-02
1.004008999999999929e+00 -7.446239999999999526e-01 0.000000000000000000e+00 6.518540382385253906e-01 7.583444714546203613e-01 -2.288850009790621698e-05
9.197830000000000172e-01 -6.477840000000000265e-01 2.165060000000000040e-01 -5.219178199768066406e-01 -8.502855300903320312e-01 6.794354319572448730e-02
7.028069999999999595e-01 -5.212369999999999504e-01 2.165060000000000040e-01 5.963641405105590820e-01 7.914193868637084961e-01 1.341835856437683105e-01
7.153869999999999951e-01 -5.038319999999999466e-01 2.165060000000000040e-01 5.740475058555603027e-01 8.057684302330017090e-01 1.456252187490463257e-01
7.153869999999999951e-01 -5.038319999999999466e-01 -2.165060000000000040e-01 5.827898383140563965e-01 8.038943409919738770e-01 -1.187852770090103149e-01
9.197830000000000172e-01 -6.477840000000000265e-01 -2.165060000000000040e-01 -5.262545943260192871e-01 -8.481467366218566895e-01 -6.085370481014251709e-02
1.039336999999999955e+00 -6.944630000000000525e-01 0.000000000000000000e+00 6.145716905593872070e-01 7.888609766960144043e-01 -1.560922100907191634e-04
1.021981000000000028e+00 -7.197599999999999554e-01 0.000000000000000000e+00 6.333265304565429688e-01 7.738846540451049805e-01 -2.389817927905824035e-05
9.354029999999999845e-01 -6.250170000000000448e-01 2.165060000000000040e-01 -4.989916384220123291e-01 -8.637020587921142578e-01 7.089558988809585571e-02
7.275359999999999605e-01 -4.861240000000000006e-01 2.165060000000000040e-01 5.514557361602783203e-01 8.199508786201477051e-01 1.535484045743942261e-01
6.131889999999999841e-01 -4.318560000000000176e-01 0.000000000000000000e+00 -6.313819885253906250e-01 -7.754574418067932129e-01 -4.752423614263534546e-03
6.236019999999999897e-01 -4.166779999999999928e-01 0.000000000000000000e+00 -6.185956597328186035e-01 -7.856932878494262695e-01 -5.048707127571105957e-03
6.131889999999999841e-01 -4.318560000000000176e-01 0.000000000000000000e+00 -6.313819885253906250e-01 -7.754574418067932129e-01 -4.752423614263534546e-03
9.354029999999999845e-01 -6.250170000000000448e-01 -2.165060000000000040e-01 -5.049428343772888184e-01 -8.609458804130554199e-01 -6.168328598141670227e-02
1.056067000000000089e+00 -6.687469999999999803e-01 0.000000000000000000e+00 5.955005884170532227e-01 8.033548593521118164e-01 -1.469364651711657643e-04
9.504599999999999715e-01 -6.018719999999999626e-01 2.165060000000000040e-01 -4.747875034809112549e-01 -8.769257664680480957e-01 7.468567043542861938e-02
7.392469999999999875e-01 -4.681230000000000113e-01 2.165060000000000040e-01 5.268734097480773926e-01 8.330679535865783691e-01 1.685297489166259766e-01
6.236019999999999897e-01 -4.166779999999999928e-01 0.000000000000000000e+00 -6.185956597328186035e-01 -7.856932878494262695e-01 -5.048707127571105957e-03
7.392469999999999875e-01 -4.681230000000000113e-01 -2.165060000000000040e-01 5.402444005012512207e-01 8.321738243103027344e-01 -1.249912455677986145e-01
7.275359999999999605e-01 -4.861240000000000006e-01 -2.165060000000000040e-01 5.618011355400085449e-01 8.184989094734191895e-01 -1.201618835330009460e-01
9.504599999999999715e-01 -6.018719999999999626e-01 -2.165060000000000040e-01 -4.829418957233428955e-01 -8.733928203582763672e-01 -6.286583840847015381e-02
1.072160999999999920e+00 -6.426279999999999770e-01 0.000000000000000000e+00 5.761613249778747559e-01 8.173360228538513184e-01 -1.862734497990459204e-04
7.505129999999999857e-01 -4.498400000000000176e-01 2.165060000000000040e-01 5.013215541839599609e-01 8.450268507003784180e-01 1.860279738903045654e-01
6.336399999999999810e-01 -4.012479999999999936e-01 0.000000000000000000e+00 -6.061626672744750977e-01 -7.953229546546936035e-01 -5.317547824233770370e-03
6.336399999999999810e-01 -4.012479999999999936e-01 0.000000000000000000e+00 -6.061626672744750977e-01 -7.953229546546936035e-01 -5.317547824233770370e-03
7.505129999999999857e-01 -4.498400000000000176e-01 -2.165060000000000040e-01 5.185544490814208984e-01 8.452054262161254883e-01 -1.293410807847976685e-01
9.649450000000000527e-01 -5.783650000000000180e-01 -2.165060000000000040e-01 -4.608336687088012695e-01 -8.851816654205322266e-01 -6.392003595829010010e-02
9.788480000000000514e-01 -5.545099999999999474e-01 2.165060000000000040e-01 -4.236859679222106934e-01 -9.017773270606994629e-01 8.536900579929351807e-02
9.649450000000000527e-01 -5.783650000000000180e-01 2.165060000000000040e-01 -4.500953555107116699e-01 -8.894504308700561523e-01 7.932349294424057007e-02
6.525649999999999507e-01 -3.696740000000000026e-01 0.000000000000000000e+00 -5.888744592666625977e-01 -8.081948757171630859e-01 -6.917290389537811279e-03
6.432959999999999789e-01 -3.855770000000000031e-01 0.000000000000000000e+00 -5.952630043029785156e-01 -8.035105466842651367e-01 -5.715691950172185898e-03
6.525649999999999507e-01 -3.696740000000000026e-01 0.000000000000000000e+00 -5.888744592666625977e-01 -8.081948757171630859e-01 -6.917290389537811279e-03
6.432959999999999789e-01 -3.855770000000000031e-01 0.000000000000000000e+00 -5.952630043029785156e-01 -8.035105466842651367e-01 -5.715691950172185898e-03
7.613259999999999472e-01 -4.312860000000000027e-01 -2.165060000000000040e-01 4.962376654148101807e-01 8.572186231613159180e-01 -1.375662982463836670e-01
9.788480000000000514e-01 -5.545099999999999474e-01 -2.165060000000000040e-01 -4.381489455699920654e-01 -8.965238928794860840e-01 -6.534834206104278564e-02
1.087609000000000048e+00 -6.161229999999999762e-01 0.000000000000000000e+00 5.566905140876770020e-01 8.307198882102966309e-01 -2.075319207506254315e-04
9.921619999999999884e-01 -5.303210000000000424e-01 2.165060000000000040e-01 -3.956885933876037598e-01 -9.136589169502258301e-01 9.304733574390411377e-02
7.613259999999999472e-01 -4.312860000000000027e-01 2.165060000000000040e-01 4.734667241573333740e-01 8.549569249153137207e-01 2.118438631296157837e-01
6.614409999999999457e-01 -3.535470000000000002e-01 0.000000000000000000e+00 -5.830277800559997559e-01 -8.124148249626159668e-01 -7.797589991241693497e-03
6.614409999999999457e-01 -3.535470000000000002e-01 0.000000000000000000e+00 -5.830277800559997559e-01 -8.124148249626159668e-01 -7.797589991241693497e-03
7.716809999999999503e-01 -4.124720000000000053e-01 -2.165060000000000040e-01 4.733087122440338135e-01 8.687951564788818359e-01 -1.455124616622924805e-01
9.921619999999999884e-01 -5.303210000000000424e-01 -2.165060000000000040e-01 -4.150391519069671631e-01 -9.073407053947448730e-01 -6.689801067113876343e-02
1.116530000000000022e+00 -5.620150000000000423e-01 0.000000000000000000e+00 5.172278285026550293e-01 8.558476567268371582e-01 -3.078986483160406351e-04
1.102402000000000104e+00 -5.892460000000000475e-01 0.000000000000000000e+00 5.368562340736389160e-01 8.436736464500427246e-01 -2.562666486483067274e-04
1.004877000000000020e+00 -5.058129999999999571e-01 2.165060000000000040e-01 -3.651268780231475830e-01 -9.251798391342163086e-01 1.035600677132606506e-01
7.716809999999999503e-01 -4.124720000000000053e-01 2.165060000000000040e-01 4.428012967109680176e-01 8.630729913711547852e-01 2.429649084806442261e-01
7.815710000000000157e-01 -3.934099999999999819e-01 2.165060000000000040e-01 4.090486764907836914e-01 8.686743974685668945e-01 2.794351279735565186e-01
6.699180000000000135e-01 -3.372089999999999810e-01 0.000000000000000000e+00 -5.735542774200439453e-01 -8.191371560096740723e-01 -7.065866608172655106e-03
1.004877000000000020e+00 -5.058129999999999571e-01 -2.165060000000000040e-01 -3.914720118045806885e-01 -9.176096320152282715e-01 -6.886359304189682007e-02
1.016988000000000003e+00 -4.809999999999999831e-01 2.165060000000000040e-01 -3.313453495502471924e-01 -9.361143708229064941e-01 1.178986355662345886e-01
7.909899999999999709e-01 -3.741110000000000269e-01 2.165060000000000040e-01 3.701198995113372803e-01 8.675724267959594727e-01 3.321586549282073975e-01
6.699180000000000135e-01 -3.372089999999999810e-01 0.000000000000000000e+00 -5.735542774200439453e-01 -8.191371560096740723e-01 -7.065866608172655106e-03
7.909899999999999709e-01 -3.741110000000000269e-01 -2.165060000000000040e-01 4.245152771472930908e-01 8.898342847824096680e-01 -1.672771573066711426e-01
7.815710000000000157e-01 -3.934099999999999819e-01 -2.165060000000000040e-01 4.490115940570831299e-01 8.800227046012878418e-01 -1.547534912824630737e-01
1.016988000000000003e+00 -4.809999999999999831e-01 -2.165060000000000040e-01 -3.674385845661163330e-01 -9.273170828819274902e-01 -7.121793925762176514e-02
1.142762000000000056e+00 -5.065520000000000023e-01 0.000000000000000000e+00 4.780371487140655518e-01 8.783395290374755859e-01 -4.840978654101490974e-04
1.129985999999999935e+00 -5.344449999999999479e-01 0.000000000000000000e+00 4.975783526897430420e-01 8.674189448356628418e-01 -4.599636304192245007e-04
1.028486000000000011e+00 -4.558969999999999967e-01 2.165060000000000040e-01 -2.918321788311004639e-01 -9.464451074600219727e-01 1.381150931119918823e-01
7.999330000000000052e-01 -3.545869999999999855e-01 2.165060000000000040e-01 3.279730677604675293e-01 8.603641986846923828e-01 3.901373744010925293e-01
6.779920000000000391e-01 -3.206669999999999798e-01 0.000000000000000000e+00 -5.727328658103942871e-01 -8.197134137153625488e-01 -6.850421894341707230e-03
6.856569999999999609e-01 -3.039310000000000067e-01 0.000000000000000000e+00 -5.870600342750549316e-01 -8.095136284828186035e-01 -6.941693369299173355e-03
6.779920000000000391e-01 -3.206669999999999798e-01 0.000000000000000000e+00 -5.727328658103942871e-01 -8.197134137153625488e-01 -6.850421894341707230e-03
1.028486000000000011e+00 -4.558969999999999967e-01 -2.165060000000000040e-01 -3.427219688892364502e-01 -9.365330338478088379e-01 -7.380717247724533081e-02
1.039363999999999955e+00 -4.305189999999999850e-01 2.165060000000000040e-01 -2.433426082134246826e-01 -9.551271796226501465e-01 1.688678711652755737e-01
6.929100000000000259e-01 -2.870130000000000181e-01 0.000000000000000000e+00 -6.010860204696655273e-01 -7.991484403610229492e-01 -7.569063454866409302e-03
6.856569999999999609e-01 -3.039310000000000067e-01 0.000000000000000000e+00 -5.870600342750549316e-01 -8.095136284828186035e-01 -6.941693369299173355e-03
6.929100000000000259e-01 -2.870130000000000181e-01 0.000000000000000000e+00 -6.010860204696655273e-01 -7.991484403610229492e-01 -7.569063454866409302e-03
7.999330000000000052e-01 -3.545869999999999855e-01 -2.165060000000000040e-01 3.987634181976318359e-01 8.982349634170532227e-01 -1.848283708095550537e-01
8.083939999999999459e-01 -3.348479999999999790e-01 -2.165060000000000040e-01 3.718960881233215332e-01 9.052047133445739746e-01 -2.056643515825271606e-01
1.039363999999999955e+00 -4.305189999999999850e-01 -2.165060000000000040e-01 -3.174380064010620117e-01 -9.451254606246948242e-01 -7.727277278900146484e-02
1.166241000000000083e+00 -4.498690000000000189e-01 0.000000000000000000e+00 4.395890831947326660e-01 8.981984257698059082e-01 -1.002612523734569550e-03
1.154849000000000014e+00 -4.783549999999999747e-01 0.000000000000000000e+00 4.587879180908203125e-01 8.885455131530761719e-01 -7.300616707652807236e-04
1.049617000000000022e+00 -4.048820000000000197e-01 2.165060000000000040e-01 -1.813386976718902588e-01 -9.599011540412902832e-01 2.137899100780487061e-01
8.083939999999999459e-01 -3.348479999999999790e-01 2.165060000000000040e-01 2.802348434925079346e-01 8.425076007843017578e-01 4.600537717342376709e-01
6.997449999999999504e-01 -2.699219999999999953e-01 0.000000000000000000e+00 -6.295831203460693359e-01 -7.768916487693786621e-01 -8.030649274587631226e-03
6.997449999999999504e-01 -2.699219999999999953e-01 0.000000000000000000e+00 -6.295831203460693359e-01 -7.768916487693786621e-01 -8.030649274587631226e-03
8.163690000000000113e-01 -3.149080000000000212e-01 -2.165060000000000040e-01 3.422744572162628174e-01 9.098617434501647949e-01 -2.345204204320907593e-01
1.049617000000000022e+00 -4.048820000000000197e-01 -2.165060000000000040e-01 -2.915594577789306641e-01 -9.531198740005493164e-01 -8.096645772457122803e-02
1.176930000000000032e+00 -4.211130000000000151e-01 0.000000000000000000e+00 4.207499027252197266e-01 9.071757793426513672e-01 -1.269497093744575977e-03
8.238510000000000000e-01 -2.947790000000000132e-01 2.165060000000000040e-01 1.667757779359817505e-01 7.511122226715087891e-01 6.387615203857421875e-01
8.163690000000000113e-01 -3.149080000000000212e-01 2.165060000000000040e-01 2.249093204736709595e-01 8.062633275985717773e-01 5.471338033676147461e-01
7.061579999999999524e-01 -2.526680000000000037e-01 0.000000000000000000e+00 -6.397265791893005371e-01 -7.685920596122741699e-01 -4.022230394184589386e-03
7.061579999999999524e-01 -2.526680000000000037e-01 0.000000000000000000e+00 -6.397265791893005371e-01 -7.685920596122741699e-01 -4.022230394184589386e-03
1.059236999999999984e+00 -3.790009999999999768e-01 -2.165060000000000040e-01 -2.647031545639038086e-01 -9.605089426040649414e-01 -8.576025813817977905e-02
1.186909999999999910e+00 -3.921020000000000061e-01 0.000000000000000000e+00 4.024764597415924072e-01 9.154289960861206055e-01 -1.545243896543979645e-03
1.059236999999999984e+00 -3.790009999999999768e-01 2.165060000000000040e-01 -9.732910990715026855e-02 -9.546356797218322754e-01 2.814210355281829834e-01
1.068219000000000030e+00 -3.528919999999999835e-01 2.165060000000000040e-01 1.420560386031866074e-02 -9.271130561828613281e-01 3.745124042034149170e-01
8.308370000000000477e-01 -2.744719999999999938e-01 2.165060000000000040e-01 9.324986487627029419e-02 6.508046388626098633e-01 7.534971237182617188e-01
8.308370000000000477e-01 -2.744719999999999938e-01 -2.165060000000000040e-01 2.755943238735198975e-01 9.078842997550964355e-01 -3.159014880657196045e-01
8.238510000000000000e-01 -2.947790000000000132e-01 -2.165060000000000040e-01 3.109273910522460938e-01 9.115273952484130859e-01 -2.691502273082733154e-01
1.068219000000000030e+00 -3.528919999999999835e-01 -2.165060000000000040e-01 -2.365420758724212646e-01 -9.672858715057373047e-01 -9.168390184640884399e-02
1.196174999999999988e+00 -3.628560000000000119e-01 0.000000000000000000e+00 3.845990300178527832e-01 9.230816960334777832e-01 -1.928915851749479771e-03
8.373230000000000395e-01 -2.539989999999999748e-01 2.165060000000000040e-01 2.237253077328205109e-02 5.296638607978820801e-01 8.479124903678894043e-01
7.177050000000000374e-01 -2.177139999999999909e-01 0.000000000000000000e+00 -7.811896800994873047e-01 -6.242912411689758301e-01 1.747499103657901287e-03
7.121459999999999457e-01 -2.352609999999999979e-01 0.000000000000000000e+00 -6.909396648406982422e-01 -7.229102849960327148e-01 -1.715387566946446896e-03
7.177050000000000374e-01 -2.177139999999999909e-01 0.000000000000000000e+00 -7.811896800994873047e-01 -6.242912411689758301e-01 1.747499103657901287e-03
7.121459999999999457e-01 -2.352609999999999979e-01 0.000000000000000000e+00 -6.909396648406982422e-01 -7.229102849960327148e-01 -1.715387566946446896e-03
8.373230000000000395e-01 -2.539989999999999748e-01 -2.165060000000000040e-01 2.364321351051330566e-01 8.981668949127197266e-01 -3.706698119640350342e-01
1.204720000000000013e+00 -3.333909999999999929e-01 0.000000000000000000e+00 3.676415681838989258e-01 9.299653172492980957e-01 -2.054433105513453484e-03
1.076557999999999904e+00 -3.265700000000000269e-01 2.165060000000000040e-01 1.496760249137878418e-01 -8.615459203720092773e-01 4.851140975952148438e-01
1.084248000000000101e+00 -3.000519999999999854e-01 2.165060000000000040e-01 3.049132823944091797e-01 -7.363605499267578125e-01 6.039876937866210938e-01
7.228320000000000300e-01 -2.000349999999999906e-01 0.000000000000000000e+00 -7.818884253501892090e-01 -6.233966350555419922e-01 5.210663657635450363e-03
7.228320000000000300e-01 -2.000349999999999906e-01 0.000000000000000000e+00 -7.818884253501892090e-01 -6.233966350555419922e-01 5.210663657635450363e-03
1.084248000000000101e+00 -3.000519999999999854e-01 -2.165060000000000040e-01 -1.757289916276931763e-01 -9.783451557159423828e-01 -1.093620061874389648e-01
1.076557999999999904e+00 -3.265700000000000269e-01 -2.165060000000000040e-01 -2.072639763355255127e-01 -9.732461571693420410e-01 -9.916474670171737671e-02
1.091285000000000061e+00 -2.733530000000000126e-01 2.165060000000000040e-01 4.359567761421203613e-01 -5.735895037651062012e-01 6.934960484504699707e-01
8.487770000000000037e-01 -2.126079999999999914e-01 2.165060000000000040e-01 -1.455351114273071289e-01 7.374832779169082642e-02 9.866005778312683105e-01
8.433040000000000536e-01 -2.333739999999999981e-01 2.165060000000000040e-01 -6.511459499597549438e-02 3.262571394443511963e-01 9.430357217788696289e-01
7.275230000000000308e-01 -1.822350000000000081e-01 0.000000000000000000e+00 -8.607167005538940430e-01 -5.089561343193054199e-01 1.142014749348163605e-02
7.275230000000000308e-01 -1.822350000000000081e-01 0.000000000000000000e+00 -8.607167005538940430e-01 -5.089561343193054199e-01 1.142014749348163605e-02
8.433040000000000536e-01 -2.333739999999999981e-01 -2.165060000000000040e-01 1.918869763612747192e-01 8.744292855262756348e-01 -4.455927014350891113e-01
8.487770000000000037e-01 -2.126079999999999914e-01 -2.165060000000000040e-01 1.459190547466278076e-01 8.381887078285217285e-01 -5.254973769187927246e-01
1.091285000000000061e+00 -2.733530000000000126e-01 -2.165060000000000040e-01 -1.415563970804214478e-01 -9.823368787765502930e-01 -1.223763152956962585e-01
1.219627999999999934e+00 -2.738760000000000083e-01 0.000000000000000000e+00 3.379138410091400146e-01 9.411744475364685059e-01 -2.245128620415925980e-03
1.212539000000000033e+00 -3.037250000000000227e-01 0.000000000000000000e+00 3.520655632019042969e-01 9.359733462333679199e-01 -1.929044607095420361e-03
1.097664999999999891e+00 -2.464890000000000136e-01 2.165060000000000040e-01 5.624018907546997070e-01 -3.178972601890563965e-01 7.633121609687805176e-01
8.537390000000000256e-01 -1.917139999999999955e-01 2.165060000000000040e-01 -2.235021144151687622e-01 -3.125262260437011719e-01 9.232411384582519531e-01
7.317770000000000108e-01 -1.643259999999999998e-01 0.000000000000000000e+00 -8.884837627410888672e-01 -4.586331248283386230e-01 1.588260941207408905e-02
8.537390000000000256e-01 -1.917139999999999955e-01 -2.165060000000000040e-01 9.425500780344009399e-02 7.785767912864685059e-01 -6.204305291175842285e-01
1.097664999999999891e+00 -2.464890000000000136e-01 -2.165060000000000040e-01 -1.033018529415130615e-01 -9.846393465995788574e-01 -1.407620757818222046e-01
1.103383000000000003e+00 -2.194760000000000044e-01 2.165060000000000040e-01 6.327241659164428711e-01 -4.070173203945159912e-02 7.733068466186523438e-01
8.581870000000000331e-01 -1.707039999999999946e-01 2.165060000000000040e-01 -2.418436110019683838e-01 -5.986893773078918457e-01 7.635985612869262695e-01
7.317770000000000108e-01 -1.643259999999999998e-01 0.000000000000000000e+00 -8.884837627410888672e-01 -4.586331248283386230e-01 1.588260941207408905e-02
7.355890000000000484e-01 -1.463180000000000036e-01 0.000000000000000000e+00 -9.741145968437194824e-01 -2.249321937561035156e-01 2.250023931264877319e-02
1.103383000000000003e+00 -2.194760000000000044e-01 -2.165060000000000040e-01 -5.682510137557983398e-02 -9.839610457420349121e-01 -1.690903455018997192e-01
1.231597000000000053e+00 -2.137020000000000031e-01 0.000000000000000000e+00 3.207880854606628418e-01 9.471499323844909668e-01 -1.394362305290997028e-03
1.225981999999999905e+00 -2.438629999999999964e-01 0.000000000000000000e+00 3.268339335918426514e-01 9.450799822807312012e-01 -1.849890686571598053e-03
1.108436999999999895e+00 -1.923320000000000030e-01 2.165060000000000040e-01 6.364341378211975098e-01 3.133735060691833496e-01 7.048039436340332031e-01
8.621180000000000510e-01 -1.495910000000000017e-01 2.165060000000000040e-01 -2.233875095844268799e-01 -7.839171290397644043e-01 5.792856216430664062e-01
7.355890000000000484e-01 -1.463180000000000036e-01 0.000000000000000000e+00 -9.741145968437194824e-01 -2.249321937561035156e-01 2.250023931264877319e-02
8.621180000000000510e-01 -1.495910000000000017e-01 -2.165060000000000040e-01 -1.018225587904453278e-02 5.722920894622802734e-01 -8.199866414070129395e-01
8.581870000000000331e-01 -1.707039999999999946e-01 -2.165060000000000040e-01 4.680918529629707336e-02 7.046049237251281738e-01 -7.080542445182800293e-01
1.108436999999999895e+00 -1.923320000000000030e-01 -2.165060000000000040e-01 7.297989213839173317e-04 -9.774643182754516602e-01 -2.110994011163711548e-01
1.236471000000000098e+00 -1.834129999999999927e-01 0.000000000000000000e+00 3.226861655712127686e-01 9.465059638023376465e-01 -3.797868557740002871e-04
8.655289999999999928e-01 -1.283890000000000031e-01 2.165060000000000040e-01 -1.900363266468048096e-01 -8.715139627456665039e-01 4.520504772663116455e-01
7.418820000000000414e-01 -1.100480000000000069e-01 0.000000000000000000e+00 -9.994233846664428711e-01 -9.321977384388446808e-03 3.264883533120155334e-02
7.389580000000000037e-01 -1.282210000000000016e-01 0.000000000000000000e+00 -9.858276247978210449e-01 -1.653726845979690552e-01 2.821216173470020294e-02
7.418820000000000414e-01 -1.100480000000000069e-01 0.000000000000000000e+00 -9.994233846664428711e-01 -9.321977384388446808e-03 3.264883533120155334e-02
7.389580000000000037e-01 -1.282210000000000016e-01 0.000000000000000000e+00 -9.858276247978210449e-01 -1.653726845979690552e-01 2.821216173470020294e-02
8.655289999999999928e-01 -1.283890000000000031e-01 -2.165060000000000040e-01 -5.660036951303482056e-02 4.360933601856231689e-01 -8.981196880340576172e-01
1.240599000000000007e+00 -1.530140000000000111e-01 0.000000000000000000e+00 3.421663343906402588e-01 9.396389126777648926e-01 9.550527320243418217e-04
1.112824000000000035e+00 -1.650709999999999955e-01 2.165060000000000040e-01 5.539839267730712891e-01 6.166936755180358887e-01 5.592769384384155273e-01
1.116538999999999948e+00 -1.377130000000000021e-01 2.165060000000000040e-01 4.346845448017120361e-01 8.061324357986450195e-01 4.014970362186431885e-01
8.684199999999999697e-01 -1.071099999999999969e-01 2.165060000000000040e-01 -1.547521054744720459e-01 -9.225370883941650391e-01 3.535209596157073975e-01
8.684199999999999697e-01 -1.071099999999999969e-01 -2.165060000000000040e-01 -1.079146265983581543e-01 2.180998474359512329e-01 -9.699416756629943848e-01
1.112824000000000035e+00 -1.650709999999999955e-01 -2.165060000000000040e-01 7.724735140800476074e-02 -9.575206637382507324e-01 -2.778256833553314209e-01
1.116538999999999948e+00 -1.377130000000000021e-01 -2.165060000000000040e-01 1.857499480247497559e-01 -9.044422507286071777e-01 -3.840327858924865723e-01
1.119582999999999995e+00 -1.102700000000000069e-01 2.165060000000000040e-01 3.294197916984558105e-01 9.000669717788696289e-01 2.852403521537780762e-01
8.707869999999999777e-01 -8.576499999999999402e-02 2.165060000000000040e-01 -1.221207007765769958e-01 -9.474697709083557129e-01 2.956138253211975098e-01
7.443600000000000216e-01 -9.180800000000000072e-02 0.000000000000000000e+00 -9.994118809700012207e-01 -1.954694511368870735e-03 3.423462063074111938e-02
7.463880000000000514e-01 -7.351299999999999502e-02 0.000000000000000000e+00 -9.676697254180908203e-01 2.494230866432189941e-01 3.746105358004570007e-02
7.443600000000000216e-01 -9.180800000000000072e-02 0.000000000000000000e+00 -9.994118809700012207e-01 -1.954694511368870735e-03 3.423462063074111938e-02
8.707869999999999777e-01 -8.576499999999999402e-02 -2.165060000000000040e-01 -1.399793326854705811e-01 1.859134994447231293e-02 -9.899798631668090820e-01
1.119582999999999995e+00 -1.102700000000000069e-01 -2.165060000000000040e-01 3.081647455692291260e-01 -8.051145672798156738e-01 -5.067790746688842773e-01
1.246612999999999971e+00 -9.195599999999999608e-02 0.000000000000000000e+00 5.087525248527526855e-01 8.608995676040649414e-01 4.770250990986824036e-03
1.243981000000000003e+00 -1.225220000000000059e-01 0.000000000000000000e+00 3.938025236129760742e-01 9.191911816596984863e-01 2.647439483553171158e-03
1.121952000000000060e+00 -8.276100000000000123e-02 2.165060000000000040e-01 2.524529695510864258e-01 9.436882734298706055e-01 2.138218730688095093e-01
8.726289999999999880e-01 -6.436899999999999566e-02 2.165060000000000040e-01 -8.968758583068847656e-02 -9.638209342956542969e-01 2.510084807872772217e-01
7.463880000000000514e-01 -7.351299999999999502e-02 0.000000000000000000e+00 -9.676697254180908203e-01 2.494230866432189941e-01 3.746105358004570007e-02
7.479679999999999662e-01 -5.517400000000000082e-02 0.000000000000000000e+00 -9.123432636260986328e-01 4.078198373317718506e-01 3.623080626130104065e-02
8.726289999999999880e-01 -6.436899999999999566e-02 -2.165060000000000040e-01 -1.574893295764923096e-01 -3.264298141002655029e-01 -9.320089221000671387e-01
1.248493999999999993e+00 -6.133500000000000063e-02 0.000000000000000000e+00 7.212271094322204590e-01 6.926617026329040527e-01 7.154317572712898254e-03
1.123645000000000005e+00 -5.520200000000000107e-02 2.165060000000000040e-01 1.950395405292510986e-01 9.659079313278198242e-01 1.702393740415573120e-01
8.739460000000000006e-01 -4.293500000000000094e-02 2.165060000000000040e-01 -6.048978120088577271e-02 -9.728552699089050293e-01 2.233686745166778564e-01
7.479679999999999662e-01 -5.517400000000000082e-02 0.000000000000000000e+00 -9.123432636260986328e-01 4.078198373317718506e-01 3.623080626130104065e-02
8.739460000000000006e-01 -4.293500000000000094e-02 -2.165060000000000040e-01 -1.427170932292938232e-01 -5.734405517578125000e-01 -8.067204356193542480e-01
1.121952000000000060e+00 -8.276100000000000123e-02 -2.165060000000000040e-01 4.525318443775177002e-01 -6.047836542129516602e-01 -6.553255915641784668e-01
1.124660999999999911e+00 -2.760900000000000160e-02 2.165060000000000040e-01 1.488636136054992676e-01 9.785746335983276367e-01 1.422369778156280518e-01
8.747359999999999580e-01 -2.147400000000000003e-02 2.165060000000000040e-01 -3.097820654511451721e-02 -9.808301925659179688e-01 1.923861652612686157e-01
7.497740000000000515e-01 -1.840599999999999875e-02 0.000000000000000000e+00 -8.075724840164184570e-01 5.888753533363342285e-01 3.244182467460632324e-02
7.490970000000000129e-01 -3.680100000000000038e-02 0.000000000000000000e+00 -8.565722703933715820e-01 5.148343443870544434e-01 3.506468236446380615e-02
7.497740000000000515e-01 -1.840599999999999875e-02 0.000000000000000000e+00 -8.075724840164184570e-01 5.888753533363342285e-01 3.244182467460632324e-02
7.490970000000000129e-01 -3.680100000000000038e-02 0.000000000000000000e+00 -8.565722703933715820e-01 5.148343443870544434e-01 3.506468236446380615e-02
8.747359999999999580e-01 -2.147400000000000003e-02 -2.165060000000000040e-01 -1.022731736302375793e-01 -7.900523543357849121e-01 -6.044481396675109863e-01
1.123645000000000005e+00 -5.520200000000000107e-02 -2.165060000000000040e-01 5.400102734565734863e-01 -4.023481011390686035e-01 -7.392597198486328125e-01
1.124660999999999911e+00 -2.760900000000000160e-02 -2.165060000000000040e-01 5.995351076126098633e-01 -8.390824496746063232e-02 -7.959379553794860840e-01
1.249624000000000068e+00 -3.067699999999999941e-02 0.000000000000000000e+00 9.389357566833496094e-01 3.439664542675018311e-01 9.314099326729774475e-03
-1.076362000000000041e+00 3.130550000000000277e-01 2.184550000000000103e-01 -4.276699423789978027e-01 3.669148683547973633e-02 9.031900167465209961e-01
-7.078849999999999865e-01 -9.736550000000000482e-01 -1.439050000000000051e-01 -5.202729701995849609e-01 -5.850158929824829102e-01 -6.221515536308288574e-01
-8.708080000000000265e-01 -2.745529999999999915e-01 -2.339579999999999993e-01 3.178050518035888672e-01 6.815239787101745605e-02 -9.457035064697265625e-01
-6.600230000000000263e-01 -6.681669999999999554e-01 2.422670000000000101e-01 1.531443297863006592e-01 1.220767721533775330e-01 9.806345105171203613e-01
-1.094972000000000056e+00 -8.957700000000000384e-02 -2.294750000000000123e-01 -4.161731898784637451e-01 -1.213177200406789780e-02 -9.092044234275817871e-01
-8.739820000000000366e-01 -8.834809999999999608e-01 5.809399999999999981e-02 -6.570955514907836914e-01 -7.057803273200988770e-01 2.647631764411926270e-01
