-7.071070000000000411e-01 7.071070000000000411e-01 -2.500000000000000000e-01 -2.162740379571914673e-01 1.034539192914962769e-01 -9.708361625671386719e-01
-7.157810000000000006e-01 7.157810000000000006e-01 -2.496990000000000043e-01 -5.555694103240966797e-01 5.214473009109497070e-01 -6.476382613182067871e-01
-7.244340000000000224e-01 7.244340000000000224e-01 -2.487959999999999894e-01 -5.961171388626098633e-01 6.052551269531250000e-01 -5.275514721870422363e-01
-7.330449999999999466e-01 7.330449999999999466e-01 -2.472940000000000138e-01 -6.778648495674133301e-01 6.848753094673156738e-01 -2.672920823097229004e-01
-7.415939999999999754e-01 7.415939999999999754e-01 -2.451959999999999973e-01 -7.012847065925598145e-01 7.009309530258178711e-01 -1.299832165241241455e-01
-7.500599999999999490e-01 7.500599999999999490e-01 -2.425080000000000013e-01 -7.079280614852905273e-01 7.062425613403320312e-01 7.697930559515953064e-03
-7.584220000000000406e-01 7.584220000000000406e-01 -2.392350000000000032e-01 -7.035795450210571289e-01 7.028570771217346191e-01 1.047270670533180237e-01
-7.666610000000000369e-01 7.666610000000000369e-01 -2.353860000000000119e-01 -6.953202486038208008e-01 6.947694420814514160e-01 1.839163601398468018e-01
-7.747560000000000002e-01 7.747560000000000002e-01 -2.309700000000000086e-01 -6.837121248245239258e-01 6.832454204559326172e-01 2.563463449478149414e-01
-7.826889999999999681e-01 7.826880000000000503e-01 -2.259970000000000034e-01 -6.703335642814636230e-01 6.697905659675598145e-01 3.194267153739929199e-01
-7.904390000000000027e-01 7.904390000000000027e-01 -2.204800000000000093e-01 -6.534700393676757812e-01 6.528459191322326660e-01 3.831046819686889648e-01
-7.979880000000000306e-01 7.979880000000000306e-01 -2.144320000000000115e-01 -6.388764381408691406e-01 6.382250785827636719e-01 4.295411705970764160e-01
-8.053190000000000071e-01 8.053179999999999783e-01 -2.078669999999999962e-01 -6.202477216720581055e-01 6.196015477180480957e-01 4.810266494750976562e-01
-8.192530000000000090e-01 8.192519999999999802e-01 -1.932530000000000081e-01 -5.828797817230224609e-01 5.822448134422302246e-01 5.667822957038879395e-01
0.000000000000000000e+00 1.158598000000000017e+00 -1.932530000000000081e-01 -4.110489971935749054e-04 -7.513792514801025391e-01 -6.598704457283020020e-01
-8.258229999999999738e-01 8.258229999999999738e-01 -1.852380000000000138e-01 -5.613154172897338867e-01 5.606840252876281738e-01 6.087350249290466309e-01
0.000000000000000000e+00 1.176776999999999962e+00 -1.767769999999999897e-01 -3.466515918262302876e-04 -6.830830574035644531e-01 -7.303405404090881348e-01
-8.321070000000000411e-01 8.321070000000000411e-01 -1.767769999999999897e-01 -5.391886830329895020e-01 5.386508107185363770e-01 6.474031805992126465e-01
-8.437569999999999792e-01 8.437569999999999792e-01 -1.585979999999999890e-01 -4.946325719356536865e-01 4.940574467182159424e-01 7.150145769119262695e-01
-8.540910000000000446e-01 8.540910000000000446e-01 -1.388929999999999887e-01 -4.476039111614227295e-01 4.470437169075012207e-01 7.744693160057067871e-01
-8.587329999999999686e-01 8.587329999999999686e-01 -1.285260000000000014e-01 -4.232537150382995605e-01 4.226929843425750732e-01 8.013656139373779297e-01
-8.630100000000000549e-01 8.630100000000000549e-01 -1.178489999999999954e-01 -4.022215902805328369e-01 4.016571938991546631e-01 8.227328062057495117e-01
-8.669109999999999872e-01 8.669109999999999872e-01 -1.068889999999999979e-01 -3.806602954864501953e-01 3.800948858261108398e-01 8.429861664772033691e-01
-8.704269999999999508e-01 8.704269999999999508e-01 -9.567100000000000604e-02 -3.656739890575408936e-01 3.650202751159667969e-01 8.561792373657226562e-01
0.000000000000000000e+00 1.235386000000000095e+00 -8.422200000000000519e-02 -1.207328168675303459e-03 -2.965138554573059082e-01 -9.550278186798095703e-01
-8.735500000000000487e-01 8.735500000000000487e-01 -8.422200000000000519e-02 -3.510651886463165283e-01 3.502970337867736816e-01 8.683577179908752441e-01
-8.762720000000000509e-01 8.762710000000000221e-01 -7.257099999999999662e-02 -3.480423390865325928e-01 3.469461202621459961e-01 8.709161281585693359e-01
-8.785859999999999781e-01 8.785849999999999493e-01 -6.074500000000000038e-02 -3.513067364692687988e-01 3.499731719493865967e-01 8.683906793594360352e-01
-8.804870000000000196e-01 8.804870000000000196e-01 -4.877299999999999691e-02 -3.721424937248229980e-01 3.715185225009918213e-01 8.505786061286926270e-01
-8.819700000000000317e-01 8.819700000000000317e-01 -3.668300000000000033e-02 -4.139523208141326904e-01 4.162209630012512207e-01 8.095699548721313477e-01
-8.830329999999999568e-01 8.830320000000000391e-01 -2.450400000000000147e-02 -5.003710389137268066e-01 5.009923577308654785e-01 7.061412930488586426e-01
0.000000000000000000e+00 1.249698999999999893e+00 -1.226700000000000013e-02 -4.388274974189698696e-04 4.455688223242759705e-02 -9.990067481994628906e-01
-8.836709999999999843e-01 8.836699999999999555e-01 -1.226700000000000013e-02 -6.140749454498291016e-01 5.902987718582153320e-01 5.238886475563049316e-01
-1.250000000000000000e+00 0.000000000000000000e+00 0.000000000000000000e+00 -1.339920461177825928e-01 1.353082992136478424e-02 -9.908900260925292969e-01
-1.249698999999999893e+00 0.000000000000000000e+00 1.226700000000000013e-02 -2.235299050807952881e-01 1.067387498915195465e-02 -9.746386408805847168e-01
-8.830329999999999568e-01 8.830320000000000391e-01 2.450400000000000147e-02 -6.426923871040344238e-01 6.414579749107360840e-01 -4.189009964466094971e-01
-1.248796000000000017e+00 0.000000000000000000e+00 2.450400000000000147e-02 -2.801764011383056641e-01 1.515140174888074398e-03 -9.599473476409912109e-01
-1.247293999999999903e+00 0.000000000000000000e+00 3.668300000000000033e-02 -3.082917332649230957e-01 -1.912882085889577866e-03 -9.512899518013000488e-01
-1.242507999999999946e+00 0.000000000000000000e+00 6.074500000000000038e-02 -3.841097354888916016e-01 -1.730750547721982002e-03 -9.232858419418334961e-01
-8.785859999999999781e-01 8.785849999999999493e-01 6.074500000000000038e-02 -4.346338510513305664e-01 4.321842491626739502e-01 -7.901329994201660156e-01
-1.239235000000000086e+00 0.000000000000000000e+00 7.257099999999999662e-02 -4.219886362552642822e-01 -2.934304764494299889e-03 -9.065964221954345703e-01
-1.235386000000000095e+00 0.000000000000000000e+00 8.422200000000000519e-02 -4.511821269989013672e-01 -2.082923194393515587e-03 -8.924294710159301758e-01
-1.230969999999999898e+00 0.000000000000000000e+00 9.567100000000000604e-02 -4.928123950958251953e-01 8.290378376841545105e-03 -8.700960874557495117e-01
-1.225997000000000003e+00 0.000000000000000000e+00 1.068889999999999979e-01 -5.311299562454223633e-01 4.652579780668020248e-03 -8.472775220870971680e-01
-1.220480000000000009e+00 0.000000000000000000e+00 1.178489999999999954e-01 -5.740545988082885742e-01 1.276306109502911568e-03 -8.188160657882690430e-01
-8.587329999999999686e-01 8.587329999999999686e-01 1.285260000000000014e-01 -4.463143646717071533e-01 4.455752372741699219e-01 -7.760581374168395996e-01
-1.207867000000000024e+00 0.000000000000000000e+00 1.388929999999999887e-01 -6.462827920913696289e-01 -5.282854544930160046e-04 -7.630978226661682129e-01
-8.490950000000000442e-01 8.490950000000000442e-01 1.489250000000000018e-01 -4.859155416488647461e-01 4.852443933486938477e-01 -7.269278168678283691e-01
-1.200801999999999925e+00 0.000000000000000000e+00 1.489250000000000018e-01 -6.811449527740478516e-01 -7.123692193999886513e-04 -7.321481704711914062e-01
-1.193252999999999897e+00 0.000000000000000000e+00 1.585979999999999890e-01 -7.170949578285217285e-01 -1.059254980646073818e-03 -6.969746351242065430e-01
-1.185238000000000014e+00 0.000000000000000000e+00 1.678900000000000114e-01 -7.511686682701110840e-01 -1.517611672170460224e-03 -6.601085662841796875e-01
-1.176776999999999962e+00 0.000000000000000000e+00 1.767769999999999897e-01 -7.821810245513916016e-01 -1.631272491067647934e-03 -6.230491995811462402e-01
-8.258229999999999738e-01 8.258229999999999738e-01 1.852380000000000138e-01 -5.668950080871582031e-01 5.668679475784301758e-01 -5.977380871772766113e-01
-1.167890000000000095e+00 0.000000000000000000e+00 1.852380000000000138e-01 -8.126560449600219727e-01 -4.604960849974304438e-04 -5.827434659004211426e-01
-1.158598000000000017e+00 0.000000000000000000e+00 1.932530000000000081e-01 -8.402878046035766602e-01 -1.015037996694445610e-03 -5.421396493911743164e-01
-1.148924999999999974e+00 0.000000000000000000e+00 2.008020000000000083e-01 -8.676464557647705078e-01 -1.914105494506657124e-03 -4.971779882907867432e-01
-1.138892999999999933e+00 0.000000000000000000e+00 2.078669999999999962e-01 -8.908282518386840820e-01 -1.223398721776902676e-03 -4.543384611606597900e-01
-7.979880000000000306e-01 7.979880000000000306e-01 2.144320000000000115e-01 -6.378732323646545410e-01 6.370763182640075684e-01 -4.327255785465240479e-01
-1.128525999999999918e+00 0.000000000000000000e+00 2.144320000000000115e-01 -9.143743515014648438e-01 -1.592294545844197273e-03 -4.048667550086975098e-01
-1.117849000000000093e+00 0.000000000000000000e+00 2.204800000000000093e-01 -9.340243339538574219e-01 -2.170213032513856888e-03 -3.572029769420623779e-01
-7.826889999999999681e-01 7.826880000000000503e-01 2.259970000000000034e-01 -6.650646924972534180e-01 6.632248163223266602e-01 -3.432519137859344482e-01
-1.095671000000000062e+00 0.000000000000000000e+00 2.309700000000000086e-01 -9.671500921249389648e-01 -4.723141901195049286e-03 -2.541620433330535889e-01
-1.084222000000000019e+00 0.000000000000000000e+00 2.353860000000000119e-01 -9.805228710174560547e-01 -1.281882869079709053e-03 -1.964007019996643066e-01
-1.060745000000000049e+00 0.000000000000000000e+00 2.425080000000000013e-01 -9.978329539299011230e-01 -2.179773524403572083e-03 -6.576185673475265503e-02
-1.048772999999999955e+00 0.000000000000000000e+00 2.451959999999999973e-01 -9.999998807907104492e-01 -3.251461312174797058e-04 -3.473722608759999275e-04
-1.036683000000000021e+00 0.000000000000000000e+00 2.472940000000000138e-01 -9.974844455718994141e-01 3.441535867750644684e-03 7.080244272947311401e-02
-7.244340000000000224e-01 7.244340000000000224e-01 2.487959999999999894e-01 -6.443962454795837402e-01 7.615332603454589844e-01 6.943028420209884644e-02
-1.024504000000000081e+00 0.000000000000000000e+00 2.487959999999999894e-01 -9.917575716972351074e-01 -3.095271764323115349e-03 1.280908286571502686e-01
-1.012267000000000028e+00 0.000000000000000000e+00 2.496990000000000043e-01 -9.736688137054443359e-01 -3.993994742631912231e-02 2.244413644075393677e-01
-1.000000000000000000e+00 0.000000000000000000e+00 2.500000000000000000e-01 -9.684774875640869141e-01 -6.388807296752929688e-02 2.407687753438949585e-01
-6.984329999999999705e-01 6.984329999999999705e-01 2.496990000000000043e-01 -2.478348016738891602e-01 9.432561993598937988e-01 2.210106253623962402e-01
-9.877329999999999721e-01 0.000000000000000000e+00 2.496990000000000043e-01 -9.728819131851196289e-01 -3.778199851512908936e-02 2.281957715749740601e-01
-9.754960000000000298e-01 0.000000000000000000e+00 2.487959999999999894e-01 -9.741401672363281250e-01 -5.960781592875719070e-03 2.258659750223159790e-01
-9.633169999999999789e-01 0.000000000000000000e+00 2.472940000000000138e-01 -9.708176255226135254e-01 2.450049389153718948e-03 2.398065328598022461e-01
-9.392549999999999510e-01 0.000000000000000000e+00 2.425080000000000013e-01 -9.516182541847229004e-01 -1.745078596286475658e-03 3.072777092456817627e-01
-6.641540000000000221e-01 6.641529999999999934e-01 2.425080000000000013e-01 -6.678509116172790527e-01 6.613532304763793945e-01 3.414483964443206787e-01
-9.157779999999999809e-01 0.000000000000000000e+00 2.353860000000000119e-01 -9.210134148597717285e-01 -2.413323381915688515e-04 3.895308375358581543e-01
-8.931109999999999882e-01 0.000000000000000000e+00 2.259970000000000034e-01 -8.832143545150756836e-01 -6.372932693921029568e-04 4.689690768718719482e-01
-6.237749999999999684e-01 6.237749999999999684e-01 2.204800000000000093e-01 -5.982518792152404785e-01 5.978644490242004395e-01 5.335285067558288574e-01
-8.821510000000000185e-01 0.000000000000000000e+00 2.204800000000000093e-01 -8.603448271751403809e-01 -6.863569724373519421e-04 5.097119212150573730e-01
-8.714739999999999709e-01 0.000000000000000000e+00 2.144320000000000115e-01 -8.346940875053405762e-01 -7.132822647690773010e-04 5.507134795188903809e-01
-8.510750000000000259e-01 0.000000000000000000e+00 2.008020000000000083e-01 -7.786070704460144043e-01 -7.223887369036674500e-04 6.275113224983215332e-01
-8.414019999999999833e-01 0.000000000000000000e+00 1.932530000000000081e-01 -7.474831938743591309e-01 -6.798817194066941738e-04 6.642802953720092773e-01
-8.321100000000000163e-01 0.000000000000000000e+00 1.852380000000000138e-01 -7.147265076637268066e-01 -6.280660745687782764e-04 6.994037032127380371e-01
-5.821070000000000411e-01 5.821070000000000411e-01 1.767769999999999897e-01 -4.694313704967498779e-01 4.701939821243286133e-01 7.473632693290710449e-01
-8.147619999999999862e-01 0.000000000000000000e+00 1.678900000000000114e-01 -6.426228880882263184e-01 -4.678791738115251064e-04 7.661824822425842285e-01
-7.991979999999999640e-01 0.000000000000000000e+00 1.489250000000000018e-01 -5.641619563102722168e-01 -2.468879101797938347e-04 8.256640434265136719e-01
-5.601220000000000088e-01 5.601220000000000088e-01 1.388929999999999887e-01 -3.571891188621520996e-01 3.585921227931976318e-01 8.624544143676757812e-01
-7.921329999999999760e-01 0.000000000000000000e+00 1.388929999999999887e-01 -5.212309360504150391e-01 -7.374728738795965910e-05 8.534156680107116699e-01
-7.855680000000000440e-01 0.000000000000000000e+00 1.285260000000000014e-01 -4.778940081596374512e-01 2.121619327226653695e-04 8.784174919128417969e-01
-7.795199999999999907e-01 0.000000000000000000e+00 1.178489999999999954e-01 -4.308091402053833008e-01 4.784330667462199926e-04 9.024428725242614746e-01
-7.690299999999999914e-01 0.000000000000000000e+00 9.567100000000000604e-02 -3.315380811691284180e-01 2.530583413317799568e-03 9.434384107589721680e-01
-7.646140000000000159e-01 0.000000000000000000e+00 8.422200000000000519e-02 -2.786981463432312012e-01 4.141642712056636810e-03 9.603698253631591797e-01
-7.607650000000000245e-01 0.000000000000000000e+00 7.257099999999999662e-02 -2.176341563463211060e-01 4.127820953726768494e-03 9.760216474533081055e-01
-7.574920000000000542e-01 0.000000000000000000e+00 6.074500000000000038e-02 -1.535623371601104736e-01 6.502097006887197495e-03 9.881175756454467773e-01
-7.548040000000000305e-01 0.000000000000000000e+00 4.877299999999999691e-02 -6.660032272338867188e-02 1.160026621073484421e-02 9.977122545242309570e-01
-7.527059999999999862e-01 0.000000000000000000e+00 3.668300000000000033e-02 2.255915477871894836e-02 3.779765218496322632e-02 9.990307092666625977e-01
-7.512039999999999829e-01 0.000000000000000000e+00 2.450400000000000147e-02 1.019520685076713562e-01 3.159968927502632141e-02 9.942873120307922363e-01
-7.503009999999999957e-01 0.000000000000000000e+00 1.226700000000000013e-02 1.834926158189773560e-01 -6.032756995409727097e-03 9.830026030540466309e-01
-7.500000000000000000e-01 0.000000000000000000e+00 0.000000000000000000e+00 4.453325867652893066e-01 -9.316939115524291992e-02 8.905045986175537109e-01
-7.512039999999999829e-01 0.000000000000000000e+00 -2.450400000000000147e-02 4.229855835437774658e-01 -1.959035405889153481e-03 9.061343669891357422e-01
-5.311810000000000143e-01 5.311810000000000143e-01 -2.450400000000000147e-02 1.536745876073837280e-01 -2.991468310356140137e-01 9.417511820793151855e-01
-7.527059999999999862e-01 0.000000000000000000e+00 -3.668300000000000033e-02 3.389756381511688232e-01 9.408911690115928650e-03 9.407480955123901367e-01
-7.574920000000000542e-01 0.000000000000000000e+00 -6.074500000000000038e-02 3.531307876110076904e-01 -2.739900024607777596e-03 9.355700016021728516e-01
-5.379420000000000313e-01 5.379420000000000313e-01 -7.257099999999999662e-02 2.547556757926940918e-01 -2.743096053600311279e-01 9.272830486297607422e-01
-7.607650000000000245e-01 0.000000000000000000e+00 -7.257099999999999662e-02 3.837295174598693848e-01 -2.594013349153101444e-04 9.234455227851867676e-01
-7.646140000000000159e-01 0.000000000000000000e+00 -8.422200000000000519e-02 4.145741164684295654e-01 5.774639794253744185e-05 9.100155234336853027e-01
-7.690299999999999914e-01 0.000000000000000000e+00 -9.567100000000000604e-02 4.524123370647430420e-01 -5.858184886164963245e-04 8.918086290359497070e-01
-7.740029999999999966e-01 0.000000000000000000e+00 -1.068889999999999979e-01 4.872398674488067627e-01 -6.748110754415392876e-04 8.732679486274719238e-01
-7.795199999999999907e-01 0.000000000000000000e+00 -1.178489999999999954e-01 5.277259349822998047e-01 -7.962361560203135014e-04 8.494143486022949219e-01
-7.921329999999999760e-01 0.000000000000000000e+00 -1.388929999999999887e-01 6.042764186859130859e-01 -7.981908856891095638e-04 7.967743277549743652e-01
-7.991979999999999640e-01 0.000000000000000000e+00 -1.489250000000000018e-01 6.400464177131652832e-01 -9.007145417854189873e-04 7.683357596397399902e-01
-8.067469999999999919e-01 0.000000000000000000e+00 -1.585979999999999890e-01 6.781485676765441895e-01 -1.092990860342979431e-03 7.349240779876708984e-01
-8.147619999999999862e-01 0.000000000000000000e+00 -1.678900000000000114e-01 7.118760347366333008e-01 -1.164832152426242828e-03 7.023041248321533203e-01
-8.321100000000000163e-01 0.000000000000000000e+00 -1.852380000000000138e-01 7.782540917396545410e-01 -1.736093196086585522e-03 6.279470920562744141e-01
-5.949609999999999621e-01 5.949609999999999621e-01 -1.932530000000000081e-01 5.850821137428283691e-01 -5.862077474594116211e-01 5.603921413421630859e-01
-8.414019999999999833e-01 0.000000000000000000e+00 -1.932530000000000081e-01 8.096852302551269531e-01 -5.616164999082684517e-04 5.868641734123229980e-01
-8.510750000000000259e-01 0.000000000000000000e+00 -2.008020000000000083e-01 8.373048305511474609e-01 -5.130061763338744640e-04 5.467360615730285645e-01
-8.714739999999999709e-01 0.000000000000000000e+00 -2.144320000000000115e-01 8.888020515441894531e-01 -8.054482750594615936e-04 4.582904875278472900e-01
-6.237749999999999684e-01 6.237749999999999684e-01 -2.204800000000000093e-01 6.654109358787536621e-01 -6.662453413009643555e-01 3.366681337356567383e-01
-8.931109999999999882e-01 0.000000000000000000e+00 -2.259970000000000034e-01 9.321429133415222168e-01 -9.910090593621134758e-04 3.620892763137817383e-01
-9.043290000000000495e-01 0.000000000000000000e+00 -2.309700000000000086e-01 9.501082301139831543e-01 -1.678631175309419632e-03 3.119159638881683350e-01
-9.157779999999999809e-01 0.000000000000000000e+00 -2.353860000000000119e-01 9.659622311592102051e-01 -2.275107195600867271e-03 2.586730420589447021e-01
-9.274289999999999479e-01 0.000000000000000000e+00 -2.392350000000000032e-01 9.791004657745361328e-01 -4.524829564616084099e-04 2.033769786357879639e-01
-9.392549999999999510e-01 0.000000000000000000e+00 -2.425080000000000013e-01 9.901751875877380371e-01 -3.561977646313607693e-04 1.398324370384216309e-01
-9.512270000000000447e-01 0.000000000000000000e+00 -2.451959999999999973e-01 9.968510270118713379e-01 -9.087637881748378277e-04 7.929140329360961914e-02
-9.754960000000000298e-01 0.000000000000000000e+00 -2.487959999999999894e-01 9.987348318099975586e-01 -2.362221130169928074e-04 -5.028603971004486084e-02
-9.877329999999999721e-01 0.000000000000000000e+00 -2.496990000000000043e-01 9.887973070144653320e-01 5.719487089663743973e-03 -1.491547375917434692e-01
-1.000000000000000000e+00 0.000000000000000000e+00 -2.500000000000000000e-01 9.836951494216918945e-01 9.045613929629325867e-03 -1.796160787343978882e-01
-1.012267000000000028e+00 0.000000000000000000e+00 -2.496990000000000043e-01 9.843702912330627441e-01 3.871344728395342827e-03 -1.760689020156860352e-01
-1.024504000000000081e+00 0.000000000000000000e+00 -2.487959999999999894e-01 9.824731349945068359e-01 -1.872620341600850224e-04 -1.864041090011596680e-01
-1.036683000000000021e+00 0.000000000000000000e+00 -2.472940000000000138e-01 9.769286513328552246e-01 -7.936052279546856880e-04 -2.135644108057022095e-01
-1.048772999999999955e+00 0.000000000000000000e+00 -2.451959999999999973e-01 9.685649275779724121e-01 -4.029002739116549492e-04 -2.487605959177017212e-01
-1.060745000000000049e+00 0.000000000000000000e+00 -2.425080000000000013e-01 9.567002654075622559e-01 -3.146642702631652355e-04 -2.910743951797485352e-01
-1.072570999999999941e+00 0.000000000000000000e+00 -2.392350000000000032e-01 9.428260326385498047e-01 -4.625386209227144718e-04 -3.332848548889160156e-01
-1.084222000000000019e+00 0.000000000000000000e+00 -2.353860000000000119e-01 9.262138009071350098e-01 -4.418884636834263802e-04 -3.769986629486083984e-01
-1.095671000000000062e+00 0.000000000000000000e+00 -2.309700000000000086e-01 9.081416726112365723e-01 -3.803327854257076979e-04 -4.186627864837646484e-01
-1.106889000000000012e+00 0.000000000000000000e+00 -2.259970000000000034e-01 8.870227932929992676e-01 -8.468416490359231830e-05 -4.617258310317993164e-01
-1.117849000000000093e+00 0.000000000000000000e+00 -2.204800000000000093e-01 8.639156222343444824e-01 -3.027610364370048046e-04 -5.036364793777465820e-01
-1.128525999999999918e+00 0.000000000000000000e+00 -2.144320000000000115e-01 8.383104801177978516e-01 -3.522980841808021069e-04 -5.451930761337280273e-01
-1.138892999999999933e+00 0.000000000000000000e+00 -2.078669999999999962e-01 8.110767006874084473e-01 -3.551755507942289114e-04 -5.849397182464599609e-01
-8.124130000000000518e-01 8.124120000000000230e-01 -2.008020000000000083e-01 -6.026512384414672852e-01 6.020116806030273438e-01 5.238258242607116699e-01
-1.148924999999999974e+00 0.000000000000000000e+00 -2.008020000000000083e-01 7.813988327980041504e-01 -3.887132625095546246e-04 -6.240319013595581055e-01
-1.158598000000000017e+00 0.000000000000000000e+00 -1.932530000000000081e-01 7.500674128532409668e-01 -3.655355831142514944e-04 -6.613612771034240723e-01
-1.167890000000000095e+00 0.000000000000000000e+00 -1.852380000000000138e-01 7.166179418563842773e-01 -2.570847282186150551e-04 -6.974660158157348633e-01
-1.176776999999999962e+00 0.000000000000000000e+00 -1.767769999999999897e-01 6.815589666366577148e-01 -2.835595223587006330e-04 -7.317631840705871582e-01
-8.380900000000000016e-01 8.380889999999999729e-01 -1.678900000000000114e-01 -5.179863572120666504e-01 5.174273848533630371e-01 6.811453700065612793e-01
-1.185238000000000014e+00 0.000000000000000000e+00 -1.678900000000000114e-01 6.445385813713073730e-01 -3.650783037301152945e-04 -7.645716667175292969e-01
-1.193252999999999897e+00 0.000000000000000000e+00 -1.585979999999999890e-01 6.059437990188598633e-01 -4.433592548593878746e-04 -7.955073714256286621e-01
-8.490950000000000442e-01 8.490950000000000442e-01 -1.489250000000000018e-01 -4.708603620529174805e-01 4.702997803688049316e-01 7.463970780372619629e-01
-1.200801999999999925e+00 0.000000000000000000e+00 -1.489250000000000018e-01 5.657860636711120605e-01 -4.979865625500679016e-04 -8.245518803596496582e-01
-1.207867000000000024e+00 0.000000000000000000e+00 -1.388929999999999887e-01 5.242651700973510742e-01 -3.318036615382879972e-04 -8.515550494194030762e-01
-1.214431999999999956e+00 0.000000000000000000e+00 -1.285260000000000014e-01 4.809518456459045410e-01 -3.571083070710301399e-04 -8.767469525337219238e-01
-1.220480000000000009e+00 0.000000000000000000e+00 -1.178489999999999954e-01 4.362108111381530762e-01 -4.257910477463155985e-04 -8.998443484306335449e-01
-1.225997000000000003e+00 0.000000000000000000e+00 -1.068889999999999979e-01 3.902527391910552979e-01 -5.869453889317810535e-04 -9.207075834274291992e-01
-1.230969999999999898e+00 0.000000000000000000e+00 -9.567100000000000604e-02 3.424056768417358398e-01 -9.388829930685460567e-04 -9.395517110824584961e-01
-1.239235000000000086e+00 0.000000000000000000e+00 -7.257099999999999662e-02 2.420068830251693726e-01 -1.424180081812664866e-04 -9.702744483947753906e-01
-1.242507999999999946e+00 0.000000000000000000e+00 -6.074500000000000038e-02 1.892817467451095581e-01 -1.280278811464086175e-04 -9.819228649139404297e-01
-1.245195999999999970e+00 0.000000000000000000e+00 -4.877299999999999691e-02 1.321174502372741699e-01 -5.353081505745649338e-04 -9.912340044975280762e-01
-1.247293999999999903e+00 0.000000000000000000e+00 -3.668300000000000033e-02 7.287389039993286133e-02 -8.778066840022802353e-04 -9.973407983779907227e-01
-1.248796000000000017e+00 0.000000000000000000e+00 -2.450400000000000147e-02 9.630668908357620239e-03 7.892138091847300529e-04 -9.999533295631408691e-01
-8.838840000000000030e-01 -8.838829999999999742e-01 0.000000000000000000e+00 -7.040302157402038574e-01 -7.037785649299621582e-01 -9.506417810916900635e-02
-8.830329999999999568e-01 -8.830320000000000391e-01 2.450400000000000147e-02 -5.284922122955322266e-01 -5.284806489944458008e-01 -6.643825769424438477e-01
-8.804870000000000196e-01 -8.804870000000000196e-01 4.877299999999999691e-02 -3.836551904678344727e-01 -3.836560249328613281e-01 -8.400099873542785645e-01
-1.245195999999999970e+00 0.000000000000000000e+00 4.877299999999999691e-02 -3.531370460987091064e-01 -1.664779148995876312e-03 -9.355701804161071777e-01
-8.762720000000000509e-01 -8.762710000000000221e-01 7.257099999999999662e-02 -3.508476912975311279e-01 -3.508479595184326172e-01 -8.682231903076171875e-01
-8.735500000000000487e-01 -8.735500000000000487e-01 8.422200000000000519e-02 -3.536292910575866699e-01 -3.536171317100524902e-01 -8.659684062004089355e-01
-8.704269999999999508e-01 -8.704269999999999508e-01 9.567100000000000604e-02 -3.636661171913146973e-01 -3.636488318443298340e-01 -8.576166629791259766e-01
-8.669109999999999872e-01 -8.669109999999999872e-01 1.068889999999999979e-01 -3.792608976364135742e-01 -3.792662322521209717e-01 -8.439894318580627441e-01
-8.630100000000000549e-01 -8.630100000000000549e-01 1.178489999999999954e-01 -3.980016112327575684e-01 -3.980112373828887939e-01 -8.265481591224670410e-01
-1.214431999999999956e+00 0.000000000000000000e+00 1.285260000000000014e-01 -6.090391874313354492e-01 -2.288361865794286132e-04 -7.931400537490844727e-01
-8.540910000000000446e-01 -8.540910000000000446e-01 1.388929999999999887e-01 -4.426536560058593750e-01 -4.426668286323547363e-01 -7.798101902008056641e-01
-8.490950000000000442e-01 -8.490950000000000442e-01 1.489250000000000018e-01 -4.662072956562042236e-01 -4.662374556064605713e-01 -7.518467307090759277e-01
-8.437569999999999792e-01 -8.437569999999999792e-01 1.585979999999999890e-01 -4.885491132736206055e-01 -4.885564446449279785e-01 -7.229331135749816895e-01
-8.380900000000000016e-01 -8.380889999999999729e-01 1.678900000000000114e-01 -5.122828483581542969e-01 -5.123005509376525879e-01 -6.892854571342468262e-01
-8.258229999999999738e-01 -8.258229999999999738e-01 1.852380000000000138e-01 -5.545268654823303223e-01 -5.545325279235839844e-01 -6.204786300659179688e-01
-8.192530000000000090e-01 -8.192519999999999802e-01 1.932530000000000081e-01 -5.754360556602478027e-01 -5.754523277282714844e-01 -5.811435580253601074e-01
-8.124130000000000518e-01 -8.124120000000000230e-01 2.008020000000000083e-01 -5.934597849845886230e-01 -5.934671759605407715e-01 -5.436930060386657715e-01
-8.053190000000000071e-01 -8.053179999999999783e-01 2.078669999999999962e-01 -6.118187904357910156e-01 -6.118150353431701660e-01 -5.013582706451416016e-01
-7.979880000000000306e-01 -7.979880000000000306e-01 2.144320000000000115e-01 -6.292979717254638672e-01 -6.292893290519714355e-01 -4.560471773147583008e-01
-7.904390000000000027e-01 -7.904390000000000027e-01 2.204800000000000093e-01 -6.438617706298828125e-01 -6.438458561897277832e-01 -4.134058356285095215e-01
-1.106889000000000012e+00 0.000000000000000000e+00 2.259970000000000034e-01 -9.527637362480163574e-01 -3.697546198964118958e-03 -3.036898672580718994e-01
-7.826889999999999681e-01 -7.826880000000000503e-01 2.259970000000000034e-01 -6.576774716377258301e-01 -6.576719880104064941e-01 -3.673253357410430908e-01
-7.747560000000000002e-01 -7.747560000000000002e-01 2.309700000000000086e-01 -6.705614328384399414e-01 -6.705722212791442871e-01 -3.173016607761383057e-01
-7.666610000000000369e-01 -7.666610000000000369e-01 2.353860000000000119e-01 -6.825937032699584961e-01 -6.825892329216003418e-01 -2.610318660736083984e-01
-1.072570999999999941e+00 0.000000000000000000e+00 2.392350000000000032e-01 -9.903376102447509766e-01 -1.522106351330876350e-03 -1.386689990758895874e-01
-7.500599999999999490e-01 -7.500599999999999490e-01 2.425080000000000013e-01 -6.986715197563171387e-01 -6.986826658248901367e-01 -1.539503186941146851e-01
-7.330449999999999466e-01 -7.330449999999999466e-01 2.472940000000000138e-01 -7.069759368896484375e-01 -7.069936990737915039e-01 -1.857538521289825439e-02
-7.244340000000000224e-01 -7.244340000000000224e-01 2.487959999999999894e-01 -7.055152654647827148e-01 -7.055174112319946289e-01 6.703311204910278320e-02
-7.157810000000000006e-01 -7.157810000000000006e-01 2.496990000000000043e-01 -7.009955048561096191e-01 -7.009526491165161133e-01 1.314176768064498901e-01
-7.071070000000000411e-01 -7.071070000000000411e-01 2.500000000000000000e-01 -6.838235259056091309e-01 -6.837542057037353516e-01 2.546869516372680664e-01
-6.984329999999999705e-01 -6.984329999999999705e-01 2.496990000000000043e-01 -6.448717117309570312e-01 -6.448884010314941406e-01 4.101945161819458008e-01
-6.897799999999999487e-01 -6.897790000000000310e-01 2.487959999999999894e-01 -6.382848620414733887e-01 -6.383839249610900879e-01 4.301841259002685547e-01
-6.811679999999999957e-01 -6.811679999999999957e-01 2.472940000000000138e-01 -6.317461133003234863e-01 -6.318151950836181641e-01 4.491173624992370605e-01
-9.512270000000000447e-01 0.000000000000000000e+00 2.451959999999999973e-01 -9.636009335517883301e-01 3.754241697606630623e-05 2.673447430133819580e-01
-6.726199999999999957e-01 -6.726189999999999669e-01 2.451959999999999973e-01 -6.356568336486816406e-01 -6.356870532035827637e-01 4.379981160163879395e-01
-6.641540000000000221e-01 -6.641529999999999934e-01 2.425080000000000013e-01 -6.268410682678222656e-01 -6.269196867942810059e-01 4.626466929912567139e-01
-9.274289999999999479e-01 0.000000000000000000e+00 2.392350000000000032e-01 -9.376108050346374512e-01 -1.516116084530949593e-03 3.476832509040832520e-01
-6.557910000000000128e-01 -6.557910000000000128e-01 2.392350000000000032e-01 -6.216644048690795898e-01 -6.216979622840881348e-01 4.764715433120727539e-01
-6.394570000000000531e-01 -6.394570000000000531e-01 2.309700000000000086e-01 -6.004887223243713379e-01 -6.005222201347351074e-01 5.280021429061889648e-01
-9.043290000000000495e-01 0.000000000000000000e+00 2.309700000000000086e-01 -9.037018418312072754e-01 -3.984020440839231014e-04 4.281621277332305908e-01
-6.237749999999999684e-01 -6.237749999999999684e-01 2.204800000000000093e-01 -5.659782886505126953e-01 -5.660346150398254395e-01 5.993942618370056152e-01
-6.162260000000000515e-01 -6.162250000000000227e-01 2.144320000000000115e-01 -5.482922196388244629e-01 -5.483507513999938965e-01 6.314166784286499023e-01
-8.611069999999999558e-01 0.000000000000000000e+00 2.078669999999999962e-01 -8.075399398803710938e-01 -7.295400137081742287e-04 5.898123979568481445e-01
-6.088949999999999640e-01 -6.088949999999999640e-01 2.078669999999999962e-01 -5.320307016372680664e-01 -5.320815443992614746e-01 6.586596369743347168e-01
-6.018010000000000304e-01 -6.018010000000000304e-01 2.008020000000000083e-01 -5.094923973083496094e-01 -5.095257759094238281e-01 6.933980584144592285e-01
-5.883909999999999973e-01 -5.883909999999999973e-01 1.852380000000000138e-01 -4.607284963130950928e-01 -4.608158171176910400e-01 7.585366964340209961e-01
-8.232230000000000381e-01 0.000000000000000000e+00 1.767769999999999897e-01 -6.790655851364135742e-01 -4.760025476571172476e-04 7.340773940086364746e-01
-5.821070000000000411e-01 -5.821070000000000411e-01 1.767769999999999897e-01 -4.372212588787078857e-01 -4.373184442520141602e-01 7.858690023422241211e-01
-5.761239999999999695e-01 -5.761239999999999695e-01 1.678900000000000114e-01 -4.068374037742614746e-01 -4.069423079490661621e-01 8.178515434265136719e-01
-8.067469999999999919e-01 0.000000000000000000e+00 1.585979999999999890e-01 -6.036656498908996582e-01 -4.240175476297736168e-04 7.972374558448791504e-01
-5.704569999999999919e-01 -5.704559999999999631e-01 1.585979999999999890e-01 -3.803302347660064697e-01 -3.804109394550323486e-01 8.429925441741943359e-01
-5.651190000000000380e-01 -5.651180000000000092e-01 1.489250000000000018e-01 -3.482590019702911377e-01 -3.483793139457702637e-01 8.702571988105773926e-01
-5.601220000000000088e-01 -5.601220000000000088e-01 1.388929999999999887e-01 -3.151400685310363770e-01 -3.152570128440856934e-01 8.951534628868103027e-01
-5.554799999999999738e-01 -5.554799999999999738e-01 1.285260000000000014e-01 -2.805024087429046631e-01 -2.806208729743957520e-01 9.179162979125976562e-01
-5.512040000000000273e-01 -5.512029999999999985e-01 1.178489999999999954e-01 -2.400832623243331909e-01 -2.402123659849166870e-01 9.405626058578491211e-01
-7.740029999999999966e-01 0.000000000000000000e+00 1.068889999999999979e-01 -3.834770619869232178e-01 1.277907518669962883e-03 9.235495328903198242e-01
-5.437870000000000203e-01 -5.437859999999999916e-01 9.567100000000000604e-02 -1.460200846195220947e-01 -1.461469382047653198e-01 9.784269332885742188e-01
-5.406640000000000335e-01 -5.406640000000000335e-01 8.422200000000000519e-02 -1.009812653064727783e-01 -1.010692045092582703e-01 9.897412657737731934e-01
-5.379420000000000313e-01 -5.379420000000000313e-01 7.257099999999999662e-02 -2.919593639671802521e-02 -2.932373620569705963e-02 9.991434812545776367e-01
-5.356279999999999930e-01 -5.356279999999999930e-01 6.074500000000000038e-02 3.450517356395721436e-02 3.456369414925575256e-02 9.988066554069519043e-01
-5.337269999999999515e-01 -5.337269999999999515e-01 4.877299999999999691e-02 1.909332424402236938e-01 1.919933706521987915e-01 9.626438021659851074e-01
-5.322440000000000504e-01 -5.322430000000000216e-01 3.668300000000000033e-02 2.953788936138153076e-01 2.981174886226654053e-01 9.076768755912780762e-01
-5.311810000000000143e-01 -5.311810000000000143e-01 2.450400000000000147e-02 3.192532956600189209e-01 3.192127645015716553e-01 8.922895193099975586e-01
-5.305429999999999868e-01 -5.305429999999999868e-01 1.226700000000000013e-02 3.795801401138305664e-01 3.743133544921875000e-01 8.460546731948852539e-01
-5.303299999999999681e-01 -5.303299999999999681e-01 0.000000000000000000e+00 6.172395944595336914e-01 6.017364859580993652e-01 5.068811178207397461e-01
-7.503009999999999957e-01 0.000000000000000000e+00 -1.226700000000000013e-02 5.399374365806579590e-01 -1.199099943041801453e-01 8.331201076507568359e-01
-5.305429999999999868e-01 -5.305429999999999868e-01 -1.226700000000000013e-02 6.414839029312133789e-01 6.330419778823852539e-01 4.333085715770721436e-01
-5.311810000000000143e-01 -5.311810000000000143e-01 -2.450400000000000147e-02 5.156928896903991699e-01 5.143923759460449219e-01 6.851724982261657715e-01
-5.322440000000000504e-01 -5.322430000000000216e-01 -3.668300000000000033e-02 3.512578308582305908e-01 3.513925373554229736e-01 8.678370714187622070e-01
-7.548040000000000305e-01 0.000000000000000000e+00 -4.877299999999999691e-02 3.354658186435699463e-01 8.089532144367694855e-03 9.420176148414611816e-01
-5.337269999999999515e-01 -5.337269999999999515e-01 -4.877299999999999691e-02 3.260461986064910889e-01 3.257479965686798096e-01 8.874582052230834961e-01
-5.379420000000000313e-01 -5.379420000000000313e-01 -7.257099999999999662e-02 3.371483087539672852e-01 3.366374373435974121e-01 8.792077898979187012e-01
-5.406640000000000335e-01 -5.406640000000000335e-01 -8.422200000000000519e-02 3.403048515319824219e-01 3.399226665496826172e-01 8.767241239547729492e-01
-5.437870000000000203e-01 -5.437859999999999916e-01 -9.567100000000000604e-02 3.607504665851593018e-01 3.604337871074676514e-01 8.602014780044555664e-01
-5.473029999999999839e-01 -5.473019999999999552e-01 -1.068889999999999979e-01 3.788072168827056885e-01 3.785822391510009766e-01 8.445002436637878418e-01
-5.512040000000000273e-01 -5.512029999999999985e-01 -1.178489999999999954e-01 4.040928184986114502e-01 4.039268791675567627e-01 8.207021951675415039e-01
-7.855680000000000440e-01 0.000000000000000000e+00 -1.285260000000000014e-01 5.644301176071166992e-01 -8.599067805334925652e-04 8.254803419113159180e-01
-5.554799999999999738e-01 -5.554799999999999738e-01 -1.285260000000000014e-01 4.270368814468383789e-01 4.268885552883148193e-01 7.971234321594238281e-01
-5.651190000000000380e-01 -5.651180000000000092e-01 -1.489250000000000018e-01 4.786567986011505127e-01 4.785300791263580322e-01 7.361363172531127930e-01
-5.704569999999999919e-01 -5.704559999999999631e-01 -1.585979999999999890e-01 5.038377642631530762e-01 5.037318468093872070e-01 7.017133831977844238e-01
-5.761239999999999695e-01 -5.761239999999999695e-01 -1.678900000000000114e-01 5.284014344215393066e-01 5.283313393592834473e-01 6.645734310150146484e-01
-8.232230000000000381e-01 0.000000000000000000e+00 -1.767769999999999897e-01 7.472543120384216309e-01 -1.629759906791150570e-03 6.645362377166748047e-01
-5.821070000000000411e-01 -5.821070000000000411e-01 -1.767769999999999897e-01 5.527637004852294922e-01 5.527110099792480469e-01 6.236687898635864258e-01
-5.883909999999999973e-01 -5.883909999999999973e-01 -1.852380000000000138e-01 5.755213499069213867e-01 5.754785537719726562e-01 5.810332298278808594e-01
-5.949609999999999621e-01 -5.949609999999999621e-01 -1.932530000000000081e-01 5.986718535423278809e-01 5.985938906669616699e-01 5.322380065917968750e-01
-6.018010000000000304e-01 -6.018010000000000304e-01 -2.008020000000000083e-01 6.214795708656311035e-01 6.213927865028381348e-01 4.771102368831634521e-01
-8.611069999999999558e-01 0.000000000000000000e+00 -2.078669999999999962e-01 8.647367358207702637e-01 -7.535067270509898663e-04 5.022248625755310059e-01
-6.088949999999999640e-01 -6.088949999999999640e-01 -2.078669999999999962e-01 6.401663422584533691e-01 6.401073336601257324e-01 4.247937202453613281e-01
-6.162260000000000515e-01 -6.162250000000000227e-01 -2.144320000000000115e-01 6.594520211219787598e-01 6.593113541603088379e-01 3.611531257629394531e-01
-8.821510000000000185e-01 0.000000000000000000e+00 -2.204800000000000093e-01 9.118174314498901367e-01 -8.237637812271714211e-04 4.105949401855468750e-01
-6.237749999999999684e-01 -6.237749999999999684e-01 -2.204800000000000093e-01 6.772655844688415527e-01 6.772313714027404785e-01 2.875223457813262939e-01
-6.315250000000000030e-01 -6.315250000000000030e-01 -2.259970000000000034e-01 6.915408372879028320e-01 6.915115714073181152e-01 2.087652981281280518e-01
-6.394570000000000531e-01 -6.394570000000000531e-01 -2.309700000000000086e-01 7.035757899284362793e-01 7.035359144210815430e-01 1.000916436314582825e-01
-6.475530000000000452e-01 -6.475520000000000165e-01 -2.353860000000000119e-01 7.071268558502197266e-01 7.070756554603576660e-01 -3.942053765058517456e-03
-6.557910000000000128e-01 -6.557910000000000128e-01 -2.392350000000000032e-01 7.003991603851318359e-01 7.003577947616577148e-01 -1.376223117113113403e-01
-6.641540000000000221e-01 -6.641529999999999934e-01 -2.425080000000000013e-01 6.701350808143615723e-01 6.701528429985046387e-01 -3.190831840038299561e-01
-6.726199999999999957e-01 -6.726189999999999669e-01 -2.451959999999999973e-01 6.206186413764953613e-01 6.206674575805664062e-01 -4.791704416275024414e-01
-9.633169999999999789e-01 0.000000000000000000e+00 -2.472940000000000138e-01 9.999227523803710938e-01 -1.391481142491102219e-03 1.235096063464879990e-02
-6.811679999999999957e-01 -6.811679999999999957e-01 -2.472940000000000138e-01 5.293152332305908203e-01 5.293984413146972656e-01 -6.629951596260070801e-01
-6.897799999999999487e-01 -6.897790000000000310e-01 -2.487959999999999894e-01 4.173533618450164795e-01 4.172820150852203369e-01 -8.072743415832519531e-01
-6.984329999999999705e-01 -6.984329999999999705e-01 -2.496990000000000043e-01 2.953120768070220947e-01 2.949431240558624268e-01 -9.087350368499755859e-01
-7.071070000000000411e-01 -7.071070000000000411e-01 -2.500000000000000000e-01 -1.093209534883499146e-01 -1.096238642930984497e-01 -9.879430532455444336e-01
-7.157810000000000006e-01 -7.157810000000000006e-01 -2.496990000000000043e-01 -4.528810381889343262e-01 -4.528943300247192383e-01 -7.679748535156250000e-01
-7.244340000000000224e-01 -7.244340000000000224e-01 -2.487959999999999894e-01 -5.402596592903137207e-01 -5.401620268821716309e-01 -6.452476382255554199e-01
-7.330449999999999466e-01 -7.330449999999999466e-01 -2.472940000000000138e-01 -6.550872325897216797e-01 -6.550692915916442871e-01 -3.764902055263519287e-01
-7.415939999999999754e-01 -7.415939999999999754e-01 -2.451959999999999973e-01 -6.901172399520874023e-01 -6.901413202285766602e-01 -2.178147733211517334e-01
-7.500599999999999490e-01 -7.500599999999999490e-01 -2.425080000000000013e-01 -7.053737640380859375e-01 -7.053987383842468262e-01 -6.971764564514160156e-02
-7.584220000000000406e-01 -7.584220000000000406e-01 -2.392350000000000032e-01 -7.061496973037719727e-01 -7.061555981636047363e-01 5.193141475319862366e-02
-7.666610000000000369e-01 -7.666610000000000369e-01 -2.353860000000000119e-01 -7.001456022262573242e-01 -7.001404166221618652e-01 1.399985551834106445e-01
-7.826889999999999681e-01 -7.826880000000000503e-01 -2.259970000000000034e-01 -6.767527461051940918e-01 -6.767541766166687012e-01 2.898439764976501465e-01
-7.904390000000000027e-01 -7.904390000000000027e-01 -2.204800000000000093e-01 -6.589450836181640625e-01 -6.589354276657104492e-01 3.627609312534332275e-01
-7.979880000000000306e-01 -7.979880000000000306e-01 -2.144320000000000115e-01 -6.444272994995117188e-01 -6.444261670112609863e-01 4.116168618202209473e-01
-8.124130000000000518e-01 -8.124120000000000230e-01 -2.008020000000000083e-01 -6.085548996925354004e-01 -6.085736751556396484e-01 5.092142224311828613e-01
-8.258229999999999738e-01 -8.258229999999999738e-01 -1.852380000000000138e-01 -5.672284960746765137e-01 -5.672391653060913086e-01 5.970692038536071777e-01
-8.321070000000000411e-01 -8.321070000000000411e-01 -1.767769999999999897e-01 -5.442215800285339355e-01 -5.442532300949096680e-01 6.384443640708923340e-01
-8.380900000000000016e-01 -8.380889999999999729e-01 -1.678900000000000114e-01 -5.245589017868041992e-01 -5.245831012725830078e-01 6.705598235130310059e-01
-8.437569999999999792e-01 -8.437569999999999792e-01 -1.585979999999999890e-01 -5.014155507087707520e-01 -5.014266967773437500e-01 7.050912976264953613e-01
-8.490950000000000442e-01 -8.490950000000000442e-01 -1.489250000000000018e-01 -4.795041978359222412e-01 -4.795356094837188721e-01 7.349293828010559082e-01
-8.540910000000000446e-01 -8.540910000000000446e-01 -1.388929999999999887e-01 -4.564063847064971924e-01 -4.564212560653686523e-01 7.637884616851806641e-01
-8.587329999999999686e-01 -8.587329999999999686e-01 -1.285260000000000014e-01 -4.339109063148498535e-01 -4.339202046394348145e-01 7.895786762237548828e-01
-8.630100000000000549e-01 -8.630100000000000549e-01 -1.178489999999999954e-01 -4.146092236042022705e-01 -4.146223366260528564e-01 8.100540041923522949e-01
-8.669109999999999872e-01 -8.669109999999999872e-01 -1.068889999999999979e-01 -3.964205086231231689e-01 -3.964290916919708252e-01 8.280668854713439941e-01
-8.704269999999999508e-01 -8.704269999999999508e-01 -9.567100000000000604e-02 -3.878185451030731201e-01 -3.878034651279449463e-01 8.361849784851074219e-01
-1.235386000000000095e+00 0.000000000000000000e+00 -8.422200000000000519e-02 2.933287322521209717e-01 -1.249472843483090401e-03 -9.560108780860900879e-01
-8.762720000000000509e-01 -8.762710000000000221e-01 -7.257099999999999662e-02 -3.854445815086364746e-01 -3.854441046714782715e-01 8.383706808090209961e-01
-8.785859999999999781e-01 -8.785849999999999493e-01 -6.074500000000000038e-02 -3.938127458095550537e-01 -3.938065767288208008e-01 8.305587768554687500e-01
-8.804870000000000196e-01 -8.804870000000000196e-01 -4.877299999999999691e-02 -4.381661117076873779e-01 -4.381622970104217529e-01 7.848721146583557129e-01
-8.830329999999999568e-01 -8.830320000000000391e-01 -2.450400000000000147e-02 -6.116802096366882324e-01 -6.116721034049987793e-01 5.017016530036926270e-01
-1.249698999999999893e+00 0.000000000000000000e+00 -1.226700000000000013e-02 -5.191547796130180359e-02 6.158930715173482895e-03 -9.986324906349182129e-01
-8.836709999999999843e-01 -8.836699999999999555e-01 -1.226700000000000013e-02 -6.537359952926635742e-01 -6.535715460777282715e-01 3.814099431037902832e-01
0.000000000000000000e+00 -1.250000000000000000e+00 0.000000000000000000e+00 1.362870447337627411e-02 -1.338012367486953735e-01 -9.909144639968872070e-01
-8.836709999999999843e-01 -8.836699999999999555e-01 1.226700000000000013e-02 -6.082587838172912598e-01 -6.081086397171020508e-01 -5.101226568222045898e-01
0.000000000000000000e+00 -1.249698999999999893e+00 1.226700000000000013e-02 1.076881773769855499e-02 -2.232178151607513428e-01 -9.747090339660644531e-01
0.000000000000000000e+00 -1.248796000000000017e+00 2.450400000000000147e-02 1.558034331537783146e-03 -2.798275649547576904e-01 -9.600489735603332520e-01
-8.819700000000000317e-01 -8.819700000000000317e-01 3.668300000000000033e-02 -4.289245903491973877e-01 -4.289494454860687256e-01 -7.950007319450378418e-01
0.000000000000000000e+00 -1.247293999999999903e+00 3.668300000000000033e-02 -1.904956414364278316e-03 -3.079436123371124268e-01 -9.514027237892150879e-01
0.000000000000000000e+00 -1.245195999999999970e+00 4.877299999999999691e-02 -1.641973387449979782e-03 -3.526801168918609619e-01 -9.357424974441528320e-01
-8.785859999999999781e-01 -8.785849999999999493e-01 6.074500000000000038e-02 -3.560325503349304199e-01 -3.560276031494140625e-01 -8.639937043190002441e-01
0.000000000000000000e+00 -1.242507999999999946e+00 6.074500000000000038e-02 -1.701480243355035782e-03 -3.836716115474700928e-01 -9.234679937362670898e-01
0.000000000000000000e+00 -1.239235000000000086e+00 7.257099999999999662e-02 -2.902471693232655525e-03 -4.215596914291381836e-01 -9.067960381507873535e-01
0.000000000000000000e+00 -1.235386000000000095e+00 8.422200000000000519e-02 -2.060819650068879128e-03 -4.508060216903686523e-01 -8.926196098327636719e-01
0.000000000000000000e+00 -1.230969999999999898e+00 9.567100000000000604e-02 8.293827995657920837e-03 -4.923884272575378418e-01 -8.703360557556152344e-01
0.000000000000000000e+00 -1.225997000000000003e+00 1.068889999999999979e-01 4.664270207285881042e-03 -5.306916832923889160e-01 -8.475521206855773926e-01
0.000000000000000000e+00 -1.214431999999999956e+00 1.285260000000000014e-01 -1.984941336559131742e-04 -6.085762977600097656e-01 -7.934953570365905762e-01
-8.587329999999999686e-01 -8.587329999999999686e-01 1.285260000000000014e-01 -4.208588600158691406e-01 -4.208674132823944092e-01 -8.035846948623657227e-01
0.000000000000000000e+00 -1.207867000000000024e+00 1.388929999999999887e-01 -4.983940161764621735e-04 -6.458140611648559570e-01 -7.634946107864379883e-01
0.000000000000000000e+00 -1.200801999999999925e+00 1.489250000000000018e-01 -6.832367507740855217e-04 -6.806553006172180176e-01 -7.326034903526306152e-01
0.000000000000000000e+00 -1.185238000000000014e+00 1.678900000000000114e-01 -1.484026666730642319e-03 -7.506257295608520508e-01 -6.607259511947631836e-01
-8.321070000000000411e-01 -8.321070000000000411e-01 1.767769999999999897e-01 -5.334667563438415527e-01 -5.334964990615844727e-01 -6.563495993614196777e-01
0.000000000000000000e+00 -1.176776999999999962e+00 1.767769999999999897e-01 -1.599323935806751251e-03 -7.816597819328308105e-01 -6.237029433250427246e-01
0.000000000000000000e+00 -1.158598000000000017e+00 1.932530000000000081e-01 -9.781706612557172775e-04 -8.397382497787475586e-01 -5.429905056953430176e-01
