-8.138950000000000351e-01 6.158000000000000279e-02 1.688119999999999898e-01 7.382294535636901855e-01 -4.015765339136123657e-02 6.733532547950744629e-01
-7.701609999999999845e-01 -5.178310000000000413e-01 2.390359999999999985e-01 2.537747919559478760e-01 1.504392176866531372e-01 9.554927349090576172e-01
6.282879999999999576e-01 -1.054788000000000059e+00 -1.021650000000000058e-01 4.632624089717864990e-01 -7.841485142707824707e-01 -4.129152894020080566e-01
-2.131049999999999889e-01 -1.183041999999999927e+00 -1.464830000000000021e-01 -1.748323291540145874e-01 -7.974258661270141602e-01 -5.775340795516967773e-01
-7.440069999999999739e-01 9.792210000000000081e-01 9.784600000000000242e-02 -5.575772523880004883e-01 7.455570101737976074e-01 3.650374114513397217e-01
1.333650000000000113e-01 -7.989180000000000170e-01 -1.617210000000000036e-01 -1.659192293882369995e-01 7.467958331108093262e-01 -6.440238952636718750e-01
7.146430000000000282e-01 -9.265330000000000510e-01 1.825610000000000011e-01 4.038407504558563232e-01 -5.467168092727661133e-01 7.334939837455749512e-01
9.690899999999999515e-02 1.244806000000000079e+00 -2.099099999999999924e-02 7.174129784107208252e-02 9.945513606071472168e-01 -7.563591003417968750e-02
6.801400000000000501e-02 7.572449999999999459e-01 -7.008699999999999652e-02 -8.969832211732864380e-02 -9.544354081153869629e-01 -2.846176922321319580e-01
-3.563810000000000033e-01 8.942809999999999926e-01 -2.469419999999999948e-01 3.618974983692169189e-02 -1.333442628383636475e-01 -9.904087781906127930e-01
-6.895409999999999595e-01 -3.963030000000000164e-01 -1.427559999999999940e-01 7.053955197334289551e-01 4.074645340442657471e-01 -5.799912214279174805e-01
7.015700000000000269e-01 3.764560000000000128e-01 -1.440249999999999864e-01 -7.292143702507019043e-01 -3.681470453739166260e-01 -5.768138766288757324e-01
-3.504550000000000165e-01 1.177772999999999959e+00 9.992800000000000293e-02 -2.768196463584899902e-01 8.790769577026367188e-01 3.880653679370880127e-01
-1.203879999999999950e-01 9.787719999999999754e-01 2.490920000000000079e-01 -1.061835419386625290e-02 -4.620242491364479065e-02 9.988756179809570312e-01
7.864060000000000494e-01 7.271149999999999558e-01 -2.393039999999999889e-01 1.972390860319137573e-01 1.863938271999359131e-01 -9.624729156494140625e-01
-8.102890000000000370e-01 -7.749899999999999844e-02 -1.662730000000000041e-01 7.623340487480163574e-01 6.240357086062431335e-02 -6.441680788993835449e-01
-1.665389999999999926e-01 1.066330999999999918e+00 2.365180000000000060e-01 -4.366781935095787048e-02 3.039946556091308594e-01 9.516724348068237305e-01
-3.420980000000000132e-01 7.600099999999999634e-01 1.857880000000000087e-01 2.867514193058013916e-01 -6.077319979667663574e-01 7.405642271041870117e-01
8.480100000000000415e-01 -8.305190000000000072e-01 1.650610000000000133e-01 5.401601195335388184e-01 -5.309824943542480469e-01 6.529048085212707520e-01
8.348099999999999965e-02 7.753630000000000244e-01 -1.177109999999999962e-01 -1.006480231881141663e-01 -8.856970667839050293e-01 -4.532226622104644775e-01
7.448550000000000448e-01 9.825299999999999312e-02 2.072699999999999890e-02 -9.898540377616882324e-01 -1.183314025402069092e-01 7.865613698959350586e-02
4.091330000000000244e-01 1.088575000000000070e+00 -1.888579999999999981e-01 2.359741181135177612e-01 6.162225008010864258e-01 -7.513894438743591309e-01
-4.627580000000000027e-01 -1.108281999999999989e+00 1.481310000000000127e-01 -2.998361587524414062e-01 -7.533943653106689453e-01 5.852308869361877441e-01
7.813949999999999507e-01 4.332940000000000125e-01 2.256549999999999945e-01 -3.716017007827758789e-01 -2.178932726383209229e-01 9.024603366851806641e-01
-5.828999999999999737e-01 -1.070522999999999891e+00 1.199240000000000028e-01 -4.073744416236877441e-01 -7.780907154083251953e-01 4.781431257724761963e-01
1.159999999999999920e-02 -1.214261000000000035e+00 -1.281480000000000119e-01 -9.617105126380920410e-03 -8.617638945579528809e-01 -5.072183609008789062e-01
1.115580000000000044e-01 -8.630069999999999686e-01 -2.133230000000000126e-01 -8.870653063058853149e-02 5.022379159927368164e-01 -8.601675629615783691e-01
1.012288999999999994e+00 7.196500000000000119e-01 6.169399999999999884e-02 7.914352416992187500e-01 5.589606165885925293e-01 2.473727166652679443e-01
-9.775340000000000140e-01 -1.373369999999999869e-01 2.491609999999999936e-01 4.891301319003105164e-02 4.773212131112813950e-03 9.987916350364685059e-01
1.068888999999999978e+00 -6.392179999999999529e-01 -4.472700000000000287e-02 8.405719995498657227e-01 -5.108153820037841797e-01 -1.802952736616134644e-01
-6.879979999999999984e-01 -3.184259999999999868e-01 -6.292399999999999383e-02 8.707224130630493164e-01 4.173696041107177734e-01 -2.600865066051483154e-01
-4.671759999999999802e-01 7.281410000000000382e-01 2.099409999999999887e-01 2.914567589759826660e-01 -4.727559983730316162e-01 8.315976858139038086e-01
-6.298629999999999507e-01 4.137580000000000147e-01 4.025700000000000112e-02 8.293079733848571777e-01 -5.382179617881774902e-01 1.502318680286407471e-01
-1.022367999999999943e+00 3.371520000000000072e-01 -2.374660000000000104e-01 -2.893405854701995850e-01 9.212840348482131958e-02 -9.527824521064758301e-01
7.968439999999999968e-01 5.893659999999999455e-01 -2.494190000000000018e-01 -2.341659553349018097e-02 -2.335384115576744080e-02 -9.994530081748962402e-01
5.813719999999999999e-01 9.918489999999999807e-01 -1.999620000000000009e-01 3.054471015930175781e-01 5.263640284538269043e-01 -7.935004830360412598e-01
-2.825050000000000061e-01 1.209918999999999967e+00 -5.934400000000000092e-02 -2.349604070186614990e-01 9.442560076713562012e-01 -2.305951714515686035e-01
4.504219999999999891e-01 -1.103966000000000003e+00 1.589859999999999884e-01 3.075278699398040771e-01 -7.089406847953796387e-01 6.346886754035949707e-01
-3.642750000000000155e-01 -6.573780000000000179e-01 -2.460700000000000040e-02 4.841898679733276367e-01 8.679962158203125000e-01 -1.101939007639884949e-01
-7.000110000000000499e-01 -4.717299999999999827e-01 -1.951350000000000029e-01 5.289549231529235840e-01 3.424853086471557617e-01 -7.764731049537658691e-01
-4.586459999999999981e-01 6.146249999999999769e-01 -8.943600000000000161e-02 5.483543872833251953e-01 -7.545774579048156738e-01 -3.604447245597839355e-01
5.140970000000000262e-01 -6.960180000000000256e-01 2.100349999999999995e-01 -3.198754191398620605e-01 4.283321797847747803e-01 8.451102375984191895e-01
3.935540000000000149e-01 -1.049620999999999915e+00 -2.184510000000000063e-01 1.793114095926284790e-01 -4.504747986793518066e-01 -8.745969533920288086e-01
-3.316700000000000204e-02 9.785490000000000022e-01 -2.486349999999999949e-01 4.390874877572059631e-02 -6.397297978401184082e-02 -9.969851970672607422e-01
-6.718960000000000488e-01 8.304679999999999840e-01 -2.402620000000000033e-01 -1.534997969865798950e-01 2.314492613077163696e-01 -9.606607556343078613e-01
-5.878130000000000299e-01 4.739689999999999737e-01 -4.776099999999999790e-02 7.702928185462951660e-01 -6.051165461540222168e-01 -2.012036889791488647e-01
-4.513900000000000134e-01 -6.007989999999999720e-01 -2.313600000000000032e-02 5.996475815773010254e-01 7.925246357917785645e-01 -1.110290661454200745e-01
-8.253869999999999818e-01 -8.933429999999999982e-01 1.252159999999999940e-01 -5.826457738876342773e-01 -6.279461979866027832e-01 5.159529447555541992e-01
1.427999999999999929e-02 1.132282999999999928e+00 2.115229999999999888e-01 6.007559131830930710e-03 5.122275948524475098e-01 8.588287234306335449e-01
-3.863400000000000167e-01 -8.072209999999999663e-01 -2.263449999999999906e-01 1.785635501146316528e-01 3.769128620624542236e-01 -9.088739156723022461e-01
-9.457710000000000283e-01 3.645639999999999992e-01 -2.491079999999999961e-01 -5.607486516237258911e-02 3.826857544481754303e-03 -9.984191656112670898e-01
-2.823700000000000099e-01 1.152728999999999893e+00 1.652679999999999982e-01 -1.860549002885818481e-01 7.260483503341674805e-01 6.619949340820312500e-01
9.397370000000000445e-01 4.061830000000000163e-01 -2.484379999999999922e-01 9.270989894866943359e-02 2.458835951983928680e-02 -9.953895211219787598e-01
-5.654850000000000154e-01 7.783689999999999776e-01 -2.468269999999999909e-01 8.411734551191329956e-02 -1.025032326579093933e-01 -9.911696910858154297e-01
5.003189999999999582e-01 7.832900000000000418e-01 2.395069999999999977e-01 -1.631016433238983154e-01 -2.298195511102676392e-01 9.594690203666687012e-01
-1.058970000000000050e-01 -8.141519999999999868e-01 -1.743089999999999917e-01 9.459036588668823242e-02 7.066992521286010742e-01 -7.011625170707702637e-01
1.180311000000000110e+00 4.087879999999999847e-01 -1.239900000000000030e-02 9.441210031509399414e-01 3.248750567436218262e-01 -5.560388416051864624e-02
1.029528999999999916e+00 -8.536499999999999644e-02 2.477610000000000090e-01 1.261756718158721924e-01 -1.492454949766397476e-02 9.918956160545349121e-01
-5.610680000000000112e-01 -1.008982000000000046e+00 1.962569999999999870e-01 -2.993685603141784668e-01 -5.332341194152832031e-01 7.912268638610839844e-01
-9.912980000000000125e-01 1.712730000000000086e-01 2.496069999999999955e-01 -2.280867099761962891e-02 -2.198246773332357407e-03 9.997375011444091797e-01
6.293919999999999515e-01 6.840589999999999726e-01 2.395529999999999882e-01 -1.993281543254852295e-01 -2.116666287183761597e-01 9.567996263504028320e-01
-3.592279999999999918e-01 -9.761279999999999957e-01 2.463549999999999907e-01 -3.256287053227424622e-02 -1.678677201271057129e-01 9.852715730667114258e-01
9.137110000000000509e-01 8.113690000000000069e-01 -1.137600000000000000e-01 6.648836731910705566e-01 5.921596884727478027e-01 -4.552764296531677246e-01
-2.297269999999999868e-01 -1.227751999999999954e+00 -1.292199999999999946e-02 -1.832150518894195557e-01 -9.815725088119506836e-01 -5.429327487945556641e-02
-1.264460000000000028e-01 -1.219151000000000096e+00 -1.062499999999999972e-01 -7.136677950620651245e-02 -9.044647216796875000e-01 -4.205358326435089111e-01
-9.634059999999999846e-01 7.921949999999999825e-01 -3.544800000000000034e-02 -7.509483098983764648e-01 6.436780691146850586e-01 -1.474961489439010620e-01
-8.903799999999999493e-01 6.139710000000000445e-01 2.357390000000000041e-01 -2.864410281181335449e-01 1.893741786479949951e-01 9.391959309577941895e-01
-1.634339999999999959e-01 1.219322999999999935e+00 -9.699299999999999589e-02 -1.165143996477127075e-01 9.176194667816162109e-01 -3.799985945224761963e-01
-3.675709999999999811e-01 -6.915350000000000108e-01 1.243520000000000042e-01 4.202039241790771484e-01 7.484189271926879883e-01 5.131255388259887695e-01
-1.474580000000000057e-01 -1.080311999999999939e+00 2.327549999999999897e-01 -3.919392079114913940e-02 -3.644182384014129639e-01 9.304102063179016113e-01
3.514000000000000196e-03 -1.100869000000000097e+00 -2.283850000000000047e-01 -1.397062558680772781e-03 -4.067306816577911377e-01 -9.135470390319824219e-01
-9.648360000000000269e-01 7.756000000000000394e-02 -2.479030000000000122e-01 1.178962215781211853e-01 -1.818813383579254150e-02 -9.928593039512634277e-01
1.047949000000000019e+00 -8.764800000000000368e-02 -2.440710000000000102e-01 2.198191732168197632e-01 1.880949735641479492e-02 -9.753592610359191895e-01
1.011492000000000058e+00 -2.195340000000000069e-01 2.473690000000000055e-01 1.419583410024642944e-01 -4.364924877882003784e-02 9.889097809791564941e-01
-4.486970000000000125e-01 -1.166276000000000090e+00 -5.725000000000000054e-03 -3.720801174640655518e-01 -9.277480840682983398e-01 -2.898182161152362823e-02
-1.687819999999999876e-01 -7.637270000000000447e-01 1.223429999999999934e-01 2.002149522304534912e-01 8.535467386245727539e-01 4.810113906860351562e-01
4.793789999999999996e-01 5.852399999999999824e-01 5.465600000000000319e-02 -6.075121164321899414e-01 -7.647615671157836914e-01 2.146364301443099976e-01
7.397200000000000442e-01 9.273449999999999749e-01 1.658910000000000107e-01 4.910129308700561523e-01 5.878102779388427734e-01 6.429505348205566406e-01
7.219579999999999886e-01 -7.518049999999999455e-01 2.459250000000000047e-01 9.619259089231491089e-02 -1.214543357491493225e-01 9.879250526428222656e-01
1.227057000000000064e+00 2.269510000000000138e-01 3.110600000000000170e-02 9.747189879417419434e-01 1.895490437746047974e-01 1.182963177561759949e-01
7.499839999999999840e-01 -9.608489999999999531e-01 1.201529999999999959e-01 5.457605123519897461e-01 -6.887866854667663574e-01 4.771984815597534180e-01
1.211152999999999924e+00 -1.044940000000000035e-01 -1.261410000000000031e-01 8.615893721580505371e-01 -5.349723622202873230e-02 -5.047789216041564941e-01
-2.224480000000000068e-01 -8.612990000000000368e-01 2.237149999999999972e-01 1.037739962339401245e-01 4.352768063545227051e-01 8.942958712577819824e-01
1.224899999999999947e-02 1.247543000000000069e+00 3.347599999999999881e-02 3.009656257927417755e-02 9.901429414749145508e-01 1.367883682250976562e-01
-4.093910000000000049e-01 -1.173002000000000100e+00 5.972700000000000231e-02 -3.265758156776428223e-01 -9.164692163467407227e-01 2.311545163393020630e-01
1.127409000000000106e+00 4.889479999999999937e-01 -9.976500000000000645e-02 8.397560119628906250e-01 3.716109097003936768e-01 -3.958726823329925537e-01
1.148010000000000003e-01 1.100322000000000022e+00 2.257010000000000127e-01 2.865519374608993530e-02 4.264989197254180908e-01 9.040340185165405273e-01
-1.542850000000000055e-01 -9.385750000000000481e-01 2.446530000000000094e-01 4.491876810789108276e-02 2.001461982727050781e-01 9.787358045578002930e-01
-9.746590000000000531e-01 -7.674199999999999910e-01 6.737400000000000333e-02 -7.589089870452880859e-01 -5.949582457542419434e-01 2.647299766540527344e-01
-2.326110000000000122e-01 1.222979000000000038e+00 -4.707599999999999979e-02 -1.881347000598907471e-01 9.634513258934020996e-01 -1.907012164592742920e-01
-2.558869999999999756e-01 1.052775999999999934e+00 -2.351030000000000064e-01 -8.553461730480194092e-02 3.198051452636718750e-01 -9.436146616935729980e-01
-1.139883999999999897e+00 6.036099999999999799e-02 2.054640000000000077e-01 -5.524064302444458008e-01 3.118033707141876221e-02 8.329915404319763184e-01
8.847169999999999757e-01 -7.158809999999999896e-01 2.077249999999999930e-01 4.383389055728912354e-01 -3.443031013011932373e-01 8.302495479583740234e-01
-3.584109999999999796e-01 1.037274999999999947e+00 -2.300520000000000065e-01 -1.319965869188308716e-01 3.777480721473693848e-01 -9.164514541625976562e-01
1.108259000000000105e+00 3.821280000000000232e-01 1.806359999999999910e-01 6.410319805145263672e-01 2.223338931798934937e-01 7.346057891845703125e-01
-6.007169999999999455e-01 9.156889999999999752e-01 -2.311219999999999941e-01 -2.368626445531845093e-01 3.222592771053314209e-01 -9.165397286415100098e-01
7.692539999999999933e-01 8.820350000000000135e-01 -1.823529999999999873e-01 4.359779953956604004e-01 5.116930603981018066e-01 -7.403332591056823730e-01
-8.688669999999999449e-01 -7.411919999999999620e-01 -2.050690000000000013e-01 -4.439041912555694580e-01 -3.975294530391693115e-01 -8.030688166618347168e-01
-2.420029999999999959e-01 7.299480000000000413e-01 9.566399999999999904e-02 3.010774850845336914e-01 -8.810034990310668945e-01 3.649455904960632324e-01
6.156420000000000226e-01 6.282499999999999751e-01 -2.188110000000000055e-01 -3.300724625587463379e-01 -3.538054227828979492e-01 -8.751422166824340820e-01
5.354609999999999648e-01 -1.098729999999999984e+00 -1.131410000000000055e-01 3.601732254028320312e-01 -8.206290006637573242e-01 -4.436702132225036621e-01
3.750450000000000172e-01 -1.186118999999999923e+00 -5.157300000000000079e-02 3.165714740753173828e-01 -9.250407218933105469e-01 -2.099576294422149658e-01
1.161070999999999964e+00 -3.228409999999999891e-01 1.420160000000000033e-01 7.909817695617675781e-01 -2.133253663778305054e-01 5.734458565711975098e-01
1.602260000000000073e-01 1.205602000000000062e+00 1.253249999999999920e-01 1.179123967885971069e-01 8.585312962532043457e-01 4.990196824073791504e-01
3.484519999999999840e-01 -1.067204000000000041e+00 2.176450000000000051e-01 1.722682267427444458e-01 -4.668011069297790527e-01 8.674216866493225098e-01
-2.633260000000000045e-01 -9.580859999999999932e-01 2.495829999999999993e-01 -4.038520157337188721e-03 1.263054460287094116e-02 9.999120235443115234e-01
8.900999999999999190e-03 1.242180999999999980e+00 6.063899999999999846e-02 2.881808951497077942e-02 9.698754549026489258e-01 2.418906092643737793e-01
-5.448450000000000237e-01 5.254539999999999766e-01 5.698999999999999899e-02 6.997372508049011230e-01 -6.816751956939697266e-01 2.137445807456970215e-01
-1.224741999999999997e+00 6.787500000000000477e-02 -1.043459999999999943e-01 -9.070199728012084961e-01 4.750159755349159241e-02 -4.183996915817260742e-01
-1.119253999999999971e+00 8.823400000000000687e-02 -2.175999999999999879e-01 -4.906406700611114502e-01 5.455886200070381165e-02 -8.696523308753967285e-01
4.921699999999999964e-01 9.942860000000000031e-01 2.241519999999999901e-01 1.907234340906143188e-01 3.867465853691101074e-01 9.022480845451354980e-01
6.122549999999999937e-01 -1.082394000000000078e+00 5.422199999999999936e-02 4.621071815490722656e-01 -8.558174967765808105e-01 2.324508279561996460e-01
4.379779999999999784e-01 1.128455999999999904e+00 -1.339920000000000000e-01 3.185893893241882324e-01 7.828583121299743652e-01 -5.344470143318176270e-01
1.067639999999999978e-01 1.230982000000000021e+00 -8.174800000000000122e-02 8.693753927946090698e-02 9.390963912010192871e-01 -3.324753344058990479e-01
1.106098000000000026e+00 5.693999999999999756e-02 2.250910000000000133e-01 4.417131841182708740e-01 3.027769178152084351e-02 8.966452479362487793e-01
1.004450000000000065e-01 -8.275679999999999703e-01 1.859290000000000109e-01 -9.388545900583267212e-02 6.554485559463500977e-01 7.493814826011657715e-01
6.222050000000000081e-01 5.998550000000000271e-01 2.093710000000000016e-01 -3.743759095668792725e-01 -3.767556250095367432e-01 8.472885489463806152e-01
6.566149999999999487e-01 8.079140000000000210e-01 2.461689999999999989e-01 1.102294027805328369e-01 1.247837021946907043e-01 9.860418438911437988e-01
-7.774000000000000354e-02 1.079534999999999911e+00 -2.354910000000000059e-01 -8.977467194199562073e-03 3.548554480075836182e-01 -9.348780512809753418e-01
1.952919999999999934e-01 7.263070000000000359e-01 -3.269500000000000184e-02 -2.731523811817169189e-01 -9.542346000671386719e-01 -1.217539906501770020e-01
8.282570000000000210e-01 -2.260079999999999867e-01 2.055289999999999895e-01 -5.364582538604736328e-01 1.538634449243545532e-01 8.297822475433349609e-01
3.692980000000000151e-01 6.533930000000000016e-01 8.297999999999999821e-03 -4.964652955532073975e-01 -8.669506311416625977e-01 4.380401596426963806e-02
-9.171099999999999808e-01 -8.210739999999999705e-01 9.550699999999999468e-02 -6.947284340858459473e-01 -6.133115887641906738e-01 3.757675588130950928e-01
-1.187685000000000102e+00 3.557330000000000214e-01 6.947799999999999809e-02 -9.155532121658325195e-01 3.180353343486785889e-01 2.462026029825210571e-01
-1.584440000000000015e-01 1.209651000000000032e+00 -1.177900000000000058e-01 -1.109544858336448669e-01 8.775169849395751953e-01 -4.665330052375793457e-01
9.108789999999999942e-01 6.376150000000000428e-01 2.229649999999999965e-01 3.735978603363037109e-01 2.721733450889587402e-01 8.867617249488830566e-01
2.703929999999999945e-01 1.214067000000000007e+00 -5.285600000000000021e-02 2.173695713281631470e-01 9.517719745635986328e-01 -2.165191769599914551e-01
7.609359999999999458e-01 -1.430329999999999935e-01 -1.063970000000000055e-01 -8.868088722229003906e-01 1.650293469429016113e-01 -4.316658377647399902e-01
-7.331050000000000066e-01 -1.004969999999999919e+00 5.188999999999999863e-02 -5.662989616394042969e-01 -7.956752181053161621e-01 2.149567604064941406e-01
3.165330000000000088e-01 -6.812279999999999447e-01 1.862700000000000120e-02 -4.213366508483886719e-01 9.027502536773681641e-01 8.670245110988616943e-02
8.603269999999999529e-01 8.056569999999999565e-01 1.745359999999999967e-01 5.115695595741271973e-01 4.935983419418334961e-01 7.033187747001647949e-01
1.067576000000000080e+00 -6.200480000000000436e-01 8.477800000000000613e-02 8.085699677467346191e-01 -4.823758900165557861e-01 3.369392454624176025e-01
1.066869000000000067e+00 -4.479389999999999761e-01 1.939919999999999978e-01 5.847530961036682129e-01 -2.245130240917205811e-01 7.795240283012390137e-01
-9.778959999999999875e-01 3.862119999999999997e-01 -2.441139999999999977e-01 -2.098233997821807861e-01 6.283387541770935059e-02 -9.757182002067565918e-01
-4.026660000000000239e-01 -7.510200000000000209e-01 2.012510000000000132e-01 3.169052898883819580e-01 5.173670649528503418e-01 7.949229478836059570e-01
5.973110000000000364e-01 9.548579999999999846e-01 -2.156039999999999901e-01 2.722903490066528320e-01 4.361621439456939697e-01 -8.576833009719848633e-01
1.002758999999999956e+00 1.193319999999999936e-01 -2.493529999999999913e-01 3.517699241638183594e-02 1.837348192930221558e-02 -9.992122054100036621e-01
6.259719999999999729e-01 5.902979999999999894e-01 2.067799999999999916e-01 -3.948231339454650879e-01 -3.829681277275085449e-01 8.351347446441650391e-01
-1.075593999999999939e+00 -6.354189999999999561e-01 -1.013499999999999991e-02 -8.498979210853576660e-01 -5.248684287071228027e-01 -4.676219075918197632e-02
-9.936089999999999645e-01 -3.190069999999999850e-01 2.456730000000000025e-01 -1.524999886751174927e-01 -5.295857787132263184e-02 9.868835210800170898e-01
-7.841700000000000337e-01 1.332730000000000026e-01 1.428840000000000110e-01 8.022643327713012695e-01 -1.398844420909881592e-01 5.803483128547668457e-01
-3.231229999999999936e-01 6.820570000000000244e-01 4.566100000000000020e-02 4.178054034709930420e-01 -8.922575116157531738e-01 1.712167561054229736e-01
-2.542130000000000223e-01 -8.526839999999999975e-01 2.238120000000000109e-01 1.296117603778839111e-01 4.238700866699218750e-01 8.964010477066040039e-01
2.349999999999999930e-04 -1.137826999999999922e+00 2.079340000000000077e-01 2.024516090750694275e-02 -5.706829428672790527e-01 8.209208846092224121e-01
6.586279999999999912e-01 4.556399999999999895e-01 -1.510920000000000041e-01 -6.276782155036926270e-01 -4.588838517665863037e-01 -6.288447976112365723e-01
-1.129988999999999910e+00 -3.923240000000000061e-01 -1.545789999999999942e-01 -7.444238066673278809e-01 -2.583773732185363770e-01 -6.156900525093078613e-01
1.468669999999999976e-01 -8.094050000000000411e-01 1.761510000000000020e-01 -1.288403570652008057e-01 6.975795030593872070e-01 7.048284411430358887e-01
1.003557999999999950e+00 -2.446000000000000119e-01 2.477890000000000092e-01 1.168797761201858521e-01 -5.233563855290412903e-02 9.917661547660827637e-01
-7.491100000000000536e-01 3.337990000000000124e-01 1.732519999999999893e-01 6.603373885154724121e-01 -2.933553755283355713e-01 6.913010478019714355e-01
1.134095000000000075e+00 2.518000000000000238e-01 -1.899609999999999910e-01 6.369054913520812988e-01 1.310197860002517700e-01 -7.597271203994750977e-01
-5.556640000000000468e-01 9.113409999999999567e-01 2.405490000000000128e-01 -1.424640268087387085e-01 2.485215067863464355e-01 9.580923914909362793e-01
-2.497999999999999787e-03 -1.231292999999999971e+00 9.462900000000000478e-02 -1.245445664972066879e-02 -9.234507679939270020e-01 3.835146129131317139e-01
9.691849999999999632e-01 -7.811660000000000270e-01 4.755899999999999711e-02 7.673735618591308594e-01 -6.093430519104003906e-01 1.995967328548431396e-01
1.049989999999999979e+00 2.907680000000000264e-01 2.330619999999999914e-01 3.387403488159179688e-01 9.136285632848739624e-02 9.364335536956787109e-01
9.482380000000000253e-01 1.595840000000000036e-01 2.467179999999999929e-01 -1.472020298242568970e-01 -4.976934939622879028e-02 9.878535270690917969e-01
-4.697779999999999734e-01 8.679719999999999658e-01 -2.491480000000000083e-01 6.203928496688604355e-03 -4.222678020596504211e-02 -9.990887641906738281e-01
-1.100362999999999980e+00 -1.282609999999999861e-01 -2.249500000000000111e-01 -4.300928711891174316e-01 -5.257384479045867920e-02 -9.012526273727416992e-01
-6.782989999999999853e-01 3.377140000000000142e-01 6.085800000000000237e-02 8.630428910255432129e-01 -4.432494938373565674e-01 2.422536462545394897e-01
1.217324000000000073e+00 -2.179429999999999978e-01 7.866299999999999681e-02 9.315562844276428223e-01 -1.834451705217361450e-01 3.139278292655944824e-01
8.231969999999999565e-01 1.828999999999999897e-03 -1.767730000000000135e-01 -7.213616967201232910e-01 -1.254395348951220512e-03 -6.925573945045471191e-01
1.187481999999999926e+00 3.836269999999999958e-01 -3.074400000000000049e-02 9.471682906150817871e-01 2.928843200206756592e-01 -1.307329982519149780e-01
5.950170000000000181e-01 -6.225340000000000318e-01 -2.072700000000000098e-01 -3.963019549846649170e-01 3.932390809059143066e-01 -8.296431303024291992e-01
-8.309109999999999552e-01 -4.349520000000000053e-01 2.420059999999999989e-01 2.153068780899047852e-01 1.130557358264923096e-01 9.699801206588745117e-01
-6.881770000000000387e-01 -8.873969999999999914e-01 -2.174899999999999889e-01 -3.095283806324005127e-01 -3.872166574001312256e-01 -8.684788346290588379e-01
-2.835700000000000026e-02 8.837380000000000235e-01 -2.210679999999999867e-01 4.066911712288856506e-02 -4.629416167736053467e-01 -8.854553103446960449e-01
1.219808999999999921e+00 4.929999999999999660e-02 1.161139999999999950e-01 8.882440328598022461e-01 5.448858067393302917e-02 4.561287760734558105e-01
-5.192390000000000061e-01 1.132630000000000026e+00 -4.163000000000000034e-02 -4.158287346363067627e-01 8.983529210090637207e-01 -1.415929794311523438e-01
-8.788540000000000241e-01 -1.780899999999999844e-02 -2.185149999999999870e-01 4.684369564056396484e-01 1.996531151235103607e-02 -8.832712769508361816e-01
6.578519999999999923e-01 -6.049649999999999750e-01 2.257699999999999985e-01 -3.119353353977203369e-01 2.974443137645721436e-01 9.023431539535522461e-01
-2.409380000000000133e-01 7.106099999999999639e-01 -6.010999999999999850e-03 3.464892804622650146e-01 -9.378768801689147949e-01 -1.822327077388763428e-02
1.687780000000000113e-01 -1.162995999999999919e+00 -1.781439999999999968e-01 1.140472143888473511e-01 -6.856918931007385254e-01 -7.189018130302429199e-01
-1.433369999999999922e-01 1.240094000000000030e+00 2.394599999999999854e-02 -1.168121024966239929e-01 9.884687662124633789e-01 9.635642170906066895e-02
9.542589999999999684e-01 -3.460420000000000162e-01 -2.490100000000000091e-01 6.621786206960678101e-02 -5.126927420496940613e-02 -9.964870810508728027e-01
-7.956199999999999939e-01 2.172010000000000052e-01 1.781290000000000096e-01 6.906554698944091797e-01 -2.209546566009521484e-01 6.886029243469238281e-01
-5.873899999999999955e-02 -9.088519999999999932e-01 2.331709999999999894e-01 2.878838591277599335e-02 3.451929986476898193e-01 9.380900263786315918e-01
-4.816630000000000078e-01 5.769680000000000364e-01 2.507099999999999954e-02 6.666687130928039551e-01 -7.380077242851257324e-01 1.043909266591072083e-01
3.192010000000000125e-01 8.808430000000000426e-01 2.418079999999999952e-01 -6.938657909631729126e-02 -2.448244243860244751e-01 9.670814275741577148e-01
4.448329999999999784e-01 -1.114133000000000040e+00 -1.500869999999999982e-01 3.117121160030364990e-01 -7.442263364791870117e-01 -5.907307267189025879e-01
2.578349999999999809e-01 -8.967230000000000478e-01 -2.407440000000000135e-01 -6.913438439369201660e-02 2.598863542079925537e-01 -9.631612300872802734e-01
5.489849999999999453e-01 8.924990000000000423e-01 2.448230000000000128e-01 8.653159439563751221e-02 1.856096088886260986e-01 9.788060784339904785e-01
2.045599999999999918e-01 7.529590000000000449e-01 1.184999999999999942e-01 -2.314016222953796387e-01 -8.594805002212524414e-01 4.557922482490539551e-01
9.968289999999999651e-01 4.062839999999999785e-01 -2.374759999999999927e-01 2.982167601585388184e-01 1.343586146831512451e-01 -9.449944496154785156e-01
-1.136884999999999923e+00 -2.056060000000000110e-01 1.955250000000000044e-01 -5.992045402526855469e-01 -1.242665946483612061e-01 7.908929586410522461e-01
-3.542719999999999758e-01 1.127882999999999969e+00 1.704799999999999927e-01 -2.098643481731414795e-01 6.906657814979553223e-01 6.920532584190368652e-01
2.958749999999999991e-01 1.157407999999999992e+00 1.563569999999999960e-01 1.977013051509857178e-01 7.569334506988525391e-01 6.228690743446350098e-01
-7.747420000000000417e-01 1.995020000000000127e-01 1.497989999999999877e-01 7.746295332908630371e-01 -2.226949781179428101e-01 5.919088721275329590e-01
-7.958659999999999624e-01 7.881289999999999685e-01 2.189119999999999955e-01 -3.550926446914672852e-01 3.422706425189971924e-01 8.699195384979248047e-01
-2.492890000000000106e-01 8.122979999999999645e-01 -1.996149999999999869e-01 2.128588855266571045e-01 -5.713736414909362793e-01 -7.926053404808044434e-01
3.862530000000000130e-01 6.460409999999999764e-01 3.551100000000000090e-02 -5.332488417625427246e-01 -8.335601687431335449e-01 1.443018615245819092e-01
1.155798000000000103e+00 2.313649999999999873e-01 1.745329999999999937e-01 7.047300934791564941e-01 1.440614461898803711e-01 6.946954131126403809e-01
2.773340000000000249e-01 1.211332000000000075e+00 -5.844400000000000289e-02 2.160815894603729248e-01 9.484819173812866211e-01 -2.317126691341400146e-01
1.055933000000000010e+00 -3.984159999999999924e-01 2.140559999999999963e-01 4.766701459884643555e-01 -1.690935194492340088e-01 8.626661896705627441e-01
3.516050000000000009e-01 9.621170000000000000e-01 -2.484000000000000097e-01 1.431474555283784866e-02 1.033154428005218506e-01 -9.945455789566040039e-01
-1.120529999999999998e-01 -7.423689999999999456e-01 -1.218900000000000018e-02 1.774937659502029419e-01 9.826944470405578613e-01 -5.298674479126930237e-02
9.742180000000000284e-01 1.366890000000000049e-01 -2.489399999999999946e-01 -6.146392598748207092e-02 3.075667656958103180e-03 -9.981045722961425781e-01
-4.593729999999999758e-01 9.583580000000000432e-01 2.418559999999999877e-01 -1.039416640996932983e-01 2.337921708822250366e-01 9.667147397994995117e-01
8.363620000000000498e-01 4.157899999999999791e-02 1.892099999999999893e-01 -6.429749131202697754e-01 -3.155918419361114502e-02 7.652367353439331055e-01
2.134999999999999953e-01 9.958609999999999962e-01 2.487830000000000041e-01 1.093343086540699005e-02 7.389219105243682861e-02 9.972063899040222168e-01
6.970060000000000144e-01 -9.214050000000000296e-01 1.955060000000000131e-01 3.602240681648254395e-01 -4.940144419670104980e-01 7.913206815719604492e-01
7.359879999999999756e-01 5.373900000000000343e-01 2.333560000000000079e-01 -2.985118031501770020e-01 -2.252714633941650391e-01 9.274392127990722656e-01
2.848570000000000269e-01 -9.438100000000000378e-01 -2.490739999999999899e-01 1.340627390891313553e-02 6.450756639242172241e-02 -9.978271722793579102e-01
-3.462200000000000277e-01 -1.141040000000000054e+00 1.589500000000000079e-01 -2.212596237659454346e-01 -7.382577657699584961e-01 6.371967792510986328e-01
-5.296859999999999902e-01 -6.299770000000000092e-01 1.766689999999999927e-01 4.500146210193634033e-01 5.535616874694824219e-01 7.007541060447692871e-01
9.978080000000000283e-01 5.696670000000000345e-01 -2.004599999999999993e-01 5.145644545555114746e-01 2.899683117866516113e-01 -8.069335818290710449e-01
-1.198166000000000064e+00 -6.503399999999999459e-02 -1.497199999999999920e-01 -7.997279763221740723e-01 -4.665865749120712280e-02 -5.985466837882995605e-01
-4.108870000000000022e-01 -1.055668999999999969e+00 -2.112610000000000043e-01 -1.812103092670440674e-01 -4.935003221035003662e-01 -8.506587147712707520e-01
-1.052816999999999892e+00 -3.653379999999999961e-01 -2.216920000000000002e-01 -4.358384907245635986e-01 -1.410254985094070435e-01 -8.889075517654418945e-01
1.092810000000000031e-01 1.163599000000000050e+00 1.837969999999999882e-01 4.837289825081825256e-02 6.916754245758056641e-01 7.205867171287536621e-01
-7.691400000000000459e-01 -7.777140000000000164e-01 -2.315830000000000111e-01 -2.647099494934082031e-01 -2.562373578548431396e-01 -9.296617507934570312e-01
-3.950850000000000195e-01 -6.376190000000000468e-01 -2.348999999999999960e-03 5.418539047241210938e-01 8.399485349655151367e-01 -2.967765927314758301e-02
-8.264310000000000267e-01 -1.969800000000000023e-02 1.798019999999999896e-01 7.062106132507324219e-01 3.948336094617843628e-02 7.069001197814941406e-01
8.675599999999999978e-02 -7.599639999999999729e-01 8.365999999999999825e-02 -1.228358969092369080e-01 9.380543231964111328e-01 3.239837586879730225e-01
1.065161000000000024e+00 -8.869900000000000007e-02 2.400490000000000124e-01 2.779714167118072510e-01 -2.630610205233097076e-02 9.602290391921997070e-01
-1.201416999999999957e+00 -3.415699999999999847e-01 1.365000000000000067e-02 -9.611262083053588867e-01 -2.692188322544097900e-01 6.129940971732139587e-02
2.425750000000000128e-01 7.895539999999999781e-01 -1.792189999999999894e-01 -2.221525758504867554e-01 -6.538558006286621094e-01 -7.232708334922790527e-01
7.816670000000000007e-01 -6.094129999999999825e-01 2.494210000000000038e-01 4.587513685692101717e-04 6.193698500283062458e-04 9.999997019767761230e-01
-7.417289999999999717e-01 5.725980000000000514e-01 -2.418369999999999964e-01 1.935488134622573853e-01 -1.606580764055252075e-01 -9.678470492362976074e-01
-6.809469999999999690e-01 9.481199999999999628e-01 1.850040000000000018e-01 -4.063642323017120361e-01 5.393282175064086914e-01 7.375589609146118164e-01
8.261549999999999727e-01 1.201369999999999938e-01 -1.869909999999999906e-01 -6.503762006759643555e-01 -1.053158268332481384e-01 -7.522761225700378418e-01
-9.403449999999999864e-01 -8.206849999999999978e-01 -2.784700000000000022e-02 -7.464608550071716309e-01 -6.539785265922546387e-01 -1.229153648018836975e-01
-4.307600000000000318e-02 1.214809000000000028e+00 1.262620000000000131e-01 -3.433150425553321838e-02 8.594868183135986328e-01 5.100036859512329102e-01
1.332770000000000066e-01 1.154077999999999937e+00 1.898900000000000032e-01 7.460167258977890015e-02 6.655614376068115234e-01 7.426052093505859375e-01
8.201359999999999761e-01 -6.087390000000000301e-01 -2.485989999999999867e-01 7.934816926717758179e-02 -5.669455602765083313e-02 -9.952334761619567871e-01
-4.683510000000000173e-01 -7.321370000000000378e-01 2.126069999999999904e-01 2.844337522983551025e-01 4.418792426586151123e-01 8.507879972457885742e-01
-7.525460000000000482e-01 8.648940000000000516e-01 -2.021350000000000091e-01 -3.793994486331939697e-01 4.551015794277191162e-01 -8.055672049522399902e-01
-4.260340000000000238e-01 1.096225000000000005e+00 1.773399999999999976e-01 -2.435264885425567627e-01 6.666638255119323730e-01 7.044530510902404785e-01
-2.441450000000000009e-01 -9.560670000000000002e-01 2.491339999999999943e-01 -3.145011141896247864e-03 4.704774543642997742e-02 9.988877177238464355e-01
5.179479999999999640e-01 -7.549970000000000292e-01 2.348129999999999939e-01 -1.856812685728073120e-01 2.645334899425506592e-01 9.463321566581726074e-01
4.318799999999999861e-01 -1.145289000000000001e+00 -1.096189999999999942e-01 3.521107137203216553e-01 -8.316228389739990234e-01 -4.294432699680328369e-01
-7.619099999999999484e-02 1.022896999999999945e+00 2.483130000000000059e-01 -1.624290272593498230e-02 9.375305473804473877e-02 9.954630136489868164e-01
-8.577879999999999949e-01 -2.792950000000000155e-01 2.298959999999999892e-01 3.810350894927978516e-01 1.259730011224746704e-01 9.159383177757263184e-01
-4.573630000000000195e-01 -8.066149999999999709e-01 2.387549999999999950e-01 1.475826948881149292e-01 2.281898409128189087e-01 9.623662233352661133e-01
6.054559999999999942e-01 -4.454270000000000174e-01 2.568000000000000144e-02 -8.005057573318481445e-01 5.911181569099426270e-01 9.884291142225265503e-02
7.571740000000000137e-01 2.217020000000000102e-01 1.332720000000000016e-01 -8.113981485366821289e-01 -2.362693697214126587e-01 5.346118807792663574e-01
-1.163701000000000096e+00 -4.178020000000000067e-01 7.954100000000000059e-02 -8.939566016197204590e-01 -3.187506496906280518e-01 3.150230348110198975e-01
1.192698000000000036e+00 -1.058049999999999963e-01 -1.531830000000000136e-01 7.903984189033508301e-01 -4.365434870123863220e-02 -6.110358238220214844e-01
-1.086813999999999947e+00 3.280540000000000123e-01 -2.096480000000000010e-01 -5.253724455833435059e-01 1.648304313421249390e-01 -8.347542881965637207e-01
1.205198999999999909e+00 -1.405520000000000103e-01 1.295900000000000107e-01 8.562614917755126953e-01 -9.425312280654907227e-02 5.078706145286560059e-01
-1.202904999999999891e+00 2.018989999999999951e-01 -1.183320000000000066e-01 -8.623768091201782227e-01 1.353797018527984619e-01 -4.878304004669189453e-01
-1.232625000000000082e+00 1.044540000000000052e-01 -7.751099999999999657e-02 -9.434492588043212891e-01 8.897608518600463867e-02 -3.193537890911102295e-01
-3.641670000000000185e-01 7.076759999999999717e-01 -1.436189999999999967e-01 3.648985624313354492e-01 -7.323284745216369629e-01 -5.749296545982360840e-01
5.836980000000000501e-01 1.104336999999999902e+00 -1.277799999999999943e-02 4.752670526504516602e-01 8.770061135292053223e-01 -7.058057188987731934e-02
-8.671870000000000411e-01 4.030239999999999934e-01 2.456639999999999935e-01 1.573350876569747925e-01 -8.371005207300186157e-02 9.839910268783569336e-01
7.163899999999999713e-01 2.982560000000000211e-01 -1.098309999999999981e-01 -8.335954546928405762e-01 -3.520550429821014404e-01 -4.256477355957031250e-01
-9.196480000000000210e-01 3.283420000000000227e-01 -2.484609999999999874e-01 8.230178058147430420e-02 -3.492222353816032410e-02 -9.959954619407653809e-01
1.458399999999999974e-01 7.621520000000000516e-01 -1.098640000000000033e-01 -1.812551766633987427e-01 -8.762491941452026367e-01 -4.464682638645172119e-01
4.257799999999999779e-02 1.143211999999999895e+00 2.037499999999999867e-01 1.211372390389442444e-02 5.619390010833740234e-01 8.270899057388305664e-01
-2.366050000000000098e-01 1.227068999999999965e+00 3.950999999999999651e-03 -1.852687299251556396e-01 9.821466207504272461e-01 3.261033818125724792e-02
8.535989999999999966e-01 5.765820000000000389e-01 2.480249999999999955e-01 1.155932918190956116e-01 6.597684323787689209e-02 9.911030530929565430e-01
7.490580000000000016e-01 1.174499999999999988e-01 -6.340899999999999315e-02 -9.596857428550720215e-01 -1.498647481203079224e-01 -2.377893477678298950e-01
9.263080000000000203e-01 4.710250000000000270e-01 2.465479999999999894e-01 1.463845074176788330e-01 7.516990602016448975e-02 9.863675832748413086e-01
7.054909999999999792e-01 3.851919999999999789e-01 -1.546899999999999942e-01 -7.065716981887817383e-01 -3.506181836128234863e-01 -6.146734356880187988e-01
1.112220999999999904e+00 5.611920000000000242e-01 -4.301499999999999768e-02 8.662853837013244629e-01 4.651112556457519531e-01 -1.822666823863983154e-01
7.721160000000000245e-01 -8.530940000000000190e-01 -1.993790000000000007e-01 4.118044376373291016e-01 -4.461601376533508301e-01 -7.945805191993713379e-01
5.999809999999999865e-01 5.764939999999999509e-01 1.845590000000000008e-01 -4.912858307361602783e-01 -4.662927985191345215e-01 7.356691956520080566e-01
-2.762850000000000028e-01 1.110899999999999999e+00 -2.033010000000000095e-01 -1.309803277254104614e-01 5.679809451103210449e-01 -8.125526905059814453e-01
7.435619999999999452e-01 1.101250000000000007e-01 -2.554599999999999926e-02 -9.852038025856018066e-01 -1.420414298772811890e-01 -9.590449929237365723e-02
8.836150000000000393e-01 4.816050000000000053e-01 2.495799999999999963e-01 4.626922681927680969e-02 1.141950860619544983e-02 9.988637566566467285e-01
-1.736479999999999968e-01 1.190177000000000040e+00 -1.454979999999999885e-01 -1.273686885833740234e-01 8.021500110626220703e-01 -5.833802819252014160e-01
7.765050000000000008e-01 -8.754900000000000182e-02 -1.209210000000000007e-01 -8.632315397262573242e-01 9.837615489959716797e-02 -4.951297044754028320e-01
9.322599999999999776e-01 3.607859999999999956e-01 -2.499770000000000048e-01 -6.294084596447646618e-04 -7.058238144963979721e-03 -9.999749064445495605e-01
-1.055941000000000018e+00 3.507990000000000275e-01 -2.225679999999999881e-01 -4.275641739368438721e-01 1.473263353109359741e-01 -8.918990492820739746e-01
-4.164479999999999849e-01 -1.152063000000000059e+00 -1.076460000000000056e-01 -3.024297654628753662e-01 -8.524259924888610840e-01 -4.265046417713165283e-01
-9.887320000000000553e-01 5.927890000000000104e-01 1.977859999999999896e-01 -5.217822790145874023e-01 3.087036907672882080e-01 7.952641844749450684e-01
-1.073096999999999968e+00 -6.340200000000000280e-01 3.960700000000000331e-02 -8.404157161712646484e-01 -5.155628323554992676e-01 1.670220345258712769e-01
4.600339999999999985e-01 -6.163779999999999815e-01 -9.591399999999999926e-02 -5.486229658126831055e-01 7.422856688499450684e-01 -3.847398459911346436e-01
-9.686059999999999670e-01 -5.002499999999999725e-01 2.328129999999999922e-01 -3.326374888420104980e-01 -1.629314422607421875e-01 9.288733601570129395e-01
-1.153129000000000071e+00 -2.347690000000000055e-01 -1.767060000000000020e-01 -6.862276196479797363e-01 -1.404818743467330933e-01 -7.136921286582946777e-01
2.469669999999999921e-01 7.083540000000000392e-01 -3.389999999999999784e-03 -3.592104017734527588e-01 -9.325720071792602539e-01 -3.573935478925704956e-02
5.986749999999999572e-01 -9.638630000000000253e-01 -2.100019999999999942e-01 2.977442145347595215e-01 -4.564854502677917480e-01 -8.384327888488769531e-01
-4.175380000000000202e-01 7.763609999999999678e-01 2.197330000000000116e-01 2.121088057756423950e-01 -4.298445880413055420e-01 8.776351213455200195e-01
-9.209840000000000249e-01 -2.167699999999999905e-01 2.436550000000000105e-01 2.115819603204727173e-01 3.901490569114685059e-02 9.765812158584594727e-01
1.041999999999999958e-03 1.145863999999999994e+00 2.025569999999999871e-01 1.510438229888677597e-02 5.691987872123718262e-01 8.220611810684204102e-01
2.218999999999999861e-01 8.061270000000000380e-01 1.880900000000000072e-01 -1.875292658805847168e-01 -6.137251853942871094e-01 7.669251561164855957e-01
-5.517419999999999547e-01 1.115655999999999981e+00 -4.848000000000000226e-02 -4.457298815250396729e-01 8.748329281806945801e-01 -1.897159665822982788e-01
4.418730000000000158e-01 -6.501069999999999904e-01 1.289190000000000058e-01 -4.788760840892791748e-01 7.039909362792968750e-01 5.244753360748291016e-01
2.948720000000000230e-01 -1.121992000000000100e+00 -1.913310000000000011e-01 1.552455872297286987e-01 -6.271480321884155273e-01 -7.632719874382019043e-01
-1.224499000000000004e+00 -1.583670000000000078e-01 8.449099999999999666e-02 -9.355947971343994141e-01 -1.160083562135696411e-01 3.334734141826629639e-01
-1.070189000000000057e+00 5.711840000000000250e-01 1.301190000000000124e-01 -7.474830746650695801e-01 4.087699949741363525e-01 5.236182212829589844e-01
-9.292890000000000317e-01 -1.144410000000000011e-01 -2.416840000000000099e-01 2.814339399337768555e-01 1.682708226144313812e-02 -9.594330787658691406e-01
-1.725049999999999917e-01 -1.145866999999999969e+00 -1.925360000000000127e-01 -7.665093988180160522e-02 -6.359632015228271484e-01 -7.679032087326049805e-01
7.102300000000000280e-01 8.086809999999999832e-01 2.375249999999999861e-01 2.144232392311096191e-01 2.357444614171981812e-01 9.478645324707031250e-01
1.070033999999999930e+00 -1.642440000000000011e-01 -2.353999999999999981e-01 3.158111870288848877e-01 -7.821460813283920288e-02 -9.455928206443786621e-01
-6.674379999999999757e-01 -3.861220000000000208e-01 -9.993699999999999806e-02 8.093653917312622070e-01 4.539848566055297852e-01 -3.725927174091339111e-01
9.703399999999999803e-01 -6.432229999999999892e-01 -1.877919999999999867e-01 5.643285512924194336e-01 -3.527636229991912842e-01 -7.463853359222412109e-01
7.752869999999999484e-01 1.178499999999999964e-01 -1.260910000000000086e-01 -8.478537797927856445e-01 -1.286400258541107178e-01 -5.143887996673583984e-01
1.050310999999999995e+00 -1.686950000000000116e-01 -2.416510000000000047e-01 2.495022267103195190e-01 -7.127790898084640503e-02 -9.657474160194396973e-01
-4.992989999999999928e-01 -1.046349999999999891e+00 1.920020000000000060e-01 -2.726636528968811035e-01 -5.835130214691162109e-01 7.649621963500976562e-01
-4.474159999999999804e-01 -1.115218000000000043e+00 1.471429999999999960e-01 -2.768650650978088379e-01 -7.597004175186157227e-01 5.883885025978088379e-01
-8.197470000000000034e-01 7.442609999999999504e-01 -2.252750000000000030e-01 -3.104953169822692871e-01 3.018337786197662354e-01 -9.013816714286804199e-01
8.877589999999999648e-01 8.243150000000000199e-01 -1.324319999999999942e-01 6.192662715911865234e-01 5.822446346282958984e-01 -5.267831683158874512e-01
8.516270000000000229e-01 -3.073679999999999746e-01 2.313419999999999921e-01 -3.422102332115173340e-01 1.328110098838806152e-01 9.301899671554565430e-01
-3.311790000000000012e-01 1.098108000000000084e+00 2.018179999999999974e-01 -1.875497847795486450e-01 5.619468092918395996e-01 8.056306242942810059e-01
-2.002889999999999948e-01 1.208536999999999972e+00 -1.075730000000000020e-01 -1.467913538217544556e-01 8.899888992309570312e-01 -4.317082464694976807e-01
3.849779999999999869e-01 9.827050000000000507e-01 -2.433170000000000055e-01 6.607844680547714233e-02 2.064035981893539429e-01 -9.762332439422607422e-01
6.812219999999999942e-01 7.674750000000000183e-01 -2.482779999999999987e-01 9.514573961496353149e-02 8.061394095420837402e-02 -9.921938776969909668e-01
2.560939999999999883e-01 7.054850000000000287e-01 8.590999999999999678e-03 -3.511309921741485596e-01 -9.363261461257934570e-01 6.527794757857918739e-04
-1.001770000000000049e+00 -5.362209999999999477e-01 -2.089799999999999991e-01 -4.859768748283386230e-01 -2.640851438045501709e-01 -8.331179618835449219e-01
-6.390439999999999454e-01 4.784669999999999757e-01 -1.472370000000000068e-01 6.518557071685791016e-01 -4.702846705913543701e-01 -5.949088335037231445e-01
5.017040000000000388e-01 -5.832460000000000422e-01 -9.632300000000000584e-02 -5.984656214714050293e-01 7.031465768814086914e-01 -3.839579820632934570e-01
-3.166680000000000050e-01 -1.171621000000000024e+00 -1.291559999999999930e-01 -2.282975465059280396e-01 -8.281805515289306641e-01 -5.118566751480102539e-01
-4.909359999999999835e-01 9.997129999999999628e-01 -2.220129999999999881e-01 -1.931488215923309326e-01 4.178273975849151611e-01 -8.877577185630798340e-01
6.326049999999999729e-01 7.505859999999999754e-01 2.487999999999999934e-01 -6.189261004328727722e-02 -5.004592239856719971e-02 9.968273043632507324e-01
-1.924750000000000072e-01 -7.975860000000000172e-01 1.737140000000000073e-01 1.650740653276443481e-01 6.977147459983825684e-01 6.970973014831542969e-01
6.849650000000000460e-01 -1.039897999999999989e+00 -4.555700000000000027e-02 5.570864677429199219e-01 -8.089254498481750488e-01 -1.878677308559417725e-01
8.126360000000000250e-01 -4.573780000000000068e-01 2.405450000000000088e-01 -2.608897686004638672e-01 1.496299654245376587e-01 9.537019133567810059e-01
-1.138138000000000094e+00 5.141329999999999512e-01 -1.598300000000000068e-02 -9.125725626945495605e-01 4.059135317802429199e-01 -4.945255443453788757e-02
3.167039999999999855e-01 6.997219999999999551e-01 9.295200000000000684e-02 -3.674194216728210449e-01 -8.526505827903747559e-01 3.714698553085327148e-01
-2.836739999999999817e-01 -7.100379999999999470e-01 8.281099999999999572e-02 3.500235974788665771e-01 8.795892000198364258e-01 3.221899569034576416e-01
-9.689889999999999892e-01 -5.918269999999999920e-01 2.094870000000000065e-01 -4.849693477153778076e-01 -2.869460284709930420e-01 8.261154294013977051e-01
-8.899080000000000323e-01 3.808239999999999958e-01 -2.479049999999999865e-01 1.103418916463851929e-01 -4.437042027711868286e-02 -9.929028153419494629e-01
-8.009920000000000373e-01 -1.947440000000000004e-01 1.777880000000000016e-01 6.975297331809997559e-01 1.668748706579208374e-01 6.968536972999572754e-01
-8.415540000000000243e-01 -3.320000000000000034e-02 1.934790000000000121e-01 6.555664539337158203e-01 4.429530724883079529e-02 7.538371682167053223e-01
