3.912010000000000209e-01 -1.183605999999999936e+00 -3.906400000000000150e-02 2.340786159038543701e-01 -9.440817236900329590e-01 -2.322000712156295776e-01
1.546869999999999912e-01 8.615169999999999773e-01 -2.166750000000000065e-01 -5.973327532410621643e-02 -5.074899196624755859e-01 -8.595847487449645996e-01
2.419890000000000096e-01 1.083663999999999961e+00 2.237210000000000032e-01 1.781653761863708496e-01 4.947892725467681885e-01 8.505531549453735352e-01
-1.076362000000000041e+00 3.130550000000000277e-01 2.184550000000000103e-01 -4.150144457817077637e-01 6.486308574676513672e-02 9.074996709823608398e-01
-7.078849999999999865e-01 -9.736550000000000482e-01 -1.439050000000000051e-01 -5.299877524375915527e-01 -5.854182243347167969e-01 -6.135131716728210449e-01
1.794590000000000074e-01 -1.104268999999999945e+00 2.195439999999999892e-01 1.027101352810859680e-01 -5.076191425323486328e-01 8.554375767707824707e-01
-8.708080000000000265e-01 -2.745529999999999915e-01 -2.339579999999999993e-01 3.595240414142608643e-01 9.302551299333572388e-02 -9.284873008728027344e-01
8.963899999999999646e-02 1.159858999999999973e+00 1.885419999999999874e-01 5.773472785949707031e-02 6.612650156021118164e-01 7.479273676872253418e-01
-6.600230000000000263e-01 -6.681669999999999554e-01 2.422670000000000101e-01 1.569722294807434082e-01 1.627011001110076904e-01 9.741088151931762695e-01
4.838620000000000143e-01 6.118139999999999690e-01 1.180579999999999963e-01 -4.878117740154266357e-01 -7.290225625038146973e-01 4.801726043224334717e-01
4.794229999999999881e-01 -7.314580000000000526e-01 -2.162620000000000098e-01 -3.255281746387481689e-01 3.602227866649627686e-01 -8.742259144783020020e-01
1.036799000000000026e+00 6.888549999999999951e-01 -4.794799999999999757e-02 7.898333072662353516e-01 5.969268083572387695e-01 -1.408610790967941284e-01
-1.094972000000000056e+00 -8.957700000000000384e-02 -2.294750000000000123e-01 -4.062443673610687256e-01 -5.050871521234512329e-02 -9.123674631118774414e-01
-8.739820000000000366e-01 -8.834809999999999608e-01 5.809399999999999981e-02 -6.737542748451232910e-01 -6.951543092727661133e-01 2.506304681301116943e-01
-1.163664999999999949e+00 2.407920000000000060e-01 -1.635300000000000087e-01 -7.132748961448669434e-01 1.178226321935653687e-01 -6.909101009368896484e-01
7.046740000000000226e-01 5.058470000000000466e-01 -2.114929999999999866e-01 -4.051550328731536865e-01 -3.088044226169586182e-01 -8.605168461799621582e-01
-9.852969999999999784e-01 -7.507420000000000204e-01 7.256999999999999562e-02 -7.126439213752746582e-01 -6.175557374954223633e-01 3.328116536140441895e-01
9.051909999999999679e-01 -7.939410000000000078e-01 1.435349999999999959e-01 6.084042787551879883e-01 -5.061863064765930176e-01 6.112444400787353516e-01
1.036143999999999954e+00 5.525510000000000144e-01 -1.789650000000000130e-01 6.324822306632995605e-01 3.065243065357208252e-01 -7.113431692123413086e-01
-9.879900000000000349e-01 -2.945249999999999813e-01 2.479679999999999940e-01 -1.143904328346252441e-01 9.881577454507350922e-03 9.933866858482360840e-01
1.244204000000000088e+00 9.923800000000000676e-02 -2.709500000000000103e-02 9.854672551155090332e-01 1.324204204138368368e-04 -1.698653548955917358e-01
1.186943999999999999e+00 2.466220000000000079e-01 -1.311789999999999901e-01 7.802081704139709473e-01 1.785198301076889038e-01 -5.995047092437744141e-01
4.814149999999999818e-01 7.470919999999999783e-01 2.233239999999999947e-01 -3.236800432205200195e-01 -3.007722198963165283e-01 8.970882296562194824e-01
-6.993900000000000117e-02 -7.471970000000000001e-01 7.615000000000000241e-03 1.153446584939956665e-01 9.884168505668640137e-01 9.862898290157318115e-02
-2.673740000000000006e-01 9.195529999999999538e-01 -2.459399999999999920e-01 7.129392772912979126e-02 -1.258166879415512085e-01 -9.894884824752807617e-01
5.320219999999999949e-01 -8.802210000000000312e-01 -2.481289999999999885e-01 1.479383837431669235e-02 -1.176463216543197632e-01 -9.929453134536743164e-01
-8.259640000000000315e-01 -2.935860000000000136e-01 2.172999999999999932e-01 4.623389244079589844e-01 1.526814550161361694e-01 8.734592795372009277e-01
-8.972099999999999520e-02 -9.984840000000000382e-01 -2.498309999999999975e-01 -2.009589411318302155e-02 3.563774004578590393e-02 -9.991627335548400879e-01
2.438190000000000079e-01 -8.479579999999999895e-01 2.201450000000000073e-01 -1.014951318502426147e-01 4.508813023567199707e-01 8.867946863174438477e-01
-3.219799999999999746e-02 1.239853000000000094e+00 -6.821000000000000674e-02 9.948250651359558105e-02 9.632320404052734375e-01 -2.495743334293365479e-01
1.142060000000000075e+00 4.910869999999999957e-01 -5.575800000000000201e-02 8.976953029632568359e-01 3.596147000789642334e-01 -2.545984983444213867e-01
-6.589629999999999654e-01 -1.047560999999999964e+00 7.606599999999999473e-02 -5.309144854545593262e-01 -8.032044768333435059e-01 2.701708972454071045e-01
-1.311060000000000003e-01 -8.621820000000000039e-01 2.145859999999999990e-01 1.629870682954788208e-01 4.865941405296325684e-01 8.582898378372192383e-01
-6.784580000000000055e-01 1.012037000000000075e+00 -1.210949999999999943e-01 -5.200251340866088867e-01 6.703117489814758301e-01 -5.293920636177062988e-01
4.940910000000000024e-01 -9.861699999999999910e-01 2.273330000000000073e-01 1.323546022176742554e-01 -3.783601820468902588e-01 9.161472320556640625e-01
6.056899999999999784e-02 -8.721889999999999921e-01 2.160569999999999991e-01 -6.580986827611923218e-02 4.922261536121368408e-01 8.679760098457336426e-01
3.437359999999999860e-01 9.514460000000000139e-01 -2.492350000000000121e-01 -2.092833258211612701e-02 -1.186754833906888962e-02 -9.997105598449707031e-01
5.490410000000000013e-01 1.003066999999999931e+00 2.040899999999999936e-01 2.964413762092590332e-01 4.416581988334655762e-01 8.467941880226135254e-01
7.039099999999999524e-02 -1.118667999999999996e+00 -2.184969999999999968e-01 1.011840999126434326e-01 -5.267619490623474121e-01 -8.439689278602600098e-01
-1.036172000000000093e+00 -6.104089999999999794e-01 1.456929999999999892e-01 -7.194448113441467285e-01 -3.161971867084503174e-01 6.183999180793762207e-01
3.005869999999999931e-01 8.076919999999999655e-01 2.077380000000000060e-01 -7.086462527513504028e-02 -4.691451191902160645e-01 8.802732825279235840e-01
-1.035849999999999965e-01 -8.074649999999999883e-01 -1.663979999999999904e-01 8.730251342058181763e-02 7.086533308029174805e-01 -7.001348137855529785e-01
8.760329999999999506e-01 6.698009999999999797e-01 2.274370000000000003e-01 4.075788557529449463e-01 2.229032367467880249e-01 8.855470418930053711e-01
-9.841480000000000228e-01 4.860729999999999773e-01 -2.299640000000000017e-01 -4.402954280376434326e-01 1.633889079093933105e-01 -8.828612565994262695e-01
2.072029999999999983e-01 1.219754000000000005e+00 7.710100000000000287e-02 1.897000223398208618e-01 9.034548997879028320e-01 3.844257593154907227e-01
1.354160000000000086e-01 -7.477909999999999835e-01 6.907299999999999551e-02 -2.193022817373275757e-01 9.435507059097290039e-01 2.482306659221649170e-01
1.132567000000000101e+00 -3.956870000000000109e-01 1.500400000000000067e-01 7.849619388580322266e-01 -2.653789818286895752e-01 5.598291754722595215e-01
7.222800000000000331e-01 7.145270000000000232e-01 2.489480000000000026e-01 4.738267138600349426e-02 2.683563344180583954e-02 9.985162615776062012e-01
-8.056459999999999733e-01 -8.243789999999999729e-01 -1.978350000000000108e-01 -4.044646620750427246e-01 -5.462132096290588379e-01 -7.335253953933715820e-01
8.569499999999999895e-01 2.399519999999999986e-01 -2.238739999999999897e-01 -4.457373321056365967e-01 -1.001683101058006287e-01 -8.895417451858520508e-01
-5.546320000000000139e-01 -9.835690000000000266e-01 -2.137040000000000051e-01 -2.613698542118072510e-01 -4.353977441787719727e-01 -8.614607453346252441e-01
-1.052235000000000031e+00 -4.369899999999999896e-01 -2.068979999999999986e-01 -4.967200458049774170e-01 -2.498632520437240601e-01 -8.311663866043090820e-01
-7.023570000000000091e-01 8.690790000000000459e-01 2.202139999999999931e-01 -3.382248580455780029e-01 3.998111188411712646e-01 8.519124984741210938e-01
-8.043339999999999934e-01 -5.183919999999999639e-01 2.457940000000000125e-01 6.251968443393707275e-02 1.213394775986671448e-01 9.906402826309204102e-01
-6.443759999999999488e-01 7.043070000000000164e-01 2.453309999999999935e-01 9.353787451982498169e-02 -1.576602905988693237e-01 9.830533266067504883e-01
8.477000000000000091e-01 8.320680000000000298e-01 1.640800000000000036e-01 5.908181071281433105e-01 4.669180214405059814e-01 6.579676866531372070e-01
-6.094349999999999490e-01 -6.684809999999999919e-01 -2.310669999999999946e-01 2.432512044906616211e-01 2.745784223079681396e-01 -9.302878975868225098e-01
1.070151999999999992e+00 -5.807029999999999692e-01 1.227310000000000068e-01 7.542390227317810059e-01 -4.021089971065521240e-01 5.190683603286743164e-01
-6.973610000000000086e-01 8.256630000000000358e-01 -2.360059999999999936e-01 -2.701041996479034424e-01 2.540192306041717529e-01 -9.287185072898864746e-01
-8.567919999999999980e-01 2.501300000000000190e-01 -2.251970000000000083e-01 4.104032814502716064e-01 -5.283851921558380127e-02 -9.103720188140869141e-01
1.243948000000000054e+00 -8.755100000000000382e-02 -3.660999999999999671e-02 9.963146448135375977e-01 -4.387059714645147324e-03 -8.566181361675262451e-02
-7.254340000000000233e-01 1.004035999999999929e+00 7.266699999999999549e-02 -6.426704525947570801e-01 7.144187092781066895e-01 2.767319083213806152e-01
-8.674830000000000041e-01 -1.093829999999999941e-01 -2.160910000000000053e-01 5.039626359939575195e-01 7.486463338136672974e-02 -8.604748249053955078e-01
7.722200000000000175e-01 8.343390000000000528e-01 -2.085269999999999901e-01 3.834400177001953125e-01 4.433026015758514404e-01 -8.102200627326965332e-01
-8.374909999999999854e-01 -7.165409999999999835e-01 2.277319999999999900e-01 -3.117265999317169189e-01 -2.814744114875793457e-01 9.075233936309814453e-01
8.925889999999999658e-01 6.103709999999999969e-01 -2.358119999999999938e-01 2.533920705318450928e-01 1.868696957826614380e-01 -9.491428732872009277e-01
1.043410000000000032e-01 -1.244013999999999953e+00 -2.330499999999999933e-02 1.909947693347930908e-01 -9.786595702171325684e-01 -7.580441236495971680e-02
1.157858999999999972e+00 -1.098230000000000040e-01 -1.887709999999999944e-01 6.083324551582336426e-01 -5.874478816986083984e-02 -7.915052771568298340e-01
5.563299999999999912e-01 1.062691000000000052e+00 -1.503200000000000092e-01 3.786929249763488770e-01 7.052363753318786621e-01 -5.993608236312866211e-01
-8.669829999999999481e-01 7.267320000000000446e-01 -2.122539999999999982e-01 -4.116305112838745117e-01 3.412443101406097412e-01 -8.450518846511840820e-01
8.647979999999999556e-01 -1.333219999999999961e-01 2.165370000000000072e-01 -5.280659794807434082e-01 -1.827900670468807220e-02 8.490065336227416992e-01
-6.773139999999999716e-01 5.524569999999999759e-01 -2.158899999999999986e-01 4.189673364162445068e-01 -3.237540125846862793e-01 -8.483216762542724609e-01
4.115240000000000009e-01 7.982479999999999576e-01 -2.279210000000000125e-01 -1.448606401681900024e-01 -3.204693198204040527e-01 -9.361169338226318359e-01
9.099739999999999496e-01 -6.456129999999999924e-01 2.210540000000000005e-01 3.998441994190216064e-01 -3.006379306316375732e-01 8.658760786056518555e-01
-1.244966999999999935e+00 -1.102289999999999937e-01 -1.098999999999999934e-03 -9.955240488052368164e-01 -8.443546295166015625e-02 4.245695471763610840e-02
-9.893410000000000259e-01 5.203050000000000175e-01 2.200159999999999894e-01 -4.489903450012207031e-01 2.213597297668457031e-01 8.656833171844482422e-01
7.367949999999999777e-01 5.441270000000000273e-01 2.349169999999999869e-01 -1.656365990638732910e-01 -1.736654788255691528e-01 9.707753658294677734e-01
-2.698349999999999915e-01 1.098487999999999909e+00 -2.123670000000000002e-01 -8.087971061468124390e-02 4.811509549617767334e-01 -8.728988170623779297e-01
6.497979999999999867e-01 -4.534079999999999777e-01 -1.383050000000000113e-01 -7.277600169181823730e-01 3.966665565967559814e-01 -5.594827532768249512e-01
-4.328370000000000273e-01 -1.150886999999999993e+00 9.830300000000000149e-02 -3.403517603874206543e-01 -8.767679929733276367e-01 3.397622704505920410e-01
-5.398720000000000185e-01 7.866959999999999509e-01 -2.452409999999999868e-01 1.368722766637802124e-01 -3.134467080235481262e-02 -9.900926351547241211e-01
-6.547709999999999919e-01 4.259260000000000268e-01 1.202929999999999972e-01 7.726628184318542480e-01 -4.022444486618041992e-01 4.911125302314758301e-01
2.977270000000000194e-01 7.172250000000000014e-01 -1.109639999999999932e-01 -3.328146636486053467e-01 -8.409240245819091797e-01 -4.267098307609558105e-01
-4.660569999999999991e-01 -7.165169999999999595e-01 2.030220000000000080e-01 3.708245158195495605e-01 4.505993425846099854e-01 8.120648860931396484e-01
-1.242212000000000094e+00 7.535400000000000431e-02 4.908400000000000263e-02 -9.752953052520751953e-01 4.662902280688285828e-02 2.159278094768524170e-01
-8.305129999999999457e-01 4.260619999999999963e-01 2.408669999999999978e-01 2.536827921867370605e-01 -1.419703513383865356e-01 9.568121433258056641e-01
-2.165690000000000115e-01 -1.026806000000000108e+00 2.445110000000000061e-01 -5.098495748825371265e-04 -2.401229888200759888e-01 9.707423448562622070e-01
-8.878319999999999546e-01 -4.828660000000000174e-01 -2.492979999999999918e-01 -5.198558047413825989e-02 -1.247113803401589394e-03 -9.986470937728881836e-01
-9.620199999999999863e-01 -6.178430000000000311e-01 -2.042110000000000036e-01 -4.914484322071075439e-01 -2.746618390083312988e-01 -8.264619112014770508e-01
6.527789999999999981e-01 8.744439999999999991e-01 2.324660000000000060e-01 1.749906390905380249e-01 3.407983481884002686e-01 9.237071275711059570e-01
-4.269490000000000229e-01 -6.691799999999999971e-01 -1.404380000000000073e-01 4.516766369342803955e-01 7.419157624244689941e-01 -4.955292046070098877e-01
-7.830740000000000478e-01 -8.099499999999999755e-02 1.306809999999999916e-01 8.582935929298400879e-01 5.094090849161148071e-02 5.106242299079895020e-01
-5.628030000000000532e-01 9.811750000000000194e-01 2.123730000000000062e-01 -2.091497182846069336e-01 4.345273375511169434e-01 8.760378956794738770e-01
-2.465880000000000016e-01 7.671280000000000321e-01 -1.569540000000000102e-01 2.426386773586273193e-01 -7.705122828483581543e-01 -5.894381403923034668e-01
-5.102999999999999897e-03 1.042062999999999962e+00 2.459729999999999972e-01 2.035158220678567886e-03 1.618723422288894653e-01 9.868096113204956055e-01
5.716510000000000202e-01 -1.078190999999999899e+00 1.170950000000000046e-01 4.237530529499053955e-01 -7.684807181358337402e-01 4.794484376907348633e-01
9.359960000000000502e-01 -4.005610000000000004e-01 -2.488080000000000014e-01 1.204928010702133179e-01 -7.128894329071044922e-02 -9.901511669158935547e-01
3.423640000000000017e-01 -6.679260000000000197e-01 9.249000000000000277e-03 -4.510000944137573242e-01 8.910964727401733398e-01 -5.045806244015693665e-02
3.999139999999999917e-01 1.094400000000000039e+00 -1.868859999999999966e-01 2.826908230781555176e-01 6.892529129981994629e-01 -6.670955419540405273e-01
1.092572000000000099e+00 1.528259999999999896e-01 2.272160000000000013e-01 3.808522522449493408e-01 1.067065224051475525e-01 9.184580445289611816e-01
-1.002043000000000017e+00 7.960399999999999421e-02 -2.496559999999999890e-01 -7.990153133869171143e-02 1.300010830163955688e-02 -9.967179298400878906e-01
-6.057670000000000554e-01 1.092389000000000054e+00 1.229399999999999937e-02 -4.154988527297973633e-01 9.091196060180664062e-01 2.936303056776523590e-02
-8.953830000000000400e-01 6.763209999999999500e-01 2.178950000000000053e-01 -4.284222722053527832e-01 2.932761609554290771e-01 8.546599149703979492e-01
-6.304170000000000051e-01 -8.333709999999999729e-01 2.453950000000000020e-01 -8.033329993486404419e-02 -1.346721351146697998e-01 9.876285195350646973e-01
-8.689860000000000362e-01 8.764480000000000048e-01 -8.594100000000000350e-02 -5.960753560066223145e-01 7.230331897735595703e-01 -3.491662740707397461e-01
-2.251450000000000118e-01 -7.469510000000000316e-01 1.182409999999999989e-01 2.816288173198699951e-01 8.519555330276489258e-01 4.414262473583221436e-01
-7.555819999999999759e-01 1.718570000000000098e-01 -1.075809999999999961e-01 8.983076810836791992e-01 -1.194968894124031067e-01 -4.228047132492065430e-01
5.921210000000000084e-01 4.862909999999999733e-01 -8.738899999999999446e-02 -7.533692121505737305e-01 -5.504193902015686035e-01 -3.598240315914154053e-01
-5.184579999999999744e-01 -5.839469999999999938e-01 1.198410000000000031e-01 5.265024900436401367e-01 6.595574617385864258e-01 5.364503264427185059e-01
-3.007329999999999726e-01 -6.882019999999999804e-01 -1.645299999999999888e-02 3.759840130805969238e-01 9.223482608795166016e-01 -8.893642574548721313e-02
-9.501999999999999336e-02 -1.245050999999999908e+00 -1.974199999999999913e-02 -1.185382232069969177e-01 -9.922918677330017090e-01 -3.613223508000373840e-02
7.763929999999999998e-01 -3.918800000000000061e-02 1.126309999999999950e-01 -8.788734674453735352e-01 7.308733463287353516e-02 4.714230298995971680e-01
8.670259999999999634e-01 8.990609999999999991e-01 1.387799999999999971e-02 7.405998110771179199e-01 6.719408035278320312e-01 2.746084239333868027e-03
5.574270000000000058e-01 -1.113801000000000041e+00 -4.432900000000000035e-02 4.518351554870605469e-01 -8.735648989677429199e-01 -1.809130311012268066e-01
8.465470000000000494e-01 -8.506820000000000492e-01 -1.494669999999999888e-01 5.226210951805114746e-01 -5.629112720489501953e-01 -6.403110027313232422e-01
-4.061080000000000245e-01 1.025633999999999935e+00 2.272639999999999938e-01 -1.671973168849945068e-01 3.223060965538024902e-01 9.317530393600463867e-01
-4.927309999999999746e-01 6.499660000000000437e-01 -1.681779999999999942e-01 4.393756091594696045e-01 -6.281189322471618652e-01 -6.421960592269897461e-01
6.958609999999999518e-01 -4.811250000000000249e-01 1.967959999999999987e-01 -5.142565965652465820e-01 3.256758749485015869e-01 7.933948040008544922e-01
2.186819999999999875e-01 -8.571320000000000050e-01 -2.212540000000000062e-01 -9.298779815435409546e-02 3.760340511798858643e-01 -9.219282269477844238e-01
9.588320000000000176e-01 -7.995679999999999454e-01 -2.215299999999999908e-02 8.188126683235168457e-01 -5.620372295379638672e-01 -1.168760731816291809e-01
4.026970000000000272e-01 1.101207000000000047e+00 1.804399999999999893e-01 1.503590792417526245e-01 6.516085863113403320e-01 7.435041666030883789e-01
8.517689999999999984e-01 3.788380000000000081e-01 2.404409999999999881e-01 -2.586035728454589844e-01 -2.630097232758998871e-02 9.656253457069396973e-01
-1.689350000000000018e-01 1.030995000000000106e+00 2.454369999999999885e-01 -6.059432029724121094e-02 2.417467087507247925e-01 9.684455990791320801e-01
-4.432510000000000061e-01 7.555910000000000126e-01 2.170340000000000047e-01 3.028838038444519043e-01 -4.208226799964904785e-01 8.550845980644226074e-01
-8.384899999999999576e-01 5.960499999999999826e-02 -1.920419999999999905e-01 6.457849740982055664e-01 -1.039586067199707031e-01 -7.564088106155395508e-01
2.245310000000000084e-01 -7.348280000000000367e-01 -9.376600000000000212e-02 -2.100019454956054688e-01 9.175559878349304199e-01 -3.376243710517883301e-01
6.328570000000000029e-01 4.616000000000000103e-01 1.247430000000000067e-01 -7.196183204650878906e-01 -5.089418292045593262e-01 4.723639488220214844e-01
5.661230000000000429e-01 8.410919999999999508e-01 -2.490890000000000049e-01 3.193337097764015198e-02 5.685165151953697205e-02 -9.978718161582946777e-01
3.908929999999999905e-01 -1.151038000000000006e+00 1.262330000000000119e-01 2.202457636594772339e-01 -7.836418151855468750e-01 5.808591842651367188e-01
7.583250000000000268e-01 2.573500000000000232e-01 1.509850000000000081e-01 -7.867395281791687012e-01 -2.991229593753814697e-01 5.399687886238098145e-01
6.535100000000000353e-01 -7.695790000000000131e-01 -2.493650000000000033e-01 8.956155180931091309e-02 1.238471642136573792e-02 -9.959042668342590332e-01
7.016280000000000294e-01 -9.249460000000000459e-01 -1.905799999999999994e-01 4.203121364116668701e-01 -5.216320753097534180e-01 -7.424538731575012207e-01
-3.370949999999999780e-01 -1.055341000000000085e+00 -2.249140000000000028e-01 -1.649096608161926270e-01 -4.616336822509765625e-01 -8.716072440147399902e-01
1.080886000000000013e+00 3.658250000000000113e-01 -2.056910000000000127e-01 5.759403109550476074e-01 1.609411686658859253e-01 -8.014927506446838379e-01
-8.644279999999999742e-01 4.723999999999999727e-02 2.103339999999999932e-01 5.123078227043151855e-01 3.187156096100807190e-02 8.582103252410888672e-01
-1.214134000000000047e+00 2.945829999999999838e-01 -8.548999999999999308e-03 -9.722609519958496094e-01 2.338739484548568726e-01 -3.400773974135518074e-03
6.521670000000000522e-01 -6.609150000000000302e-01 2.391969999999999930e-01 -2.384766638278961182e-01 2.329728603363037109e-01 9.427898526191711426e-01
-5.060719999999999663e-01 -5.604299999999999837e-01 -4.764600000000000085e-02 6.137586236000061035e-01 7.389068007469177246e-01 -2.780595421791076660e-01
4.169410000000000061e-01 -8.107619999999999827e-01 2.334890000000000021e-01 -2.130091190338134766e-01 3.177433609962463379e-01 9.239405989646911621e-01
-1.062551000000000023e+00 6.176669999999999661e-01 9.940799999999999637e-02 -8.071631789207458496e-01 4.847412705421447754e-01 3.369176089763641357e-01
2.879039999999999933e-01 -1.072978999999999905e+00 -2.234069999999999945e-01 4.643515124917030334e-02 -4.781790077686309814e-01 -8.770340085029602051e-01
-2.837430000000000230e-01 7.856819999999999915e-01 1.874339999999999895e-01 1.289693266153335571e-01 -5.767090916633605957e-01 8.067053556442260742e-01
8.244100000000000039e-02 -7.945680000000000520e-01 -1.480170000000000097e-01 -1.313130855560302734e-01 8.087901473045349121e-01 -5.732498168945312500e-01
-2.379439999999999888e-01 -1.220784000000000091e+00 5.301499999999999962e-02 -1.620478332042694092e-01 -9.629901647567749023e-01 2.153846621513366699e-01
7.779179999999999984e-01 -3.339670000000000138e-01 -1.973119999999999874e-01 -5.606032609939575195e-01 2.983026504516601562e-01 -7.724891901016235352e-01
7.513370000000000326e-01 9.653819999999999624e-01 1.111810000000000020e-01 4.902044534683227539e-01 7.537847757339477539e-01 4.376164078712463379e-01
1.205507000000000106e+00 6.220900000000000041e-02 1.390119999999999967e-01 8.311312794685363770e-01 -5.031210184097290039e-02 5.537955164909362793e-01
8.931280000000000330e-01 4.423590000000000022e-01 -2.497860000000000080e-01 -2.090846002101898193e-02 -2.739766985177993774e-02 -9.994060397148132324e-01
6.695990000000000553e-01 -9.659900000000000153e-01 1.779429999999999901e-01 4.438892304897308350e-01 -5.917764306068420410e-01 6.728767156600952148e-01
5.977970000000000228e-01 -8.323490000000000055e-01 2.483710000000000084e-01 6.604959815740585327e-02 -4.095836728811264038e-02 9.969753623008728027e-01
-4.403529999999999944e-01 1.034270999999999940e+00 -2.169040000000000135e-01 -1.840981394052505493e-01 3.632937371730804443e-01 -9.133046865463256836e-01
-4.584469999999999934e-01 -7.976220000000000532e-01 -2.363020000000000120e-01 1.812919527292251587e-01 1.979812234640121460e-01 -9.632946848869323730e-01
1.434419999999999862e-01 1.230364000000000013e+00 -7.269000000000000461e-02 -2.814831398427486420e-02 9.496924281120300293e-01 -3.119168579578399658e-01
2.357869999999999966e-01 7.258580000000000032e-01 7.858900000000000607e-02 -3.052899539470672607e-01 -9.096474647521972656e-01 2.816727757453918457e-01
-1.086219999999999963e-01 1.166056999999999899e+00 1.816979999999999984e-01 -5.536886677145957947e-02 6.528579592704772949e-01 7.554540038108825684e-01
7.089630000000000098e-01 3.539200000000000124e-01 -1.383620000000000128e-01 -6.953240036964416504e-01 -3.581453263759613037e-01 -6.231023669242858887e-01
-3.026150000000000229e-01 -8.785840000000000316e-01 -2.394489999999999952e-01 8.486258238554000854e-02 3.325259387493133545e-01 -9.392682313919067383e-01
-6.907879999999999576e-01 2.961320000000000063e-01 2.507200000000000054e-02 8.914456367492675781e-01 -4.470999240875244141e-01 7.366377115249633789e-02
-8.198290000000000299e-01 4.258899999999999908e-01 -2.376199999999999979e-01 2.974466681480407715e-01 -1.727654188871383667e-01 -9.389768838882446289e-01
-4.813290000000000068e-01 1.133640999999999899e+00 -9.358500000000000152e-02 -3.739188909530639648e-01 8.943322896957397461e-01 -2.456714659929275513e-01
-1.134300000000000065e-02 -1.211953000000000058e+00 1.316060000000000008e-01 5.550247151404619217e-03 -8.401416540145874023e-01 5.423385500907897949e-01
-7.009539999999999660e-01 -4.664099999999999913e-01 -1.932129999999999959e-01 5.023196935653686523e-01 3.426177203655242920e-01 -7.939067482948303223e-01
1.044834999999999958e+00 3.412020000000000053e-01 2.292420000000000013e-01 4.059983193874359131e-01 8.369579911231994629e-02 9.100332260131835938e-01
-8.496499999999999886e-02 9.460809999999999498e-01 -2.443970000000000031e-01 -2.842508442699909210e-02 -1.452219933271408081e-01 -9.889906048774719238e-01
-3.641679999999999917e-01 6.576680000000000303e-01 -2.770699999999999899e-02 4.745911061763763428e-01 -8.679063320159912109e-01 -1.466350406408309937e-01
1.078230000000000022e+00 5.807320000000000260e-01 1.083520000000000039e-01 7.624502778053283691e-01 5.117700695991516113e-01 3.959304690361022949e-01
-3.931370000000000142e-01 1.150411999999999990e+00 1.260249999999999981e-01 -2.140243500471115112e-01 8.798785805702209473e-01 4.242726564407348633e-01
7.528359999999999497e-01 -7.054100000000000648e-02 -5.289499999999999758e-02 -9.681449532508850098e-01 3.101287968456745148e-02 -2.484622299671173096e-01
7.709070000000000089e-01 -7.770719999999999850e-01 2.313199999999999978e-01 2.799618244171142578e-01 -3.161617815494537354e-01 9.064562916755676270e-01
-9.567199999999999316e-02 -1.160474999999999923e+00 -1.875499999999999945e-01 -8.628199994564056396e-02 -6.701759696006774902e-01 -7.371699810028076172e-01
1.084839999999999971e-01 1.019797000000000065e+00 -2.483209999999999862e-01 -5.121682956814765930e-02 1.405745297670364380e-01 -9.887444972991943359e-01
7.536540000000000461e-01 -2.822729999999999961e-01 1.558140000000000081e-01 -6.720075011253356934e-01 3.414946496486663818e-01 6.571052074432373047e-01
8.731860000000000177e-01 5.197000000000000230e-03 -2.153370000000000006e-01 -5.117577910423278809e-01 -4.178458452224731445e-02 -8.581129908561706543e-01
5.398490000000000233e-01 6.775210000000000399e-01 -2.107340000000000046e-01 -2.741012573242187500e-01 -4.057983160018920898e-01 -8.718923926353454590e-01
-7.106540000000000079e-01 3.515070000000000139e-01 -1.390520000000000089e-01 7.184563279151916504e-01 -4.097689986228942871e-01 -5.620585680007934570e-01
-9.487689999999999735e-01 -7.716800000000000326e-01 -1.117849999999999955e-01 -6.457387208938598633e-01 -5.985782146453857422e-01 -4.740523397922515869e-01
9.942069999999999519e-01 5.032870000000000399e-01 2.217510000000000037e-01 3.373419940471649170e-01 2.404919564723968506e-01 9.101451039314270020e-01
-1.097876999999999992e+00 1.430520000000000125e-01 2.252720000000000000e-01 -4.199134409427642822e-01 8.467052876949310303e-02 9.036058783531188965e-01
1.038480999999999987e+00 6.419900000000000606e-02 -2.462880000000000069e-01 2.417012453079223633e-01 6.434137374162673950e-02 -9.682152271270751953e-01
-1.137745000000000006e+00 4.947929999999999828e-01 -6.684400000000000064e-02 -8.915458917617797852e-01 3.795770108699798584e-01 -2.471180558204650879e-01
1.050386000000000042e+00 -1.286380000000000023e-01 2.427670000000000106e-01 2.435571998357772827e-01 -6.123593822121620178e-02 9.679514765739440918e-01
-1.079758999999999913e+00 -1.106100000000000000e-01 2.344380000000000075e-01 -3.980424106121063232e-01 -1.430455315858125687e-02 9.172554612159729004e-01
-1.160409000000000024e+00 4.006950000000000234e-01 1.022330000000000044e-01 -8.626631498336791992e-01 3.775809109210968018e-01 3.365185558795928955e-01
-3.387430000000000163e-01 -8.691290000000000404e-01 2.406490000000000018e-01 2.888527140021324158e-02 2.799974679946899414e-01 9.595660567283630371e-01
9.545449999999999768e-01 -6.614719999999999489e-01 -1.902520000000000044e-01 5.536367893218994141e-01 -3.266282975673675537e-01 -7.660288810729980469e-01
1.198299999999999921e+00 -1.417120000000000046e-01 1.396610000000000074e-01 8.466390967369079590e-01 -7.910119742155075073e-02 5.262558460235595703e-01
-1.077045999999999948e+00 -4.187449999999999783e-01 1.953320000000000056e-01 -5.751855373382568359e-01 -3.722681701183319092e-01 7.284078001976013184e-01
1.217988000000000071e+00 2.609179999999999833e-01 4.343799999999999745e-02 9.310279488563537598e-01 2.816854715347290039e-01 2.320349216461181641e-01
-8.325230000000000130e-01 2.274940000000000018e-01 2.085390000000000021e-01 4.947571456432342529e-01 -1.697800308465957642e-01 8.522852063179016113e-01
-2.904109999999999747e-01 1.206779999999999964e+00 -6.518000000000000183e-02 -2.378872185945510864e-01 9.609397053718566895e-01 -1.414367109537124634e-01
4.917850000000000277e-01 -6.714409999999999545e-01 1.847570000000000046e-01 -3.731783628463745117e-01 5.179080963134765625e-01 7.697461247444152832e-01
-3.049080000000000124e-01 -1.184023000000000048e+00 -1.123890000000000028e-01 -2.374253720045089722e-01 -8.582333922386169434e-01 -4.550434947013854980e-01
9.842809999999999615e-01 -3.201530000000000209e-01 2.473730000000000095e-01 8.143441379070281982e-02 -1.905332691967487335e-02 9.964965581893920898e-01
8.426109999999999989e-01 -9.217199999999999838e-01 1.711800000000000127e-02 6.030195355415344238e-01 -7.918260097503662109e-01 9.684542566537857056e-02
8.167299999999999560e-02 7.486319999999999641e-01 -3.761199999999999960e-02 -1.193060874938964844e-01 -9.814234972000122070e-01 -1.502467393875122070e-01
-7.685520000000000129e-01 -6.436290000000000067e-01 -2.498340000000000005e-01 1.094687171280384064e-02 3.457015007734298706e-02 -9.993422627449035645e-01
-9.170540000000000358e-01 -1.249149999999999983e-01 2.381880000000000108e-01 2.855428755283355713e-01 -9.390654973685741425e-03 9.583199620246887207e-01
1.057118000000000002e+00 -6.578319999999999723e-01 -4.616599999999999870e-02 8.078871965408325195e-01 -5.592159032821655273e-01 -1.859995871782302856e-01
-2.096100000000000046e-02 -1.017236000000000029e+00 2.488529999999999909e-01 -5.265537276864051819e-02 -7.148031890392303467e-02 9.960511326789855957e-01
-6.164809999999999457e-01 -4.351459999999999773e-01 -4.498699999999999921e-02 8.263857960700988770e-01 5.334218144416809082e-01 -1.804099082946777344e-01
-1.170298999999999978e+00 -4.041469999999999785e-01 -7.434300000000000630e-02 -8.910628557205200195e-01 -3.674593269824981689e-01 -2.664218842983245850e-01
1.214331999999999967e+00 -2.913069999999999826e-01 -1.716600000000000070e-02 9.640730619430541992e-01 -2.621554434299468994e-01 -4.286719858646392822e-02
-1.206663000000000041e+00 -2.821339999999999959e-01 7.115200000000000691e-02 -9.437301158905029297e-01 -1.810048371553421021e-01 2.767863273620605469e-01
5.552580000000000293e-01 -5.185600000000000209e-01 6.848700000000000621e-02 -7.072529792785644531e-01 6.661571264266967773e-01 2.367021739482879639e-01
8.496620000000000283e-01 -4.663680000000000048e-01 2.479889999999999872e-01 -5.052808672189712524e-02 1.145767122507095337e-01 9.921285510063171387e-01
1.162125000000000075e+00 4.142179999999999751e-01 8.746099999999999708e-02 9.213667511940002441e-01 2.218420803546905518e-01 3.191697895526885986e-01
-8.765039999999999498e-01 8.216430000000000122e-01 1.474949999999999872e-01 -5.088359117507934570e-01 5.928253531455993652e-01 6.242148280143737793e-01
5.415450000000000541e-01 1.117461000000000038e+00 6.281100000000000572e-02 4.316329061985015869e-01 8.813914656639099121e-01 1.919428110122680664e-01
7.158099999999999463e-01 9.838120000000000198e-01 -1.245079999999999937e-01 4.677764773368835449e-01 7.141503691673278809e-01 -5.207440853118896484e-01
1.701880000000000059e-01 9.343879999999999963e-01 2.443710000000000049e-01 -2.247997559607028961e-02 -1.483916640281677246e-01 9.886731505393981934e-01
7.332600000000000229e-01 6.797419999999999574e-01 -2.499959999999999960e-01 -1.337560638785362244e-02 -7.174689788371324539e-03 -9.998848438262939453e-01
-1.173958999999999975e+00 -2.413770000000000082e-01 -1.518190000000000095e-01 -7.964481711387634277e-01 -1.362943649291992188e-01 -5.891469717025756836e-01
4.809180000000000121e-01 -5.995620000000000394e-01 -9.459299999999999653e-02 -5.680605173110961914e-01 7.605556249618530273e-01 -3.144237399101257324e-01
9.012189999999999923e-01 2.095360000000000000e-01 2.380940000000000001e-01 -2.540465891361236572e-01 -1.639053374528884888e-01 9.532026648521423340e-01
9.361600000000000477e-02 8.066090000000000204e-01 1.640629999999999866e-01 -1.743565946817398071e-01 -7.543928027153015137e-01 6.328438520431518555e-01
9.181289999999999729e-01 2.980800000000000116e-02 2.358389999999999931e-01 -3.297055363655090332e-01 7.506769895553588867e-02 9.410946369171142578e-01
1.077925999999999940e+00 -2.757859999999999756e-01 -2.225709999999999911e-01 4.930931627750396729e-01 -1.299958676099777222e-01 -8.602093458175659180e-01
-7.456530000000000102e-01 -9.270490000000000119e-01 1.619269999999999876e-01 -5.478223562240600586e-01 -6.013358235359191895e-01 5.816234350204467773e-01
-5.663529999999999953e-01 5.706679999999999531e-01 1.548940000000000039e-01 5.043463706970214844e-01 -6.065828204154968262e-01 6.145664453506469727e-01
5.132870000000000488e-01 -1.035956000000000099e+00 -1.948129999999999862e-01 2.695146799087524414e-01 -5.445333123207092285e-01 -7.942576408386230469e-01
8.007609999999999451e-01 -6.791019999999999834e-01 -2.444020000000000081e-01 1.022998318076133728e-01 -1.481505483388900757e-01 -9.836595654487609863e-01
3.077659999999999840e-01 -9.957150000000000167e-01 2.459490000000000010e-01 8.816220611333847046e-02 -2.366193830966949463e-01 9.675942659378051758e-01
8.889409999999999812e-01 -1.872020000000000073e-01 -2.323880000000000112e-01 -4.297639429569244385e-01 1.094719842076301575e-01 -8.962805867195129395e-01
6.683869999999999534e-01 -3.404869999999999841e-01 2.295000000000000165e-03 -8.909031748771667480e-01 4.540702104568481445e-01 1.057178061455488205e-02
-6.159970000000000168e-01 4.329959999999999920e-01 -3.676299999999999707e-02 8.528819084167480469e-01 -4.961608648300170898e-01 -1.625327169895172119e-01
-1.067161999999999944e+00 -6.368540000000000312e-01 -5.821199999999999986e-02 -8.819830417633056641e-01 -4.064607322216033936e-01 -2.385279983282089233e-01
-6.504849999999999799e-01 -4.689389999999999947e-01 1.525239999999999929e-01 6.720298528671264648e-01 4.569469094276428223e-01 5.827309489250183105e-01
4.477689999999999726e-01 6.199019999999999531e-01 -8.310399999999999732e-02 -5.636775493621826172e-01 -7.541466355323791504e-01 -3.369428515434265137e-01
7.812740000000000240e-01 1.183980000000000032e-01 -1.350679999999999936e-01 -7.750287055969238281e-01 -8.797121047973632812e-02 -6.257728338241577148e-01
-5.264149999999999663e-01 -1.107313999999999909e+00 -1.055439999999999989e-01 -3.240908086299896240e-01 -8.506387472152709961e-01 -4.139792919158935547e-01
-7.056280000000000330e-01 -2.841710000000000069e-01 7.129199999999999426e-02 8.782368898391723633e-01 3.571508824825286865e-01 3.180299997329711914e-01
-1.006021000000000054e+00 6.357899999999999663e-01 -1.615850000000000064e-01 -6.382786631584167480e-01 4.316045641899108887e-01 -6.374306082725524902e-01
-1.201902999999999944e+00 4.999599999999999878e-02 -1.451850000000000085e-01 -7.988368868827819824e-01 6.499838829040527344e-02 -5.980257987976074219e-01
6.832880000000000065e-01 3.118560000000000221e-01 1.748100000000000001e-02 -8.846612572669982910e-01 -4.454027712345123291e-01 1.378072351217269897e-01
-7.467420000000000169e-01 5.651370000000000005e-01 2.417320000000000024e-01 2.287572473287582397e-01 -1.542362868785858154e-01 9.611874818801879883e-01
-7.205479999999999663e-01 -2.794010000000000105e-01 -1.033909999999999968e-01 8.379490375518798828e-01 3.316423296928405762e-01 -4.334220886230468750e-01
3.717460000000000209e-01 -9.209110000000000351e-01 -2.495529999999999970e-01 2.801601774990558624e-02 6.855268031358718872e-02 -9.972540736198425293e-01
-1.338989999999999903e-01 8.726000000000000423e-01 2.203809999999999936e-01 1.038040891289710999e-01 -4.865448474884033203e-01 8.674668669700622559e-01
-1.652810000000000112e-01 7.391370000000000440e-01 5.907799999999999857e-02 2.800214886665344238e-01 -9.431357383728027344e-01 1.791173219680786133e-01
1.156014000000000097e+00 -4.750190000000000246e-01 -2.403999999999999887e-03 9.438106417655944824e-01 -3.297772109508514404e-01 2.164385281503200531e-02
-8.282599999999999685e-02 1.141018000000000088e+00 -2.037869999999999959e-01 -4.855522885918617249e-02 5.319203734397888184e-01 -8.454011082649230957e-01
7.636900000000000632e-02 -9.518299999999999539e-01 -2.453899999999999970e-01 -1.123256166465580463e-03 1.739560961723327637e-01 -9.847527742385864258e-01
-9.704350000000000476e-01 7.855649999999999578e-01 2.110799999999999829e-02 -8.329534530639648438e-01 5.513245463371276855e-01 4.722086712718009949e-02
-3.464400000000000118e-02 8.101880000000000193e-01 -1.628100000000000103e-01 4.644544329494237900e-03 -7.917454242706298828e-01 -6.108336448669433594e-01
-7.469329999999999581e-01 8.790699999999999903e-02 3.247300000000000186e-02 9.841327071189880371e-01 -1.225014850497245789e-01 1.283600181341171265e-01
-1.039762000000000075e+00 -2.574029999999999929e-01 -2.392829999999999957e-01 -3.064720332622528076e-01 -5.972652137279510498e-02 -9.500040411949157715e-01
-1.546210000000000084e-01 1.236614000000000102e+00 4.064600000000000157e-02 -2.101927399635314941e-01 9.702123999595642090e-01 1.204451099038124084e-01
-3.766280000000000183e-01 -1.043446000000000096e+00 2.242139999999999966e-01 -1.780410408973693848e-01 -3.920945823192596436e-01 9.025315642356872559e-01
7.113859999999999628e-01 -1.025592999999999977e+00 -2.684299999999999881e-02 5.876347422599792480e-01 -8.051908016204833984e-01 -7.970635592937469482e-02
-7.510390000000000121e-01 -8.962199999999999334e-02 -5.404500000000000276e-02 9.714562892913818359e-01 9.223318845033645630e-02 -2.185536772012710571e-01
3.253630000000000133e-01 1.193777000000000088e+00 -7.681300000000000627e-02 3.279176950454711914e-01 8.975520133972167969e-01 -2.947378754615783691e-01
-4.990269999999999984e-01 5.610739999999999617e-01 -1.435299999999999944e-02 6.446674466133117676e-01 -7.559115290641784668e-01 -1.140251532196998596e-01
7.427730000000000166e-01 1.136920000000000014e-01 2.224800000000000041e-02 -9.745675325393676758e-01 -1.108425408601760864e-01 1.947614699602127075e-01
2.080100000000000005e-01 1.135923000000000016e+00 -1.959680000000000033e-01 1.152317449450492859e-01 5.933183431625366211e-01 -7.966774702072143555e-01
9.100850000000000328e-01 7.667690000000000339e-01 -1.615530000000000022e-01 5.938655138015747070e-01 5.211020112037658691e-01 -6.130061149597167969e-01
1.084424999999999972e+00 -4.944970000000000199e-01 -1.594899999999999929e-01 6.593101620674133301e-01 -3.347657918930053711e-01 -6.732324361801147461e-01
-5.618490000000000428e-01 -9.910670000000000313e-01 2.069830000000000003e-01 -1.786363124847412109e-01 -4.737522006034851074e-01 8.623502254486083984e-01
