-8.225729999999999986e-01 8.225719999999999699e-01 1.893019999999999980e-01 -5.388664603233337402e-01 5.391000509262084961e-01 -6.472975015640258789e-01
-8.192530000000000090e-01 8.192519999999999802e-01 1.932530000000000081e-01 -5.498847365379333496e-01 5.499815344810485840e-01 -6.286072731018066406e-01
-8.158659999999999801e-01 8.158649999999999514e-01 1.970870000000000122e-01 -5.607038140296936035e-01 5.608423352241516113e-01 -6.091528534889221191e-01
-8.124130000000000518e-01 8.124120000000000230e-01 2.008020000000000083e-01 -5.711588263511657715e-01 5.711612105369567871e-01 -5.895358324050903320e-01
-8.088959999999999484e-01 8.088959999999999484e-01 2.043959999999999944e-01 -5.811324715614318848e-01 5.812636017799377441e-01 -5.695766806602478027e-01
-8.053190000000000071e-01 8.053179999999999783e-01 2.078669999999999962e-01 -5.908213853836059570e-01 5.909487009048461914e-01 -5.492810010910034180e-01
-8.016820000000000057e-01 8.016820000000000057e-01 2.112130000000000118e-01 -6.002438068389892578e-01 6.002157330513000488e-01 -5.286287069320678711e-01
-7.979880000000000306e-01 7.979880000000000306e-01 2.144320000000000115e-01 -6.090973615646362305e-01 6.093227863311767578e-01 -5.076674818992614746e-01
-7.942399999999999460e-01 7.942390000000000283e-01 2.175219999999999931e-01 -6.178334355354309082e-01 6.179131865501403809e-01 -4.862767755985260010e-01
-7.904390000000000027e-01 7.904390000000000027e-01 2.204800000000000093e-01 -6.260863542556762695e-01 6.261609196662902832e-01 -4.646917581558227539e-01
-7.865879999999999539e-01 7.865870000000000362e-01 2.233060000000000045e-01 -6.338630914688110352e-01 6.340671181678771973e-01 -4.429180622100830078e-01
-7.826889999999999681e-01 7.826880000000000503e-01 2.259970000000000034e-01 -6.415250897407531738e-01 6.414927244186401367e-01 -4.206336140632629395e-01
-7.787439999999999918e-01 7.787439999999999918e-01 2.285520000000000052e-01 -6.485836505889892578e-01 6.485439538955688477e-01 -3.984093070030212402e-01
-7.747560000000000002e-01 7.747560000000000002e-01 2.309700000000000086e-01 -6.552705168724060059e-01 6.553467512130737305e-01 -3.756876289844512939e-01
-7.707279999999999687e-01 7.707279999999999687e-01 2.332480000000000109e-01 -6.616493463516235352e-01 6.615893840789794922e-01 -3.528732061386108398e-01
-7.666610000000000369e-01 7.666610000000000369e-01 2.353860000000000119e-01 -6.674128770828247070e-01 6.677011847496032715e-01 -3.297501206398010254e-01
-7.625589999999999868e-01 7.625579999999999581e-01 2.373820000000000097e-01 -6.729894876480102539e-01 6.731138229370117188e-01 -3.065990209579467773e-01
-7.584220000000000406e-01 7.584220000000000406e-01 2.392350000000000032e-01 -6.781286597251892090e-01 6.782538890838623047e-01 -2.830429077148437500e-01
-7.542560000000000375e-01 7.542550000000000088e-01 2.409439999999999915e-01 -6.828042864799499512e-01 6.830464005470275879e-01 -2.592794597148895264e-01
-7.500599999999999490e-01 7.500599999999999490e-01 2.425080000000000013e-01 -6.872696280479431152e-01 6.870769858360290527e-01 -2.357662618160247803e-01
-7.458390000000000297e-01 7.458390000000000297e-01 2.439260000000000039e-01 -6.911449432373046875e-01 6.911317110061645508e-01 -2.113188654184341431e-01
-7.415939999999999754e-01 7.415939999999999754e-01 2.451959999999999973e-01 -6.946431994438171387e-01 6.945380568504333496e-01 -1.873169094324111938e-01
-7.373290000000000122e-01 7.373290000000000122e-01 2.463190000000000102e-01 -6.976646184921264648e-01 6.977107524871826172e-01 -1.626771688461303711e-01
-7.330449999999999466e-01 7.330449999999999466e-01 2.472940000000000138e-01 -7.001753449440002441e-01 7.004212141036987305e-01 -1.384363621473312378e-01
-7.287460000000000049e-01 7.287460000000000049e-01 2.481200000000000072e-01 -7.025681734085083008e-01 7.025575637817382812e-01 -1.131854951381683350e-01
-7.244340000000000224e-01 7.244340000000000224e-01 2.487959999999999894e-01 -7.039167881011962891e-01 7.048195004463195801e-01 -8.792376518249511719e-02
-7.201109999999999456e-01 7.201109999999999456e-01 2.493229999999999891e-01 -7.033224701881408691e-01 7.081915140151977539e-01 -6.166437640786170959e-02
-7.157810000000000006e-01 7.157810000000000006e-01 2.496990000000000043e-01 -6.987903118133544922e-01 7.145527601242065430e-01 -3.326236829161643982e-02
-7.114449999999999941e-01 7.114449999999999941e-01 2.499250000000000083e-01 -7.594308853149414062e-01 6.505801677703857422e-01 -3.183973254635930061e-03
-7.027689999999999770e-01 7.027679999999999483e-01 2.499250000000000083e-01 -7.611204385757446289e-01 6.468283534049987793e-01 4.804901778697967529e-02
-6.984329999999999705e-01 6.984329999999999705e-01 2.496990000000000043e-01 -6.971931457519531250e-01 7.137798070907592773e-01 6.663476675748825073e-02
-6.941019999999999968e-01 6.941019999999999968e-01 2.493229999999999891e-01 -7.056561708450317383e-01 7.031705379486083984e-01 8.718100935220718384e-02
-6.897799999999999487e-01 6.897790000000000310e-01 2.487959999999999894e-01 -7.017044425010681152e-01 7.039008140563964844e-01 1.101566404104232788e-01
-6.854679999999999662e-01 6.854670000000000485e-01 2.481200000000000072e-01 -7.021547555923461914e-01 6.995044350624084473e-01 1.329365521669387817e-01
-6.811679999999999957e-01 6.811679999999999957e-01 2.472940000000000138e-01 -6.986075639724731445e-01 6.980418562889099121e-01 1.571149975061416626e-01
-6.768849999999999589e-01 6.768849999999999589e-01 2.463190000000000102e-01 -6.955011487007141113e-01 6.954644322395324707e-01 1.805752664804458618e-01
-6.726199999999999957e-01 6.726189999999999669e-01 2.451959999999999973e-01 -6.921641230583190918e-01 6.921539306640625000e-01 2.045279592275619507e-01
-6.683750000000000524e-01 6.683750000000000524e-01 2.439260000000000039e-01 -6.886258721351623535e-01 6.883512139320373535e-01 2.279627919197082520e-01
-6.641540000000000221e-01 6.641529999999999934e-01 2.425080000000000013e-01 -6.842985153198242188e-01 6.842181086540222168e-01 2.521528005599975586e-01
-6.599580000000000446e-01 6.599580000000000446e-01 2.409439999999999915e-01 -6.797215342521667480e-01 6.799000501632690430e-01 2.751625776290893555e-01
-6.557910000000000128e-01 6.557910000000000128e-01 2.392350000000000032e-01 -6.745923161506652832e-01 6.748566031455993652e-01 2.991551160812377930e-01
-6.516549999999999843e-01 6.516549999999999843e-01 2.373820000000000097e-01 -6.693032383918762207e-01 6.696410775184631348e-01 3.218910992145538330e-01
-6.475530000000000452e-01 6.475520000000000165e-01 2.353860000000000119e-01 -6.634426712989807129e-01 6.637004017829895020e-01 3.454644083976745605e-01
-6.434860000000000024e-01 6.434860000000000024e-01 2.332480000000000109e-01 -6.574625968933105469e-01 6.575829982757568359e-01 3.678689002990722656e-01
-6.394570000000000531e-01 6.394570000000000531e-01 2.309700000000000086e-01 -6.506248712539672852e-01 6.510047912597656250e-01 3.909988105297088623e-01
-6.354699999999999793e-01 6.354689999999999506e-01 2.285520000000000052e-01 -6.436365842819213867e-01 6.439517140388488770e-01 4.135918617248535156e-01
-6.315250000000000030e-01 6.315250000000000030e-01 2.259970000000000034e-01 -6.365497708320617676e-01 6.366762518882751465e-01 4.352560043334960938e-01
-6.276260000000000172e-01 6.276260000000000172e-01 2.233060000000000045e-01 -6.284444332122802734e-01 6.288064122200012207e-01 4.578864574432373047e-01
-6.237749999999999684e-01 6.237749999999999684e-01 2.204800000000000093e-01 -6.206617951393127441e-01 6.208695769309997559e-01 4.788526296615600586e-01
-6.199740000000000251e-01 6.199740000000000251e-01 2.175219999999999931e-01 -6.116467714309692383e-01 6.121168732643127441e-01 5.011997818946838379e-01
-6.162260000000000515e-01 6.162250000000000227e-01 2.144320000000000115e-01 -6.032816171646118164e-01 6.036242246627807617e-01 5.212380886077880859e-01
-6.125319999999999654e-01 6.125310000000000477e-01 2.112130000000000118e-01 -5.935713648796081543e-01 5.938555598258972168e-01 5.431469678878784180e-01
-6.088949999999999640e-01 6.088949999999999640e-01 2.078669999999999962e-01 -5.845450758934020996e-01 5.846704244613647461e-01 5.625544190406799316e-01
-6.053169999999999940e-01 6.053169999999999940e-01 2.043959999999999944e-01 -5.739693641662597656e-01 5.744889378547668457e-01 5.835421681404113770e-01
-6.018010000000000304e-01 6.018010000000000304e-01 2.008020000000000083e-01 -5.641921162605285645e-01 5.645040869712829590e-01 6.025134325027465820e-01
-5.983479999999999910e-01 5.983479999999999910e-01 1.970870000000000122e-01 -5.530716776847839355e-01 5.535269379615783691e-01 6.226714253425598145e-01
-5.949609999999999621e-01 5.949609999999999621e-01 1.932530000000000081e-01 -5.425354242324829102e-01 5.428799390792846680e-01 6.410434842109680176e-01
-5.916409999999999725e-01 5.916409999999999725e-01 1.893019999999999980e-01 -5.309383869171142578e-01 5.313622951507568359e-01 6.601200699806213379e-01
-5.883909999999999973e-01 5.883909999999999973e-01 1.852380000000000138e-01 -5.196007490158081055e-01 5.199729800224304199e-01 6.779698729515075684e-01
-5.852119999999999544e-01 5.852119999999999544e-01 1.810620000000000007e-01 -5.075187683105468750e-01 5.079301595687866211e-01 6.960112452507019043e-01
-5.821070000000000411e-01 5.821070000000000411e-01 1.767769999999999897e-01 -4.953625202178955078e-01 4.957545697689056396e-01 7.133325934410095215e-01
-5.790769999999999529e-01 5.790769999999999529e-01 1.723850000000000104e-01 -4.827919006347656250e-01 4.831928014755249023e-01 7.303675413131713867e-01
-5.761239999999999695e-01 5.761239999999999695e-01 1.678900000000000114e-01 -4.699845612049102783e-01 4.703844487667083740e-01 7.468954920768737793e-01
-5.732500000000000373e-01 5.732500000000000373e-01 1.632929999999999937e-01 -4.568745195865631104e-01 4.573658406734466553e-01 7.629431486129760742e-01
-5.704569999999999919e-01 5.704559999999999631e-01 1.585979999999999890e-01 -4.434615373611450195e-01 4.439760744571685791e-01 7.786058187484741211e-01
-5.677459999999999729e-01 5.677450000000000552e-01 1.538080000000000003e-01 -4.299479722976684570e-01 4.303391277790069580e-01 7.936957478523254395e-01
-5.651190000000000380e-01 5.651180000000000092e-01 1.489250000000000018e-01 -4.159895479679107666e-01 4.163308739662170410e-01 8.084685206413269043e-01
-5.625769999999999937e-01 5.625769999999999937e-01 1.439519999999999966e-01 -4.019996821880340576e-01 4.023077785968780518e-01 8.225233554840087891e-01
-5.601220000000000088e-01 5.601220000000000088e-01 1.388929999999999887e-01 -3.874497115612030029e-01 3.878903090953826904e-01 8.363155722618103027e-01
-5.577560000000000295e-01 5.577560000000000295e-01 1.337490000000000068e-01 -3.728802800178527832e-01 3.732928633689880371e-01 8.494778871536254883e-01
-5.554799999999999738e-01 5.554799999999999738e-01 1.285260000000000014e-01 -3.579912781715393066e-01 3.584019243717193604e-01 8.622007966041564941e-01
-5.532960000000000100e-01 5.532960000000000100e-01 1.232250000000000012e-01 -3.428827524185180664e-01 3.433928787708282471e-01 8.743641972541809082e-01
-5.512040000000000273e-01 5.512029999999999985e-01 1.178489999999999954e-01 -3.276188373565673828e-01 3.281446993350982666e-01 8.859948515892028809e-01
-5.492059999999999720e-01 5.492050000000000542e-01 1.124030000000000029e-01 -3.121764659881591797e-01 3.126059472560882568e-01 8.971194624900817871e-01
-5.473029999999999839e-01 5.473019999999999552e-01 1.068889999999999979e-01 -2.964839935302734375e-01 2.968197464942932129e-01 9.077418446540832520e-01
-5.454959999999999809e-01 5.454959999999999809e-01 1.013099999999999973e-01 -2.805724442005157471e-01 2.810122966766357422e-01 9.177751541137695312e-01
-5.437870000000000203e-01 5.437859999999999916e-01 9.567100000000000604e-02 -2.644408345222473145e-01 2.650293409824371338e-01 9.272705316543579102e-01
-5.421759999999999913e-01 5.421749999999999625e-01 8.997399999999999842e-02 -2.483160197734832764e-01 2.486406564712524414e-01 9.362248778343200684e-01
-5.406640000000000335e-01 5.406640000000000335e-01 8.422200000000000519e-02 -2.318219542503356934e-01 2.322031408548355103e-01 9.446375966072082520e-01
-5.392519999999999536e-01 5.392519999999999536e-01 7.842000000000000359e-02 -2.151553481817245483e-01 2.156295329332351685e-01 9.524767994880676270e-01
-5.379420000000000313e-01 5.379420000000000313e-01 7.257099999999999662e-02 -1.980219334363937378e-01 1.985313296318054199e-01 9.598815441131591797e-01
-5.367340000000000444e-01 5.367340000000000444e-01 6.667800000000000116e-02 -1.809159815311431885e-01 1.813952773809432983e-01 9.666256308555603027e-01
-5.356279999999999930e-01 5.356279999999999930e-01 6.074500000000000038e-02 -1.630814671516418457e-01 1.637570261955261230e-01 9.729275107383728027e-01
-5.346260000000000456e-01 5.346250000000000169e-01 5.477499999999999730e-02 -1.450564861297607422e-01 1.456368118524551392e-01 9.786462783813476562e-01
-5.337269999999999515e-01 5.337269999999999515e-01 4.877299999999999691e-02 -1.259387880563735962e-01 1.265396475791931152e-01 9.839345216751098633e-01
-5.329329999999999901e-01 5.329329999999999901e-01 4.274000000000000021e-02 -1.056734248995780945e-01 1.065658628940582275e-01 9.886743426322937012e-01
-5.322440000000000504e-01 5.322430000000000216e-01 3.668300000000000033e-02 -8.289933204650878906e-02 8.408293128013610840e-02 9.930044412612915039e-01
-5.316600000000000215e-01 5.316589999999999927e-01 3.060300000000000173e-02 -5.470056459307670593e-02 5.620303377509117126e-02 9.969198107719421387e-01
-5.311810000000000143e-01 5.311810000000000143e-01 2.450400000000000147e-02 -1.633537001907825470e-02 1.920145377516746521e-02 9.996821880340576172e-01
-5.308089999999999753e-01 5.308089999999999753e-01 1.839100000000000110e-02 5.024465918540954590e-02 -4.514796286821365356e-02 9.977159500122070312e-01
-5.305429999999999868e-01 5.305429999999999868e-01 1.226700000000000013e-02 1.773458421230316162e-01 -1.741500496864318848e-01 9.686176776885986328e-01
-5.303830000000000489e-01 5.303830000000000489e-01 6.134999999999999828e-03 4.899431467056274414e-01 -4.267559945583343506e-01 7.601546645164489746e-01
-5.303830000000000489e-01 5.303830000000000489e-01 -6.134999999999999828e-03 4.383916854858398438e-01 -3.828986585140228271e-01 -8.131428956985473633e-01
-5.305429999999999868e-01 5.305429999999999868e-01 -1.226700000000000013e-02 1.526144295930862427e-01 -1.498666107654571533e-01 -9.768566489219665527e-01
-5.308089999999999753e-01 5.308089999999999753e-01 -1.839100000000000110e-02 3.747642040252685547e-02 -3.307091817259788513e-02 -9.987501502037048340e-01
-5.311810000000000143e-01 5.311810000000000143e-01 -2.450400000000000147e-02 -2.263507060706615448e-02 2.438717894256114960e-02 -9.994462728500366211e-01
-5.316600000000000215e-01 5.316589999999999927e-01 -3.060300000000000173e-02 -5.854883044958114624e-02 5.969312414526939392e-02 -9.964982867240905762e-01
-5.322440000000000504e-01 5.322430000000000216e-01 -3.668300000000000033e-02 -8.489716798067092896e-02 8.590717613697052002e-02 -9.926794171333312988e-01
-5.329329999999999901e-01 5.329329999999999901e-01 -4.274000000000000021e-02 -1.072888374328613281e-01 1.081270799040794373e-01 -9.883307814598083496e-01
-5.337269999999999515e-01 5.337269999999999515e-01 -4.877299999999999691e-02 -1.271418780088424683e-01 1.276618987321853638e-01 -9.836347699165344238e-01
-5.346260000000000456e-01 5.346250000000000169e-01 -5.477499999999999730e-02 -1.459823101758956909e-01 1.465484946966171265e-01 -9.783724546432495117e-01
-5.356279999999999930e-01 5.356279999999999930e-01 -6.074500000000000038e-02 -1.637350469827651978e-01 1.644241362810134888e-01 -9.727052450180053711e-01
-5.367340000000000444e-01 5.367340000000000444e-01 -6.667800000000000116e-02 -1.815508455038070679e-01 1.820361614227294922e-01 -9.663860797882080078e-01
-5.379420000000000313e-01 5.379420000000000313e-01 -7.257099999999999662e-02 -1.984874755144119263e-01 1.990375667810440063e-01 -9.596805572509765625e-01
-5.392519999999999536e-01 5.392519999999999536e-01 -7.842000000000000359e-02 -2.157478928565979004e-01 2.162339985370635986e-01 -9.522056579589843750e-01
-5.406640000000000335e-01 5.406640000000000335e-01 -8.422200000000000519e-02 -2.322858572006225586e-01 2.327130436897277832e-01 -9.443981647491455078e-01
-5.421759999999999913e-01 5.421749999999999625e-01 -8.997399999999999842e-02 -2.488435655832290649e-01 2.491996586322784424e-01 -9.359361529350280762e-01
-5.437870000000000203e-01 5.437859999999999916e-01 -9.567100000000000604e-02 -2.649397253990173340e-01 2.655716240406036377e-01 -9.269728660583496094e-01
-5.454959999999999809e-01 5.454959999999999809e-01 -1.013099999999999973e-01 -2.811248004436492920e-01 2.815948724746704102e-01 -9.174274802207946777e-01
-5.473029999999999839e-01 5.473019999999999552e-01 -1.068889999999999979e-01 -2.969449162483215332e-01 2.973450720310211182e-01 -9.074192047119140625e-01
-5.492059999999999720e-01 5.492050000000000542e-01 -1.124030000000000029e-01 -3.126808404922485352e-01 3.131562173366546631e-01 -8.967518806457519531e-01
-5.512040000000000273e-01 5.512029999999999985e-01 -1.178489999999999954e-01 -3.280466794967651367e-01 3.286488950252532959e-01 -8.856496214866638184e-01
-5.532960000000000100e-01 5.532960000000000100e-01 -1.232250000000000012e-01 -3.433560431003570557e-01 3.439269363880157471e-01 -8.739684820175170898e-01
-5.554799999999999738e-01 5.554799999999999738e-01 -1.285260000000000014e-01 -3.584080040454864502e-01 3.589043021202087402e-01 -8.618186116218566895e-01
-5.577560000000000295e-01 5.577560000000000295e-01 -1.337490000000000068e-01 -3.733232915401458740e-01 3.738093674182891846e-01 -8.490561246871948242e-01
-5.601220000000000088e-01 5.601220000000000088e-01 -1.388929999999999887e-01 -3.878743648529052734e-01 3.884039223194122314e-01 -8.358803391456604004e-01
-5.625769999999999937e-01 5.625769999999999937e-01 -1.439519999999999966e-01 -4.024258553981781006e-01 4.028131663799285889e-01 -8.220674395561218262e-01
-5.651190000000000380e-01 5.651180000000000092e-01 -1.489250000000000018e-01 -4.164310395717620850e-01 4.168579876422882080e-01 -8.079694509506225586e-01
-5.677459999999999729e-01 5.677450000000000552e-01 -1.538080000000000003e-01 -4.303433001041412354e-01 4.308258891105651855e-01 -7.932173013687133789e-01
-5.704569999999999919e-01 5.704559999999999631e-01 -1.585979999999999890e-01 -4.438953101634979248e-01 4.445021152496337891e-01 -7.780583500862121582e-01
-5.732500000000000373e-01 5.732500000000000373e-01 -1.632929999999999937e-01 -4.572375416755676270e-01 4.578374624252319336e-01 -7.624425888061523438e-01
-5.761239999999999695e-01 5.761239999999999695e-01 -1.678900000000000114e-01 -4.703973829746246338e-01 4.708986878395080566e-01 -7.463114261627197266e-01
-5.790769999999999529e-01 5.790769999999999529e-01 -1.723850000000000104e-01 -4.831322729587554932e-01 4.836609363555908203e-01 -7.298324108123779297e-01
-5.821070000000000411e-01 5.821070000000000411e-01 -1.767769999999999897e-01 -4.957374632358551025e-01 4.962363541126251221e-01 -7.127369046211242676e-01
-5.852119999999999544e-01 5.852119999999999544e-01 -1.810620000000000007e-01 -5.078654289245605469e-01 5.084266662597656250e-01 -6.953955888748168945e-01
-5.883909999999999973e-01 5.883909999999999973e-01 -1.852380000000000138e-01 -5.199491381645202637e-01 5.204451680183410645e-01 -6.773400902748107910e-01
-5.916409999999999725e-01 5.916409999999999725e-01 -1.893019999999999980e-01 -5.312722921371459961e-01 5.318574905395507812e-01 -6.594522595405578613e-01
-5.949609999999999621e-01 5.949609999999999621e-01 -1.932530000000000081e-01 -5.428535342216491699e-01 5.433292984962463379e-01 -6.403931379318237305e-01
-5.983479999999999910e-01 5.983479999999999910e-01 -1.970870000000000122e-01 -5.533853769302368164e-01 5.540325045585632324e-01 -6.219425797462463379e-01
-6.018010000000000304e-01 6.018010000000000304e-01 -2.008020000000000083e-01 -5.644835233688354492e-01 5.649242401123046875e-01 -6.018462777137756348e-01
-6.053169999999999940e-01 6.053169999999999940e-01 -2.043959999999999944e-01 -5.742646455764770508e-01 5.749978423118591309e-01 -5.827499628067016602e-01
-6.088949999999999640e-01 6.088949999999999640e-01 -2.078669999999999962e-01 -5.847860574722290039e-01 5.850696563720703125e-01 -5.618884563446044922e-01
-6.125319999999999654e-01 6.125310000000000477e-01 -2.112130000000000118e-01 -5.938387513160705566e-01 5.943723320960998535e-01 -5.422887206077575684e-01
-6.162260000000000515e-01 6.162250000000000227e-01 -2.144320000000000115e-01 -6.034968495368957520e-01 6.039734482765197754e-01 -5.205839276313781738e-01
-6.199740000000000251e-01 6.199740000000000251e-01 -2.175219999999999931e-01 -6.118877530097961426e-01 6.126253604888916016e-01 -5.002835392951965332e-01
-6.237749999999999684e-01 6.237749999999999684e-01 -2.204800000000000093e-01 -6.208302378654479980e-01 6.212086677551269531e-01 -4.781940281391143799e-01
-6.276260000000000172e-01 6.276260000000000172e-01 -2.233060000000000045e-01 -6.286407113075256348e-01 6.292690634727478027e-01 -4.569806456565856934e-01
-6.315250000000000030e-01 6.315250000000000030e-01 -2.259970000000000034e-01 -6.366726160049438477e-01 6.370182633399963379e-01 -4.345752596855163574e-01
-6.354699999999999793e-01 6.354689999999999506e-01 -2.285520000000000052e-01 -6.437783837318420410e-01 6.443614959716796875e-01 -4.127318859100341797e-01
-6.394570000000000531e-01 6.394570000000000531e-01 -2.309700000000000086e-01 -6.507192850112915039e-01 6.513732075691223145e-01 -3.902271986007690430e-01
-6.434860000000000024e-01 6.434860000000000024e-01 -2.332480000000000109e-01 -6.575443148612976074e-01 6.579308509826660156e-01 -3.670997917652130127e-01
-6.475530000000000452e-01 6.475520000000000165e-01 -2.353860000000000119e-01 -6.634755134582519531e-01 6.640815138816833496e-01 -3.446680009365081787e-01
-6.516549999999999843e-01 6.516549999999999843e-01 -2.373820000000000097e-01 -6.693319082260131836e-01 6.699568629264831543e-01 -3.211738467216491699e-01
-6.557910000000000128e-01 6.557910000000000128e-01 -2.392350000000000032e-01 -6.745792627334594727e-01 6.752472519874572754e-01 -2.983018457889556885e-01
-6.599580000000000446e-01 6.599580000000000446e-01 -2.409439999999999915e-01 -6.797012090682983398e-01 6.802035570144653320e-01 -2.744621038436889648e-01
-6.641540000000000221e-01 6.641529999999999934e-01 -2.425080000000000013e-01 -6.841773986816406250e-01 6.846537590026855469e-01 -2.512976527214050293e-01
-6.683750000000000524e-01 6.683750000000000524e-01 -2.439260000000000039e-01 -6.884925961494445801e-01 6.887179017066955566e-01 -2.272566407918930054e-01
-6.726199999999999957e-01 6.726189999999999669e-01 -2.451959999999999973e-01 -6.919786930084228516e-01 6.925762295722961426e-01 -2.037245035171508789e-01
-6.768849999999999589e-01 6.768849999999999589e-01 -2.463190000000000102e-01 -6.953042745590209961e-01 6.958535313606262207e-01 -1.798328459262847900e-01
-6.811679999999999957e-01 6.811679999999999957e-01 -2.472940000000000138e-01 -6.982990503311157227e-01 6.985170245170593262e-01 -1.563722044229507446e-01
-6.854679999999999662e-01 6.854670000000000485e-01 -2.481200000000000072e-01 -7.017133235931396484e-01 7.000826001167297363e-01 -1.322223246097564697e-01
-6.897799999999999487e-01 6.897790000000000310e-01 -2.487959999999999894e-01 -7.014912962913513184e-01 7.042286992073059082e-01 -1.094162538647651672e-01
-6.941019999999999968e-01 6.941019999999999968e-01 -2.493229999999999891e-01 -7.050411105155944824e-01 7.038688063621520996e-01 -8.651989698410034180e-02
-6.984329999999999705e-01 6.984329999999999705e-01 -2.496990000000000043e-01 -6.979827880859375000e-01 7.130798697471618652e-01 -6.585682183504104614e-02
-7.027689999999999770e-01 7.027679999999999483e-01 -2.499250000000000083e-01 -7.511543035507202148e-01 6.584077477455139160e-01 -4.760659486055374146e-02
-7.114449999999999941e-01 7.114449999999999941e-01 -2.499250000000000083e-01 -7.537672519683837891e-01 6.571406722068786621e-01 1.015226938761770725e-03
-7.157810000000000006e-01 7.157810000000000006e-01 -2.496990000000000043e-01 -6.992052197456359863e-01 7.142388224601745605e-01 3.122513927519321442e-02
-7.201109999999999456e-01 7.201109999999999456e-01 -2.493229999999999891e-01 -7.030341029167175293e-01 7.086061835289001465e-01 6.016912311315536499e-02
-7.244340000000000224e-01 7.244340000000000224e-01 -2.487959999999999894e-01 -7.036612033843994141e-01 7.052369713783264160e-01 8.661261945962905884e-02
-7.287460000000000049e-01 7.287460000000000049e-01 -2.481200000000000072e-01 -7.023633122444152832e-01 7.029501199722290039e-01 1.120128184556961060e-01
-7.330449999999999466e-01 7.330449999999999466e-01 -2.472940000000000138e-01 -7.000563740730285645e-01 7.007523775100708008e-01 1.373578906059265137e-01
-7.373290000000000122e-01 7.373290000000000122e-01 -2.463190000000000102e-01 -6.975356340408325195e-01 6.980849504470825195e-01 1.616211086511611938e-01
-7.415939999999999754e-01 7.415939999999999754e-01 -2.451959999999999973e-01 -6.945870518684387207e-01 6.948603987693786621e-01 1.863274276256561279e-01
-7.458390000000000297e-01 7.458390000000000297e-01 -2.439260000000000039e-01 -6.910846829414367676e-01 6.914975643157958984e-01 2.103167474269866943e-01
-7.500599999999999490e-01 7.500599999999999490e-01 -2.425080000000000013e-01 -6.872763633728027344e-01 6.873926520347595215e-01 2.348245680332183838e-01
-7.542560000000000375e-01 7.542550000000000088e-01 -2.409439999999999915e-01 -6.828231811523437500e-01 6.833935379981994629e-01 2.583133876323699951e-01
-7.584220000000000406e-01 7.584220000000000406e-01 -2.392350000000000032e-01 -6.781861782073974609e-01 6.785771846771240234e-01 2.821285128593444824e-01
-7.625589999999999868e-01 7.625579999999999581e-01 -2.373820000000000097e-01 -6.730716824531555176e-01 6.734610795974731445e-01 3.056545257568359375e-01
-7.666610000000000369e-01 7.666610000000000369e-01 -2.353860000000000119e-01 -6.675167679786682129e-01 6.680456399917602539e-01 3.288408219814300537e-01
-7.707279999999999687e-01 7.707279999999999687e-01 -2.332480000000000109e-01 -6.617828607559204102e-01 6.619516611099243164e-01 3.519424498081207275e-01
-7.747560000000000002e-01 7.747560000000000002e-01 -2.309700000000000086e-01 -6.554205417633056641e-01 6.557136774063110352e-01 3.747845590114593506e-01
-7.787439999999999918e-01 7.787439999999999918e-01 -2.285520000000000052e-01 -6.487609148025512695e-01 6.489294171333312988e-01 3.974919319152832031e-01
-7.826889999999999681e-01 7.826880000000000503e-01 -2.259970000000000034e-01 -6.417152881622314453e-01 6.418854594230651855e-01 4.197434782981872559e-01
-7.865879999999999539e-01 7.865870000000000362e-01 -2.233060000000000045e-01 -6.340860724449157715e-01 6.344711184501647949e-01 4.420194327831268311e-01
-7.904390000000000027e-01 7.904390000000000027e-01 -2.204800000000000093e-01 -6.263217926025390625e-01 6.265740394592285156e-01 4.638168215751647949e-01
-7.942399999999999460e-01 7.942390000000000283e-01 -2.175219999999999931e-01 -6.180976033210754395e-01 6.183416247367858887e-01 4.853956997394561768e-01
-7.979880000000000306e-01 7.979880000000000306e-01 -2.144320000000000115e-01 -6.093753576278686523e-01 6.097553372383117676e-01 5.068136453628540039e-01
-8.016820000000000057e-01 8.016820000000000057e-01 -2.112130000000000118e-01 -6.005476117134094238e-01 6.006683707237243652e-01 5.277689695358276367e-01
-8.053190000000000071e-01 8.053179999999999783e-01 -2.078669999999999962e-01 -5.911402702331542969e-01 5.914024114608764648e-01 5.484492182731628418e-01
-8.088959999999999484e-01 8.088959999999999484e-01 -2.043959999999999944e-01 -5.814741253852844238e-01 5.817368626594543457e-01 5.687443017959594727e-01
-8.124130000000000518e-01 8.124120000000000230e-01 -2.008020000000000083e-01 -5.715129971504211426e-01 5.716363787651062012e-01 5.887314081192016602e-01
-8.158659999999999801e-01 8.158649999999999514e-01 -1.970870000000000122e-01 -5.610817074775695801e-01 5.613399744033813477e-01 6.083458065986633301e-01
-8.192530000000000090e-01 8.192519999999999802e-01 -1.932530000000000081e-01 -5.502688288688659668e-01 5.504709482192993164e-01 6.278421878814697266e-01
-8.225729999999999986e-01 8.225719999999999699e-01 -1.893019999999999980e-01 -5.392727851867675781e-01 5.396183729171752930e-01 6.465267539024353027e-01
-8.258229999999999738e-01 8.258229999999999738e-01 -1.852380000000000138e-01 -5.278820395469665527e-01 5.280774235725402832e-01 6.651877164840698242e-01
-8.290020000000000167e-01 8.290009999999999879e-01 -1.810620000000000007e-01 -5.161975026130676270e-01 5.164109468460083008e-01 6.832714676856994629e-01
-8.321070000000000411e-01 8.321070000000000411e-01 -1.767769999999999897e-01 -5.041119456291198730e-01 5.044447779655456543e-01 7.010040283203125000e-01
-8.351370000000000182e-01 8.351370000000000182e-01 -1.723850000000000104e-01 -4.919996559619903564e-01 4.920622110366821289e-01 7.181999683380126953e-01
-8.380900000000000016e-01 8.380889999999999729e-01 -1.678900000000000114e-01 -4.793414473533630371e-01 4.794128239154815674e-01 7.351156473159790039e-01
-8.409640000000000448e-01 8.409630000000000161e-01 -1.632929999999999937e-01 -4.663732945919036865e-01 4.666703641414642334e-01 7.514750361442565918e-01
-8.437569999999999792e-01 8.437569999999999792e-01 -1.585979999999999890e-01 -4.532773196697235107e-01 4.535456001758575439e-01 7.673565745353698730e-01
-8.464679999999999982e-01 8.464679999999999982e-01 -1.538080000000000003e-01 -4.398462772369384766e-01 4.400158822536468506e-01 7.828929424285888672e-01
-8.490950000000000442e-01 8.490950000000000442e-01 -1.489250000000000018e-01 -4.261979758739471436e-01 4.263859093189239502e-01 7.978410124778747559e-01
-8.516369999999999774e-01 8.516369999999999774e-01 -1.439519999999999966e-01 -4.122246205806732178e-01 4.124076962471008301e-01 8.123981952667236328e-01
-8.540910000000000446e-01 8.540910000000000446e-01 -1.388929999999999887e-01 -3.980134725570678711e-01 3.982006609439849854e-01 8.264511227607727051e-01
-8.564570000000000238e-01 8.564570000000000238e-01 -1.337490000000000068e-01 -3.835970461368560791e-01 3.837776780128479004e-01 8.399810194969177246e-01
-8.587329999999999686e-01 8.587329999999999686e-01 -1.285260000000000014e-01 -3.690537214279174805e-01 3.692412674427032471e-01 8.529128432273864746e-01
-8.609179999999999611e-01 8.609179999999999611e-01 -1.232250000000000012e-01 -3.541012704372406006e-01 3.542816936969757080e-01 8.655038475990295410e-01
-8.630100000000000549e-01 8.630100000000000549e-01 -1.178489999999999954e-01 -3.390907347202301025e-01 3.392812311649322510e-01 8.774427175521850586e-01
-8.650079999999999991e-01 8.650079999999999991e-01 -1.124030000000000029e-01 -3.238109350204467773e-01 3.239938318729400635e-01 8.889175057411193848e-01
-8.669109999999999872e-01 8.669109999999999872e-01 -1.068889999999999979e-01 -3.084749877452850342e-01 3.086692094802856445e-01 8.997591137886047363e-01
-8.687179999999999902e-01 8.687179999999999902e-01 -1.013099999999999973e-01 -2.928111851215362549e-01 2.929986715316772461e-01 9.101721644401550293e-01
-8.704269999999999508e-01 8.704269999999999508e-01 -9.567100000000000604e-02 -2.772173285484313965e-01 2.774189710617065430e-01 9.198853969573974609e-01
-8.720379999999999798e-01 8.720379999999999798e-01 -8.997399999999999842e-02 -2.614511251449584961e-01 2.616424262523651123e-01 9.290783405303955078e-01
-8.735500000000000487e-01 8.735500000000000487e-01 -8.422200000000000519e-02 -2.457078248262405396e-01 2.459376305341720581e-01 9.376258850097656250e-01
-8.749609999999999888e-01 8.749609999999999888e-01 -7.842000000000000359e-02 -2.299981117248535156e-01 2.300766706466674805e-01 9.456033110618591309e-01
-8.762720000000000509e-01 8.762710000000000221e-01 -7.257099999999999662e-02 -2.146344929933547974e-01 2.148803025484085083e-01 9.527636170387268066e-01
-8.774800000000000377e-01 8.774800000000000377e-01 -6.667800000000000116e-02 -1.992108225822448730e-01 1.994268149137496948e-01 9.594498276710510254e-01
-8.785859999999999781e-01 8.785849999999999493e-01 -6.074500000000000038e-02 -1.846552044153213501e-01 1.849171817302703857e-01 9.652502536773681641e-01
-8.795880000000000365e-01 8.795880000000000365e-01 -5.477499999999999730e-02 -1.707887649536132812e-01 1.711713671684265137e-01 9.703255295753479004e-01
-8.804870000000000196e-01 8.804870000000000196e-01 -4.877299999999999691e-02 -1.589146852493286133e-01 1.592225581407546997e-01 9.743686914443969727e-01
-8.812809999999999810e-01 8.812809999999999810e-01 -4.274000000000000021e-02 -1.498724520206451416e-01 1.502283960580825806e-01 9.772255420684814453e-01
-8.819700000000000317e-01 8.819700000000000317e-01 -3.668300000000000033e-02 -1.475373208522796631e-01 1.479922682046890259e-01 9.779217839241027832e-01
-8.825539999999999496e-01 8.825539999999999496e-01 -3.060300000000000173e-02 -1.565160900354385376e-01 1.569430381059646606e-01 9.751265048980712891e-01
-8.830329999999999568e-01 8.830320000000000391e-01 -2.450400000000000147e-02 -1.893902570009231567e-01 1.897516399621963501e-01 9.633927941322326660e-01
-8.834049999999999958e-01 8.834039999999999671e-01 -1.839100000000000110e-02 -2.785260677337646484e-01 2.795859575271606445e-01 9.188334345817565918e-01
-8.836709999999999843e-01 8.836699999999999555e-01 -1.226700000000000013e-02 -4.443739950656890869e-01 4.423578977584838867e-01 7.790066003799438477e-01
-8.838300000000000045e-01 8.838300000000000045e-01 -6.134999999999999828e-03 -6.447004079818725586e-01 6.565491557121276855e-01 3.915413022041320801e-01
-1.249924999999999953e+00 0.000000000000000000e+00 6.134999999999999828e-03 -8.534691929817199707e-01 5.089535843580961227e-03 -5.211184024810791016e-01
-1.249698999999999893e+00 0.000000000000000000e+00 1.226700000000000013e-02 -4.735515713691711426e-01 -7.887381361797451973e-04 -8.807657361030578613e-01
-1.249322999999999961e+00 0.000000000000000000e+00 1.839100000000000110e-02 -2.894504964351654053e-01 1.167598762549459934e-03 -9.571923017501831055e-01
-1.248796000000000017e+00 0.000000000000000000e+00 2.450400000000000147e-02 -2.066947519779205322e-01 -2.043670974671840668e-03 -9.784033298492431641e-01
-1.248119999999999896e+00 0.000000000000000000e+00 3.060300000000000173e-02 -1.864950954914093018e-01 1.476298202760517597e-04 -9.824558496475219727e-01
-1.247293999999999903e+00 0.000000000000000000e+00 3.668300000000000033e-02 -1.874670386314392090e-01 1.539055847388226539e-05 -9.822708964347839355e-01
-1.246318999999999955e+00 0.000000000000000000e+00 4.274000000000000021e-02 -1.994209736585617065e-01 1.565395068610087037e-04 -9.799138903617858887e-01
-1.245195999999999970e+00 0.000000000000000000e+00 4.877299999999999691e-02 -2.164745926856994629e-01 -1.076083863154053688e-04 -9.762882590293884277e-01
-1.243926000000000087e+00 0.000000000000000000e+00 5.477499999999999730e-02 -2.360142022371292114e-01 -2.774086715362500399e-05 -9.717495441436767578e-01
-1.242507999999999946e+00 0.000000000000000000e+00 6.074500000000000038e-02 -2.574312984943389893e-01 -2.034069075307343155e-05 -9.662965536117553711e-01
-1.240944000000000047e+00 0.000000000000000000e+00 6.667800000000000116e-02 -2.789945304393768311e-01 -3.253581553508411162e-06 -9.602926969528198242e-01
-1.239235000000000086e+00 0.000000000000000000e+00 7.257099999999999662e-02 -3.015198111534118652e-01 7.886161256465129554e-06 -9.534599781036376953e-01
-1.237381999999999982e+00 0.000000000000000000e+00 7.842000000000000359e-02 -3.237989544868469238e-01 2.178061367885675281e-05 -9.461258649826049805e-01
-1.235386000000000095e+00 0.000000000000000000e+00 8.422200000000000519e-02 -3.465401828289031982e-01 5.359837086871266365e-05 -9.380351305007934570e-01
-1.233247999999999900e+00 0.000000000000000000e+00 8.997399999999999842e-02 -3.688631355762481689e-01 5.929573671892285347e-05 -9.294837117195129395e-01
-1.230969999999999898e+00 0.000000000000000000e+00 9.567100000000000604e-02 -3.915730118751525879e-01 -4.394298957777209580e-05 -9.201470613479614258e-01
-1.228552000000000088e+00 0.000000000000000000e+00 1.013099999999999973e-01 -4.137289822101593018e-01 -2.507550379959866405e-05 -9.104000329971313477e-01
-1.225997000000000003e+00 0.000000000000000000e+00 1.068889999999999979e-01 -4.358359277248382568e-01 -3.127362651866860688e-05 -9.000262022018432617e-01
-1.223306000000000004e+00 0.000000000000000000e+00 1.124030000000000029e-01 -4.577114284038543701e-01 -2.578417843324132264e-05 -8.891008496284484863e-01
-1.220480000000000009e+00 0.000000000000000000e+00 1.178489999999999954e-01 -4.793221056461334229e-01 -1.818432428990490735e-05 -8.776390552520751953e-01
-1.217521999999999993e+00 0.000000000000000000e+00 1.232250000000000012e-01 -5.006105303764343262e-01 -1.153975972556509078e-05 -8.656725883483886719e-01
-1.214431999999999956e+00 0.000000000000000000e+00 1.285260000000000014e-01 -5.218284130096435547e-01 -5.475971647683763877e-06 -8.530504703521728516e-01
-1.211213000000000095e+00 0.000000000000000000e+00 1.337490000000000068e-01 -5.424728989601135254e-01 -1.309220579059910960e-06 -8.400732874870300293e-01
-1.207867000000000024e+00 0.000000000000000000e+00 1.388929999999999887e-01 -5.629138350486755371e-01 2.780276190605945885e-06 -8.265155553817749023e-01
-1.204396000000000022e+00 0.000000000000000000e+00 1.439519999999999966e-01 -5.829765796661376953e-01 5.068101927463430911e-06 -8.124889731407165527e-01
-1.200801999999999925e+00 0.000000000000000000e+00 1.489250000000000018e-01 -6.027544736862182617e-01 8.843634532240685076e-06 -7.979266643524169922e-01
-1.197087000000000012e+00 0.000000000000000000e+00 1.538080000000000003e-01 -6.221202611923217773e-01 1.392848844261607155e-05 -7.829216718673706055e-01
-1.193252999999999897e+00 0.000000000000000000e+00 1.585979999999999890e-01 -6.412615180015563965e-01 2.596347621874883771e-05 -7.673223614692687988e-01
-1.189302000000000081e+00 0.000000000000000000e+00 1.632929999999999937e-01 -6.597638726234436035e-01 2.596014746814034879e-05 -7.514730095863342285e-01
-1.185238000000000014e+00 0.000000000000000000e+00 1.678900000000000114e-01 -6.779910326004028320e-01 2.061585109913721681e-05 -7.350701689720153809e-01
-1.181062000000000056e+00 0.000000000000000000e+00 1.723850000000000104e-01 -6.957942843437194824e-01 1.463624539610464126e-05 -7.182412147521972656e-01
-1.176776999999999962e+00 0.000000000000000000e+00 1.767769999999999897e-01 -7.132613062858581543e-01 -2.220265378127805889e-05 -7.008982300758361816e-01
-1.172385000000000010e+00 0.000000000000000000e+00 1.810620000000000007e-01 -7.302784323692321777e-01 -2.658944686118047684e-05 -6.831496953964233398e-01
-1.167890000000000095e+00 0.000000000000000000e+00 1.852380000000000138e-01 -7.468061447143554688e-01 -3.921765528502874076e-05 -6.650418639183044434e-01
-1.163292999999999910e+00 0.000000000000000000e+00 1.893019999999999980e-01 -7.630181312561035156e-01 -4.234532025293447077e-05 -6.463770270347595215e-01
-1.158598000000000017e+00 0.000000000000000000e+00 1.932530000000000081e-01 -7.785547971725463867e-01 -5.989380588289350271e-05 -6.275765299797058105e-01
-1.153807999999999945e+00 0.000000000000000000e+00 1.970870000000000122e-01 -7.938867211341857910e-01 -3.774329798034159467e-06 -6.080656647682189941e-01
-1.148924999999999974e+00 0.000000000000000000e+00 2.008020000000000083e-01 -8.084956407546997070e-01 -1.741150845191441476e-05 -5.885022282600402832e-01
-1.143952000000000080e+00 0.000000000000000000e+00 2.043959999999999944e-01 -8.227306604385375977e-01 -1.847977728175465018e-05 -5.684313774108886719e-01
-1.138892999999999933e+00 0.000000000000000000e+00 2.078669999999999962e-01 -8.363742232322692871e-01 -2.404289443802554160e-05 -5.481588244438171387e-01
-1.133748999999999896e+00 0.000000000000000000e+00 2.112130000000000118e-01 -8.496465086936950684e-01 -2.987144216604065150e-05 -5.273525714874267578e-01
-1.128525999999999918e+00 0.000000000000000000e+00 2.144320000000000115e-01 -8.622217178344726562e-01 -4.413088026922196150e-05 -5.065311193466186523e-01
-1.123224000000000000e+00 0.000000000000000000e+00 2.175219999999999931e-01 -8.745508193969726562e-01 -5.446686554932966828e-05 -4.849339127540588379e-01
-1.117849000000000093e+00 0.000000000000000000e+00 2.204800000000000093e-01 -8.861345648765563965e-01 -7.159294182201847434e-05 -4.634281098842620850e-01
-1.112403000000000031e+00 0.000000000000000000e+00 2.233060000000000045e-01 -8.972805738449096680e-01 -1.004823134280741215e-04 -4.414608180522918701e-01
-1.106889000000000012e+00 0.000000000000000000e+00 2.259970000000000034e-01 -9.078187346458435059e-01 -1.278293930226936936e-04 -4.193626642227172852e-01
-1.101310000000000011e+00 0.000000000000000000e+00 2.285520000000000052e-01 -9.178535342216491699e-01 -1.774627598933875561e-04 -3.969194889068603516e-01
-1.095671000000000062e+00 0.000000000000000000e+00 2.309700000000000086e-01 -9.272714853286743164e-01 -2.276886807521805167e-04 -3.743894994258880615e-01
-1.089973999999999998e+00 0.000000000000000000e+00 2.332480000000000109e-01 -9.362542033195495605e-01 -3.918485017493367195e-04 -3.513231575489044189e-01
-1.084222000000000019e+00 0.000000000000000000e+00 2.353860000000000119e-01 -9.445611238479614258e-01 3.137781459372490644e-05 -3.283354341983795166e-01
-1.078419999999999934e+00 0.000000000000000000e+00 2.373820000000000097e-01 -9.523380398750305176e-01 -3.840331919491291046e-05 -3.050445914268493652e-01
-1.072570999999999941e+00 0.000000000000000000e+00 2.392350000000000032e-01 -9.595585465431213379e-01 -5.991377474856562912e-05 -2.815091311931610107e-01
-1.066678000000000015e+00 0.000000000000000000e+00 2.409439999999999915e-01 -9.661639332771301270e-01 -1.096534688258543611e-04 -2.579286396503448486e-01
-1.060745000000000049e+00 0.000000000000000000e+00 2.425080000000000013e-01 -9.722440242767333984e-01 -1.900828938232734799e-04 -2.339691519737243652e-01
-1.054775000000000018e+00 0.000000000000000000e+00 2.439260000000000039e-01 -9.777043461799621582e-01 -2.917347010225057602e-04 -2.099860757589340210e-01
-1.048772999999999955e+00 0.000000000000000000e+00 2.451959999999999973e-01 -9.826477766036987305e-01 -5.967047181911766529e-04 -1.854804009199142456e-01
-1.042740000000000000e+00 0.000000000000000000e+00 2.463190000000000102e-01 -9.868838787078857422e-01 -1.148274634033441544e-03 -1.614278256893157959e-01
-1.036683000000000021e+00 0.000000000000000000e+00 2.472940000000000138e-01 -9.906494021415710449e-01 -5.135779501870274544e-04 -1.364310979843139648e-01
-1.030602999999999936e+00 0.000000000000000000e+00 2.481200000000000072e-01 -9.937361478805541992e-01 -4.768556100316345692e-04 -1.117505282163619995e-01
-1.024504000000000081e+00 0.000000000000000000e+00 2.487959999999999894e-01 -9.963124394416809082e-01 -5.253590643405914307e-03 -8.563844114542007446e-02
-1.018391000000000046e+00 0.000000000000000000e+00 2.493229999999999891e-01 -9.982071518898010254e-01 9.692270541563630104e-04 -5.984616279602050781e-02
-1.012267000000000028e+00 0.000000000000000000e+00 2.496990000000000043e-01 -9.994575977325439453e-01 1.265652384608983994e-02 -3.040238283574581146e-02
-1.006135000000000002e+00 0.000000000000000000e+00 2.499250000000000083e-01 -9.972260594367980957e-01 -7.443200051784515381e-02 9.384209261042997241e-05
-9.938649999999999984e-01 0.000000000000000000e+00 2.499250000000000083e-01 -9.956663250923156738e-01 -7.777772098779678345e-02 5.098333209753036499e-02
-9.877329999999999721e-01 0.000000000000000000e+00 2.496990000000000043e-01 -9.975966811180114746e-01 1.211547944694757462e-02 6.822097301483154297e-02
-9.816089999999999538e-01 0.000000000000000000e+00 2.493229999999999891e-01 -9.961062073707580566e-01 -3.535641881171613932e-04 8.816038817167282104e-02
-9.754960000000000298e-01 0.000000000000000000e+00 2.487959999999999894e-01 -9.937904477119445801e-01 2.754616551101207733e-03 1.112330630421638489e-01
-9.693969999999999532e-01 0.000000000000000000e+00 2.481200000000000072e-01 -9.910472035408020020e-01 1.061517279595136642e-03 1.335082054138183594e-01
-9.633169999999999789e-01 0.000000000000000000e+00 2.472940000000000138e-01 -9.874721169471740723e-01 8.033628691919147968e-04 1.577913314104080200e-01
-9.572599999999999998e-01 0.000000000000000000e+00 2.463190000000000102e-01 -9.835031628608703613e-01 3.475841367617249489e-04 1.808902025222778320e-01
-9.512270000000000447e-01 0.000000000000000000e+00 2.451959999999999973e-01 -9.787596464157104492e-01 3.072551044169813395e-04 2.050108462572097778e-01
-9.452249999999999819e-01 0.000000000000000000e+00 2.439260000000000039e-01 -9.735639095306396484e-01 1.828518434194847941e-04 2.284146994352340698e-01
-9.392549999999999510e-01 0.000000000000000000e+00 2.425080000000000013e-01 -9.675941467285156250e-01 2.987490443047136068e-04 2.525100111961364746e-01
-9.333219999999999850e-01 0.000000000000000000e+00 2.409439999999999915e-01 -9.612244367599487305e-01 2.126913750544190407e-04 2.757670283317565918e-01
-9.274289999999999479e-01 0.000000000000000000e+00 2.392350000000000032e-01 -9.541210532188415527e-01 2.091127971652895212e-04 2.994210422039031982e-01
-9.215799999999999548e-01 0.000000000000000000e+00 2.373820000000000097e-01 -9.465777277946472168e-01 1.531596644781529903e-04 3.224757015705108643e-01
-9.157779999999999809e-01 0.000000000000000000e+00 2.353860000000000119e-01 -9.383234977722167969e-01 2.772393927443772554e-04 3.457584977149963379e-01
-9.100260000000000016e-01 0.000000000000000000e+00 2.332480000000000109e-01 -9.296362996101379395e-01 2.120788558386266232e-04 3.684784471988677979e-01
-9.043290000000000495e-01 0.000000000000000000e+00 2.309700000000000086e-01 -9.202423691749572754e-01 2.003039699047803879e-04 3.913490176200866699e-01
-8.986899999999999888e-01 0.000000000000000000e+00 2.285520000000000052e-01 -9.104012846946716309e-01 1.792951661627739668e-04 4.137262701988220215e-01
-8.931109999999999882e-01 0.000000000000000000e+00 2.259970000000000034e-01 -8.999870419502258301e-01 1.689193741185590625e-04 4.359166324138641357e-01
-8.875969999999999693e-01 0.000000000000000000e+00 2.233060000000000045e-01 -8.890041112899780273e-01 1.436874590581282973e-04 4.578991234302520752e-01
-8.821510000000000185e-01 0.000000000000000000e+00 2.204800000000000093e-01 -8.775082826614379883e-01 1.754295371938496828e-04 4.795615375041961670e-01
-8.767749999999999710e-01 0.000000000000000000e+00 2.175219999999999931e-01 -8.655014038085937500e-01 1.537805073894560337e-04 5.009063482284545898e-01
-8.714739999999999709e-01 0.000000000000000000e+00 2.144320000000000115e-01 -8.528373837471008301e-01 1.462248910684138536e-04 5.221765637397766113e-01
-8.662509999999999932e-01 0.000000000000000000e+00 2.112130000000000118e-01 -8.398261666297912598e-01 1.368561788694933057e-04 5.428555011749267578e-01
-8.611069999999999558e-01 0.000000000000000000e+00 2.078669999999999962e-01 -8.262777924537658691e-01 1.281703880522400141e-04 5.632627606391906738e-01
-8.560480000000000311e-01 0.000000000000000000e+00 2.043959999999999944e-01 -8.121758699417114258e-01 1.209066613228060305e-04 5.834125876426696777e-01
-8.510750000000000259e-01 0.000000000000000000e+00 2.008020000000000083e-01 -7.976360917091369629e-01 1.133961050072684884e-04 6.031389832496643066e-01
-8.461920000000000552e-01 0.000000000000000000e+00 1.970870000000000122e-01 -7.825620174407958984e-01 1.088751814677380025e-04 6.225726008415222168e-01
-8.414019999999999833e-01 0.000000000000000000e+00 1.932530000000000081e-01 -7.669608592987060547e-01 9.396592940902337432e-05 6.416938900947570801e-01
-8.367069999999999785e-01 0.000000000000000000e+00 1.893019999999999980e-01 -7.510495185852050781e-01 7.683171861572191119e-05 6.602458953857421875e-01
-8.321100000000000163e-01 0.000000000000000000e+00 1.852380000000000138e-01 -7.346012592315673828e-01 7.525023102061823010e-05 6.784991025924682617e-01
-8.276149999999999896e-01 0.000000000000000000e+00 1.810620000000000007e-01 -7.177222967147827148e-01 7.182907575042918324e-05 6.963293552398681641e-01
-8.232230000000000381e-01 0.000000000000000000e+00 1.767769999999999897e-01 -7.003921270370483398e-01 7.564316183561459184e-05 7.137582898139953613e-01
