2.130650000000000044e-01 -7.951730000000000187e-01 -1.767769999999999897e-01 -2.147334665060043335e-01 7.355782985687255859e-01 6.425061225891113281e-01
2.177699999999999914e-01 -8.127320000000000100e-01 -1.932530000000000081e-01 -2.329024523496627808e-01 7.940662503242492676e-01 5.614402890205383301e-01
2.283169999999999922e-01 -8.520919999999999606e-01 -2.204800000000000093e-01 -2.586628198623657227e-01 8.856776952743530273e-01 3.855756223201751709e-01
2.340569999999999873e-01 -8.735150000000000414e-01 -2.309700000000000086e-01 -2.671269476413726807e-01 9.181414246559143066e-01 2.926767170429229736e-01
2.400359999999999994e-01 -8.958279999999999577e-01 -2.392350000000000032e-01 -2.729384899139404297e-01 9.418792724609375000e-01 1.958775967359542847e-01
2.461949999999999972e-01 -9.188150000000000484e-01 -2.451959999999999973e-01 -2.761626541614532471e-01 9.561195373535156250e-01 9.782487154006958008e-02
2.588190000000000213e-01 -9.659259999999999513e-01 -2.500000000000000000e-01 -2.743543684482574463e-01 9.564890265464782715e-01 -9.928912669420242310e-02
2.651609999999999800e-01 -9.895950000000000024e-01 -2.487959999999999894e-01 -2.701258063316345215e-01 9.426892399787902832e-01 -1.958803981542587280e-01
2.714420000000000166e-01 -1.013036999999999965e+00 -2.451959999999999973e-01 -2.636382877826690674e-01 9.192759990692138672e-01 -2.922780513763427734e-01
2.835799999999999987e-01 -1.058337000000000083e+00 -2.309700000000000086e-01 -2.431759238243103027e-01 8.466643691062927246e-01 -4.733126461505889893e-01
2.947670000000000012e-01 -1.100085999999999897e+00 -2.078669999999999962e-01 -2.138821631669998169e-01 7.414276003837585449e-01 -6.360341906547546387e-01
2.998669999999999947e-01 -1.119119999999999893e+00 -1.932530000000000081e-01 -1.962553411722183228e-01 6.778787374496459961e-01 -7.084943056106567383e-01
3.045720000000000094e-01 -1.136678999999999995e+00 -1.767769999999999897e-01 -1.769965142011642456e-01 6.078308224678039551e-01 -7.740891575813293457e-01
3.088359999999999994e-01 -1.152593999999999896e+00 -1.585979999999999890e-01 -1.561679244041442871e-01 5.321781039237976074e-01 -8.321045637130737305e-01
3.126189999999999802e-01 -1.166709999999999914e+00 -1.388929999999999887e-01 -1.339655220508575439e-01 4.511453509330749512e-01 -8.823384046554565430e-01
3.185979999999999923e-01 -1.189025999999999916e+00 -9.567100000000000604e-02 -8.651639521121978760e-02 2.773048281669616699e-01 -9.568787217140197754e-01
3.222800000000000109e-01 -1.202766999999999920e+00 -4.877299999999999691e-02 -3.645235300064086914e-02 9.311139583587646484e-02 -9.949882030487060547e-01
6.250000000000000000e-01 -1.082532000000000050e+00 0.000000000000000000e+00 5.203110724687576294e-02 -9.433633834123611450e-02 -9.941797852516174316e-01
6.225979999999999848e-01 -1.078372000000000108e+00 4.877299999999999691e-02 1.477044373750686646e-01 -2.602489590644836426e-01 -9.541770815849304199e-01
3.222800000000000109e-01 -1.202766999999999920e+00 4.877299999999999691e-02 6.516253948211669922e-02 -2.788615226745605469e-01 -9.581179618835449219e-01
6.196169999999999733e-01 -1.073209000000000080e+00 7.257099999999999662e-02 1.936658918857574463e-01 -3.395524621009826660e-01 -9.204334020614624023e-01
6.154849999999999488e-01 -1.066051000000000082e+00 9.567100000000000604e-02 2.379102408885955811e-01 -4.158127605915069580e-01 -8.777804374694824219e-01
3.158830000000000249e-01 -1.178894000000000108e+00 1.178489999999999954e-01 1.348455995321273804e-01 -5.332696437835693359e-01 -8.351288437843322754e-01
6.102400000000000047e-01 -1.056966999999999990e+00 1.178489999999999954e-01 2.795997858047485352e-01 -4.879630506038665771e-01 -8.268712162971496582e-01
5.966259999999999897e-01 -1.033387000000000056e+00 1.585979999999999890e-01 3.541782200336456299e-01 -6.181864142417907715e-01 -7.017145752906799316e-01
5.792990000000000084e-01 -1.003376000000000046e+00 1.932530000000000081e-01 4.153029918670654297e-01 -7.247898578643798828e-01 -5.497300624847412109e-01
5.589250000000000052e-01 -9.680860000000000021e-01 2.204800000000000093e-01 4.605074226856231689e-01 -8.037031292915344238e-01 -3.768213689327239990e-01
2.893200000000000216e-01 -1.079760000000000053e+00 2.204800000000000093e-01 2.337617129087448120e-01 -8.893401026725769043e-01 -3.929753601551055908e-01
5.478349999999999609e-01 -9.488790000000000280e-01 2.309700000000000086e-01 4.764815568923950195e-01 -8.318330049514770508e-01 -2.846386134624481201e-01
5.362860000000000404e-01 -9.288739999999999775e-01 2.392350000000000032e-01 4.879125058650970459e-01 -8.520140051841735840e-01 -1.897723674774169922e-01
5.243860000000000188e-01 -9.082639999999999603e-01 2.451959999999999973e-01 4.946714341640472412e-01 -8.640828728675842285e-01 -9.306417405605316162e-02
5.122520000000000406e-01 -8.872470000000000079e-01 2.487959999999999894e-01 4.966804385185241699e-01 -8.679249286651611328e-01 3.846887033432722092e-03
5.000000000000000000e-01 -8.660250000000000448e-01 2.500000000000000000e-01 4.941408932209014893e-01 -8.634787797927856445e-01 1.011395156383514404e-01
4.877480000000000149e-01 -8.448039999999999994e-01 2.487959999999999894e-01 4.866071939468383789e-01 -8.509347438812255859e-01 1.977966129779815674e-01
2.461949999999999972e-01 -9.188150000000000484e-01 2.451959999999999973e-01 2.490791082382202148e-01 -9.297866225242614746e-01 2.710283398628234863e-01
4.637140000000000151e-01 -8.031770000000000298e-01 2.392350000000000032e-01 4.580127000808715820e-01 -8.018185496330261230e-01 3.838115632534027100e-01
4.410749999999999948e-01 -7.639650000000000052e-01 2.204800000000000093e-01 4.105649292469024658e-01 -7.229915857315063477e-01 5.556253790855407715e-01
4.305539999999999923e-01 -7.457409999999999872e-01 2.078669999999999962e-01 3.828413784503936768e-01 -6.741696596145629883e-01 6.316072344779968262e-01
2.177699999999999914e-01 -8.127320000000000100e-01 1.932530000000000081e-01 1.930227279663085938e-01 -7.010296583175659180e-01 6.865125298500061035e-01
4.116119999999999779e-01 -7.129320000000000102e-01 1.767769999999999897e-01 3.144564926624298096e-01 -5.550641417503356934e-01 7.700784802436828613e-01
4.033740000000000103e-01 -6.986639999999999517e-01 1.585979999999999890e-01 2.762424647808074951e-01 -4.877732396125793457e-01 8.281107544898986816e-01
3.960659999999999736e-01 -6.860070000000000334e-01 1.388929999999999887e-01 2.345177978277206421e-01 -4.166031181812286377e-01 8.783183693885803223e-01
3.897599999999999953e-01 -6.750840000000000174e-01 1.178489999999999954e-01 1.905755698680877686e-01 -3.397576510906219482e-01 9.210025668144226074e-01
3.803819999999999979e-01 -6.588420000000000387e-01 7.257099999999999662e-02 9.805057197809219360e-02 -1.776686161756515503e-01 9.791935086250305176e-01
1.968999999999999917e-01 -7.348430000000000240e-01 7.257099999999999662e-02 5.901756137609481812e-02 -2.193507105112075806e-01 9.738594293594360352e-01
3.774020000000000152e-01 -6.536790000000000100e-01 4.877299999999999691e-02 4.808858036994934082e-02 -9.094837307929992676e-02 9.946938753128051758e-01
3.756019999999999914e-01 -6.505619999999999736e-01 2.450400000000000147e-02 -1.059526344761252403e-03 -8.145459927618503571e-03 9.999662041664123535e-01
1.941140000000000088e-01 -7.244439999999999769e-01 0.000000000000000000e+00 -1.767032407224178314e-02 6.508532911539077759e-02 9.977231621742248535e-01
3.750000000000000000e-01 -6.495189999999999575e-01 0.000000000000000000e+00 -5.106016993522644043e-02 7.899002730846405029e-02 9.955668449401855469e-01
1.944259999999999877e-01 -7.256070000000000020e-01 -2.450400000000000147e-02 -4.615610837936401367e-02 1.619321405887603760e-01 9.857218861579895020e-01
3.774020000000000152e-01 -6.536790000000000100e-01 -4.877299999999999691e-02 -1.450931131839752197e-01 2.449193745851516724e-01 9.586253166198730469e-01
3.803819999999999979e-01 -6.588420000000000387e-01 -7.257099999999999662e-02 -1.934656947851181030e-01 3.296917974948883057e-01 9.240531921386718750e-01
3.845149999999999957e-01 -6.660000000000000364e-01 -9.567100000000000604e-02 -2.377608418464660645e-01 4.084959626197814941e-01 8.812496066093444824e-01
3.897599999999999953e-01 -6.750840000000000174e-01 -1.178489999999999954e-01 -2.806275784969329834e-01 4.837199151515960693e-01 8.290134072303771973e-01
3.960659999999999736e-01 -6.860070000000000334e-01 -1.388929999999999887e-01 -3.203784525394439697e-01 5.534288883209228516e-01 7.688134908676147461e-01
4.033740000000000103e-01 -6.986639999999999517e-01 -1.585979999999999890e-01 -3.557584881782531738e-01 6.140631437301635742e-01 7.045299410820007324e-01
4.116119999999999779e-01 -7.129320000000000102e-01 -1.767769999999999897e-01 -3.893859684467315674e-01 6.723356842994689941e-01 6.295580267906188965e-01
4.207009999999999916e-01 -7.286749999999999616e-01 -1.932530000000000081e-01 -4.185103774070739746e-01 7.242777347564697266e-01 5.479697585105895996e-01
2.228710000000000135e-01 -8.317660000000000053e-01 -2.078669999999999962e-01 -2.473218888044357300e-01 8.438820242881774902e-01 4.761251509189605713e-01
4.305539999999999923e-01 -7.457409999999999872e-01 -2.078669999999999962e-01 -4.428734183311462402e-01 7.674093246459960938e-01 4.636227488517761230e-01
4.410749999999999948e-01 -7.639650000000000052e-01 -2.204800000000000093e-01 -4.641670286655426025e-01 8.043491244316101074e-01 3.709062635898590088e-01
4.521649999999999836e-01 -7.831719999999999793e-01 -2.309700000000000086e-01 -4.807269871234893799e-01 8.310317397117614746e-01 2.797994911670684814e-01
4.756139999999999812e-01 -8.237870000000000470e-01 -2.451959999999999973e-01 -4.994943141937255859e-01 8.620674014091491699e-01 8.570351451635360718e-02
2.524759999999999782e-01 -9.422570000000000112e-01 -2.487959999999999894e-01 -2.764885723590850830e-01 9.610171914100646973e-01 -1.112517929868772626e-04
4.877480000000000149e-01 -8.448039999999999994e-01 -2.487959999999999894e-01 -5.014979243278503418e-01 8.650518655776977539e-01 -1.360356528311967850e-02
5.000000000000000000e-01 -8.660250000000000448e-01 -2.500000000000000000e-01 -4.984494745731353760e-01 8.598507642745971680e-01 -1.104755848646163940e-01
5.122520000000000406e-01 -8.872470000000000079e-01 -2.487959999999999894e-01 -4.906696081161499023e-01 8.461896181106567383e-01 -2.078618705272674561e-01
5.243860000000000188e-01 -9.082639999999999603e-01 -2.451959999999999973e-01 -4.780770540237426758e-01 8.245043158531188965e-01 -3.027126789093017578e-01
2.776009999999999867e-01 -1.036024000000000056e+00 -2.392350000000000032e-01 -2.545957863330841064e-01 8.873445391654968262e-01 -3.844484090805053711e-01
5.362860000000000404e-01 -9.288739999999999775e-01 -2.392350000000000032e-01 -4.610434472560882568e-01 7.947282791137695312e-01 -3.947732150554656982e-01
5.478349999999999609e-01 -9.488790000000000280e-01 -2.309700000000000086e-01 -4.396439194679260254e-01 7.574942111968994141e-01 -4.826134145259857178e-01
2.893200000000000216e-01 -1.079760000000000053e+00 -2.204800000000000093e-01 -2.296303510665893555e-01 7.980999946594238281e-01 -5.570515394210815430e-01
5.589250000000000052e-01 -9.680860000000000021e-01 -2.204800000000000093e-01 -4.141559898853302002e-01 7.131459116935729980e-01 -5.655949711799621582e-01
5.694460000000000077e-01 -9.863100000000000200e-01 -2.078669999999999962e-01 -3.843602538108825684e-01 6.615014076232910156e-01 -6.439588665962219238e-01
5.792990000000000084e-01 -1.003376000000000046e+00 -1.932530000000000081e-01 -3.510802090167999268e-01 6.037032604217529297e-01 -7.157409191131591797e-01
5.883880000000000221e-01 -1.019119000000000108e+00 -1.767769999999999897e-01 -3.146056830883026123e-01 5.401319265365600586e-01 -7.805643677711486816e-01
5.966259999999999897e-01 -1.033387000000000056e+00 -1.585979999999999890e-01 -2.749122381210327148e-01 4.715774655342102051e-01 -8.378770947456359863e-01
6.102400000000000047e-01 -1.056966999999999990e+00 -1.178489999999999954e-01 -1.883726716041564941e-01 3.210819065570831299e-01 -9.281282424926757812e-01
3.158830000000000249e-01 -1.178894000000000108e+00 -1.178489999999999954e-01 -1.107367873191833496e-01 3.661758601665496826e-01 -9.239332675933837891e-01
6.154849999999999488e-01 -1.066051000000000082e+00 -9.567100000000000604e-02 -1.420144140720367432e-01 2.410957962274551392e-01 -9.600545167922973633e-01
3.207369999999999943e-01 -1.197008999999999990e+00 -7.257099999999999662e-02 -6.172791495919227600e-02 1.860401034355163574e-01 -9.806012511253356934e-01
6.196169999999999733e-01 -1.073209000000000080e+00 -7.257099999999999662e-02 -9.426737576723098755e-02 1.589283347129821777e-01 -9.827794432640075684e-01
6.225979999999999848e-01 -1.078372000000000108e+00 -4.877299999999999691e-02 -4.596280679106712341e-02 7.532542943954467773e-02 -9.960991740226745605e-01
3.232119999999999993e-01 -1.206245000000000012e+00 -2.450400000000000147e-02 -1.065765507519245148e-02 -7.164468988776206970e-04 -9.999429583549499512e-01
6.243980000000000086e-01 -1.081488999999999923e+00 -2.450400000000000147e-02 3.139453008770942688e-03 -9.521938860416412354e-03 -9.999497532844543457e-01
8.838829999999999742e-01 -8.838840000000000030e-01 0.000000000000000000e+00 9.254667907953262329e-02 -9.102343022823333740e-02 9.915391206741333008e-01
6.243980000000000086e-01 -1.081488999999999923e+00 2.450400000000000147e-02 1.003893762826919556e-01 -1.782629936933517456e-01 -9.788484573364257812e-01
8.804859999999999909e-01 -8.804870000000000196e-01 4.877299999999999691e-02 -4.648739844560623169e-02 4.735057055950164795e-02 9.977959990501403809e-01
8.762710000000000221e-01 -8.762720000000000509e-01 7.257099999999999662e-02 -1.157545596361160278e-01 1.168400943279266357e-01 9.863819479942321777e-01
8.704269999999999508e-01 -8.704279999999999795e-01 9.567100000000000604e-02 -1.828672140836715698e-01 1.840173006057739258e-01 9.657624959945678711e-01
8.630090000000000261e-01 -8.630100000000000549e-01 1.178489999999999954e-01 -2.493518441915512085e-01 2.500277161598205566e-01 9.355799555778503418e-01
6.039339999999999709e-01 -1.046043999999999974e+00 1.388929999999999887e-01 3.181746900081634521e-01 -5.557767152786254883e-01 -7.680345177650451660e-01
8.540910000000000446e-01 -8.540919999999999623e-01 1.388929999999999887e-01 -3.125399649143218994e-01 3.128684163093566895e-01 8.969014286994934082e-01
8.321060000000000123e-01 -8.321070000000000411e-01 1.767769999999999897e-01 -4.297095239162445068e-01 4.301933646202087402e-01 7.939038872718811035e-01
5.883880000000000221e-01 -1.019119000000000108e+00 1.767769999999999897e-01 3.867610394954681396e-01 -6.746416687965393066e-01 -6.287086606025695801e-01
8.192519999999999802e-01 -8.192530000000000090e-01 1.932530000000000081e-01 -4.834780097007751465e-01 4.833590686321258545e-01 7.298034429550170898e-01
5.694460000000000077e-01 -9.863100000000000200e-01 2.078669999999999962e-01 4.400487244129180908e-01 -7.680673599243164062e-01 -4.652199447154998779e-01
8.053179999999999783e-01 -8.053190000000000071e-01 2.078669999999999962e-01 -5.312325358390808105e-01 5.303249359130859375e-01 6.607173085212707520e-01
7.904379999999999740e-01 -7.904390000000000027e-01 2.204800000000000093e-01 -5.737823247909545898e-01 5.722861289978027344e-01 5.858860611915588379e-01
7.747560000000000002e-01 -7.747570000000000290e-01 2.309700000000000086e-01 -6.115694642066955566e-01 6.103722453117370605e-01 5.034168362617492676e-01
7.584220000000000406e-01 -7.584229999999999583e-01 2.392350000000000032e-01 -6.437786817550659180e-01 6.428788304328918457e-01 4.150372743606567383e-01
7.415939999999999754e-01 -7.415950000000000042e-01 2.451959999999999973e-01 -6.690802574157714844e-01 6.664311885833740234e-01 3.289392292499542236e-01
7.244340000000000224e-01 -7.244340000000000224e-01 2.487959999999999894e-01 -6.886207461357116699e-01 6.873561143875122070e-01 2.309611290693283081e-01
7.071060000000000123e-01 -7.071070000000000411e-01 2.500000000000000000e-01 -7.012341618537902832e-01 7.000876665115356445e-01 1.347140520811080933e-01
6.897790000000000310e-01 -6.897799999999999487e-01 2.487959999999999894e-01 -7.074641585350036621e-01 7.057110667228698730e-01 3.829133138060569763e-02
4.756139999999999812e-01 -8.237870000000000470e-01 2.451959999999999973e-01 4.748527705669403076e-01 -8.303493261337280273e-01 2.916072905063629150e-01
6.726189999999999669e-01 -6.726199999999999957e-01 2.451959999999999973e-01 -7.073477506637573242e-01 7.043985724449157715e-01 -5.900781974196434021e-02
6.394570000000000531e-01 -6.394579999999999709e-01 2.309700000000000086e-01 -6.864535212516784668e-01 6.825113892555236816e-01 -2.509177327156066895e-01
4.521649999999999836e-01 -7.831719999999999793e-01 2.309700000000000086e-01 4.370664656162261963e-01 -7.665901184082031250e-01 4.704385399818420410e-01
6.088949999999999640e-01 -6.088949999999999640e-01 2.078669999999999962e-01 -6.382877230644226074e-01 6.344152092933654785e-01 -4.360117018222808838e-01
4.207009999999999916e-01 -7.286749999999999616e-01 1.932530000000000081e-01 3.500385284423828125e-01 -6.169236302375793457e-01 7.048958539962768555e-01
5.949609999999999621e-01 -5.949609999999999621e-01 1.932530000000000081e-01 -6.078271865844726562e-01 6.018617153167724609e-01 -5.179851055145263672e-01
5.821060000000000123e-01 -5.821070000000000411e-01 1.767769999999999897e-01 -5.663541555404663086e-01 5.622829794883728027e-01 -6.025619506835937500e-01
5.704559999999999631e-01 -5.704569999999999919e-01 1.585979999999999890e-01 -5.211060643196105957e-01 5.175805687904357910e-01 -6.786448359489440918e-01
5.601220000000000088e-01 -5.601230000000000375e-01 1.388929999999999887e-01 -4.749971330165863037e-01 4.701636135578155518e-01 -7.438573837280273438e-01
5.512029999999999985e-01 -5.512040000000000273e-01 1.178489999999999954e-01 -4.193695187568664551e-01 4.158449172973632812e-01 -8.069710731506347656e-01
3.845149999999999957e-01 -6.660000000000000364e-01 9.567100000000000604e-02 1.443128436803817749e-01 -2.588940858840942383e-01 9.550642371177673340e-01
5.379420000000000313e-01 -5.379420000000000313e-01 7.257099999999999662e-02 -2.986643910408020020e-01 2.971103191375732422e-01 -9.069316983222961426e-01
5.311810000000000143e-01 -5.311820000000000430e-01 2.450400000000000147e-02 -1.721094697713851929e-01 1.694877147674560547e-01 -9.703876972198486328e-01
3.750000000000000000e-01 -6.495189999999999575e-01 0.000000000000000000e+00 -5.106016993522644043e-02 7.899002730846405029e-02 9.955668449401855469e-01
5.303299999999999681e-01 -5.303299999999999681e-01 0.000000000000000000e+00 -1.004438102245330811e-01 1.012009903788566589e-01 -9.897825121879577637e-01
3.756019999999999914e-01 -6.505619999999999736e-01 -2.450400000000000147e-02 -1.008137613534927368e-01 1.660887449979782104e-01 9.809439778327941895e-01
5.311810000000000143e-01 -5.311820000000000430e-01 -2.450400000000000147e-02 -3.014084137976169586e-02 3.269958868622779846e-02 -9.990107417106628418e-01
5.337269999999999515e-01 -5.337269999999999515e-01 -4.877299999999999691e-02 3.801756352186203003e-02 -3.348444774746894836e-02 -9.987159371376037598e-01
5.379420000000000313e-01 -5.379420000000000313e-01 -7.257099999999999662e-02 1.085207983851432800e-01 -1.033708080649375916e-01 -9.887050390243530273e-01
5.437859999999999916e-01 -5.437870000000000203e-01 -9.567100000000000604e-02 1.761676371097564697e-01 -1.697790473699569702e-01 -9.696081280708312988e-01
5.601220000000000088e-01 -5.601230000000000375e-01 -1.388929999999999887e-01 3.071765005588531494e-01 -2.990991771221160889e-01 -9.034280776977539062e-01
5.704559999999999631e-01 -5.704569999999999919e-01 -1.585979999999999890e-01 3.673388957977294922e-01 -3.600071966648101807e-01 -8.575878143310546875e-01
5.821060000000000123e-01 -5.821070000000000411e-01 -1.767769999999999897e-01 4.254457056522369385e-01 -4.177180826663970947e-01 -8.028122782707214355e-01
5.949609999999999621e-01 -5.949609999999999621e-01 -1.932530000000000081e-01 4.795184135437011719e-01 -4.702928960323333740e-01 -7.408689260482788086e-01
6.088949999999999640e-01 -6.088949999999999640e-01 -2.078669999999999962e-01 5.294131040573120117e-01 -5.213665962219238281e-01 -6.692523360252380371e-01
6.394570000000000531e-01 -6.394579999999999709e-01 -2.309700000000000086e-01 6.113237738609313965e-01 -6.034575700759887695e-01 -5.119786858558654785e-01
6.557910000000000128e-01 -6.557920000000000416e-01 -2.392350000000000032e-01 6.433593034744262695e-01 -6.357905864715576172e-01 -4.264494776725769043e-01
4.637140000000000151e-01 -8.031770000000000298e-01 -2.392350000000000032e-01 -4.927353560924530029e-01 8.508185148239135742e-01 1.825367361307144165e-01
6.726189999999999669e-01 -6.726199999999999957e-01 -2.451959999999999973e-01 6.693736314773559570e-01 -6.626403331756591797e-01 -3.359268009662628174e-01
7.071060000000000123e-01 -7.071070000000000411e-01 -2.500000000000000000e-01 7.023712992668151855e-01 -6.972832083702087402e-01 -1.430761069059371948e-01
7.244340000000000224e-01 -7.244340000000000224e-01 -2.487959999999999894e-01 7.090646028518676758e-01 -7.038329839706420898e-01 -4.297284036874771118e-02
7.415939999999999754e-01 -7.415950000000000042e-01 -2.451959999999999973e-01 7.089784741401672363e-01 -7.031184434890747070e-01 5.453546345233917236e-02
7.584220000000000406e-01 -7.584229999999999583e-01 -2.392350000000000032e-01 7.007866501808166504e-01 -6.959804296493530273e-01 1.565545648336410522e-01
7.747560000000000002e-01 -7.747570000000000290e-01 -2.309700000000000086e-01 6.869271993637084961e-01 -6.822066307067871094e-01 2.504498958587646484e-01
7.904379999999999740e-01 -7.904390000000000027e-01 -2.204800000000000093e-01 6.657177805900573730e-01 -6.609503030776977539e-01 3.463589251041412354e-01
8.053179999999999783e-01 -8.053190000000000071e-01 -2.078669999999999962e-01 6.374993324279785156e-01 -6.339458227157592773e-01 4.378438591957092285e-01
8.192519999999999802e-01 -8.192530000000000090e-01 -1.932530000000000081e-01 6.044744849205017090e-01 -6.011080145835876465e-01 5.227615833282470703e-01
8.321060000000000123e-01 -8.321070000000000411e-01 -1.767769999999999897e-01 5.642203092575073242e-01 -5.612567067146301270e-01 6.055132746696472168e-01
8.437569999999999792e-01 -8.437569999999999792e-01 -1.585979999999999890e-01 5.186424255371093750e-01 -5.158774852752685547e-01 6.818214058876037598e-01
6.039339999999999709e-01 -1.046043999999999974e+00 -1.388929999999999887e-01 -2.325119078159332275e-01 3.982763886451721191e-01 -8.873072266578674316e-01
8.630090000000000261e-01 -8.630100000000000549e-01 -1.178489999999999954e-01 4.139786958694458008e-01 -4.113932847976684570e-01 8.120204806327819824e-01
8.704269999999999508e-01 -8.704279999999999795e-01 -9.567100000000000604e-02 3.549490272998809814e-01 -3.527577519416809082e-01 8.657789230346679688e-01
8.804859999999999909e-01 -8.804870000000000196e-01 -4.877299999999999691e-02 2.285764366388320923e-01 -2.259403616189956665e-01 9.469444155693054199e-01
1.082532000000000050e+00 -6.250000000000000000e-01 0.000000000000000000e+00 1.246094107627868652e-01 -6.819808483123779297e-02 9.898594021797180176e-01
8.830320000000000391e-01 -8.830329999999999568e-01 2.450400000000000147e-02 2.289167419075965881e-02 -2.202303335070610046e-02 9.994953274726867676e-01
1.078372000000000108e+00 -6.225979999999999848e-01 4.877299999999999691e-02 -4.307213425636291504e-02 2.906382083892822266e-02 9.986491799354553223e-01
1.073209000000000080e+00 -6.196180000000000021e-01 7.257099999999999662e-02 -1.267205178737640381e-01 7.734882831573486328e-02 9.889181852340698242e-01
1.056966999999999990e+00 -6.102400000000000047e-01 1.178489999999999954e-01 -2.879141569137573242e-01 1.705335974693298340e-01 9.423501491546630859e-01
1.046043999999999974e+00 -6.039339999999999709e-01 1.388929999999999887e-01 -3.647350370883941650e-01 2.156039476394653320e-01 9.058052897453308105e-01
8.437569999999999792e-01 -8.437569999999999792e-01 1.585979999999999890e-01 -3.744448721408843994e-01 3.750565946102142334e-01 8.480115532875061035e-01
1.033387000000000056e+00 -5.966259999999999897e-01 1.585979999999999890e-01 -4.386792778968811035e-01 2.584547102451324463e-01 8.606751561164855957e-01
1.003376000000000046e+00 -5.792990000000000084e-01 1.932530000000000081e-01 -5.720788240432739258e-01 3.362969756126403809e-01 7.480843067169189453e-01
9.863100000000000200e-01 -5.694460000000000077e-01 2.078669999999999962e-01 -6.314163804054260254e-01 3.707972168922424316e-01 6.810453534126281738e-01
9.680860000000000021e-01 -5.589250000000000052e-01 2.204800000000000093e-01 -6.853186488151550293e-01 4.019081294536590576e-01 6.072958707809448242e-01
9.488790000000000280e-01 -5.478359999999999896e-01 2.309700000000000086e-01 -7.319393157958984375e-01 4.292269051074981689e-01 5.291777253150939941e-01
9.288739999999999775e-01 -5.362860000000000404e-01 2.392350000000000032e-01 -7.722414135932922363e-01 4.528825879096984863e-01 4.455788433551788330e-01
9.082639999999999603e-01 -5.243860000000000188e-01 2.451959999999999973e-01 -8.055054545402526855e-01 4.723337888717651367e-01 3.578571975231170654e-01
8.872470000000000079e-01 -5.122520000000000406e-01 2.487959999999999894e-01 -8.314422965049743652e-01 4.875877797603607178e-01 2.663866579532623291e-01
8.660250000000000448e-01 -5.000000000000000000e-01 2.500000000000000000e-01 -8.497258424758911133e-01 4.984531104564666748e-01 1.717863231897354126e-01
8.237870000000000470e-01 -4.756139999999999812e-01 2.451959999999999973e-01 -8.622358441352844238e-01 5.061268210411071777e-01 -1.962324604392051697e-02
6.557910000000000128e-01 -6.557920000000000416e-01 2.392350000000000032e-01 -7.008963227272033691e-01 6.968840360641479492e-01 -1.519765108823776245e-01
7.831719999999999793e-01 -4.521649999999999836e-01 2.309700000000000086e-01 -8.420528173446655273e-01 4.957038164138793945e-01 -2.126608341932296753e-01
6.237749999999999684e-01 -6.237749999999999684e-01 2.204800000000000093e-01 -6.668355464935302734e-01 6.618536710739135742e-01 -3.424620330333709717e-01
7.457409999999999872e-01 -4.305539999999999923e-01 2.078669999999999962e-01 -7.896373867988586426e-01 4.662958085536956787e-01 -3.987995088100433350e-01
7.286749999999999616e-01 -4.207009999999999916e-01 1.932530000000000081e-01 -7.533585429191589355e-01 4.442365765571594238e-01 -4.848759472370147705e-01
7.129320000000000102e-01 -4.116119999999999779e-01 1.767769999999999897e-01 -7.077316045761108398e-01 4.174520969390869141e-01 -5.699558258056640625e-01
6.986639999999999517e-01 -4.033740000000000103e-01 1.585979999999999890e-01 -6.553443074226379395e-01 3.865798711776733398e-01 -6.489065885543823242e-01
6.750840000000000174e-01 -3.897599999999999953e-01 1.178489999999999954e-01 -5.329875946044921875e-01 3.153693377971649170e-01 -7.851536870002746582e-01
5.437859999999999916e-01 -5.437870000000000203e-01 9.567100000000000604e-02 -3.608402013778686523e-01 3.581805527210235596e-01 -8.611045479774475098e-01
6.660000000000000364e-01 -3.845149999999999957e-01 9.567100000000000604e-02 -4.612986445426940918e-01 2.725896835327148438e-01 -8.443331122398376465e-01
6.588420000000000387e-01 -3.803830000000000267e-01 7.257099999999999662e-02 -3.864774405956268311e-01 2.279837876558303833e-01 -8.936769962310791016e-01
5.337269999999999515e-01 -5.337269999999999515e-01 4.877299999999999691e-02 -2.295016646385192871e-01 2.290456146001815796e-01 -9.459741711616516113e-01
6.536790000000000100e-01 -3.774020000000000152e-01 4.877299999999999691e-02 -3.002160191535949707e-01 1.774194687604904175e-01 -9.372260570526123047e-01
6.495189999999999575e-01 -3.750000000000000000e-01 0.000000000000000000e+00 -1.401452422142028809e-01 8.377335220575332642e-02 -9.865806102752685547e-01
5.303299999999999681e-01 -5.303299999999999681e-01 0.000000000000000000e+00 -1.004438102245330811e-01 1.012009903788566589e-01 -9.897825121879577637e-01
6.495189999999999575e-01 -3.750000000000000000e-01 0.000000000000000000e+00 -1.401452422142028809e-01 8.377335220575332642e-02 -9.865806102752685547e-01
6.536790000000000100e-01 -3.774020000000000152e-01 -4.877299999999999691e-02 3.138170391321182251e-02 -1.814484782516956329e-02 -9.993427991867065430e-01
6.660000000000000364e-01 -3.845149999999999957e-01 -9.567100000000000604e-02 2.018788456916809082e-01 -1.202606484293937683e-01 -9.719991087913513184e-01
6.750840000000000174e-01 -3.897599999999999953e-01 -1.178489999999999954e-01 2.859222888946533203e-01 -1.700237244367599487e-01 -9.430484771728515625e-01
5.512029999999999985e-01 -5.512040000000000273e-01 -1.178489999999999954e-01 2.429034113883972168e-01 -2.355914711952209473e-01 -9.410071969032287598e-01
6.860070000000000334e-01 -3.960659999999999736e-01 -1.388929999999999887e-01 3.656868040561676025e-01 -2.175489962100982666e-01 -9.049561023712158203e-01
6.986639999999999517e-01 -4.033740000000000103e-01 -1.585979999999999890e-01 4.423232078552246094e-01 -2.597520053386688232e-01 -8.584166169166564941e-01
7.129320000000000102e-01 -4.116119999999999779e-01 -1.767769999999999897e-01 5.134429335594177246e-01 -3.003405034542083740e-01 -8.038482069969177246e-01
7.286749999999999616e-01 -4.207009999999999916e-01 -1.932530000000000081e-01 5.790274739265441895e-01 -3.388018906116485596e-01 -7.415797710418701172e-01
7.457409999999999872e-01 -4.305539999999999923e-01 -2.078669999999999962e-01 6.393967270851135254e-01 -3.740902245044708252e-01 -6.717353463172912598e-01
6.237749999999999684e-01 -6.237749999999999684e-01 -2.204800000000000093e-01 5.713843703269958496e-01 -5.629832148551940918e-01 -5.971345901489257812e-01
7.639650000000000052e-01 -4.410760000000000236e-01 -2.204800000000000093e-01 6.920619010925292969e-01 -4.056113064289093018e-01 -5.971010923385620117e-01
7.831719999999999793e-01 -4.521649999999999836e-01 -2.309700000000000086e-01 7.418594360351562500e-01 -4.318469762802124023e-01 -5.129842162132263184e-01
8.237870000000000470e-01 -4.756139999999999812e-01 -2.451959999999999973e-01 8.152863383293151855e-01 -4.722426533699035645e-01 -3.351045846939086914e-01
6.897790000000000310e-01 -6.897799999999999487e-01 -2.487959999999999894e-01 6.890760660171508789e-01 -6.833391189575195312e-01 -2.412923127412796021e-01
8.660250000000000448e-01 -5.000000000000000000e-01 -2.500000000000000000e-01 8.568574786186218262e-01 -4.951926171779632568e-01 -1.434560567140579224e-01
8.872470000000000079e-01 -5.122520000000000406e-01 -2.487959999999999894e-01 8.651360869407653809e-01 -4.995483756065368652e-01 -4.462096840143203735e-02
9.288739999999999775e-01 -5.362860000000000404e-01 -2.392350000000000032e-01 8.562766313552856445e-01 -4.936377108097076416e-01 1.520265489816665649e-01
9.488790000000000280e-01 -5.478359999999999896e-01 -2.309700000000000086e-01 8.392894268035888672e-01 -4.834860563278198242e-01 2.486655712127685547e-01
9.863100000000000200e-01 -5.694460000000000077e-01 -2.078669999999999962e-01 7.810056805610656738e-01 -4.492630958557128906e-01 4.338120222091674805e-01
1.003376000000000046e+00 -5.792990000000000084e-01 -1.932530000000000081e-01 7.404459714889526367e-01 -4.255751967430114746e-01 5.202167630195617676e-01
1.019117999999999968e+00 -5.883880000000000221e-01 -1.767769999999999897e-01 6.927855610847473145e-01 -3.975113034248352051e-01 6.016916632652282715e-01
1.046043999999999974e+00 -6.039339999999999709e-01 -1.388929999999999887e-01 5.775576233863830566e-01 -3.307202458381652832e-01 7.463586926460266113e-01
8.540910000000000446e-01 -8.540919999999999623e-01 -1.388929999999999887e-01 4.693368971347808838e-01 -4.665441513061523438e-01 7.497062087059020996e-01
1.066051000000000082e+00 -6.154849999999999488e-01 -9.567100000000000604e-02 4.411267340183258057e-01 -2.512121498584747314e-01 8.615680932998657227e-01
8.762710000000000221e-01 -8.762720000000000509e-01 -7.257099999999999662e-02 2.929930388927459717e-01 -2.905337512493133545e-01 9.109035134315490723e-01
1.078372000000000108e+00 -6.225979999999999848e-01 -4.877299999999999691e-02 2.880328893661499023e-01 -1.628079265356063843e-01 9.436792731285095215e-01
8.830320000000000391e-01 -8.830329999999999568e-01 -2.450400000000000147e-02 1.610140651464462280e-01 -1.592724174261093140e-01 9.740157723426818848e-01
1.207406999999999897e+00 -3.235230000000000050e-01 0.000000000000000000e+00 1.246469244360923767e-01 -3.352048993110656738e-02 -9.916347861289978027e-01
1.081488999999999923e+00 -6.243980000000000086e-01 2.450400000000000147e-02 4.089714214205741882e-02 -1.959411054849624634e-02 9.989712238311767578e-01
1.206245000000000012e+00 -3.232119999999999993e-01 2.450400000000000147e-02 2.178781181573867798e-01 -5.825844779610633850e-02 -9.742355942726135254e-01
1.202766999999999920e+00 -3.222800000000000109e-01 4.877299999999999691e-02 3.092497587203979492e-01 -8.253512531518936157e-02 -9.473925232887268066e-01
1.197008999999999990e+00 -3.207369999999999943e-01 7.257099999999999662e-02 3.977472484111785889e-01 -1.062778681516647339e-01 -9.113188982009887695e-01
1.066051000000000082e+00 -6.154849999999999488e-01 9.567100000000000604e-02 -2.081791609525680542e-01 1.243242695927619934e-01 9.701571464538574219e-01
1.189025999999999916e+00 -3.185979999999999923e-01 9.567100000000000604e-02 4.829342365264892578e-01 -1.291770488023757935e-01 -8.660761117935180664e-01
1.166709999999999914e+00 -3.126189999999999802e-01 1.388929999999999887e-01 6.376523375511169434e-01 -1.702389717102050781e-01 -7.512776851654052734e-01
1.152592999999999979e+00 -3.088359999999999994e-01 1.585979999999999890e-01 7.061107754707336426e-01 -1.885542571544647217e-01 -6.825355887413024902e-01
1.019117999999999968e+00 -5.883880000000000221e-01 1.767769999999999897e-01 -5.077667832374572754e-01 2.985408902168273926e-01 8.081128001213073730e-01
1.136678999999999995e+00 -3.045720000000000094e-01 1.767769999999999897e-01 7.679350376129150391e-01 -2.050940543413162231e-01 -6.068049669265747070e-01
1.119119999999999893e+00 -2.998669999999999947e-01 1.932530000000000081e-01 8.219715356826782227e-01 -2.191598862409591675e-01 -5.256726741790771484e-01
1.079758999999999913e+00 -2.893200000000000216e-01 2.204800000000000093e-01 9.060501456260681152e-01 -2.409837692975997925e-01 -3.478504419326782227e-01
1.036024000000000056e+00 -2.776020000000000154e-01 2.392350000000000032e-01 9.544535279273986816e-01 -2.540245652198791504e-01 -1.564926654100418091e-01
1.013036999999999965e+00 -2.714420000000000166e-01 2.451959999999999973e-01 9.647924304008483887e-01 -2.566283345222473145e-01 -5.759679526090621948e-02
9.895950000000000024e-01 -2.651609999999999800e-01 2.487959999999999894e-01 9.656329154968261719e-01 -2.566823959350585938e-01 4.083346575498580933e-02
9.659259999999999513e-01 -2.588190000000000213e-01 2.500000000000000000e-01 9.570227861404418945e-01 -2.541574835777282715e-01 1.396826952695846558e-01
8.448039999999999994e-01 -4.877480000000000149e-01 2.487959999999999894e-01 -8.598645329475402832e-01 5.046607851982116699e-01 7.713905721902847290e-02
9.422570000000000112e-01 -2.524770000000000070e-01 2.487959999999999894e-01 9.392580986022949219e-01 -2.490603923797607422e-01 2.361419796943664551e-01
9.188150000000000484e-01 -2.461959999999999982e-01 2.451959999999999973e-01 9.120758175849914551e-01 -2.415103614330291748e-01 3.313463330268859863e-01
8.031770000000000298e-01 -4.637149999999999883e-01 2.392350000000000032e-01 -8.565030097961425781e-01 5.032158493995666504e-01 -1.147882789373397827e-01
8.958279999999999577e-01 -2.400359999999999994e-01 2.392350000000000032e-01 8.768176436424255371e-01 -2.314982712268829346e-01 4.214253723621368408e-01
8.735150000000000414e-01 -2.340569999999999873e-01 2.309700000000000086e-01 8.323839902877807617e-01 -2.191502302885055542e-01 5.090284943580627441e-01
7.639650000000000052e-01 -4.410760000000000236e-01 2.204800000000000093e-01 -8.201523423194885254e-01 4.848217368125915527e-01 -3.038059175014495850e-01
8.520919999999999606e-01 -2.283169999999999922e-01 2.204800000000000093e-01 7.807287573814392090e-01 -2.051212340593338013e-01 5.902439355850219727e-01
8.317660000000000053e-01 -2.228710000000000135e-01 2.078669999999999962e-01 7.210591435432434082e-01 -1.884250342845916748e-01 6.667606234550476074e-01
8.127320000000000100e-01 -2.177709999999999924e-01 1.932530000000000081e-01 6.543543338775634766e-01 -1.701455265283584595e-01 7.367976903915405273e-01
7.792580000000000062e-01 -2.088009999999999866e-01 1.585979999999999890e-01 5.038731694221496582e-01 -1.306151449680328369e-01 8.538451194763183594e-01
6.860070000000000334e-01 -3.960659999999999736e-01 1.388929999999999887e-01 -5.996993184089660645e-01 3.554290831089019775e-01 -7.169595360755920410e-01
7.651409999999999600e-01 -2.050190000000000068e-01 1.388929999999999887e-01 4.222075045108795166e-01 -1.088290959596633911e-01 8.999428749084472656e-01
7.529580000000000162e-01 -2.017539999999999889e-01 1.178489999999999954e-01 3.336190581321716309e-01 -8.536828309297561646e-02 9.388346672058105469e-01
7.428259999999999863e-01 -1.990389999999999937e-01 9.567100000000000604e-02 2.431223541498184204e-01 -6.175825744867324829e-02 9.680275321006774902e-01
7.348419999999999952e-01 -1.968999999999999917e-01 7.257099999999999662e-02 1.524817943572998047e-01 -3.842421248555183411e-02 9.875590205192565918e-01
7.256070000000000020e-01 -1.944259999999999877e-01 2.450400000000000147e-02 -3.815126791596412659e-02 1.247230637818574905e-02 9.991940855979919434e-01
6.505619999999999736e-01 -3.756019999999999914e-01 2.450400000000000147e-02 -2.270479649305343628e-01 1.351278275251388550e-01 -9.644634127616882324e-01
7.244439999999999769e-01 -1.941140000000000088e-01 0.000000000000000000e+00 -1.334426403045654297e-01 3.634058684110641479e-02 9.903900027275085449e-01
6.505619999999999736e-01 -3.756019999999999914e-01 -2.450400000000000147e-02 -5.320573970675468445e-02 3.178170695900917053e-02 -9.980776906013488770e-01
7.256070000000000020e-01 -1.944259999999999877e-01 -2.450400000000000147e-02 -2.306425571441650391e-01 6.174742802977561951e-02 9.710773229598999023e-01
7.290839999999999543e-01 -1.953570000000000029e-01 -4.877299999999999691e-02 -3.114486634731292725e-01 8.279118686914443970e-02 9.466495513916015625e-01
6.588420000000000387e-01 -3.803830000000000267e-01 -7.257099999999999662e-02 1.197680905461311340e-01 -7.089816778898239136e-02 -9.902670979499816895e-01
7.348419999999999952e-01 -1.968999999999999917e-01 -7.257099999999999662e-02 -4.061852097511291504e-01 1.064604520797729492e-01 9.075680375099182129e-01
7.428259999999999863e-01 -1.990389999999999937e-01 -9.567100000000000604e-02 -4.893671870231628418e-01 1.275357753038406372e-01 8.627017140388488770e-01
7.529580000000000162e-01 -2.017539999999999889e-01 -1.178489999999999954e-01 -5.702952146530151367e-01 1.484522372484207153e-01 8.079142570495605469e-01
7.651409999999999600e-01 -2.050190000000000068e-01 -1.388929999999999887e-01 -6.450086832046508789e-01 1.681218743324279785e-01 7.454521059989929199e-01
7.792580000000000062e-01 -2.088009999999999866e-01 -1.585979999999999890e-01 -7.119863033294677734e-01 1.861247867345809937e-01 6.770769357681274414e-01
7.951730000000000187e-01 -2.130660000000000054e-01 -1.767769999999999897e-01 -7.729370594024658203e-01 2.020281553268432617e-01 6.014589667320251465e-01
8.127320000000000100e-01 -2.177709999999999924e-01 -1.932530000000000081e-01 -8.268296122550964355e-01 2.158766388893127441e-01 5.193747282028198242e-01
8.317660000000000053e-01 -2.228710000000000135e-01 -2.078669999999999962e-01 -8.716669678688049316e-01 2.281962037086486816e-01 4.337317347526550293e-01
8.520919999999999606e-01 -2.283169999999999922e-01 -2.204800000000000093e-01 -9.088273048400878906e-01 2.387115657329559326e-01 3.421252965927124023e-01
8.735150000000000414e-01 -2.340569999999999873e-01 -2.309700000000000086e-01 -9.365779161453247070e-01 2.463837563991546631e-01 2.492324858903884888e-01
8.031770000000000298e-01 -4.637149999999999883e-01 -2.392350000000000032e-01 7.820517420768737793e-01 -4.537631869316101074e-01 -4.271932840347290039e-01
9.188150000000000484e-01 -2.461959999999999982e-01 -2.451959999999999973e-01 -9.653363227844238281e-01 2.550823390483856201e-01 5.530757084488868713e-02
8.448039999999999994e-01 -4.877480000000000149e-01 -2.487959999999999894e-01 8.401600718498229980e-01 -4.859563410282135010e-01 -2.407851964235305786e-01
9.659259999999999513e-01 -2.588190000000000213e-01 -2.500000000000000000e-01 -9.572279453277587891e-01 2.536656260490417480e-01 -1.391698271036148071e-01
9.895950000000000024e-01 -2.651609999999999800e-01 -2.487959999999999894e-01 -9.397445917129516602e-01 2.491871863603591919e-01 -2.340636700391769409e-01
9.082639999999999603e-01 -5.243860000000000188e-01 -2.451959999999999973e-01 8.649360537528991699e-01 -4.990186095237731934e-01 5.353575199842453003e-02
1.013036999999999965e+00 -2.714420000000000166e-01 -2.451959999999999973e-01 -9.129311442375183105e-01 2.422340959310531616e-01 -3.284498155117034912e-01
1.036024000000000056e+00 -2.776020000000000154e-01 -2.392350000000000032e-01 -8.777513504028320312e-01 2.330047488212585449e-01 -4.186422824859619141e-01
1.058337000000000083e+00 -2.835799999999999987e-01 -2.309700000000000086e-01 -8.341822624206542969e-01 2.214871048927307129e-01 -5.050579309463500977e-01
9.680860000000000021e-01 -5.589250000000000052e-01 -2.204800000000000093e-01 8.140703439712524414e-01 -4.685197770595550537e-01 3.431890010833740234e-01
1.079758999999999913e+00 -2.893200000000000216e-01 -2.204800000000000093e-01 -7.830059528350830078e-01 2.078836411237716675e-01 -5.862473845481872559e-01
1.100085999999999897e+00 -2.947670000000000012e-01 -2.078669999999999962e-01 -7.242218255996704102e-01 1.922538727521896362e-01 -6.622244119644165039e-01
1.119119999999999893e+00 -2.998669999999999947e-01 -1.932530000000000081e-01 -6.585250496864318848e-01 1.751649677753448486e-01 -7.318893074989318848e-01
1.136678999999999995e+00 -3.045720000000000094e-01 -1.767769999999999897e-01 -5.865914821624755859e-01 1.560330092906951904e-01 -7.947100996971130371e-01
1.033387000000000056e+00 -5.966259999999999897e-01 -1.585979999999999890e-01 6.382180452346801758e-01 -3.658818900585174561e-01 6.773537993431091309e-01
1.152592999999999979e+00 -3.088359999999999994e-01 -1.585979999999999890e-01 -5.094099044799804688e-01 1.354647129774093628e-01 -8.497945666313171387e-01
1.166709999999999914e+00 -3.126189999999999802e-01 -1.388929999999999887e-01 -4.267583191394805908e-01 1.134253293275833130e-01 -8.972246050834655762e-01
1.056966999999999990e+00 -6.102400000000000047e-01 -1.178489999999999954e-01 5.117774009704589844e-01 -2.921207845211029053e-01 8.079290390014648438e-01
1.178894000000000108e+00 -3.158830000000000249e-01 -1.178489999999999954e-01 -3.405358791351318359e-01 9.042398631572723389e-02 -9.358733296394348145e-01
1.189025999999999916e+00 -3.185979999999999923e-01 -9.567100000000000604e-02 -2.504547536373138428e-01 6.657204031944274902e-02 -9.658367037773132324e-01
1.073209000000000080e+00 -6.196180000000000021e-01 -7.257099999999999662e-02 3.661907315254211426e-01 -2.080588042736053467e-01 9.069817662239074707e-01
1.202766999999999920e+00 -3.222800000000000109e-01 -4.877299999999999691e-02 -6.440823525190353394e-02 1.639552414417266846e-02 -9.977889657020568848e-01
1.081488999999999923e+00 -6.243980000000000086e-01 -2.450400000000000147e-02 2.070980519056320190e-01 -1.160299777984619141e-01 9.714152216911315918e-01
1.206245000000000012e+00 -3.232119999999999993e-01 -2.450400000000000147e-02 3.007119148969650269e-02 -8.304680697619915009e-03 -9.995132684707641602e-01
1.178894000000000108e+00 -3.158830000000000249e-01 1.178489999999999954e-01 5.624808669090270996e-01 -1.501708477735519409e-01 -8.130583763122558594e-01
1.100085999999999897e+00 -2.947670000000000012e-01 2.078669999999999962e-01 8.684760332107543945e-01 -2.309902459383010864e-01 -4.386261403560638428e-01
1.058337000000000083e+00 -2.835799999999999987e-01 2.309700000000000086e-01 9.347816705703735352e-01 -2.488822788000106812e-01 -2.534577250480651855e-01
7.951730000000000187e-01 -2.130660000000000054e-01 1.767769999999999897e-01 5.828026533126831055e-01 -1.512854546308517456e-01 7.984070181846618652e-01
7.290839999999999543e-01 -1.953570000000000029e-01 4.877299999999999691e-02 5.660156160593032837e-02 -1.341738551855087280e-02 9.983066916465759277e-01
7.244439999999999769e-01 -1.941140000000000088e-01 0.000000000000000000e+00 -1.334426403045654297e-01 3.634058684110641479e-02 9.903900027275085449e-01
8.958279999999999577e-01 -2.400359999999999994e-01 -2.392350000000000032e-01 -9.556248188018798828e-01 2.518969476222991943e-01 1.527387052774429321e-01
9.422570000000000112e-01 -2.524770000000000070e-01 -2.487959999999999894e-01 -9.658709168434143066e-01 2.556967139244079590e-01 -4.138245061039924622e-02
1.197008999999999990e+00 -3.207369999999999943e-01 -7.257099999999999662e-02 -1.582642942667007446e-01 4.160186275839805603e-02 -9.865199923515319824e-01
-2.760900000000000160e-02 1.124660999999999911e+00 2.165060000000000040e-01 9.885886907577514648e-01 9.828186780214309692e-02 1.141618937253952026e-01
-2.147400000000000003e-02 8.747359999999999580e-01 2.165060000000000040e-01 9.909000992774963379e-01 4.853104427456855774e-02 1.255457699298858643e-01
-1.840599999999999875e-02 7.497740000000000515e-01 0.000000000000000000e+00 -9.630636572837829590e-01 -2.686105668544769287e-01 1.888973824679851532e-02
-1.840599999999999875e-02 7.497740000000000515e-01 0.000000000000000000e+00 -9.630636572837829590e-01 -2.686105668544769287e-01 1.888973824679851532e-02
-2.147400000000000003e-02 8.747359999999999580e-01 -2.165060000000000040e-01 9.873204827308654785e-01 5.601123347878456116e-02 -1.485291570425033569e-01
-2.760900000000000160e-02 1.124660999999999911e+00 -2.165060000000000040e-01 -9.932000637054443359e-01 5.475486442446708679e-02 -1.027403175830841064e-01
-6.133500000000000063e-02 1.248493999999999993e+00 0.000000000000000000e+00 -9.984654784202575684e-01 5.398053675889968872e-02 -1.236554142087697983e-02
-3.067699999999999941e-02 1.249624000000000068e+00 0.000000000000000000e+00 -9.963485598564147949e-01 8.367303013801574707e-02 -1.698346249759197235e-02
-5.520100000000000007e-02 1.123645000000000005e+00 2.165060000000000040e-01 9.912667274475097656e-01 1.059127897024154663e-01 7.856654375791549683e-02
-4.293399999999999994e-02 8.739460000000000006e-01 2.165060000000000040e-01 9.875122904777526855e-01 7.484730333089828491e-02 1.386268287897109985e-01
-4.293399999999999994e-02 8.739460000000000006e-01 -2.165060000000000040e-01 9.850974678993225098e-01 8.307673037052154541e-02 -1.506031304597854614e-01
-5.520100000000000007e-02 1.123645000000000005e+00 -2.165060000000000040e-01 -9.973608851432800293e-01 1.320419460535049438e-02 -7.139293849468231201e-02
-8.276000000000000023e-02 1.121952000000000060e+00 2.165060000000000040e-01 9.864391684532165527e-01 1.369331479072570801e-01 9.048276394605636597e-02
-6.436899999999999566e-02 8.726289999999999880e-01 2.165060000000000040e-01 9.899239540100097656e-01 8.701367676258087158e-02 1.117093339562416077e-01
-3.680100000000000038e-02 7.490970000000000129e-01 0.000000000000000000e+00 -9.535749554634094238e-01 -3.004510700702667236e-01 2.058993652462959290e-02
-5.517400000000000082e-02 7.479679999999999662e-01 0.000000000000000000e+00 -9.287107586860656738e-01 -3.700049221515655518e-01 2.434318512678146362e-02
-3.680100000000000038e-02 7.490970000000000129e-01 0.000000000000000000e+00 -9.535749554634094238e-01 -3.004510700702667236e-01 2.058993652462959290e-02
-8.276000000000000023e-02 1.121952000000000060e+00 -2.165060000000000040e-01 -9.964020252227783203e-01 -4.054194505442865193e-05 -8.475250005722045898e-02
-9.195599999999999608e-02 1.246612999999999971e+00 0.000000000000000000e+00 -9.994664192199707031e-01 3.176116570830345154e-02 -7.623126730322837830e-03
-1.102700000000000069e-01 1.119582999999999995e+00 2.165060000000000040e-01 9.830920696258544922e-01 1.673041135072708130e-01 7.442653924226760864e-02
-8.576499999999999402e-02 8.707869999999999777e-01 2.165060000000000040e-01 9.871754646301269531e-01 1.115209981799125671e-01 1.142267659306526184e-01
