0.41871816 0.89372367 0.59875792 -0.00334466 0.00381543 0.00382122
0.20912571 0.82199496 0.44112161 -0.00464702 0.00447349 -0.00319554
0.49605587 0.05771162 0.55145371 -0.00594843 -0.00642998 0.00225768
0.30667681 0.61343348 0.46014944 -0.00284593 0.00046749 0.00109357
0.18464196 0.36544523 0.61366236 -0.00126098 -0.00014050 0.00424430
0.11834031 0.50513154 0.60138327 -0.00337232 -0.00090008 0.00479151
0.44676912 0.95454550 0.47680238 -0.00315014 0.00713003 -0.00060550
0.46987611 0.86867416 0.38776854 -0.00366119 0.00309729 -0.00344304
0.48692951 0.26798826 0.45784742 -0.00908084 -0.00263176 -0.00010519
0.30878741 0.39706436 0.47055480 -0.00328814 -0.00045867 0.00070243
0.10551292 0.59441721 0.41481337 -0.00480779 0.00091989 -0.00465036
0.31144032 0.91014081 0.47231498 -0.00350985 0.00641834 -0.00225841
0.39143774 0.24689907 0.40137661 -0.00383539 0.00064094 -0.00146550
0.16193263 0.32031083 0.60073620 -0.00329290 -0.00053045 0.00500000
0.18612295 0.56166929 0.38559827 -0.00053108 -0.00051277 -0.00345176
0.19685400 0.20490804 0.56635541 -0.00486767 -0.00347703 0.00396536
0.23534532 0.57900625 0.39822313 -0.00070053 -0.00037050 -0.00136848
0.15716501 0.67323768 0.60157019 -0.00361739 0.00080416 0.00470934
0.32178009 0.87083024 0.58987343 -0.00373778 0.00381540 0.00408373
0.06435537 0.53239441 0.53541690 -0.00709024 0.00095059 0.00254676
0.12303030 0.42698112 0.59980446 -0.00327110 0.00018938 0.00496271
0.29753971 0.69472498 0.60150772 -0.00152924 -0.00098612 0.00113942
0.06461666 0.45349830 0.46896353 -0.00756375 -0.00108902 -0.00127745
0.23539078 0.36389631 0.61061591 -0.00085137 0.00083553 0.00231767
0.13892893 0.56800246 0.39212149 -0.00269618 -0.00031011 -0.00476600
0.26972938 0.87106991 0.55912316 -0.00393053 0.00530039 0.00339394
0.17043968 0.20752466 0.47265279 -0.00605201 -0.00423419 -0.00218127
0.19283079 0.26944447 0.60039043 -0.00330699 -0.00124952 0.00477558
0.29707915 0.59379220 0.54075623 -0.00303075 0.00015340 -0.00065311
0.37744394 0.29280037 0.56866759 -0.00412392 0.00003696 -0.00039519
0.08676115 0.42741737 0.56795669 -0.00604570 -0.00023905 0.00395101
0.41853216 0.29488432 0.48412764 -0.00448823 -0.00179985 0.00085283
0.28101793 0.66337818 0.40212789 -0.00113425 -0.00079484 -0.00082115
0.43577862 0.24513291 0.58808702 -0.00353782 -0.00024188 -0.00035434
0.40211186 0.07377005 0.44523162 -0.00447155 -0.00534927 -0.00335069
0.84952766 0.63712877 0.61373079 -0.00242766 -0.00076557 0.02076204
0.12874484 0.74636561 0.48356652 -0.00707403 0.00314482 -0.00120102
0.21535228 0.17300053 0.45021415 -0.00581648 -0.00425536 -0.00236239
0.22608560 0.65431094 0.38658881 -0.00089853 -0.00082087 -0.00306323
0.17590302 0.50271463 0.61459178 -0.00099200 -0.00036808 0.00352750
0.32865828 0.36981976 0.51571268 -0.00443916 0.00003814 -0.00032372
0.49289051 0.73246872 0.51007432 -0.01248210 0.00373875 0.00106668
0.42466962 0.28712764 0.53521168 -0.00441622 -0.00180228 -0.00105716
0.46762687 0.27936590 0.49860695 -0.00728723 -0.00342482 -0.00124617
0.50156677 0.04545458 0.50651044 -0.00710864 -0.00691134 0.00065767
0.17864363 0.76404554 0.57961762 -0.00437796 0.00285568 0.00445181
0.34977686 0.09575245 0.43759340 -0.00459351 -0.00496919 -0.00377132
0.31275460 0.74909705 0.61183512 -0.00184879 -0.00046071 0.00251123
0.35750508 0.07526392 0.48030820 -0.00453496 -0.00653780 -0.00050909
0.51446533 0.84740078 0.61475301 -0.00815019 0.00295170 0.00297624
0.07570221 0.48614985 0.56084478 -0.00609776 -0.00063396 0.00370414
0.34815034 0.32648733 0.55643988 -0.00348738 -0.00020348 -0.00045048
0.40020376 0.18746090 0.61442739 -0.00381016 -0.00051815 0.00302966
0.22863978 0.16368252 0.55400878 -0.00532512 -0.00377381 0.00378174
0.21135017 0.53942913 0.60852736 0.00000574 -0.00040732 0.00191058
0.42164978 0.87172937 0.39112589 -0.00334441 0.00243867 -0.00408200
0.85586768 0.46571037 0.38530254 -0.00242280 -0.00096607 -0.02117872
0.42593479 0.77805358 0.60058790 -0.00223697 0.00011594 0.00023811
0.38328567 0.31632298 0.50891179 -0.00468102 -0.00131616 -0.00020187
0.20487930 0.70419961 0.38837838 -0.00171024 0.00059139 -0.00466731
0.09269748 0.68015307 0.50225389 -0.00705205 0.00315986 0.00009971
0.43024868 0.95009977 0.53103292 -0.00334632 0.00684749 0.00146836
0.22005101 0.20623885 0.41364142 -0.00463422 -0.00239008 -0.00454590
0.23420647 0.41811958 0.39653552 -0.00158440 0.00035789 -0.00186057
0.50434160 0.20482722 0.39442447 -0.00570748 0.00009137 -0.00216432
0.75255930 0.44677901 0.55401152 -0.02561011 -0.00290334 0.00897793
0.10486955 0.54966301 0.59083682 -0.00461605 0.00040760 0.00446798
0.08441179 0.42934197 0.43474764 -0.00597071 -0.00069557 -0.00403622
0.26428902 0.26705009 0.61469471 -0.00184907 0.00054957 0.00372047
0.08159171 0.64033777 0.52619404 -0.00730362 0.00147642 0.00199471
0.38409391 0.93631083 0.53816837 -0.00349602 0.00631938 0.00240364
0.11463485 0.50941676 0.40086961 -0.00377825 0.00020379 -0.00458936
0.45617440 0.15999269 0.61454540 -0.00399056 -0.00109052 0.00306995
0.44512281 0.73982865 0.43986011 -0.00565518 0.00230925 0.00103814
0.34584504 0.08512060 0.53949410 -0.00509768 -0.00576204 0.00185395
0.33038956 0.66538316 0.43979308 -0.00290944 0.00017899 0.00067252
0.15866071 0.24846593 0.43626168 -0.00562993 -0.00338957 -0.00343043
0.10445487 0.64370155 0.43048424 -0.00545763 0.00124548 -0.00432335
0.37976897 0.75146896 0.59697068 -0.00293088 -0.00055552 0.00039046
0.16282535 0.61534613 0.38843670 -0.00217523 0.00004505 -0.00440215
0.07774712 0.39179021 0.46387675 -0.00714691 -0.00139697 -0.00206177
0.16770090 0.79563755 0.53013748 -0.00669208 0.00344612 0.00209321
0.38518041 0.79967922 0.61288995 -0.00255089 -0.00004968 0.00245690
0.27156350 0.76862168 0.38655025 -0.00283422 0.00025069 -0.00416636
0.45595995 0.86356306 0.61278802 -0.00225368 0.00152354 0.00353082
0.51478845 0.24019630 0.58139986 -0.01283357 -0.00266506 0.00078326
0.37012580 0.86844409 0.60371286 -0.00290070 0.00247601 0.00438105
0.13265049 0.34826627 0.40897763 -0.00457861 -0.00115182 -0.00443320
0.09124174 0.59258717 0.57084239 -0.00605482 0.00068119 0.00354079
0.45220351 0.93138659 0.57288778 -0.00288280 0.00512479 0.00390574
0.30438989 0.85294455 0.40521982 -0.00313292 0.00342533 -0.00426631
0.06046208 0.53553814 0.48130465 -0.00759085 -0.00014116 -0.00155571
0.29930314 0.40407848 0.54561478 -0.00294881 -0.00022137 -0.00091490
0.32505709 0.23404828 0.38605154 -0.00216548 0.00031058 -0.00318414
0.37575677 0.90543377 0.41950706 -0.00437861 0.00461205 -0.00354857
0.39416462 0.06683997 0.53420091 -0.00442957 -0.00610575 0.00195571
0.50517869 0.93223161 0.57721406 -0.00370351 0.00553528 0.00340161
0.27918795 0.47792757 0.45516643 -0.00276046 0.00047639 0.00067403
0.61092454 0.24745427 0.40992177 -0.01676403 -0.00393910 -0.00697206
0.13138215 0.74422294 0.53226990 -0.00672370 0.00347612 0.00205776
0.30454880 0.80715483 0.38829482 -0.00162079 0.00048388 -0.00469489
0.83140641 0.17054968 0.49238920 -0.00354710 -0.01804555 -0.00331495
0.38555697 0.69212675 0.50109810 -0.00443059 0.00193063 -0.00006448
0.60837078 0.83941913 0.38536960 -0.01334184 0.00860725 -0.00570039
0.29144219 0.83320957 0.60079229 -0.00347086 0.00180467 0.00481631
0.28774276 0.26535141 0.38611075 -0.00201665 0.00070274 -0.00314133
0.35506803 0.93300533 0.49974978 -0.00393645 0.00673254 -0.00081094
0.43672416 0.11675623 0.39711139 -0.00355372 -0.00282383 -0.00441105
0.25918710 0.82398015 0.40664661 -0.00392990 0.00248740 -0.00461784
0.10497792 0.30128399 0.49630818 -0.00703182 -0.00328442 0.00055273
0.32326889 0.71068519 0.40279514 -0.00150471 -0.00097873 -0.00044240
0.16500345 0.28644660 0.40852711 -0.00449145 -0.00131820 -0.00458039
0.62033165 0.84284997 0.61426806 -0.01355489 0.00920721 0.00608239
0.35120779 0.91037548 0.56469119 -0.00365089 0.00515502 0.00380136
0.31724438 0.64360559 0.55497456 -0.00315371 -0.00015899 -0.00068769
0.28771886 0.53972727 0.52248210 -0.00314744 0.00036795 -0.00075837
0.17546125 0.34106526 0.39028323 -0.00210879 0.00016199 -0.00483597
0.14686841 0.62289429 0.60590380 -0.00250312 -0.00033760 0.00506080
0.26339814 0.14284770 0.43816882 -0.00479988 -0.00411393 -0.00394812
0.30705798 0.09910613 0.47256136 -0.00500515 -0.00574913 -0.00163590
0.16578642 0.21268170 0.52735835 -0.00663509 -0.00407689 0.00151508
0.75226450 0.63791722 0.41119793 -0.02094442 0.00205886 -0.01564485
0.48728746 0.80896598 0.60829365 -0.00662948 0.00143852 0.00095156
0.37886524 0.70291793 0.44761452 -0.00457811 0.00059071 0.00084049
0.11180651 0.31467068 0.44895312 -0.00644466 -0.00182039 -0.00346353
0.28314227 0.38632458 0.42083880 -0.00166851 0.00015927 0.00012082
0.33665928 0.28991786 0.40541086 -0.00242665 0.00090818 -0.00082534
0.22309977 0.52302837 0.39682481 -0.00039449 -0.00002274 -0.00138529
0.07891031 0.48097628 0.43456256 -0.00614859 0.00025867 -0.00375583
0.44490284 0.05589493 0.46567217 -0.00328971 -0.00634796 -0.00262576
0.45482796 0.07619198 0.57368040 -0.00409208 -0.00500115 0.00360429
0.25996682 0.65622264 0.60525221 -0.00080174 -0.00082540 0.00155115
0.19493538 0.17730343 0.51396364 -0.00634560 -0.00464843 0.00041424
0.27177477 0.89132106 0.50672287 -0.00579693 0.00561920 0.00084314
0.48252261 0.76429582 0.58105958 -0.00880651 0.00218128 -0.00090373
0.36678270 0.12370194 0.40483731 -0.00272021 -0.00323965 -0.00481689
0.22405586 0.32000130 0.38522860 -0.00161415 0.00054435 -0.00374819
0.24031408 0.50735569 0.59224021 -0.00093243 0.00015183 0.00071611
0.21163672 0.46944398 0.60834044 -0.00034093 0.00028204 0.00193711
0.43571112 0.26623037 0.43341178 -0.00328400 -0.00085077 0.00069471
0.28710076 0.48385435 0.51236188 -0.00330601 -0.00020293 -0.00075626
0.23118983 0.23243642 0.60338503 -0.00371800 -0.00131110 0.00443459
0.45161480 0.19895059 0.38996685 -0.00258118 -0.00030529 -0.00237345
0.48108533 0.95388788 0.53964949 -0.00213928 0.00694906 0.00163235
0.44159693 0.05234149 0.51618171 -0.00362069 -0.00670815 0.00147651
0.87472737 0.78869742 0.48512849 0.00393393 0.01915595 -0.00526591
0.35207987 0.86757803 0.39947039 -0.00338989 0.00230454 -0.00444950
0.15167092 0.46804801 0.38733456 -0.00163809 -0.00061181 -0.00450011
0.14129163 0.23982756 0.49618506 -0.00717296 -0.00325176 0.00029753
0.27930918 0.61660069 0.41905013 -0.00160371 -0.00052542 0.00015127
0.29186881 0.10728989 0.52658945 -0.00510900 -0.00598288 0.00112425
0.32247719 0.14851265 0.40248242 -0.00409001 -0.00247873 -0.00443803
0.36853832 0.24751811 0.60395449 -0.00305608 0.00101514 0.00126430
0.15832409 0.55513835 0.61324906 -0.00164639 0.00045145 0.00423294
0.49303862 0.05445390 0.45569688 -0.00547579 -0.00613207 -0.00276365
0.26167789 0.12354762 0.48155147 -0.00579774 -0.00556860 -0.00075296
0.07819577 0.62120897 0.46657339 -0.00727127 0.00155930 -0.00202528
0.21319716 0.59613055 0.61133730 -0.00078080 -0.00036650 0.00248422
0.14511555 0.72334814 0.42585853 -0.00530582 0.00209398 -0.00421375
0.44241893 0.74171877 0.56438440 -0.00301860 0.00226793 -0.00153779
0.05850490 0.48600665 0.50808603 -0.00768549 -0.00081066 0.00013786
0.32446331 0.35337740 0.44445050 -0.00329752 0.00030103 0.00046160
0.09716384 0.37835988 0.56669199 -0.00588208 -0.00150198 0.00378954
0.19105726 0.41736689 0.61441547 -0.00117579 0.00045617 0.00332088
0.09672803 0.33747187 0.54045910 -0.00658822 -0.00250419 0.00262269
0.38228595 0.77813584 0.39197132 -0.00338707 -0.00031118 -0.00164098
0.12773225 0.27119133 0.46437469 -0.00645003 -0.00327669 -0.00233614
0.35055709 0.81095898 0.38541046 -0.00193810 0.00004318 -0.00357920
0.12191531 0.42975250 0.40056196 -0.00319129 -0.00040509 -0.00503147
0.37530810 0.19524743 0.38540953 -0.00318276 -0.00029025 -0.00353606
0.20309065 0.66628373 0.61434472 -0.00144077 -0.00061874 0.00407771
0.50476432 0.91133064 0.40458196 -0.00515017 0.00490804 -0.00369180
0.23665088 0.27470943 0.38659388 -0.00239999 -0.00057554 -0.00421120
0.27039573 0.13504235 0.55824095 -0.00520226 -0.00409871 0.00361140
0.13484555 0.29190260 0.56804162 -0.00612812 -0.00227092 0.00290593
0.11183957 0.69017226 0.44671765 -0.00641780 0.00222794 -0.00288546
0.37486589 0.09834243 0.57650506 -0.00375033 -0.00425844 0.00437329
0.94149512 0.36978671 0.55377734 0.01273636 -0.00549812 0.00880586
0.36994076 0.13866882 0.60362560 -0.00300886 -0.00234715 0.00451304
0.37335691 0.31041375 0.45102146 -0.00455384 -0.00025003 0.00014821
0.19724111 0.83268142 0.50963193 -0.00549873 0.00555475 0.00003737
0.69407034 0.25872767 0.60689390 -0.01993129 -0.00488489 0.01191548
0.35987192 0.68377447 0.54513961 -0.00380819 0.00061582 -0.00088013
0.50330502 0.79946107 0.39579755 -0.00872886 0.00181106 -0.00121653
0.33499137 0.81404269 0.61358613 -0.00252765 0.00024013 0.00407087
0.39325121 0.71967167 0.56375116 -0.00366150 0.00051023 -0.00132017
0.19696376 0.24671307 0.40597108 -0.00402518 -0.00180122 -0.00469243
0.42941245 0.91649914 0.41568589 -0.00238500 0.00481340 -0.00412358
0.18470442 0.74391705 0.40593436 -0.00315655 0.00213232 -0.00515517
0.16671817 0.66799474 0.39339307 -0.00338800 0.00059042 -0.00451994
0.23151082 0.14457667 0.51086712 -0.00594775 -0.00530798 0.00022210
0.31535056 0.11800944 0.57019174 -0.00419326 -0.00465819 0.00385427
0.27233362 0.88060147 0.45374370 -0.00529452 0.00479146 -0.00300778
0.41601703 0.83725667 0.61458033 -0.00290903 0.00047609 0.00325704
0.26848537 0.20350970 0.60555851 -0.00324332 -0.00200826 0.00424190
0.30535656 0.36451164 0.56906021 -0.00271719 0.00066395 -0.00066679
0.17285793 0.71960920 0.59659958 -0.00351615 0.00122128 0.00505185
0.29750714 0.57363570 0.49165013 -0.00362596 0.00004700 0.00052123
0.27606156 0.72252059 0.38685563 -0.00159242 -0.00131521 -0.00273215
0.51280946 0.18395980 0.61202800 -0.00898846 0.00007429 0.00178202
0.14050406 0.37421310 0.60144889 -0.00371877 -0.00087819 0.00451846
0.24241869 0.82138693 0.58623272 -0.00458862 0.00256380 0.00463718
0.29020047 0.33229417 0.40241766 -0.00159506 0.00083266 -0.00096697
0.26264226 0.58559465 0.58449227 -0.00114597 -0.00029353 0.00000075
0.47410387 0.76654232 0.41573504 -0.00654485 0.00226640 0.00002331
0.16914010 0.78575331 0.44989821 -0.00651966 0.00287075 -0.00266858
0.19528531 0.48604327 0.38737223 -0.00037005 0.00000414 -0.00284820
0.31680125 0.30564749 0.59578770 -0.00241148 0.00061812 0.00085133
0.24504404 0.77622634 0.60733753 -0.00315392 0.00083159 0.00467049
0.23071316 0.70432132 0.61452985 -0.00174795 0.00007311 0.00376249
0.29631731 0.43722492 0.50702238 -0.00359006 0.00034453 -0.00023876
0.23780170 0.46827021 0.40419576 -0.00077998 0.00045604 -0.00076805
0.12613142 0.70819438 0.56212229 -0.00632031 0.00160480 0.00353947
0.27403915 0.53753370 0.44268018 -0.00232312 -0.00036066 0.00043524
0.63086289 0.05980612 0.49275199 -0.01193966 -0.01128342 -0.00108197
0.07818797 0.56085098 0.44050947 -0.00634196 0.00028817 -0.00360347
0.47280231 0.15138781 0.38570207 -0.00313297 -0.00101320 -0.00416144
0.26701263 0.73357862 0.61454594 -0.00120032 -0.00071980 0.00343071
0.08283710 0.35481480 0.49469078 -0.00742057 -0.00197224 -0.00060999
0.40070754 0.93614548 0.45127726 -0.00401387 0.00643445 -0.00175872
0.06876340 0.41617018 0.52548867 -0.00754293 -0.00119742 0.00076879
0.48456401 0.94561052 0.44233993 -0.00307283 0.00632303 -0.00256605
0.10756057 0.38801771 0.41848069 -0.00509040 -0.00112184 -0.00423913
0.41680688 0.10624377 0.59396273 -0.00380699 -0.00336973 0.00438510
0.32297358 0.15406139 0.60047543 -0.00402478 -0.00221336 0.00454781
0.27188450 0.20281857 0.39370075 -0.00324795 -0.00148070 -0.00459846
0.16174343 0.24380393 0.56318402 -0.00580022 -0.00304140 0.00317414
0.23056944 0.84892315 0.54833925 -0.00562327 0.00474953 0.00243025
0.11120263 0.64020187 0.57839197 -0.00539884 0.00203959 0.00386707
0.33351225 0.21028550 0.61469787 -0.00283858 0.00011472 0.00349013
0.33049378 0.63841504 0.49317887 -0.00431644 0.00042017 -0.00014574
0.48801786 0.24205568 0.41880628 -0.00552774 -0.00108109 -0.00009984
0.48317072 0.08871767 0.41070426 -0.00458808 -0.00450831 -0.00414767
0.45270774 0.80682468 0.39050919 -0.00276321 0.00003105 -0.00106637
0.31724256 0.91250527 0.52900463 -0.00475112 0.00592824 0.00201421
0.42581630 0.71610904 0.51768517 -0.00398775 0.00258807 -0.00029264
0.47741845 0.26550344 0.55069834 -0.00673929 -0.00347244 0.00042145
0.26061985 0.42448482 0.58535284 -0.00154433 0.00018187 0.00040519
0.22771722 0.31593174 0.61477137 -0.00156845 0.00025381 0.00363282
0.33194679 0.76756048 0.38733321 -0.00153152 -0.00075430 -0.00248974
0.06538952 0.58630872 0.50699979 -0.00756165 0.00107446 0.00061018
