-2.314730000000000121e-01 2.802239999999999731e-01 3.123759999999999870e-01 -8.007164597511291504e-01 5.762068033218383789e-01 1.638258248567581177e-01
-1.307020000000000126e-01 1.088790000000000036e-01 -3.993389999999999995e-01 -8.804834634065628052e-02 -9.033578098751604557e-04 -9.961158037185668945e-01
-1.591849999999999932e-01 -3.456879999999999675e-02 7.056639999999999580e-01 -1.522440165281295776e-01 -5.436597019433975220e-02 -9.868465065956115723e-01
4.823629999999999862e-01 -5.291190000000000060e-01 1.181490000000000101e-03 -4.344286024570465088e-01 -8.986839056015014648e-01 6.032468006014823914e-02
7.399919999999999831e-01 -5.090799999999999770e-01 1.181490000000000101e-03 -5.937321186065673828e-01 -8.046606779098510742e-01 1.854848582297563553e-03
-1.591849999999999932e-01 1.025449999999999973e-01 9.477029999999999621e-01 -1.360105723142623901e-01 2.786881923675537109e-01 9.507018327713012695e-01
5.093609999999999501e-04 -5.247720000000000162e-01 1.181490000000000101e-03 1.508204042911529541e-01 -9.885606169700622559e-01 1.057073939591646194e-03
-2.878979999999999873e-01 -2.294170000000000098e-01 8.521090000000000053e-01 -9.973166584968566895e-01 6.517164409160614014e-02 -3.334703668951988220e-02
1.059509999999999952e+00 -1.643429999999999891e-01 1.181490000000000101e-03 7.058799862861633301e-01 -7.082405090332031250e-01 1.134802494198083878e-02
-4.218079999999999746e-02 2.293939999999999868e-01 -3.772929999999999895e-01 9.947158694267272949e-01 9.985002130270004272e-02 -2.388068661093711853e-02
-4.709579999999999878e-01 -2.310639999999999916e-02 2.724590000000000067e-01 -7.237305641174316406e-01 -5.854612588882446289e-02 6.875947117805480957e-01
2.240759999999999974e-01 2.105960000000000054e-01 2.086659999999999904e-01 7.635189294815063477e-01 -1.791492402553558350e-01 6.204388737678527832e-01
1.247240000000000015e-01 -2.310639999999999916e-02 -3.945049999999999946e-01 5.574211478233337402e-01 2.679278850555419922e-01 -7.858093976974487305e-01
9.542169999999999819e-01 -2.310639999999999916e-02 -2.636959999999999860e-01 9.027509093284606934e-01 3.699012696743011475e-01 -2.195765078067779541e-01
-2.374880000000000047e-01 -2.310639999999999916e-02 4.081040000000000223e-01 -1.460069119930267334e-01 1.064814478158950806e-01 9.835363030433654785e-01
-1.126410000000000085e-02 -2.568409999999999860e-01 8.786650000000000293e-01 9.340260028839111328e-01 -1.944655030965805054e-01 2.996304929256439209e-01
-1.591849999999999932e-01 3.598720000000000252e-01 -2.416570000000000107e-01 -2.419314682483673096e-01 9.694526791572570801e-01 -4.038212820887565613e-02
2.421919999999999906e-01 2.105960000000000054e-01 -1.837330000000000074e-01 8.693194985389709473e-01 1.470516920089721680e-01 -4.718678593635559082e-01
-2.375350000000000031e-02 3.436379999999999990e-01 -6.751219999999999999e-01 8.614575862884521484e-01 5.005747675895690918e-01 -8.553212881088256836e-02
5.009329999999999616e-01 5.975539999999999671e-03 -2.854990000000000028e-01 -1.669833785854279995e-03 6.892067193984985352e-01 -7.245628833770751953e-01
4.279870000000000063e-01 -2.310639999999999916e-02 3.346120000000000205e-01 1.034532636404037476e-01 4.752838909626007080e-01 8.737291693687438965e-01
-3.516799999999999926e-01 -2.310639999999999916e-02 3.750000000000000000e-01 -3.205532431602478027e-01 3.050161339342594147e-02 9.467392563819885254e-01
-4.458940000000000126e-01 2.332970000000000044e-01 1.181490000000000101e-03 -6.198449134826660156e-01 7.846991419792175293e-01 -6.287631113082170486e-03
-1.591849999999999932e-01 2.393450000000000022e-01 8.812410000000000521e-01 -1.712202727794647217e-01 5.753568410873413086e-01 7.997800707817077637e-01
2.579620000000000246e-01 2.200620000000000076e-01 1.647790000000000088e-01 8.712945580482482910e-01 3.424021303653717041e-01 3.515774905681610107e-01
1.036410000000000053e+00 -2.984479999999999911e-01 1.181490000000000101e-03 3.148317635059356689e-01 -9.491323232650756836e-01 5.355574656277894974e-03
-5.309089999999999643e-01 -3.609149999999999858e-01 1.181490000000000101e-03 -9.585781693458557129e-01 -2.847856879234313965e-01 -5.007191561162471771e-03
5.009329999999999616e-01 -5.689199999999999813e-02 3.276729999999999920e-01 2.400792837142944336e-01 5.931426286697387695e-01 7.684683799743652344e-01
-1.591849999999999932e-01 -3.253670000000000173e-01 -7.305800000000000072e-01 1.227234397083520889e-02 -5.000041723251342773e-01 8.659359812736511230e-01
-5.447349999999999692e-01 -2.310639999999999916e-02 4.590960000000000180e-02 -9.879056811332702637e-01 4.367825388908386230e-02 1.487768590450286865e-01
-5.445109999999999673e-01 2.216100000000000014e-02 1.181490000000000101e-03 -9.961888790130615234e-01 6.551609188318252563e-02 5.757981911301612854e-02
-1.887919999999999876e-01 -2.806810000000000138e-01 -7.225460000000000216e-01 -2.673408091068267822e-01 -2.116788476705551147e-01 9.400643110275268555e-01
-3.781370000000000009e-01 -2.310639999999999916e-02 -3.584109999999999796e-01 -7.537385225296020508e-01 -3.353211097419261932e-03 -6.571658849716186523e-01
-2.875719999999999943e-01 -5.069989999999999913e-02 8.401990000000000292e-01 -9.948750734329223633e-01 -1.009042188525199890e-01 -6.480875890702009201e-03
-1.591849999999999932e-01 2.120060000000000000e-01 6.765099999999999447e-01 -1.543419212102890015e-01 -3.708615005016326904e-01 -9.157730340957641602e-01
5.009329999999999616e-01 -5.187869999999999981e-01 -8.750220000000000220e-02 -5.978086963295936584e-02 -9.495035409927368164e-01 -3.080082833766937256e-01
-9.898949999999999416e-02 2.950900000000000190e-01 3.046249999999999791e-01 1.411000043153762817e-01 9.509017467498779297e-01 2.754573523998260498e-01
-2.766899999999999915e-01 2.546059999999999990e-01 4.402380000000000182e-01 -9.629148840904235840e-01 -1.062450855970382690e-01 2.480057030916213989e-01
5.009329999999999616e-01 -9.269519999999999843e-03 -3.038060000000000205e-01 1.801539063453674316e-01 5.547304153442382812e-01 -8.122922778129577637e-01
-3.867320000000000202e-01 2.865500000000000269e-01 1.181490000000000101e-03 -5.565235614776611328e-01 8.308076858520507812e-01 -6.330153439193964005e-03
-1.591849999999999932e-01 -2.620129999999999959e-01 -4.155730000000000257e-01 -1.045213490724563599e-01 2.584948837757110596e-01 -9.603414535522460938e-01
8.831759999999999611e-01 -4.627660000000000107e-01 1.181490000000000101e-03 -4.321525096893310547e-01 -9.017971754074096680e-01 2.468805294483900070e-03
-2.874999999999999778e-01 -2.743529999999999927e-02 8.375350000000000295e-01 -9.969061613082885742e-01 -7.855729013681411743e-02 -2.610643161460757256e-03
-1.591849999999999932e-01 -3.994070000000000120e-01 9.063999999999999835e-01 -2.348266914486885071e-02 -7.320061922073364258e-01 6.808931827545166016e-01
-1.591849999999999932e-01 -2.318250000000000033e-01 7.057900000000000285e-01 -5.345175787806510925e-02 -2.778986701741814613e-03 -9.985665678977966309e-01
3.318769999999999776e-01 -2.310639999999999916e-02 3.541000000000000258e-01 2.344685196876525879e-01 3.621348440647125244e-01 9.021545052528381348e-01
-1.591849999999999932e-01 -1.374499999999999889e-01 -7.040939999999999976e-01 -1.442689001560211182e-01 2.030929550528526306e-02 9.893300533294677734e-01
-1.591849999999999932e-01 3.341879999999999851e-01 7.860800000000000010e-01 -1.894019395112991333e-01 7.666479945182800293e-01 6.134963631629943848e-01
-2.763089999999999991e-02 -2.843040000000000012e-01 -8.424009999999999554e-01 9.389964938163757324e-01 -3.404741585254669189e-01 4.861082136631011963e-02
-1.591849999999999932e-01 3.980839999999999934e-01 6.267690000000000206e-01 -1.634202003479003906e-01 9.676284790039062500e-01 1.923250108957290649e-01
-5.320190000000000197e-01 7.482350000000000112e-02 1.181490000000000101e-03 -9.696578383445739746e-01 2.443815469741821289e-01 6.430950947105884552e-03
-1.591849999999999932e-01 3.976180000000000270e-01 1.410190000000000055e-01 -3.274131715297698975e-01 9.313778877258300781e-01 1.591723263263702393e-01
-5.437790000000000123e-01 4.003629999999999689e-02 9.507770000000000110e-02 -9.914523363113403320e-01 -5.710742250084877014e-02 1.173075810074806213e-01
-1.597369999999999901e-01 4.064139999999999975e-01 -4.841530000000000139e-02 -3.685269355773925781e-01 9.234325289726257324e-01 -1.070522367954254150e-01
2.421919999999999906e-01 2.105960000000000054e-01 1.861170000000000047e-01 8.063687682151794434e-01 2.750591039657592773e-01 5.235570073127746582e-01
5.875329999999999719e-01 -2.310639999999999916e-02 -3.319250000000000256e-01 4.330896437168121338e-01 3.626303970813751221e-01 -8.251863121986389160e-01
5.009329999999999616e-01 -2.652630000000000265e-01 3.410079999999999778e-01 -3.811337752267718315e-03 5.780209302902221680e-01 8.160130381584167480e-01
3.583109999999999906e-01 -2.310639999999999916e-02 3.481529999999999903e-01 2.457652837038040161e-01 3.904958069324493408e-01 8.871935606002807617e-01
5.009329999999999616e-01 -3.594729999999999870e-01 -3.170930000000000137e-01 -2.946016006171703339e-02 -7.312698662281036377e-02 -9.968873858451843262e-01
-3.077019999999999755e-01 -2.310639999999999916e-02 3.902200000000000113e-01 -5.308137089014053345e-02 5.186359956860542297e-02 9.972424507141113281e-01
-1.591849999999999932e-01 3.871220000000000216e-01 1.863519999999999899e-01 -2.877977192401885986e-01 9.317296743392944336e-01 2.214776128530502319e-01
9.327959999999999585e-01 -2.310639999999999916e-02 -2.846949999999999759e-01 8.651506900787353516e-01 3.650475740432739258e-01 -3.438818156719207764e-01
-1.591849999999999932e-01 -4.878210000000000185e-02 -7.036400000000000432e-01 -1.342664808034896851e-01 -6.836229562759399414e-02 9.885843992233276367e-01
2.208600000000000008e-01 1.398619999999999863e-01 2.028419999999999945e-01 5.493209958076477051e-01 1.655274331569671631e-01 8.190525770187377930e-01
-5.529969999999999608e-01 -9.697169999999999401e-02 1.181490000000000101e-03 -9.984198808670043945e-01 -5.538454279303550720e-02 9.497770108282566071e-03
-6.227690000000000309e-02 -2.806810000000000138e-01 7.857260000000000355e-01 5.740992426872253418e-01 -2.444869726896286011e-01 -7.814321517944335938e-01
1.331289999999999973e-01 1.794910000000000116e-01 -2.904570000000000207e-01 7.685860395431518555e-01 -1.794978417456150055e-02 -6.394944787025451660e-01
-2.125609999999999999e-02 3.340899999999999981e-01 7.178759999999999586e-01 8.296479582786560059e-01 5.285897254943847656e-01 1.796583384275436401e-01
5.009329999999999616e-01 3.761189999999999672e-02 -2.423559999999999881e-01 -1.940816268324851990e-02 8.276230096817016602e-01 -5.609486699104309082e-01
6.778769999999999518e-01 -2.310639999999999916e-02 3.445599999999999774e-01 6.275824904441833496e-01 2.922093868255615234e-01 7.216327190399169922e-01
4.053570000000000229e-01 -2.310639999999999916e-02 3.385730000000000128e-01 1.166811883449554443e-01 4.241186082363128662e-01 8.980584144592285156e-01
-1.591960000000000042e-01 4.039150000000000240e-01 9.443239999999999967e-02 -3.719578981399536133e-01 9.199661612510681152e-01 1.237321570515632629e-01
-2.096330000000000138e-01 -2.806810000000000138e-01 7.396709999999999674e-01 -5.216811895370483398e-01 -1.225859001278877258e-01 -8.442874550819396973e-01
5.875359999999999472e-01 -5.276159999999999739e-01 1.181490000000000101e-03 -4.409537911415100098e-01 -8.975088000297546387e-01 6.143463775515556335e-03
-1.441199999999999946e-02 1.811149999999999982e-01 -8.261199999999999655e-01 9.261181950569152832e-01 1.504687070846557617e-01 -3.459250628948211670e-01
-3.842260000000000120e-02 2.662209999999999854e-01 4.404210000000000069e-01 9.314143657684326172e-01 -8.948004990816116333e-02 -3.527897000312805176e-01
-3.966870000000000118e-02 2.540169999999999928e-01 -4.178939999999999877e-01 9.888296723365783691e-01 -1.537922769784927368e-02 1.482544839382171631e-01
-4.999100000000000210e-01 -2.310639999999999916e-02 2.273610000000000075e-01 -8.790925145149230957e-01 -8.067332953214645386e-02 4.697745740413665771e-01
-1.591849999999999932e-01 -1.731429999999999914e-01 -4.241349999999999842e-01 -1.098901182413101196e-01 4.484624564647674561e-01 -8.870206475257873535e-01
1.044450000000000101e+00 -2.310639999999999916e-02 2.915239999999999845e-02 9.561544656753540039e-01 2.813623547554016113e-01 -8.126443624496459961e-02
5.976069999999999993e-01 1.001220000000000027e-01 1.181490000000000101e-03 -2.319460213184356689e-01 9.727241396903991699e-01 -2.961721038445830345e-03
-3.064990000000000075e-02 4.455620000000000136e-01 1.181490000000000101e-03 -7.553042471408843994e-02 9.971365332603454590e-01 3.725839778780937195e-03
-1.591849999999999932e-01 1.541700000000000015e-01 -9.235459999999999781e-01 -1.331520825624465942e-01 3.738631904125213623e-01 -9.178763031959533691e-01
-2.866900000000000004e-01 1.062899999999999956e-01 8.077050000000000063e-01 -9.992166757583618164e-01 3.386058658361434937e-02 -2.048400789499282837e-02
-1.132060000000000011e-02 -2.510470000000000201e-01 -8.760820000000000274e-01 9.525095820426940918e-01 -1.442427486181259155e-01 -2.681779563426971436e-01
-1.591849999999999932e-01 1.277899999999999869e-01 -9.349779999999999758e-01 -1.293955594301223755e-01 3.276010453701019287e-01 -9.359136223793029785e-01
2.515729999999999911e-01 1.862719999999999931e-01 1.713330000000000131e-01 6.895273923873901367e-01 2.461520582437515259e-01 6.811468601226806641e-01
-1.591849999999999932e-01 3.793719999999999870e-01 -4.077950000000000186e-01 -1.494225263595581055e-01 8.761591315269470215e-01 4.582771956920623779e-01
-2.020319999999999894e-01 -4.200530000000000097e-01 -8.508459999999999912e-01 -5.211182832717895508e-01 -8.529826402664184570e-01 -2.926377020776271820e-02
-1.591849999999999932e-01 -2.531209999999999849e-01 -7.032399999999999762e-01 -6.305253505706787109e-02 -1.160466298460960388e-01 9.912404417991638184e-01
-1.591849999999999932e-01 2.325840000000000130e-01 -5.322099999999999609e-01 -2.620898783206939697e-01 -7.256804108619689941e-01 -6.361578702926635742e-01
-2.871799999999999908e-01 4.113889999999999908e-02 8.257600000000000495e-01 -9.994174242019653320e-01 -3.404912352561950684e-02 2.304788911715149879e-03
3.331859999999999822e-01 -2.310639999999999916e-02 -3.514160000000000061e-01 4.541267454624176025e-01 4.112180471420288086e-01 -7.903597950935363770e-01
-2.826540000000000163e-01 -2.806810000000000138e-01 8.373589999999999645e-01 -9.836987853050231934e-01 -1.168355867266654968e-01 -1.366971135139465332e-01
-5.648439999999999711e-02 -3.719799999999999773e-01 -8.688259999999999872e-01 7.075866460800170898e-01 -6.804492473602294922e-01 -1.905513852834701538e-01
-3.972439999999999860e-01 -2.310639999999999916e-02 -3.443200000000000149e-01 -7.321813106536865234e-01 -1.868494413793087006e-02 -6.808534860610961914e-01
-2.862219999999999764e-01 1.584480000000000055e-01 7.904769999999999852e-01 -9.969937205314636230e-01 6.964401900768280029e-02 -3.395787253975868225e-02
-1.591849999999999932e-01 3.619720000000000160e-01 3.647839999999999971e-01 -1.179023310542106628e-01 8.989339470863342285e-01 -4.219202697277069092e-01
-1.591849999999999932e-01 1.025449999999999973e-01 -9.453179999999999916e-01 -1.268101781606674194e-01 3.631129562854766846e-01 -9.230753779411315918e-01
1.444340000000000068e-01 3.844629999999999992e-01 1.181490000000000101e-03 8.169586658477783203e-01 5.766011476516723633e-01 1.047638710588216782e-02
-5.235959999999999503e-01 -2.310639999999999916e-02 -1.451550000000000062e-01 -9.935578107833862305e-01 -6.755015999078750610e-02 -9.099351614713668823e-02
9.283489999999999798e-01 -4.333879999999999955e-01 1.181490000000000101e-03 -3.136172294616699219e-01 -9.495444297790527344e-01 3.107304219156503677e-03
-1.213599999999999922e-02 2.150560000000000145e-03 8.652929999999999788e-01 9.591350555419921875e-01 -2.527489326894283295e-02 2.818173468112945557e-01
1.772070000000000034e-01 3.512540000000000107e-01 1.181490000000000101e-03 8.587173819541931152e-01 5.122581124305725098e-01 1.400313246995210648e-02
-2.085370000000000001e-01 -2.806810000000000138e-01 -7.364920000000000355e-01 -3.984202444553375244e-01 -1.940400153398513794e-01 8.964428305625915527e-01
-1.591849999999999932e-01 3.477930000000000188e-01 -3.314960000000000129e-01 -1.433971822261810303e-01 9.174551367759704590e-01 3.710975944995880127e-01
-3.959019999999999762e-01 -2.310639999999999916e-02 3.477890000000000148e-01 -5.315631628036499023e-01 -2.599828317761421204e-02 8.466196060180664062e-01
8.823710000000000164e-01 -2.310639999999999916e-02 3.194660000000000277e-01 8.440405726432800293e-01 3.252879083156585693e-01 4.263605177402496338e-01
2.050849999999999895e-01 1.311569999999999958e-01 -2.166410000000000002e-01 6.955279707908630371e-01 2.569020092487335205e-01 -6.710008382797241211e-01
-2.868640000000000079e-01 8.427610000000000656e-02 8.141310000000000491e-01 -9.997755289077758789e-01 1.637403853237628937e-02 -1.344328839331865311e-02
-1.591849999999999932e-01 1.910380000000000134e-01 4.943350000000000244e-01 -2.346800565719604492e-01 -6.959609985351562500e-01 6.786482930183410645e-01
-1.767679999999999946e-02 -3.022659999999999791e-01 -8.756199999999999539e-01 8.824912905693054199e-01 -3.170159757137298584e-01 -3.474334478378295898e-01
-2.222220000000000029e-01 -4.080119999999999858e-01 -8.508459999999999912e-01 -5.780707597732543945e-01 -8.151535987854003906e-01 -3.686258941888809204e-02
5.009329999999999616e-01 -1.637210000000000054e-01 3.409690000000000221e-01 -1.268106698989868164e-02 7.857602238655090332e-01 6.184011697769165039e-01
2.156000000000000139e-01 -4.732270000000000088e-01 1.181490000000000101e-03 -2.486785650253295898e-01 -9.685774445533752441e-01 -4.082473926246166229e-03
-4.875140000000000029e-01 1.350540000000000074e-01 2.363649999999999918e-01 -8.024169206619262695e-01 3.520189821720123291e-01 4.818814992904663086e-01
-1.591849999999999932e-01 2.209139999999999993e-01 -6.712320000000000508e-01 -1.410972923040390015e-01 -4.151788949966430664e-01 8.987313508987426758e-01
-2.773999999999999799e-01 2.670620000000000216e-01 -4.639469999999999983e-01 -9.240127205848693848e-01 -1.974902153015136719e-01 -3.274112045764923096e-01
9.839259999999999673e-01 -3.891310000000000047e-01 1.181490000000000101e-03 -1.203369721770286560e-02 -9.999195337295532227e-01 4.008410498499870300e-03
-1.591849999999999932e-01 -2.849400000000000266e-01 4.132759999999999767e-01 -8.856872469186782837e-02 -4.048421382904052734e-01 9.100870490074157715e-01
5.009329999999999616e-01 -4.098640000000000061e-01 -2.899689999999999768e-01 -3.257244080305099487e-02 -3.968441784381866455e-01 -9.173079133033752441e-01
-4.224319999999999742e-01 -2.310639999999999916e-02 3.236240000000000228e-01 -5.094683170318603516e-01 -3.252184763550758362e-02 8.598745465278625488e-01
2.226680000000000048e-01 -2.310639999999999916e-02 3.786919999999999731e-01 2.192454487085342407e-01 3.320419192314147949e-01 9.174309372901916504e-01
5.009329999999999616e-01 -4.471470000000000167e-01 -2.564690000000000025e-01 -4.249870777130126953e-02 -5.646858215332031250e-01 -8.242110610008239746e-01
5.009329999999999616e-01 -1.512699999999999878e-01 -3.375230000000000175e-01 -2.054318971931934357e-02 3.558185696601867676e-01 -9.343292713165283203e-01
-1.526369999999999949e-01 3.208770000000000233e-01 -2.887910000000000199e-01 -1.953023821115493774e-01 9.803765416145324707e-01 -2.681110799312591553e-02
-1.591849999999999932e-01 3.942220000000000169e-01 4.643300000000000205e-01 -1.444383114576339722e-01 9.808324575424194336e-01 -1.307865828275680542e-01
5.009329999999999616e-01 2.424379999999999938e-02 2.644400000000000084e-01 4.038263112306594849e-02 8.845692873001098633e-01 4.646573066711425781e-01
-1.591849999999999932e-01 -3.377939999999999832e-01 9.627109999999999834e-01 4.000703990459442139e-02 -5.840665102005004883e-01 8.107192516326904297e-01
1.060329999999999995e+00 -1.925580000000000069e-01 1.181490000000000101e-03 7.194587588310241699e-01 -6.944601535797119141e-01 1.021389570087194443e-02
1.235020000000000007e-01 2.000740000000000018e-01 -3.003330000000000166e-01 6.465641856193542480e-01 9.321494400501251221e-02 -7.571431398391723633e-01
-5.518840000000000412e-01 -1.670460000000000000e-01 1.181490000000000101e-03 -9.881615042686462402e-01 -1.532575190067291260e-01 -7.005616556853055954e-03
-2.798669999999999977e-02 -2.310639999999999916e-02 4.171460000000000168e-01 1.650082468986511230e-01 1.850967854261398315e-01 9.687680602073669434e-01
-1.591849999999999932e-01 -4.709180000000000033e-01 -2.995740000000000069e-01 -1.702460832893848419e-02 -5.197917222976684570e-01 -8.541233539581298828e-01
-4.001919999999999783e-02 -3.506270000000000220e-01 8.740949999999999553e-01 8.481279611587524414e-01 -4.695162475109100342e-01 2.454250305891036987e-01
5.009329999999999616e-01 -2.704219999999999957e-01 -3.380580000000000251e-01 -2.362435683608055115e-02 2.416498661041259766e-01 -9.700758457183837891e-01
-1.591849999999999932e-01 2.482409999999999894e-01 5.519399999999999862e-01 -2.260759472846984863e-01 -7.408766746520996094e-01 6.324486732482910156e-01
-4.553849999999999842e-01 -2.310639999999999916e-02 2.898939999999999850e-01 -5.830327272415161133e-01 -5.276833847165107727e-02 8.107331395149230957e-01
8.535690000000000222e-01 -4.761250000000000204e-01 1.181490000000000101e-03 -4.769740998744964600e-01 -8.789138197898864746e-01 2.466302830725908279e-03
-1.591849999999999932e-01 -3.894980000000000109e-01 7.889190000000000369e-01 6.468821316957473755e-02 -6.710165739059448242e-01 -7.386150360107421875e-01
5.060270000000000046e-01 -5.331449999999999800e-01 1.181490000000000101e-03 -4.351713061332702637e-01 -8.964686989784240723e-01 8.348595350980758667e-02
-1.591849999999999932e-01 -1.965770000000000017e-01 -4.230949999999999989e-01 -1.051671355962753296e-01 4.147285819053649902e-01 -9.038473963737487793e-01
5.993500000000000216e-02 4.357579999999999787e-01 1.181490000000000101e-03 3.714471459388732910e-01 9.284319877624511719e-01 6.410126108676195145e-03
-5.450129999999999697e-01 -2.310639999999999916e-02 -4.218800000000000328e-02 -9.949676990509033203e-01 6.126106902956962585e-02 -7.928599417209625244e-02
-2.878279999999999728e-01 -1.509340000000000126e-01 -8.472319999999999851e-01 -9.912077188491821289e-01 1.250858455896377563e-01 4.313695058226585388e-02
5.009329999999999616e-01 -4.839870000000000005e-01 2.036739999999999939e-01 -3.992842510342597961e-02 -4.844565987586975098e-01 8.739035725593566895e-01
1.051220000000000043e+00 -2.593750000000000222e-01 1.181490000000000101e-03 4.782113730907440186e-01 -8.782253265380859375e-01 5.841406527906656265e-03
9.075900000000000634e-02 -5.012229999999999741e-01 1.181490000000000101e-03 1.585124731063842773e-01 -9.873520731925964355e-01 -3.114750143140554428e-03
-2.317299999999999915e-01 1.412410000000000054e-01 3.848509999999999986e-01 -4.174993932247161865e-01 -1.351509094238281250e-01 8.985702395439147949e-01
-1.134789999999999931e-02 -2.275149999999999950e-01 -8.756439999999999779e-01 9.733470678329467773e-01 -2.254481986165046692e-02 -2.282261848449707031e-01
4.278120000000000256e-01 -2.310639999999999916e-02 -3.322559999999999958e-01 3.062697052955627441e-01 4.315813183784484863e-01 -8.484907150268554688e-01
-1.591849999999999932e-01 -3.449530000000000096e-01 7.487519999999999731e-01 6.866052001714706421e-02 -6.540742516517639160e-01 -7.533077001571655273e-01
2.813780000000000101e-02 2.105960000000000054e-01 3.315699999999999759e-01 2.793246507644653320e-01 4.032225906848907471e-01 8.714294433593750000e-01
-1.591849999999999932e-01 1.342160000000000020e-01 -6.936980000000000368e-01 -1.285181045532226562e-01 -9.872760623693466187e-02 9.867805838584899902e-01
-1.591849999999999932e-01 3.696110000000000229e-01 -3.810779999999999723e-01 -1.421281695365905762e-01 8.464187383651733398e-01 5.132006406784057617e-01
-1.138770000000000060e-02 -1.839840000000000086e-01 8.772119999999999918e-01 9.659789800643920898e-01 1.071672141551971436e-01 2.353717088699340820e-01
-2.096040000000000125e-01 -2.806810000000000138e-01 -9.645489999999999897e-01 -6.432841420173645020e-01 -3.011455535888671875e-01 -7.039152979850769043e-01
5.009329999999999616e-01 -3.085510000000000197e-01 -3.322629999999999750e-01 -2.286778949201107025e-02 9.642931073904037476e-02 -9.950770735740661621e-01
-4.345609999999999751e-01 1.701380000000000114e-01 2.885309999999999819e-01 -5.687677264213562012e-01 4.819494485855102539e-01 6.665043234825134277e-01
5.009329999999999616e-01 -5.145089999999999941e-01 1.111369999999999997e-01 -3.704396635293960571e-02 -7.721791863441467285e-01 6.343240737915039062e-01
-1.441199999999999946e-02 1.811149999999999982e-01 8.285059999999999647e-01 9.242410659790039062e-01 1.727794706821441650e-01 3.404787778854370117e-01
-1.312319999999999875e-01 -2.806810000000000138e-01 7.242060000000000164e-01 3.875010013580322266e-01 -2.851381599903106689e-01 -8.766635656356811523e-01
-1.591849999999999932e-01 1.820960000000000079e-01 6.855170000000000430e-01 -1.469832956790924072e-01 -1.059281453490257263e-01 -9.834506511688232422e-01
-1.146870000000000007e-02 -1.371159999999999879e-01 8.760580000000000034e-01 9.681829810142517090e-01 8.529043942689895630e-02 2.352600842714309692e-01
4.369870000000000143e-01 -5.178840000000000110e-01 1.181490000000000101e-03 -5.433374643325805664e-01 -8.394367098808288574e-01 -1.141631044447422028e-02
-1.591849999999999932e-01 -2.076490000000000002e-01 7.059760000000000479e-01 -7.056357711553573608e-02 4.043045639991760254e-02 -9.966875910758972168e-01
-5.128800000000000026e-02 -2.821299999999999919e-01 -9.156339999999999479e-01 6.827074289321899414e-01 -3.828874528408050537e-01 -6.223406791687011719e-01
1.762739999999999863e-01 2.820500000000000229e-01 -2.461959999999999982e-01 4.714425504207611084e-01 6.164956688880920410e-01 -6.306147575378417969e-01
1.908870000000000011e-01 2.105960000000000054e-01 -2.426919999999999911e-01 7.337877750396728516e-01 -2.423159182071685791e-01 -6.346956491470336914e-01
-1.184810000000000030e-01 3.066559999999999842e-01 2.985929999999999973e-01 -1.822321414947509766e-01 9.394323229789733887e-01 2.902731001377105713e-01
-4.150110000000000188e-01 -2.310639999999999916e-02 -3.284290000000000265e-01 -7.628955841064453125e-01 -3.492776304483413696e-02 -6.455774903297424316e-01
-4.156719999999999859e-02 2.354100000000000081e-01 3.895979999999999999e-01 9.940267801284790039e-01 9.524777531623840332e-02 -5.327888205647468567e-02
1.019279999999999964e+00 -2.310639999999999916e-02 -1.349460000000000104e-01 8.934967517852783203e-01 4.485688805580139160e-01 -2.120326831936836243e-02
1.051330000000000098e+00 -3.915960000000000274e-02 1.181490000000000101e-03 9.927604794502258301e-01 8.956055343151092529e-02 -8.003446459770202637e-02
-1.591849999999999932e-01 1.487619999999999915e-02 7.038940000000000197e-01 -1.526739299297332764e-01 -4.086770117282867432e-02 -9.874312281608581543e-01
-1.591849999999999932e-01 7.440270000000000217e-02 7.012289999999999912e-01 -1.495876163244247437e-01 -1.405818611383438110e-01 -9.787033796310424805e-01
1.002220000000000111e+00 -3.673710000000000031e-01 1.181490000000000101e-03 6.742712110280990601e-02 -9.977145791053771973e-01 4.372834227979183197e-03
3.370009999999999950e-01 1.799499999999999988e-01 1.181490000000000101e-03 7.954791784286499023e-01 6.056861281394958496e-01 -1.889853551983833313e-02
-5.394390000000000018e-01 -2.310639999999999916e-02 7.166119999999999435e-02 -9.556069970130920410e-01 6.427371501922607422e-02 2.875485718250274658e-01
5.009329999999999616e-01 -4.839870000000000005e-01 -2.012909999999999977e-01 -5.418240651488304138e-02 -8.266734480857849121e-01 -5.600672364234924316e-01
5.009329999999999616e-01 -1.034329999999999972e-01 3.343909999999999938e-01 3.102847002446651459e-02 6.925595998764038086e-01 7.206929922103881836e-01
-1.591849999999999932e-01 2.615999999999999992e-01 5.709340000000000526e-01 -2.176384478807449341e-01 -8.318987488746643066e-01 5.104683041572570801e-01
-1.773879999999999901e-01 4.001109999999999944e-01 1.181490000000000101e-03 -4.166427254676818848e-01 9.090504050254821777e-01 6.019423250108957291e-03
5.009329999999999616e-01 2.424379999999999938e-02 -2.620529999999999804e-01 -9.145773015916347504e-03 8.061591982841491699e-01 -5.916280150413513184e-01
1.025099999999999900e+00 -3.244870000000000254e-01 1.181490000000000101e-03 1.906103640794754028e-01 -9.816540479660034180e-01 4.793357104063034058e-03
-1.591849999999999932e-01 -3.835450000000000248e-01 9.237210000000000143e-01 -1.219693943858146667e-02 -7.160791754722595215e-01 6.979125142097473145e-01
-1.591849999999999932e-01 -4.193790000000000018e-01 8.250859999999999861e-01 1.272314935922622681e-01 -8.815041780471801758e-01 -4.547115266323089600e-01
-7.408839999999999870e-02 2.720759999999999845e-01 3.166260000000000185e-01 5.824291110038757324e-01 6.445047259330749512e-01 4.953683912754058838e-01
5.009329999999999616e-01 -4.963879999999999959e-01 1.748730000000000007e-01 -5.028240382671356201e-02 -6.543036699295043945e-01 7.545583844184875488e-01
-2.879169999999999785e-01 -2.599310000000000231e-01 -8.503920000000000368e-01 -9.989021420478820801e-01 -4.442119970917701721e-02 -1.487681269645690918e-02
-1.591849999999999932e-01 -5.207739999999999592e-01 2.092400000000000093e-01 4.534693434834480286e-02 -9.776318669319152832e-01 2.053765952587127686e-01
1.057960000000000012e+00 -1.373139999999999916e-01 1.181490000000000101e-03 7.352508306503295898e-01 -6.776677966117858887e-01 1.314241252839565277e-02
2.929519999999999902e-01 2.105960000000000054e-01 -3.420390000000000236e-02 7.980142235755920410e-01 5.815867781639099121e-01 -1.578924804925918579e-01
-5.470559999999999867e-01 -2.449669999999999903e-01 1.181490000000000101e-03 -9.881583452224731445e-01 -1.533908993005752563e-01 -3.798035671934485435e-03
9.030949999999999811e-01 -2.310639999999999916e-02 -3.061530000000000085e-01 7.979202270507812500e-01 3.647521436214447021e-01 -4.798741340637207031e-01
-1.591849999999999932e-01 -5.459270000000000511e-01 -1.048290000000000055e-01 7.096834480762481689e-02 -9.016169905662536621e-01 -4.266735315322875977e-01
-1.591849999999999932e-01 -1.908499999999999919e-01 9.975439999999999863e-01 -3.799883276224136353e-02 1.480185836553573608e-01 9.882543683052062988e-01
-1.422200000000000131e-01 3.169330000000000203e-01 2.932350000000000234e-01 -2.589831650257110596e-01 9.330251216888427734e-01 2.497836947441101074e-01
5.329230000000000356e-01 9.072890000000000121e-02 1.181490000000000101e-03 4.590135440230369568e-02 9.987858533859252930e-01 -1.788775250315666199e-02
-1.445460000000000078e-01 -2.806810000000000138e-01 9.915089999999999737e-01 2.283236384391784668e-01 -3.245675861835479736e-01 9.178912043571472168e-01
-1.593900000000000039e-01 4.060360000000000080e-01 6.346799999999999664e-02 -3.813563287258148193e-01 9.096218347549438477e-01 1.647894233465194702e-01
5.009329999999999616e-01 -3.208050000000000068e-01 3.318490000000000051e-01 -4.229109734296798706e-03 4.579278528690338135e-01 8.889793157577514648e-01
-2.839800000000000102e-01 -2.310639999999999916e-02 3.967899999999999761e-01 -3.148940950632095337e-02 7.108972966670989990e-02 9.969727396965026855e-01
-2.621459999999999901e-01 -2.806810000000000138e-01 -7.904419999999999780e-01 -7.960384488105773926e-01 -1.490762382745742798e-01 5.865995287895202637e-01
6.440129999999999466e-01 -2.310639999999999916e-02 3.411939999999999973e-01 6.300657391548156738e-01 2.840542197227478027e-01 7.227242588996887207e-01
5.009329999999999616e-01 -2.170439999999999869e-01 -3.406799999999999828e-01 -2.784704789519309998e-02 3.911345899105072021e-01 -9.199120998382568359e-01
5.009329999999999616e-01 -5.205070000000000530e-01 8.034180000000000488e-02 -3.592961654067039490e-02 -8.324047923088073730e-01 5.530021190643310547e-01
-1.569329999999999892e-01 -2.806810000000000138e-01 7.069140000000000423e-01 5.448073148727416992e-02 -2.868601381778717041e-01 -9.564220309257507324e-01
1.282709999999999961e-01 2.294319999999999971e-01 -2.954410000000000092e-01 4.472665488719940186e-01 1.842794865369796753e-01 -8.752107024192810059e-01
5.009329999999999616e-01 -8.022319999999999451e-02 3.311419999999999919e-01 4.436416178941726685e-02 7.259520292282104492e-01 6.863129734992980957e-01
-2.825799999999999979e-01 -3.091070000000000206e-01 -8.508459999999999912e-01 -9.714344143867492676e-01 -2.291224896907806396e-01 -6.178994849324226379e-02
-1.591849999999999932e-01 -7.704909999999999537e-02 -9.854840000000000266e-01 -8.708732575178146362e-02 1.614688783884048462e-01 -9.830277562141418457e-01
-1.591849999999999932e-01 -3.796359999999999735e-01 -9.283670000000000533e-01 -2.014666981995105743e-02 -6.951772570610046387e-01 -7.185559868812561035e-01
-2.421399999999999941e-01 -2.806810000000000138e-01 -9.367820000000000036e-01 -7.581873536109924316e-01 -2.229296714067459106e-01 -6.127432584762573242e-01
-1.591849999999999932e-01 2.698039999999999883e-01 6.085920000000000218e-01 -1.924142241477966309e-01 -9.746108651161193848e-01 -1.145012006163597107e-01
9.650689999999999547e-01 -4.056890000000000218e-01 1.181490000000000101e-03 -1.031097918748855591e-01 -9.946636557579040527e-01 3.535980125889182091e-03
-2.131500000000000061e-01 1.252500000000000002e-01 -3.908030000000000115e-01 -4.249120950698852539e-01 -9.227126836776733398e-02 -9.005197286605834961e-01
-1.811230000000000062e-01 -4.300649999999999751e-01 -8.508459999999999912e-01 -2.529386281967163086e-01 -9.670736789703369141e-01 -2.811791002750396729e-02
2.227459999999999996e-01 3.028359999999999941e-01 1.181490000000000101e-03 7.746507525444030762e-01 6.323267817497253418e-01 8.886509574949741364e-03
-2.713309999999999889e-01 -2.806810000000000138e-01 8.093939999999999468e-01 -8.727924823760986328e-01 -5.380615592002868652e-02 -4.851166903972625732e-01
-1.591849999999999932e-01 -8.845550000000000634e-02 7.065519999999999579e-01 -1.438164561986923218e-01 -9.558542817831039429e-02 -9.849773049354553223e-01
-1.447789999999999910e-01 1.032310000000000033e-01 4.046719999999999762e-01 -1.510091871023178101e-01 -3.799360692501068115e-01 9.126033782958984375e-01
9.820830000000000393e-01 -2.310639999999999916e-02 2.286980000000000124e-01 9.329187273979187012e-01 3.350137472152709961e-01 -1.320169568061828613e-01
-3.049709999999999921e-01 2.062599999999999989e-01 3.422379999999999867e-01 -5.526077747344970703e-01 4.135244190692901611e-01 7.236175537109375000e-01
-1.591849999999999932e-01 -2.986969999999999903e-01 9.895599999999999952e-01 5.532627552747726440e-02 -3.480745255947113037e-01 9.358328580856323242e-01
-2.876920000000000033e-01 -9.199090000000000045e-02 -8.422119999999999607e-01 -9.990289211273193359e-01 2.019538730382919312e-02 3.915823996067047119e-02
-1.326340000000000019e-01 -5.536069999999999602e-01 1.181490000000000101e-03 9.621421992778778076e-02 -9.919242262840270996e-01 -8.263956755399703979e-02
-5.234670000000000156e-01 -3.913189999999999724e-01 1.181490000000000101e-03 -8.834049701690673828e-01 -4.685694575309753418e-01 -6.194862071424722672e-03
-4.751830000000000220e-01 1.971719999999999862e-01 1.181490000000000101e-03 -7.399739623069763184e-01 6.726046800613403320e-01 -6.441960576921701431e-03
5.300380000000000091e-01 -2.310639999999999916e-02 3.265509999999999802e-01 4.484592378139495850e-01 5.768608450889587402e-01 6.827268600463867188e-01
5.009329999999999616e-01 -1.892770000000000008e-01 3.424960000000000226e-01 -5.306185688823461533e-03 6.878432035446166992e-01 7.258399128913879395e-01
6.647889999999999633e-01 1.098599999999999993e-01 1.181490000000000101e-03 -1.188410297036170959e-01 9.929126501083374023e-01 -1.142412307672202587e-03
2.146289999999999917e-03 2.105960000000000054e-01 -3.355429999999999802e-01 3.889545202255249023e-01 3.529331386089324951e-01 -8.509715199470520020e-01
-1.591849999999999932e-01 3.850899999999999879e-01 6.807210000000000205e-01 -1.743861287832260132e-01 9.534785747528076172e-01 2.459023594856262207e-01
4.826730000000000187e-01 9.482060000000000488e-02 1.181490000000000101e-03 2.070716917514801025e-01 9.782271385192871094e-01 -1.389074791222810745e-02
-1.591849999999999932e-01 -3.201930000000000054e-01 4.038260000000000183e-01 -7.466661185026168823e-02 -5.101764202117919922e-01 8.568226099014282227e-01
-5.246499999999999775e-02 -2.806810000000000138e-01 9.203050000000000397e-01 7.108936905860900879e-01 -2.949619889259338379e-01 6.384571790695190430e-01
-2.814220000000000055e-01 -3.147650000000000170e-01 8.532330000000000192e-01 -9.590361714363098145e-01 -2.816044688224792480e-01 3.079903125762939453e-02
-1.142609999999999980e-02 -1.602600000000000136e-01 8.766950000000000021e-01 9.637362957000732422e-01 1.316990703344345093e-01 2.320942878723144531e-01
1.867050000000000098e-01 2.105960000000000054e-01 2.491980000000000028e-01 6.772461533546447754e-01 -2.415554523468017578e-01 6.949737668037414551e-01
2.823209999999999886e-01 2.329700000000000104e-01 1.181490000000000101e-03 8.223181366920471191e-01 5.687999129295349121e-01 1.611063256859779358e-02
-5.511000000000000343e-01 -1.907929999999999904e-01 1.181490000000000101e-03 -9.836032390594482422e-01 -1.802490353584289551e-01 -5.911217536777257919e-03
-2.082950000000000079e-02 3.301499999999999990e-01 -7.223840000000000261e-01 8.306692242622375488e-01 5.156782269477844238e-01 -2.099157571792602539e-01
-5.017709999999999670e-01 1.541659999999999975e-01 1.181490000000000101e-03 -8.750848174095153809e-01 4.837968349456787109e-01 -1.292767468839883804e-02
5.359930000000000250e-02 -5.114260000000000472e-01 1.181490000000000101e-03 1.080030202865600586e-01 -9.941464066505432129e-01 -2.886807778850197792e-03
-1.591849999999999932e-01 -8.530219999999999470e-02 -4.237449999999999828e-01 -1.070618033409118652e-01 4.248711466789245605e-01 -8.989005684852600098e-01
7.070380000000000553e-01 -2.310639999999999916e-02 -3.441100000000000270e-01 3.754175305366516113e-01 3.780059218406677246e-01 -8.462702035903930664e-01
-2.759780000000000011e-01 2.420460000000000111e-01 4.140880000000000116e-01 -9.661409854888916016e-01 -4.335676878690719604e-02 2.543458044528961182e-01
-1.591849999999999932e-01 3.792740000000000000e-01 -6.965860000000000385e-01 -1.905008703470230103e-01 9.528073668479919434e-01 -2.363633215427398682e-01
-2.879140000000000033e-01 -2.550490000000000257e-01 8.526709999999999567e-01 -9.993591308593750000e-01 -3.351540863513946533e-02 1.257185544818639755e-02
-1.591849999999999932e-01 3.789420000000000011e-01 4.088979999999999837e-01 -1.384669244289398193e-01 9.393503665924072266e-01 -3.137639164924621582e-01
-1.773879999999999901e-01 -2.310639999999999916e-02 4.206440000000000179e-01 -6.169411540031433105e-02 -3.929432481527328491e-02 9.973212480545043945e-01
8.308320000000000149e-01 -4.838749999999999996e-01 1.181490000000000101e-03 -5.223479866981506348e-01 -8.527291417121887207e-01 2.353056101128458977e-03
-1.251449999999999958e-02 5.563250000000000139e-02 -8.567839999999999900e-01 9.548664093017578125e-01 -2.771855518221855164e-02 -2.957396209239959717e-01
-2.634650000000000047e-01 -2.806810000000000138e-01 -9.090099999999999847e-01 -8.564534783363342285e-01 -2.136928588151931763e-01 -4.699178338050842285e-01
-1.591849999999999932e-01 2.698039999999999883e-01 -6.062079999999999691e-01 -2.162774354219436646e-01 -9.752274155616760254e-01 4.642742872238159180e-02
-1.591849999999999932e-01 -5.439510000000000178e-02 9.842450000000000365e-01 -9.596472978591918945e-02 7.644934207201004028e-02 9.924446344375610352e-01
4.860880000000000062e-02 -2.310639999999999916e-02 -4.071589999999999931e-01 4.893663227558135986e-01 2.098335772752761841e-01 -8.464576601982116699e-01
2.837009999999999810e-01 2.105960000000000054e-01 -7.397159999999999846e-02 7.875609993934631348e-01 5.726286172866821289e-01 -2.276933044195175171e-01
-5.349760000000000071e-01 -2.310639999999999916e-02 -9.097049999999999581e-02 -9.841629266738891602e-01 -5.419403687119483948e-02 -1.687787026166915894e-01
-4.983330000000000259e-01 -2.310639999999999916e-02 -2.285689999999999944e-01 -9.544814825057983398e-01 -9.026163816452026367e-02 -2.842848896980285645e-01
1.026149999999999896e+00 -2.310639999999999916e-02 1.113279999999999964e-01 8.815056681632995605e-01 4.510010778903961182e-01 -1.398062855005264282e-01
-2.383280000000000121e-01 1.483109999999999984e-01 -3.787769999999999748e-01 -7.356886863708496094e-01 1.441393047571182251e-01 -6.618050336837768555e-01
-2.838379999999999792e-01 2.755469999999999864e-01 -7.005599999999999605e-01 -9.619022011756896973e-01 1.096983030438423157e-01 2.504205703735351562e-01
-1.591849999999999932e-01 -5.123029999999999529e-01 2.305480000000000029e-01 2.142030373215675354e-02 -9.845342040061950684e-01 1.738781630992889404e-01
-5.497049999999999992e-01 -2.156049999999999911e-01 1.181490000000000101e-03 -9.803839325904846191e-01 -1.970692873001098633e-01 -3.305764868855476379e-03
9.878010000000000401e-01 3.136980000000000324e-02 1.181490000000000101e-03 7.125132083892822266e-01 7.015670537948608398e-01 1.133661810308694839e-02
-7.987569999999999393e-02 -5.426189999999999625e-01 1.181490000000000101e-03 2.074774056673049927e-01 -9.780679345130920410e-01 -1.833453401923179626e-02
-1.143519999999999953e-02 -1.569089999999999929e-01 -8.742379999999999596e-01 9.617262482643127441e-01 1.838659495115280151e-01 -2.031648159027099609e-01
-5.387429999999999719e-01 5.826800000000000035e-02 1.221890000000000059e-01 -9.768502712249755859e-01 8.780509978532791138e-02 1.950740516185760498e-01
-1.018450000000000050e-01 -2.806810000000000138e-01 7.457660000000000400e-01 6.580059528350830078e-01 -2.352737933397293091e-01 -7.153142094612121582e-01
1.596889999999999976e-01 -2.310639999999999916e-02 -3.883340000000000125e-01 5.572274327278137207e-01 2.977152168750762939e-01 -7.751536965370178223e-01
-3.402109999999999856e-02 3.084000000000000075e-01 -5.091740000000000155e-01 9.877541065216064453e-01 1.504402160644531250e-01 -4.134705290198326111e-02
-2.171119999999999994e-01 -2.806810000000000138e-01 9.613869999999999916e-01 -6.622049212455749512e-01 -2.425031810998916626e-01 7.089971303939819336e-01
5.009329999999999616e-01 -4.962389999999999857e-01 -1.728760000000000019e-01 -6.070224940776824951e-02 -8.802711367607116699e-01 -4.705718755722045898e-01
-2.810860000000000025e-01 3.032039999999999735e-01 -5.994439999999999769e-01 -9.391217827796936035e-01 -3.418057262897491455e-01 3.491643816232681274e-02
7.655220000000000080e-02 -2.310639999999999916e-02 4.051420000000000021e-01 2.444530129432678223e-01 2.164903432130813599e-01 9.451850056648254395e-01
-2.366880000000000095e-01 -2.806810000000000138e-01 9.444460000000000077e-01 -7.804533839225769043e-01 -1.979084610939025879e-01 5.930638909339904785e-01
1.387980000000000047e-01 2.483910000000000007e-01 2.870289999999999786e-01 3.114466667175292969e-01 3.411726057529449463e-01 8.869060277938842773e-01
-2.271900000000000031e-01 -2.310639999999999916e-02 -4.094510000000000094e-01 -4.686848819255828857e-01 1.191924661397933960e-01 -8.752871751785278320e-01
4.093870000000000009e-01 -5.103799999999999448e-01 1.181490000000000101e-03 -5.929710268974304199e-01 -8.050826191902160645e-01 -1.507771667093038559e-02
-1.591849999999999932e-01 8.098110000000000031e-02 9.555109999999999992e-01 -1.326854526996612549e-01 2.827866673469543457e-01 9.499611854553222656e-01
-1.047130000000000005e-01 2.990740000000000065e-01 -3.001610000000000111e-01 -1.810798645019531250e-01 9.435629844665527344e-01 -2.773066461086273193e-01
-7.290320000000000134e-02 -3.898730000000000251e-01 8.683389999999999720e-01 7.037440538406372070e-01 -6.910531520843505859e-01 1.648934483528137207e-01
-1.193099999999999994e-01 -2.806810000000000138e-01 9.743910000000000071e-01 3.793965280055999756e-01 -3.532007336616516113e-01 8.551651835441589355e-01
-6.635699999999999932e-02 2.610799999999999788e-01 -3.199730000000000074e-01 4.851688444614410400e-01 6.161131262779235840e-01 -6.204965114593505859e-01
-1.307759999999999999e-02 1.059670000000000056e-01 -8.476829999999999643e-01 9.475933909416198730e-01 4.913815855979919434e-02 -3.156772553920745850e-01
-1.591849999999999932e-01 3.399989999999999957e-01 2.700949999999999740e-01 -2.592242062091827393e-01 8.517313599586486816e-01 4.553642272949218750e-01
-1.591849999999999932e-01 2.059100000000000097e-01 -5.059740000000000348e-01 -2.229545563459396362e-01 -5.431994795799255371e-01 -8.094601035118103027e-01
2.547820000000000085e-01 2.263090000000000102e-01 -1.656579999999999997e-01 9.185419082641601562e-01 3.074218928813934326e-01 -2.485410273075103760e-01
-2.835170000000000051e-02 3.420799999999999952e-01 6.031940000000000079e-01 9.407857060432434082e-01 3.092592954635620117e-01 -1.388557404279708862e-01
-1.591849999999999932e-01 -3.005959999999999743e-01 7.181130000000000013e-01 5.938369408249855042e-02 -4.082278907299041748e-01 -9.109465479850769043e-01
-2.777519999999999989e-01 2.731640000000000179e-01 4.793100000000000138e-01 -9.424573779106140137e-01 -1.691567599773406982e-01 2.883748412132263184e-01
-5.099550000000000471e-01 -2.310639999999999916e-02 -1.985040000000000138e-01 -9.787965416908264160e-01 -9.711841493844985962e-02 -1.803479641675949097e-01
-2.878620000000000068e-01 -1.778339999999999921e-01 -8.484380000000000255e-01 -9.849792122840881348e-01 1.658835113048553467e-01 4.794472828507423401e-02
-2.700850000000000195e-01 2.195169999999999899e-01 -3.416449999999999765e-01 -8.020467758178710938e-01 4.399746954441070557e-01 -4.039098620414733887e-01
-1.591849999999999932e-01 -3.610079999999999956e-01 -3.857920000000000238e-01 -6.198760867118835449e-02 4.995766561478376389e-03 -9.980643987655639648e-01
-6.637039999999999607e-02 -2.310639999999999916e-02 -4.163089999999999846e-01 3.124770820140838623e-01 1.849902868270874023e-01 -9.317384958267211914e-01
-4.991389999999999993e-01 1.239230000000000054e-01 2.198160000000000114e-01 -8.302184343338012695e-01 3.147211372852325439e-01 4.600954651832580566e-01
-2.815759999999999930e-01 3.008219999999999783e-01 6.198259999999999881e-01 -9.607924818992614746e-01 -2.745679616928100586e-01 3.860466182231903076e-02
2.878060000000000063e-01 -2.310639999999999916e-02 -3.618540000000000090e-01 5.066500902175903320e-01 3.937538564205169678e-01 -7.669834494590759277e-01
4.592300000000000271e-01 -5.235400000000000054e-01 1.181490000000000101e-03 -2.856992781162261963e-01 -9.563620090484619141e-01 6.121853739023208618e-02
-1.591849999999999932e-01 -1.842260000000000009e-01 7.061560000000000059e-01 -9.519791603088378906e-02 7.957331836223602295e-03 -9.954265952110290527e-01
-1.591849999999999932e-01 7.776470000000000604e-02 4.105440000000000200e-01 -2.335689812898635864e-01 -1.524208337068557739e-01 9.603193998336791992e-01
2.325119999999999965e-01 2.630259999999999820e-01 -1.885040000000000049e-01 8.994387388229370117e-01 3.953036069869995117e-01 -1.863999515771865845e-01
-2.562069999999999972e-02 2.105960000000000054e-01 -3.420670000000000099e-01 5.060251355171203613e-01 4.179153740406036377e-01 -7.545099854469299316e-01
2.140539999999999943e-01 2.785020000000000273e-01 2.098240000000000105e-01 7.246738672256469727e-01 5.895918011665344238e-01 3.566918969154357910e-01
-3.673869999999999914e-02 2.826520000000000143e-01 -4.652519999999999989e-01 9.936357736587524414e-01 9.430750459432601929e-02 -6.159644946455955505e-02
7.542419999999999680e-02 -2.310639999999999916e-02 -4.029440000000000244e-01 5.319613218307495117e-01 2.193088233470916748e-01 -8.178757429122924805e-01
-1.591849999999999932e-01 3.864179999999999837e-01 4.326800000000000090e-01 -1.407173871994018555e-01 9.332516789436340332e-01 -3.305144906044006348e-01
2.945630000000000193e-01 2.105960000000000054e-01 2.936309999999999962e-02 8.279059529304504395e-01 5.393454432487487793e-01 1.538773924112319946e-01
-1.591849999999999932e-01 2.196970000000000034e-01 8.941170000000000506e-01 -1.686650067567825317e-01 5.146958827972412109e-01 8.406190276145935059e-01
-1.591849999999999932e-01 -5.590690000000000381e-01 1.181490000000000101e-03 7.534641027450561523e-02 -9.881064891815185547e-01 -1.340459883213043213e-01
