-6.198470000000000368e-01 3.614850000000000008e-01 8.822190000000000587e-02 1.036318838596343994e-01 9.553521275520324707e-01 2.766998112201690674e-01
1.221079999999999943e+00 -2.234889999999999932e-01 -1.505479999999999874e-01 4.305289089679718018e-01 -1.308472156524658203e-01 8.930419683456420898e-01
5.066619999999999457e-01 -4.708089999999999775e-01 -2.779499999999999749e-01 8.577945828437805176e-01 -2.625823915004730225e-01 -4.418587088584899902e-01
4.279569999999999902e-03 4.804640000000000022e-01 1.569510000000000072e-01 -8.777630329132080078e-02 -4.463113546371459961e-01 8.905624151229858398e-01
-7.124059999999999837e-01 2.626299999999999746e-01 -9.690179999999999627e-03 -8.441129326820373535e-01 -5.358114838600158691e-01 1.947601139545440674e-02
-4.236079999999999846e-01 2.748540000000000011e-02 -2.019579999999999986e-01 4.311988949775695801e-01 6.566309332847595215e-01 6.187919974327087402e-01
-3.535490000000000022e-01 -7.805389999999999828e-01 1.946679999999999938e-02 3.188124671578407288e-02 -3.940663337707519531e-01 9.185289144515991211e-01
-3.888860000000000233e-02 3.327869999999999995e-01 -2.624900000000000011e-01 -5.372317507863044739e-02 6.936214864253997803e-02 -9.961439967155456543e-01
-3.056220000000000048e-01 -7.592020000000000435e-01 -2.347360000000000002e-01 7.472869753837585449e-02 -4.649747908115386963e-01 -8.821644186973571777e-01
1.174909999999999899e+00 -7.971630000000000382e-02 -8.482879999999999587e-02 3.305553495883941650e-01 1.196946948766708374e-01 -9.361656904220581055e-01
-3.254690000000000083e-01 3.738790000000000169e-02 3.612639999999999740e-01 -7.873014807701110840e-01 -2.226733565330505371e-01 5.749548077583312988e-01
-4.936130000000000240e-01 -1.847719999999999918e-01 -9.063699999999999188e-03 9.291809797286987305e-01 -3.636235892772674561e-01 -6.633751839399337769e-02
8.829590000000000494e-01 -3.463180000000000147e-01 2.958700000000000219e-01 -7.968751192092895508e-01 -5.311071276664733887e-01 2.879499495029449463e-01
-2.023480000000000001e-01 1.186650000000000066e-01 -2.523050000000000015e-01 -2.367614060640335083e-01 -2.418393790721893311e-01 9.409876465797424316e-01
-3.770040000000000058e-01 -7.466629999999999656e-01 -1.474290000000000045e-01 -9.719524979591369629e-01 -1.150841489434242249e-01 -2.050950229167938232e-01
-2.537589999999999985e-02 3.748830000000000218e-01 1.001780000000000032e-01 -2.640528082847595215e-01 -5.947321057319641113e-01 7.593218684196472168e-01
-1.428280000000000105e-01 -6.066890000000000338e-01 -3.054859999999999798e-01 -5.492178201675415039e-01 -3.982264697551727295e-01 -7.346942424774169922e-01
-1.516599999999999893e-01 -2.679730000000000167e-01 -1.880610000000000059e-01 4.842593371868133545e-01 8.511573076248168945e-01 -2.025443166494369507e-01
-5.903199999999999559e-01 2.426549999999999888e-02 2.603050000000000086e-01 -1.206163913011550903e-01 -5.793169885873794556e-02 9.910073280334472656e-01
-6.251799999999999580e-01 1.548410000000000064e-01 8.410929999999999795e-02 -1.453085839748382568e-01 9.829047322273254395e-01 -1.130650341510772705e-01
-2.028500000000000025e-01 1.193189999999999945e-01 -3.639439999999999897e-01 -1.331750452518463135e-01 -2.073198556900024414e-01 -9.691660404205322266e-01
1.512939999999999945e-02 4.438940000000000108e-01 -1.700139999999999985e-01 -1.411344408988952637e-01 -4.618601202964782715e-01 -8.756518959999084473e-01
5.857620000000000049e-01 1.316529999999999923e-01 -1.234399999999999942e-01 9.506813883781433105e-01 -1.273754686117172241e-01 -2.828082442283630371e-01
6.547600000000000642e-02 -4.770300000000000096e-01 2.057479999999999865e-01 -2.301362752914428711e-01 4.227801561355590820e-01 8.765239119529724121e-01
-3.397379999999999844e-01 1.832900000000000154e-02 -3.658719999999999750e-01 -9.074476361274719238e-01 -3.808729350566864014e-01 -1.774108260869979858e-01
9.188279999999999781e-01 1.679840000000000153e-02 1.472829999999999973e-01 -9.494769573211669922e-01 2.982047200202941895e-01 9.781307727098464966e-02
1.336839999999999973e-01 -4.366220000000000101e-01 -1.325119999999999909e-01 -5.374238491058349609e-01 -3.464424014091491699e-01 -7.688648700714111328e-01
-8.652880000000000293e-02 5.994570000000000176e-01 -1.162030000000000007e-02 8.171753287315368652e-01 -5.688632130622863770e-01 -9.283994883298873901e-02
-6.616640000000000021e-02 2.623309999999999809e-01 -2.978879999999999861e-01 -1.645407229661941528e-01 -6.096972823143005371e-01 -7.753679752349853516e-01
6.568190000000000417e-01 -2.046560000000000046e-02 -4.003070000000000239e-02 -8.502732515335083008e-01 5.248827338218688965e-01 3.916044905781745911e-02
-1.641249999999999931e-01 2.286269999999999969e-01 -2.816580000000000195e-01 -7.028543949127197266e-02 9.972462654113769531e-01 2.366213500499725342e-02
3.260560000000000125e-01 -4.047040000000000082e-01 3.070269999999999944e-01 8.038376569747924805e-01 3.475761413574218750e-01 4.827378392219543457e-01
-3.585249999999999826e-01 3.530509999999999898e-02 3.567509999999999848e-01 -9.216217994689941406e-01 -1.021241471171379089e-01 3.744116425514221191e-01
5.086279999999999690e-01 1.420879999999999921e-01 1.240969999999999990e-01 -9.816178083419799805e-01 1.156750600785017014e-02 1.905064433813095093e-01
1.339980000000000060e-01 1.825660000000000061e-01 1.009929999999999994e-01 8.622852563858032227e-01 3.861137330532073975e-01 3.276895582675933838e-01
6.353750000000000231e-01 -4.237589999999999968e-01 -3.017369999999999775e-01 9.186690449714660645e-01 2.097167260944843292e-02 -3.944711387157440186e-01
1.151799999999999935e+00 -8.566310000000000591e-02 1.540900000000000047e-01 7.407318949699401855e-01 2.366912513971328735e-01 -6.287236809730529785e-01
8.580060000000000464e-01 -3.548790000000000000e-01 -1.271210000000000118e-01 9.239081740379333496e-01 -4.471616074442863464e-02 3.799922764301300049e-01
7.425880000000000258e-01 -3.799649999999999972e-01 -3.143790000000000195e-01 9.456210136413574219e-01 2.451478689908981323e-01 -2.137833386659622192e-01
-5.373269999999999991e-01 -4.798540000000000028e-01 -1.675230000000000052e-01 7.126812338829040527e-01 -3.166345059871673584e-01 -6.259615421295166016e-01
-4.412090000000000178e-01 4.728379999999999805e-01 -1.442579999999999973e-01 8.357911109924316406e-01 5.094128251075744629e-01 -2.048211246728897095e-01
-6.834179999999999422e-02 -5.706970000000000098e-01 2.738880000000000203e-01 5.890484452247619629e-01 6.143439412117004395e-01 5.249794125556945801e-01
-4.018789999999999862e-01 9.554600000000000593e-02 2.875750000000000250e-01 -6.333560347557067871e-01 7.335255742073059082e-01 2.465776354074478149e-01
-7.038510000000000209e-04 2.091000000000000081e-01 -8.730699999999999572e-02 1.901911050081253052e-01 8.069793581962585449e-01 -5.591168403625488281e-01
-1.662950000000000062e-03 -6.501900000000000457e-01 2.974430000000000129e-01 9.716923832893371582e-01 1.624169796705245972e-01 1.715656667947769165e-01
-1.995069999999999830e-02 3.311250000000000027e-01 1.558960000000000068e-01 -7.556923627853393555e-01 -4.527406692504882812e-01 -4.732387363910675049e-01
4.668050000000000255e-01 -3.610389999999999988e-01 3.148000000000000242e-01 3.577796816825866699e-01 3.295824825763702393e-01 8.737099766731262207e-01
-7.178510000000000169e-01 2.284019999999999939e-01 -8.435029999999999611e-03 -6.963036656379699707e-01 -7.134919762611389160e-01 7.804075628519058228e-02
8.386269999999999836e-02 -6.291489999999999583e-01 1.110040000000000054e-01 -3.749482929706573486e-01 -7.615164518356323242e-01 -5.286837220191955566e-01
2.371459999999999957e-01 -4.369640000000000191e-01 3.013640000000000208e-01 3.804959654808044434e-01 5.717554688453674316e-01 7.268552184104919434e-01
1.381429999999999880e-01 4.612209999999999921e-01 -8.313009999999999844e-02 -5.493699908256530762e-01 7.427172660827636719e-01 -3.828364014625549316e-01
-6.012539999999999552e-01 -4.526959999999999873e-01 1.239959999999999951e-01 3.135934174060821533e-01 -8.974734544754028320e-01 3.101623654365539551e-01
-7.411919999999999620e-01 1.501300000000000030e-02 -1.253229999999999969e-02 -9.490738511085510254e-01 3.149541914463043213e-01 7.910771295428276062e-03
1.049260000000000081e+00 5.280440000000000134e-02 -1.434749999999999914e-02 9.701741337776184082e-01 -2.332111001014709473e-01 6.614255905151367188e-02
-2.553909999999999948e-03 3.988419999999999743e-01 -2.109630000000000116e-01 -1.720790714025497437e-01 -4.201027452945709229e-01 -8.910120725631713867e-01
3.962530000000000219e-01 -3.240990000000000260e-01 -5.123280000000000195e-02 9.924427270889282227e-01 5.715914815664291382e-02 1.085831299424171448e-01
-4.871269999999999767e-01 2.854709999999999748e-01 -3.968180000000000318e-02 -9.895722866058349609e-01 1.021018028259277344e-01 -1.015971750020980835e-01
-5.883310000000000484e-01 1.093319999999999986e-01 1.497989999999999877e-01 -4.768362343311309814e-01 7.653099298477172852e-01 -4.323516190052032471e-01
-1.957649999999999946e-01 6.168810000000000127e-01 -7.857200000000000295e-02 -5.361663177609443665e-02 5.119919776916503906e-01 -8.573152422904968262e-01
-9.261199999999999988e-02 -5.573350000000000248e-01 -2.808069999999999733e-01 -6.649044156074523926e-01 5.286455750465393066e-01 -5.276702642440795898e-01
1.095180000000000042e+00 -1.058989999999999931e-01 2.234359999999999957e-01 4.993910491466522217e-01 7.676830887794494629e-01 -4.015859961509704590e-01
-6.205310000000000548e-01 3.077139999999999875e-01 -9.116799999999999904e-02 4.550975263118743896e-01 7.669133543968200684e-01 -4.524711370468139648e-01
-2.908049999999999802e-01 -6.720709999999999740e-01 2.179709999999999981e-01 -9.315871000289916992e-01 -1.964228302240371704e-01 -3.058818578720092773e-01
-3.980810000000000182e-01 -4.765119999999999773e-02 -2.130469999999999864e-01 4.894732236862182617e-01 -8.570043444633483887e-01 1.611194461584091187e-01
3.051679999999999948e-01 9.298049999999999371e-02 -1.364789999999999892e-01 7.704736590385437012e-01 6.091856956481933594e-01 -1.877844333648681641e-01
-6.752050000000000551e-01 -2.793189999999999840e-01 1.175550000000000067e-01 1.144292578101158142e-01 -9.764946103096008301e-01 1.826590448617935181e-01
3.137650000000000161e-01 3.068429999999999769e-01 9.270820000000000796e-03 8.810089230537414551e-01 1.901925206184387207e-01 -4.331859052181243896e-01
7.845769999999999689e-01 -2.629529999999999923e-01 3.162039999999999851e-01 9.215111732482910156e-01 3.732531070709228516e-01 1.072346121072769165e-01
7.418719999999999481e-02 -2.782850000000000046e-01 1.787400000000000100e-01 -3.118264377117156982e-01 -8.694457411766052246e-01 3.831817805767059326e-01
-3.634169999999999900e-01 -5.827890000000000015e-01 1.956479999999999886e-01 1.325082629919052124e-01 -6.112545728683471680e-01 7.802624106407165527e-01
-3.062449999999999894e-01 4.371139999999999748e-02 2.264269999999999894e-01 2.036520838737487793e-01 -6.309749186038970947e-02 -9.770079851150512695e-01
1.190989999999999993e+00 -9.019320000000000115e-02 8.302389999999999770e-02 7.506852149963378906e-01 1.211845427751541138e-01 -6.494506001472473145e-01
6.716769999999999685e-02 -6.257559999999999789e-01 -3.013440000000000007e-01 9.554042816162109375e-01 1.928440481424331665e-01 -2.236374616622924805e-01
-4.667789999999999995e-01 5.472369999999999735e-01 1.388850000000000084e-01 9.850068688392639160e-01 6.487455219030380249e-02 1.598524451255798340e-01
-3.366050000000000292e-02 3.644530000000000269e-01 -6.152730000000000005e-02 -5.379077792167663574e-01 -4.150527417659759521e-01 -7.337481975555419922e-01
-2.994580000000000020e-01 4.798859999999999792e-01 -3.671239999999999920e-02 3.675028085708618164e-01 -5.556174516677856445e-01 -7.458088397979736328e-01
-3.519630000000000258e-01 1.030370000000000036e-01 2.944120000000000070e-01 -6.554543972015380859e-01 7.271316647529602051e-01 2.041056603193283081e-01
-4.678089999999999749e-01 -5.565570000000000239e-02 1.308830000000000063e-02 7.661100625991821289e-01 -4.871990159153938293e-02 6.408601999282836914e-01
-3.947660000000000058e-01 -4.900559999999999916e-01 2.104880000000000084e-01 8.705126494169235229e-02 4.831447899341583252e-01 8.712021708488464355e-01
3.038969999999999727e-01 -5.487600000000000255e-01 2.824780000000000069e-01 2.119722068309783936e-01 -8.193252086639404297e-01 5.327042937278747559e-01
-9.623510000000000397e-02 1.275769999999999960e-01 3.187530000000000086e-01 2.819771766662597656e-01 -7.229091525077819824e-01 6.307861208915710449e-01
4.287750000000000172e-01 1.550759999999999916e-01 -1.327599999999999891e-01 9.705308675765991211e-01 1.959025263786315918e-01 -1.403283774852752686e-01
3.006949999999999901e-01 2.796529999999999849e-02 1.076170000000000043e-01 6.466898322105407715e-01 -7.096804380416870117e-01 -2.795459628105163574e-01
-1.026249999999999940e-01 1.989809999999999912e-01 3.292570000000000219e-01 -3.562258780002593994e-01 -5.527735128998756409e-02 9.327633976936340332e-01
-3.704930000000000168e-01 4.987509999999999999e-01 -1.263680000000000081e-01 9.251478314399719238e-01 2.796262204647064209e-01 2.567308545112609863e-01
4.601690000000000294e-03 4.246920000000000139e-01 -1.909490000000000076e-01 -1.966082900762557983e-01 -3.109936714172363281e-01 -9.298537969589233398e-01
-1.431659999999999877e-01 1.617480000000000029e-01 3.436870000000000203e-01 -4.914529621601104736e-01 -1.743035763502120972e-01 8.532832860946655273e-01
1.172160000000000091e+00 -8.645600000000000507e-02 1.232219999999999982e-01 7.639204263687133789e-01 1.108253747224807739e-01 -6.357226967811584473e-01
3.791800000000000170e-01 2.996269999999999767e-01 2.642960000000000101e-02 9.613452553749084473e-01 2.637260556221008301e-01 7.914467900991439819e-02
1.169229999999999992e-01 -4.431499999999999884e-01 1.534600000000000131e-01 -7.067936062812805176e-01 2.556940019130706787e-01 6.595932841300964355e-01
2.050680000000000003e-01 -4.457119999999999971e-01 2.950130000000000252e-01 -1.462680250406265259e-01 7.143778204917907715e-01 6.843026280403137207e-01
-6.141640000000000432e-01 3.325310000000000071e-02 2.400380000000000014e-01 -9.568747282028198242e-01 2.862986922264099121e-01 4.923269897699356079e-02
-1.286829999999999918e-01 2.407839999999999980e-01 2.700370000000000270e-01 -9.098725914955139160e-01 1.608368009328842163e-01 3.824439048767089844e-01
2.369690000000000130e-01 -5.749069999999999458e-01 1.597010000000000096e-01 -6.250144839286804199e-01 -7.449024915695190430e-01 -2.334034144878387451e-01
-1.977230000000000099e-01 -7.223129999999999828e-01 -2.727700000000000125e-01 6.812290549278259277e-01 -4.351444542407989502e-01 -5.887073874473571777e-01
1.349349999999999994e-01 -6.088160000000000238e-01 2.837319999999999842e-01 9.435155391693115234e-01 2.144039869308471680e-01 2.526051998138427734e-01
-5.430449999999999999e-01 4.008740000000000081e-01 -1.272089999999999888e-01 5.451793074607849121e-01 6.891648173332214355e-01 -4.773167669773101807e-01
-6.674309999999999965e-01 1.947010000000000129e-01 -7.487069999999999836e-02 -9.599052369594573975e-02 9.388009309768676758e-01 -3.308151960372924805e-01
2.709500000000000242e-01 -9.275840000000000474e-02 -2.169499999999999901e-02 -5.461004972457885742e-01 -8.123553991317749023e-01 -2.045800983905792236e-01
6.167389999999999678e-02 -3.194429999999999770e-01 1.859389999999999932e-01 -3.159375488758087158e-01 -8.217953443527221680e-01 4.741685986518859863e-01
-5.716010000000000257e-01 4.944850000000000079e-01 1.158300000000000024e-01 4.486587643623352051e-01 7.990522980690002441e-01 4.002758264541625977e-01
1.248769999999999936e+00 -2.145549999999999957e-01 6.223460000000000103e-02 1.355637311935424805e-01 -3.383702039718627930e-02 9.901906251907348633e-01
1.827610000000000068e-01 5.103800000000000350e-03 -1.517159999999999898e-01 6.733505725860595703e-01 7.353851795196533203e-01 -7.620824128389358521e-02
6.135569999999999913e-03 8.374990000000000212e-02 4.876780000000000004e-02 1.872094571590423584e-01 5.655283927917480469e-01 8.032000064849853516e-01
-5.160449999999999759e-01 3.056849999999999845e-03 3.028730000000000033e-01 -9.935662746429443359e-01 2.294834144413471222e-02 1.109026670455932617e-01
-1.790730000000000099e-02 5.530479999999999841e-01 -7.416889999999999768e-03 8.172039389610290527e-01 5.763345956802368164e-01 4.029216710478067398e-03
-4.132640000000000202e-01 -5.445759999999999490e-01 1.996140000000000136e-01 -1.840476989746093750e-01 -2.420714199542999268e-01 9.526425600051879883e-01
-3.792650000000000188e-01 5.387669999999999786e-03 -2.169580000000000120e-01 7.690281867980957031e-01 1.232659891247749329e-01 6.272170543670654297e-01
-1.732180000000000109e-01 5.452030000000000071e-02 3.213509999999999978e-01 -2.126803994178771973e-01 -9.015540480613708496e-01 3.767854273319244385e-01
-8.534419999999999507e-02 -4.168020000000000058e-02 -5.106349999999999952e-03 4.275398850440979004e-01 9.023463129997253418e-01 -5.459598451852798462e-02
-1.529890000000000139e-01 -1.418999999999999984e-01 -2.515770000000000159e-02 4.038954973220825195e-01 7.467334866523742676e-01 5.284482836723327637e-01
-6.891749999999999821e-01 -1.862659999999999871e-01 1.289410000000000001e-01 -2.325005531311035156e-01 -9.662636518478393555e-01 -1.108061298727989197e-01
-3.700289999999999968e-01 -3.190849999999999936e-02 2.859670000000000267e-01 -6.591562628746032715e-01 -7.511146068572998047e-01 3.660413995385169983e-02
1.279849999999999877e-01 -4.912389999999999812e-01 -3.026780000000000026e-01 -9.964376091957092285e-01 -6.035852804780006409e-02 -5.889672785997390747e-02
8.119969999999999688e-01 -3.699609999999999843e-01 3.010140000000000038e-01 -8.373061418533325195e-01 -5.047430396080017090e-01 2.101258039474487305e-01
2.605979999999999963e-01 4.345020000000000132e-02 1.405710000000000015e-01 -8.159517645835876465e-01 -4.486251175403594971e-01 3.646345138549804688e-01
8.810590000000000366e-01 7.296229999999999383e-02 -1.335979999999999945e-01 9.531561732292175293e-01 -1.464196741580963135e-01 -2.646782994270324707e-01
3.391540000000000110e-01 8.531980000000000119e-02 1.265129999999999866e-01 -8.802179098129272461e-01 -3.781401216983795166e-01 2.867516577243804932e-01
9.712410000000000210e-01 -3.127420000000000200e-01 -2.833570000000000255e-01 9.320837259292602539e-01 -5.598652642220258713e-03 3.621996939182281494e-01
-5.432609999999999939e-01 2.550239999999999729e-01 -1.751329999999999901e-02 -1.487216651439666748e-01 -9.207257628440856934e-01 3.607572019100189209e-01
-2.967159999999999798e-01 4.578929999999999806e-02 3.628390000000000226e-01 -7.606679201126098633e-01 -4.092682301998138428e-01 5.038689374923706055e-01
5.337929999999999620e-01 -4.640040000000000275e-01 -2.072420000000000095e-01 8.889267444610595703e-01 -3.277781307697296143e-01 3.199543654918670654e-01
7.173770000000000424e-01 -1.929829999999999879e-01 7.396780000000000369e-03 9.715724587440490723e-01 1.577661484479904175e-01 1.765133291482925415e-01
7.762050000000000338e-01 -3.799739999999999784e-01 3.027659999999999796e-01 -8.307610750198364258e-01 -5.225653052330017090e-01 1.917327642440795898e-01
1.054950000000000054e+00 -2.846520000000000161e-01 -2.377229999999999899e-01 9.217727184295654297e-01 -2.460479587316513062e-01 2.996588945388793945e-01
-4.764290000000000191e-02 5.571760000000000046e-01 2.205640000000000031e-02 3.799935877323150635e-01 7.941935658454895020e-01 4.741956889629364014e-01
1.015870000000000051e+00 -2.982159999999999811e-01 -2.530769999999999964e-01 9.355211853981018066e-01 -3.362093269824981689e-01 1.084593757987022400e-01
6.124389999999999695e-02 -6.370980000000000532e-01 8.919970000000000676e-02 -3.162924051284790039e-01 -4.611201584339141846e-01 -8.290521502494812012e-01
-8.543580000000000618e-02 4.022470000000000212e-01 -1.255900000000000072e-02 3.176870644092559814e-01 -9.046668410301208496e-01 2.839947044849395752e-01
-1.800920000000000021e-01 2.073649999999999938e-01 -2.938850000000000073e-01 -7.747532129287719727e-01 4.002424180507659912e-01 -4.894521236419677734e-01
-6.568840000000000234e-01 4.992590000000000083e-01 -1.101350000000000052e-05 -4.961318373680114746e-01 -8.662206530570983887e-01 5.928663164377212524e-02
1.203049999999999953e+00 -9.451969999999999816e-02 4.730639999999999845e-02 8.435143828392028809e-01 1.981144547462463379e-01 -4.992335736751556396e-01
-8.783910000000000329e-02 -5.376480000000000148e-01 2.127529999999999977e-01 -7.658677101135253906e-01 5.096495747566223145e-01 3.920510411262512207e-01
8.928110000000000213e-02 3.433680000000000065e-01 8.411829999999999308e-02 3.759922683238983154e-01 -2.314273715019226074e-01 8.972576260566711426e-01
-3.432370000000000143e-01 -7.762599999999999500e-01 -2.045069999999999874e-02 2.311243563890457153e-01 -7.113069891929626465e-01 6.637949347496032715e-01
-9.088029999999999720e-02 -6.846200000000000063e-01 -2.749710000000000210e-01 9.595081210136413574e-01 5.214167758822441101e-02 -2.768130004405975342e-01
1.206390000000000073e+00 -2.162119999999999875e-01 -1.869369999999999921e-01 7.460072636604309082e-01 -3.360221683979034424e-01 5.749453902244567871e-01
-2.864959999999999729e-01 -3.741740000000000066e-01 -2.174460000000000004e-01 8.744316697120666504e-01 4.582091867923736572e-01 -1.594160050153732300e-01
-2.858310000000000017e-01 -6.763469999999999725e-03 3.154489999999999794e-01 -2.446620315313339233e-01 -9.362334609031677246e-01 2.522051930427551270e-01
-2.109640000000000126e-01 -6.414860000000000007e-01 -3.010189999999999810e-01 -7.687351107597351074e-01 -4.174313843250274658e-01 -4.845588803291320801e-01
-3.398550000000000182e-01 -6.906949999999999479e-01 1.540600000000000025e-01 -7.022010087966918945e-01 -1.095877885818481445e-01 -7.034944295883178711e-01
1.057579999999999965e+00 -1.455299999999999927e-01 -2.660060000000000202e-01 -4.337124228477478027e-01 2.134580612182617188e-01 -8.754022121429443359e-01
-3.461890000000000106e-02 3.659129999999999883e-01 5.420989999999999837e-02 -2.263905704021453857e-01 -2.743925452232360840e-01 9.345887303352355957e-01
3.872430000000000039e-01 1.441860000000000086e-01 -1.352069999999999939e-01 8.295776247978210449e-01 5.231350660324096680e-01 -1.952710300683975220e-01
-4.335609999999999742e-01 2.181200000000000153e-02 3.386089999999999933e-01 -7.896610498428344727e-01 -2.224975675344467163e-01 5.717781186103820801e-01
7.388419999999999987e-01 -3.914900000000000047e-01 3.031389999999999918e-01 -7.256172299385070801e-01 -6.471900939941406250e-01 2.337188273668289185e-01
4.093460000000000154e-03 -3.776309999999999945e-01 -2.021360000000000101e-01 -1.821117103099822998e-01 8.902190923690795898e-01 -4.175468683242797852e-01
-7.461440000000000294e-01 -1.104900000000000049e-01 -1.183730000000000025e-02 -2.785184979438781738e-01 9.604132175445556641e-01 5.823440384119749069e-03
2.404180000000000119e-03 -4.636179999999999746e-01 2.132360000000000089e-01 -5.181645750999450684e-01 -1.316187083721160889e-01 8.450928330421447754e-01
7.799810000000000354e-01 -3.848989999999999911e-01 4.941650000000000209e-02 -7.808906435966491699e-01 -5.371623039245605469e-01 3.188516795635223389e-01
-6.498810000000000420e-01 -9.021919999999999940e-02 -1.625189999999999968e-01 -6.046964600682258606e-02 -9.931567907333374023e-01 9.991485625505447388e-02
-6.778530000000000666e-02 5.373520000000000518e-01 -5.939049999999999885e-02 -1.546240895986557007e-01 4.383304417133331299e-01 -8.854138851165771484e-01
2.016640000000000099e-01 -5.769469999999999876e-01 -2.948029999999999817e-01 9.843859672546386719e-01 1.222785040736198425e-01 -1.266182363033294678e-01
-1.985330000000000081e-02 5.174020000000000008e-02 -4.206060000000000181e-03 -1.308095604181289673e-01 9.913866519927978516e-01 6.427781656384468079e-03
6.337490000000000068e-01 -2.539570000000000109e-03 -3.965529999999999750e-02 -7.696250081062316895e-01 4.091362357139587402e-01 4.901887476444244385e-01
-2.246370000000000033e-01 9.895679999999999754e-02 -3.699129999999999918e-01 -3.527230322360992432e-01 -5.142866969108581543e-01 -7.817260622978210449e-01
1.242450000000000054e+00 -2.181690000000000018e-01 -5.560419999999999946e-02 4.782889187335968018e-01 1.565903541631996632e-03 8.782011270523071289e-01
-5.420139999999999958e-01 -5.152379999999999738e-01 1.367720000000000047e-01 5.082330107688903809e-01 -6.581125855445861816e-01 5.555060505867004395e-01
8.449259999999999549e-01 -1.723169999999999980e-01 1.891909999999999981e-01 7.015525698661804199e-01 2.082354426383972168e-01 6.815145015716552734e-01
-2.944829999999999948e-01 1.226710000000000023e-01 -3.219359999999999999e-01 3.630697131156921387e-01 8.672855496406555176e-01 -3.405822217464447021e-01
9.365980000000000139e-02 -2.071169999999999956e-01 1.757460000000000133e-01 -3.219831287860870361e-01 -8.673330545425415039e-01 3.795525133609771729e-01
3.691479999999999762e-01 -4.136569999999999969e-01 -3.085959999999999814e-01 -9.090351462364196777e-01 -3.673163354396820068e-01 -1.968093812465667725e-01
-3.290100000000000247e-01 -6.505459999999999576e-01 2.305149999999999907e-02 -7.318990826606750488e-01 -3.440558016300201416e-01 5.881745815277099609e-01
-4.074510000000000076e-01 4.875030000000000197e-01 -1.409199999999999897e-01 9.166441559791564941e-01 3.979872465133666992e-01 3.700959309935569763e-02
-1.103250000000000064e-01 -5.798489999999999478e-01 -2.977520000000000167e-01 -8.548123240470886230e-01 3.733300864696502686e-01 -3.604447543621063232e-01
2.024110000000000076e-01 3.898360000000000158e-01 -1.116779999999999995e-01 2.480713278055191040e-01 9.534115791320800781e-01 1.716596186161041260e-01
-3.902240000000000153e-01 -7.591660000000000075e-01 -2.480539999999999828e-02 -4.352679252624511719e-01 -8.946467638015747070e-01 1.007423773407936096e-01
-4.025489999999999902e-01 -5.186859999999999804e-01 2.087920000000000054e-01 -8.679656684398651123e-02 5.022016540169715881e-02 9.949594736099243164e-01
-2.708470000000000044e-01 5.989680000000000004e-02 3.642540000000000222e-01 -5.106723904609680176e-01 -3.832750916481018066e-01 7.696192860603332520e-01
-6.459099999999999842e-01 2.709770000000000234e-01 -8.162120000000000486e-02 3.767365515232086182e-01 8.261051177978515625e-01 -4.190702736377716064e-01
-7.293640000000000123e-01 1.226229999999999959e-01 -1.214989999999999994e-02 -5.349817872047424316e-01 8.447547554969787598e-01 1.356299035251140594e-02
-3.056420000000000248e-01 4.727040000000000131e-01 2.273379999999999845e-02 2.530761957168579102e-01 -3.138902485370635986e-01 -9.151094555854797363e-01
6.428989999999999982e-01 2.406729999999999980e-01 -7.575649999999999745e-03 3.124280273914337158e-01 9.494124650955200195e-01 -3.169712051749229431e-02
-3.737610000000000099e-01 3.744410000000000099e-03 -3.602670000000000039e-01 -8.898209333419799805e-01 -4.508620500564575195e-01 -7.030051946640014648e-02
7.301480000000000192e-01 -4.020920000000000050e-01 6.778049999999999353e-02 8.767756819725036621e-01 -3.067507967352867126e-02 -4.799203276634216309e-01
-6.984569999999999945e-01 3.405389999999999806e-01 -1.072309999999999930e-02 -5.134252309799194336e-01 -8.581342697143554688e-01 -2.545127936173230410e-04
8.375740000000000407e-01 1.698820000000000052e-01 -1.048679999999999925e-02 -7.919070124626159668e-01 6.106346845626831055e-01 2.927267225459218025e-03
1.450480000000000103e-01 -4.810769999999999769e-01 3.005880000000000218e-01 3.155399262905120850e-01 2.628768384456634521e-01 9.117732048034667969e-01
-3.971100000000000185e-01 -5.193370000000000486e-01 -2.291150000000000131e-01 8.554461598396301270e-01 -3.511546850204467773e-01 -3.806602954864501953e-01
-4.533659999999999912e-01 -6.707019999999999649e-02 -1.708439999999999959e-01 5.681807175278663635e-02 -8.063882589340209961e-01 5.886508226394653320e-01
-3.527589999999999892e-01 -6.993479999999999697e-01 1.282030000000000114e-01 -5.763068199157714844e-01 -2.162986397743225098e-01 -7.880896925926208496e-01
4.068450000000000122e-01 -3.932629999999999737e-01 -3.086510000000000087e-01 -9.330900311470031738e-01 -3.107084035873413086e-01 -1.811168044805526733e-01
9.494240000000000457e-01 8.128700000000000855e-03 1.509500000000000008e-01 -8.602380156517028809e-01 5.021620392799377441e-01 8.845304697751998901e-02
-6.941619999999999457e-01 3.855399999999999799e-02 1.209540000000000060e-01 -8.733815550804138184e-01 2.146418094635009766e-01 4.371881186962127686e-01
-4.850530000000000119e-01 -9.124200000000000366e-02 -6.889579999999999316e-02 7.908381819725036621e-01 -2.513804733753204346e-01 -5.580167174339294434e-01
2.904240000000000155e-01 3.077110000000000123e-01 3.496090000000000308e-02 6.335048675537109375e-01 3.825525939464569092e-01 -6.725511550903320312e-01
-3.304289999999999727e-01 3.746439999999999770e-01 -1.808389999999999997e-02 2.319276481866836548e-01 -9.361559748649597168e-01 2.642377614974975586e-01
1.037060000000000065e-01 -4.536490000000000244e-01 -1.681350000000000067e-01 -8.006166815757751465e-01 -3.106750249862670898e-01 -5.123415589332580566e-01
4.080099999999999838e-01 2.967850000000000210e-01 1.886550000000000032e-02 9.367753267288208008e-01 3.400796055793762207e-01 8.244936913251876831e-02
-2.051109999999999878e-01 4.163519999999999999e-01 3.353399999999999870e-03 -7.766128778457641602e-01 -6.275470256805419922e-01 -5.529246479272842407e-02
9.575839999999999352e-02 4.814880000000000271e-01 -8.785170000000000479e-02 -6.899705529212951660e-01 4.067854285240173340e-01 -5.987204909324645996e-01
-9.930460000000000675e-02 2.812959999999999905e-01 2.544159999999999755e-01 -9.220434427261352539e-01 -1.348002105951309204e-01 3.628564774990081787e-01
7.840969999999999884e-02 4.881010000000000071e-01 1.020339999999999997e-01 -5.971032381057739258e-01 6.426038742065429688e-01 4.801332950592041016e-01
-1.386880000000000057e-01 -3.004180000000000184e-01 2.044930000000000081e-01 8.787387609481811523e-01 4.106263518333435059e-01 2.433190047740936279e-01
-2.654940000000000078e-01 -5.825900000000000523e-01 -2.368300000000000127e-01 -6.874506473541259766e-01 -6.849110722541809082e-01 -2.414711564779281616e-01
9.262160000000000393e-01 -1.565189999999999915e-01 -2.928450000000000220e-01 -9.627602696418762207e-01 -2.156473100185394287e-01 -1.630607396364212036e-01
-6.470780000000000420e-01 3.768330000000000291e-02 1.920389999999999875e-01 -9.611543416976928711e-01 2.167683839797973633e-01 1.708623170852661133e-01
-6.262910000000000421e-01 1.913209999999999911e-01 7.467509999999999426e-02 -1.504898667335510254e-01 9.654130935668945312e-01 2.129090428352355957e-01
-3.305540000000000145e-01 4.213419999999999943e-01 -3.190130000000000049e-02 1.210649311542510986e-01 -9.902804493904113770e-01 6.846836954355239868e-02
-7.238350000000000062e-01 -2.823649999999999771e-01 -1.474409999999999957e-02 -4.975291788578033447e-01 8.666499257087707520e-01 3.718333318829536438e-02
2.169250000000000067e-01 -4.684519999999999795e-01 3.102190000000000225e-01 -3.806521296501159668e-01 3.534727096557617188e-01 8.544945716857910156e-01
-3.260810000000000097e-01 5.623660000000000325e-01 7.829990000000000561e-02 4.487134218215942383e-01 7.305179834365844727e-01 -5.147812962532043457e-01
-2.810449999999999893e-01 2.573649999999999896e-02 -3.618739999999999735e-01 -7.358088493347167969e-01 -2.873654365539550781e-01 -6.131937503814697266e-01
-1.267689999999999928e-01 1.205589999999999995e-01 -3.134750000000000036e-01 5.077529549598693848e-01 -8.357765674591064453e-01 -2.089602798223495483e-01
-3.832519999999999677e-02 -1.324909999999999977e-01 -1.590459999999999929e-01 7.265939563512802124e-02 8.707425594329833984e-01 -4.863414764404296875e-01
2.540749999999999953e-01 2.638159999999999950e-01 9.336039999999999617e-02 5.660000443458557129e-01 8.192797899246215820e-01 -9.178515523672103882e-02
-2.377150000000000096e-01 -6.561010000000000453e-01 2.559250000000000136e-01 -9.924805760383605957e-01 2.970464155077934265e-02 1.187434270977973938e-01
1.162760000000000016e+00 -1.178830000000000017e-01 -1.682849999999999902e-01 2.126008868217468262e-01 -1.608493477106094360e-01 -9.638092517852783203e-01
-6.612820000000000364e-01 -9.711480000000000112e-02 1.701739999999999919e-01 -6.884414553642272949e-01 -6.439905762672424316e-01 -3.336530625820159912e-01
8.554699999999999527e-01 -1.050719999999999987e-01 -1.538589999999999958e-01 -9.156746864318847656e-01 -2.871266901493072510e-01 2.812439799308776855e-01
6.736060000000000381e-01 -2.501639999999999975e-01 -3.029169999999999918e-01 -9.178954362869262695e-01 -3.381202816963195801e-01 -2.077078223228454590e-01
7.210269999999999735e-01 -1.959269999999999901e-01 4.283809999999999701e-02 1.338349878787994385e-01 -6.145182847976684570e-01 7.774674296379089355e-01
-5.613629999999999454e-01 3.794009999999999883e-01 -1.183580000000000049e-01 5.028961896896362305e-01 7.220861911773681641e-01 -4.750652015209197998e-01
-4.723319999999999741e-01 -5.493259999999999810e-01 1.673929999999999862e-01 6.184173747897148132e-02 -5.981664061546325684e-01 7.989822030067443848e-01
-7.044059999999999766e-01 -3.401060000000000194e-01 -1.281279999999999919e-02 -5.982254743576049805e-01 7.994825839996337891e-01 -5.435013398528099060e-02
-1.720009999999999872e-01 -2.933749999999999969e-01 -1.967270000000000130e-01 6.554114818572998047e-01 7.349832057952880859e-01 -1.738830208778381348e-01
6.462149999999999839e-01 1.213219999999999993e-01 -1.248699999999999949e-01 9.470891356468200684e-01 9.804472327232360840e-03 -3.208207786083221436e-01
-4.086449999999999805e-01 8.751470000000000082e-02 -3.125800000000000245e-01 7.721132040023803711e-01 5.291244983673095703e-01 -3.519495427608489990e-01
-6.733500000000000041e-01 -2.525910000000000100e-01 -1.087280000000000052e-01 -7.013926655054092407e-02 -9.921553134918212891e-01 1.034808084368705750e-01
2.824999999999999734e-01 2.999169999999999892e-01 6.214129999999999654e-02 5.305058956146240234e-01 4.764954745769500732e-01 -7.010818123817443848e-01
8.216879999999999740e-01 3.098350000000000062e-02 1.328680000000000139e-01 -8.838530182838439941e-01 4.660628139972686768e-01 -3.986604139208793640e-02
-2.386500000000000010e-01 -3.505739999999999967e-01 2.051370000000000138e-01 -7.254756093025207520e-01 -3.952281475067138672e-01 5.634535551071166992e-01
3.254819999999999935e-01 -5.349140000000000006e-01 -2.672140000000000071e-01 9.735448956489562988e-01 -8.052966743707656860e-02 -2.138348519802093506e-01
-2.802700000000000191e-01 -3.803159999999999874e-01 2.076070000000000138e-01 7.629570960998535156e-01 5.562490820884704590e-01 3.293679654598236084e-01
1.171180000000000110e+00 -8.734870000000000134e-02 -1.158679999999999988e-01 3.207403123378753662e-01 3.304673591628670692e-03 -9.471614360809326172e-01
-3.235469999999999735e-01 1.100129999999999997e-01 3.001949999999999896e-01 -8.423409461975097656e-01 5.334992408752441406e-01 7.642169296741485596e-02
1.697599999999999942e-01 3.300029999999999908e-01 -1.342899999999999927e-01 7.383746504783630371e-01 6.052061319351196289e-01 -2.975372970104217529e-01
7.410120000000000040e-01 -1.394829999999999959e-01 -3.371380000000000210e-02 4.084176421165466309e-01 8.192312121391296387e-01 -4.025609493255615234e-01
-3.135100000000000109e-01 -6.455729999999999524e-01 -1.923900000000000055e-01 -9.025627970695495605e-01 2.729611098766326904e-01 -3.329754173755645752e-01
4.355040000000000300e-02 -5.113299999999999512e-01 -2.957520000000000149e-01 -8.910077810287475586e-01 -3.662506043910980225e-01 -2.682642936706542969e-01
-2.859490000000000087e-01 -4.711009999999999850e-03 -3.158759999999999901e-01 9.846962988376617432e-02 -9.841424822807312012e-01 1.475368291139602661e-01
2.627749999999999808e-01 2.891619999999999746e-01 8.087460000000000482e-02 5.593726634979248047e-01 7.715380787849426270e-01 -3.030368089675903320e-01
-3.435659999999999825e-01 -6.346859999999999724e-01 -3.921319999999999667e-02 -3.558645769953727722e-02 -8.531923294067382812e-01 5.203810930252075195e-01
8.338130000000000541e-02 -2.443039999999999934e-01 1.774330000000000074e-01 -2.957248985767364502e-01 -9.178180098533630371e-01 2.648715674877166748e-01
5.758990000000000498e-01 -4.495810000000000084e-01 -2.061699999999999922e-01 -5.137360692024230957e-01 -8.545745611190795898e-01 7.601052522659301758e-02
-2.982929999999999748e-01 5.018839999999999968e-01 -5.580129999999999812e-02 9.288377165794372559e-01 1.671930998563766479e-01 -3.306159675121307373e-01
-2.981809999999999738e-01 -5.987099999999999644e-01 -2.158279999999999921e-01 -9.600439667701721191e-01 -2.752527594566345215e-01 -5.051292479038238525e-02
1.677649999999999975e-01 3.623259999999999814e-01 1.216880000000000045e-01 6.490048170089721680e-01 6.725174188613891602e-01 3.556866049766540527e-01
5.417710000000000026e-01 -3.169989999999999752e-01 -3.075220000000000176e-01 -8.672778010368347168e-01 -4.619503915309906006e-01 -1.855560094118118286e-01
-6.892120000000000191e-02 2.333739999999999981e-01 3.123259999999999925e-01 -2.022895961999893188e-01 -3.205688595771789551e-01 9.253726005554199219e-01
-6.787320000000000020e-01 -1.312760000000000038e-01 1.477360000000000062e-01 -4.468554258346557617e-01 -8.750776648521423340e-01 -1.859016567468643188e-01
-2.295550000000000090e-01 6.537389999999999590e-01 -2.810280000000000070e-03 7.506675124168395996e-01 6.523718833923339844e-01 -1.044472008943557739e-01
-5.622770000000000242e-04 9.968589999999999396e-02 -4.842910000000000270e-02 -8.980650305747985840e-01 -6.445354968309402466e-02 -4.351149201393127441e-01
-4.104010000000000158e-01 3.450620000000000076e-02 2.070379999999999998e-01 7.365311384201049805e-01 1.670780479907989502e-01 -6.554440259933471680e-01
-4.737879999999999869e-01 -2.454959999999999920e-01 -2.419949999999999879e-02 9.864609837532043457e-01 5.225229077041149139e-03 -1.639132797718048096e-01
-6.171529999999999516e-01 -4.971909999999999941e-01 1.793340000000000038e-03 -8.326881527900695801e-01 5.279430150985717773e-01 -1.670529842376708984e-01
-3.796570000000000222e-01 -7.080539999999999612e-01 5.435330000000000369e-03 -3.067731559276580811e-01 1.441952772438526154e-02 -9.516733884811401367e-01
9.672469999999999679e-01 1.038209999999999966e-01 -6.163909999999999875e-03 -7.452467679977416992e-01 6.652548909187316895e-01 -4.520015791058540344e-02
2.281489999999999907e-01 2.480169999999999875e-01 9.919989999999999364e-02 7.970678210258483887e-01 5.951829552650451660e-01 1.021768748760223389e-01
-6.075839999999999713e-02 5.529340000000000366e-01 -3.532149999999999873e-02 5.489757657051086426e-02 7.168220728635787964e-02 -9.959156513214111328e-01
-4.819910000000000028e-01 8.741369999999999696e-02 -2.261720000000000050e-02 2.875338196754455566e-01 1.487046778202056885e-01 -9.461560249328613281e-01
-2.369350000000000067e-01 8.458300000000000540e-02 3.624299999999999744e-01 -6.636635065078735352e-01 -4.037766158580780029e-01 6.296945214271545410e-01
1.894160000000000010e-01 4.228370000000000184e-01 -9.640949999999999520e-02 -1.410921365022659302e-01 9.894869923591613770e-01 -3.175648674368858337e-02
-1.099649999999999933e-01 4.660699999999999843e-01 6.849220000000000308e-02 -2.857290804386138916e-01 -9.522320032119750977e-01 1.077636629343032837e-01
1.056480000000000086e+00 -6.646159999999999568e-02 -2.151450000000000029e-01 5.319348573684692383e-01 2.062847614288330078e-01 -8.212745785713195801e-01
1.084189999999999987e+00 -1.446070000000000133e-01 -2.515330000000000066e-01 -4.735282063484191895e-01 2.653706371784210205e-01 -8.398509025573730469e-01
2.030339999999999923e-01 -4.827279999999999904e-01 -3.080330000000000013e-01 -9.765331149101257324e-01 -1.692943125963211060e-01 -1.331258565187454224e-01
4.397039999999999837e-01 2.917560000000000153e-01 1.732650000000000162e-02 9.718624949455261230e-01 2.299438565969467163e-01 5.107999593019485474e-02
1.888019999999999976e-01 -5.918459999999999832e-01 1.489000000000000046e-01 -7.204666733741760254e-01 -6.240405440330505371e-01 -3.024917542934417725e-01
4.113979999999999859e-01 1.156829999999999942e-01 1.232359999999999983e-01 -9.390058517456054688e-01 -2.404850870370864868e-01 2.458350807428359985e-01
8.140230000000000521e-01 9.560630000000000517e-02 -1.282480000000000009e-01 9.499233365058898926e-01 -2.356168180704116821e-01 -2.052569538354873657e-01
-1.963949999999999863e-01 -3.130100000000000104e-01 -2.022299999999999931e-01 7.856832742691040039e-01 6.086500287055969238e-01 -1.106657981872558594e-01
2.372009999999999952e-01 -1.480049999999999977e-01 -3.039199999999999888e-02 -3.727930486202239990e-01 -9.235930442810058594e-01 -8.944962173700332642e-02
1.158849999999999936e+00 -2.295649999999999913e-01 -2.427239999999999953e-01 8.661490082740783691e-01 4.518730938434600830e-01 2.135333865880966187e-01
1.074949999999999933e-01 -6.186089999999999645e-01 -3.261399999999999716e-02 8.550007939338684082e-01 5.251844972372055054e-02 -5.159607529640197754e-01
-2.503889999999999727e-01 6.203709999999999780e-02 -3.707489999999999952e-01 -2.876868546009063721e-01 -7.577352523803710938e-01 -5.857247710227966309e-01
7.440759999999999597e-01 1.111069999999999974e-01 -1.288940000000000086e-01 9.862251877784729004e-01 5.476888641715049744e-02 -1.560774743556976318e-01
2.138400000000000023e-01 -2.097449999999999870e-01 -1.689020000000000105e-02 -2.113533318042755127e-01 -9.433356523513793945e-01 2.558273673057556152e-01
6.830739999999999590e-01 -2.980309999999999904e-01 3.177889999999999882e-01 9.362007975578308105e-01 3.213424980640411377e-01 1.423623114824295044e-01
1.766999999999999960e-01 4.861260000000000026e-01 -1.193909999999999937e-02 9.827296733856201172e-01 -1.578767746686935425e-01 -9.652610868215560913e-02
-1.196440000000000003e-01 -6.947440000000000282e-01 -2.748070000000000235e-01 9.643579721450805664e-01 -5.513203889131546021e-02 -2.587936818599700928e-01
-7.322269999999999612e-01 9.342530000000000279e-02 -1.258410000000000084e-02 -9.280344247817993164e-01 -3.724828660488128662e-01 2.924259984865784645e-03
-1.699309999999999987e-01 1.929609999999999936e-01 2.869249999999999856e-01 -9.716230630874633789e-01 6.656099110841751099e-02 2.269764095544815063e-01
1.035530000000000062e+00 -4.245519999999999849e-02 -1.968469999999999942e-01 5.894776582717895508e-01 -1.626047641038894653e-01 -7.912495732307434082e-01
-6.035500000000000309e-01 4.379939999999999944e-01 9.770489999999999731e-02 2.427213788032531738e-01 9.129773974418640137e-01 3.279612362384796143e-01
8.199060000000000237e-01 -1.783389999999999975e-01 1.724420000000000119e-01 7.595932483673095703e-01 2.109741866588592529e-01 6.152300834655761719e-01
-8.418910000000000282e-02 3.065620000000000012e-01 2.486379999999999979e-01 -8.297922611236572266e-01 4.511080384254455566e-01 3.285520374774932861e-01
-3.191140000000000088e-01 4.524230000000000196e-01 -3.214650000000000146e-02 -1.511254459619522095e-01 -9.882563352584838867e-01 -2.259408868849277496e-02
1.120619999999999949e+00 6.961540000000000436e-05 -1.590590000000000059e-02 9.828652739524841309e-01 9.322194010019302368e-02 -1.590140312910079956e-01
-1.027160000000000017e-01 5.022959999999999647e-01 -7.785980000000000678e-02 -5.685495138168334961e-01 -7.387549877166748047e-01 -3.619289994239807129e-01
-3.647529999999999939e-01 -7.090119999999999756e-01 1.003570000000000018e-01 -4.941231608390808105e-01 1.290099471807479858e-01 -8.597666621208190918e-01
2.014080000000000037e-01 2.391789999999999975e-03 1.543859999999999955e-01 -6.508915424346923828e-01 -7.073548436164855957e-01 2.756615877151489258e-01
-6.271899999999999697e-02 2.597289999999999877e-01 3.014109999999999845e-01 -1.522349566221237183e-01 -4.073404073715209961e-01 9.004989266395568848e-01
5.871790000000000065e-01 -4.528050000000000130e-01 1.218530000000000030e-01 -7.764244079589843750e-01 -5.774140357971191406e-01 2.525036633014678955e-01
-5.315310000000000173e-02 1.927560000000000107e-01 -4.004780000000000145e-02 -6.331005096435546875e-01 7.145407795906066895e-01 2.976831197738647461e-01
1.181769999999999987e+00 -6.567249999999999477e-02 -2.771710000000000146e-02 6.222240924835205078e-01 5.516261458396911621e-01 -5.554690361022949219e-01
7.485640000000000072e-01 5.766639999999999960e-02 1.170469999999999983e-01 -9.051472544670104980e-01 4.237940311431884766e-01 -3.327272459864616394e-02
-1.502459999999999907e-01 7.307370000000000532e-02 3.237180000000000057e-01 1.702325232326984406e-02 -8.929194211959838867e-01 4.498946070671081543e-01
-2.642070000000000252e-01 -6.268960000000000088e-01 -2.571309999999999985e-01 -2.461104243993759155e-01 7.505581378936767578e-01 -6.132634878158569336e-01
-4.794129999999999781e-01 7.826779999999999848e-02 -5.694849999999999912e-02 3.338369131088256836e-01 -4.094273447990417480e-01 -8.490713238716125488e-01
-5.863960000000000283e-01 4.703519999999999923e-01 1.077680000000000027e-01 2.874090373516082764e-01 8.495796918869018555e-01 4.422784149646759033e-01
6.755780000000000118e-01 1.189709999999999934e-01 -1.264710000000000001e-01 9.671307206153869629e-01 -3.756822785362601280e-03 -2.542518079280853271e-01
5.195250000000000146e-01 2.742700000000000138e-01 2.425459999999999942e-03 9.649105072021484375e-01 1.794670969247817993e-01 -1.916746199131011963e-01
9.828540000000000054e-01 -1.771050000000000124e-01 2.889950000000000019e-01 8.587732911109924316e-01 5.118615031242370605e-01 -2.250061370432376862e-02
7.785190000000000166e-02 -1.347839999999999872e-01 -1.745480000000000087e-01 6.528840661048889160e-01 7.342696785926818848e-01 -1.859850883483886719e-01
1.244029999999999969e+00 -2.147370000000000112e-01 9.130140000000000478e-02 9.774982929229736328e-02 -5.703260377049446106e-02 9.935754537582397461e-01
-6.674710000000000365e-01 4.654130000000000211e-01 3.582109999999999895e-03 -4.823646545410156250e-01 -8.706724643707275391e-01 -9.619646519422531128e-02
-3.663469999999999782e-01 -7.425199999999999578e-01 -1.772600000000000009e-01 -9.590733051300048828e-01 -1.666685640811920166e-01 -2.289105653762817383e-01
-5.488350000000000173e-02 5.490460000000000340e-01 4.955679999999999807e-02 2.361645922064781189e-02 6.449581384658813477e-01 7.638529539108276367e-01
1.111490000000000089e+00 -2.260900000000000132e-01 2.563210000000000210e-01 -6.114399805665016174e-02 -4.384523332118988037e-01 8.966721296310424805e-01
-4.040819999999999967e-01 -4.004699999999999926e-01 -2.060460000000000069e-01 7.791142463684082031e-01 1.053908392786979675e-01 -6.179593205451965332e-01
9.646630000000000482e-01 2.587350000000000066e-02 -1.567310000000000092e-01 7.531540393829345703e-01 -3.896463811397552490e-01 -5.300326943397521973e-01
-4.769900000000000251e-01 -8.097110000000000418e-02 -4.204270000000000229e-02 5.922985672950744629e-01 3.521586060523986816e-01 7.246839404106140137e-01
9.208939999999999904e-01 -3.329480000000000217e-01 -1.378530000000000033e-01 -5.361443161964416504e-01 -8.059318661689758301e-01 2.510441839694976807e-01
1.488619999999999943e-01 -4.378940000000000055e-01 1.332810000000000106e-01 -7.431486845016479492e-01 1.340959966182708740e-01 6.555519700050354004e-01
2.509540000000000104e-01 -1.220809999999999951e-01 -2.817300000000000013e-02 -4.341584444046020508e-01 -8.897108435630798340e-01 -1.411418616771697998e-01
-6.558979999999999810e-01 -1.299339999999999939e-01 -1.400389999999999968e-01 -3.078382909297943115e-01 -9.182853102684020996e-01 2.489731907844543457e-01
-6.705999999999999739e-01 -3.168710000000000138e-01 -9.516310000000000047e-02 1.098035424947738647e-01 -9.907019138336181641e-01 -8.033008873462677002e-02
-1.475559999999999927e-01 1.606279999999999930e-01 -2.394529999999999992e-01 1.838571876287460327e-01 -1.954370178282260895e-02 9.827587008476257324e-01
-3.164509999999999823e-01 5.891490000000000338e-01 -7.687860000000000353e-03 5.507580563426017761e-02 4.868797659873962402e-01 8.717308640480041504e-01
-1.220080000000000053e-01 1.019209999999999977e-01 3.259870000000000267e-01 4.580460488796234131e-03 -8.447510600090026855e-01 5.351397991180419922e-01
-8.169350000000000223e-02 -5.738199999999999967e-01 -3.022599999999999731e-01 -8.530604839324951172e-01 7.611537724733352661e-02 -5.162307024002075195e-01
-1.845930000000000071e-01 6.535670000000000368e-02 -3.238779999999999992e-01 1.900681406259536743e-01 -9.603651165962219238e-01 -2.038944661617279053e-01
