-8.857749999999999790e-01 -3.453069999999999751e-01 -8.551900000000000057e-01 -7.302305102348327637e-01 -4.959777593612670898e-01 4.698611497879028320e-01
8.690590000000000259e-01 -8.322240000000000193e-02 3.185270000000000046e-01 7.164652943611145020e-01 -7.824003696441650391e-02 6.932214498519897461e-01
-8.828770000000000229e-01 -1.664589999999999959e-01 -9.400439999999999907e-01 -9.199830293655395508e-01 -1.081235259771347046e-01 3.767500817775726318e-01
-7.758239999999999581e-01 1.487779999999999936e-01 -3.725399999999999823e-01 -5.371578335762023926e-01 8.276190757751464844e-01 -1.628135144710540771e-01
5.188789999999999791e-01 9.265320000000000500e-02 1.906670000000000031e-01 -1.743169873952865601e-01 -7.522697448730468750e-01 -6.353769898414611816e-01
6.677849999999999620e-01 -1.828569999999999848e-02 1.822830000000000006e-01 -8.339306116104125977e-01 4.779692292213439941e-01 -2.758716344833374023e-01
2.990059999999999940e-01 -3.007289999999999963e-02 6.916339999999999710e-01 -7.552632093429565430e-01 3.081136643886566162e-01 -5.784837603569030762e-01
-9.329210000000000003e-01 -1.855030000000000012e-01 -9.035830000000000251e-01 1.879554241895675659e-01 6.144885420799255371e-01 -7.662091851234436035e-01
7.739960000000000173e-01 -3.292800000000000171e-01 6.101029999999999509e-01 6.926372051239013672e-01 -1.676307618618011475e-01 -7.015366554260253906e-01
-1.009009999999999962e+00 -3.306649999999999867e-01 -6.860270000000000534e-01 -7.807688415050506592e-02 -3.889188766479492188e-01 -9.179576039314270020e-01
-8.686129999999999685e-01 2.522179999999999978e-01 -4.902309999999999723e-01 1.356301009654998779e-01 -4.536811411380767822e-01 8.807824850082397461e-01
-1.491310000000000136e-01 4.357639999999999847e-01 -6.413950000000000207e-02 5.822132229804992676e-01 1.772022694349288940e-01 -7.934904694557189941e-01
-2.382390000000000063e-01 3.132280000000000064e-01 5.331439999999999790e-02 -1.020562499761581421e-01 9.718549251556396484e-01 2.123266756534576416e-01
5.130099999999999660e-01 -1.700589999999999880e-01 4.045389999999999819e-01 -7.819898128509521484e-01 1.323568522930145264e-01 -6.090760827064514160e-01
8.669790000000000552e-01 -1.639899999999999969e-01 6.810810000000000475e-01 3.447216153144836426e-01 -1.782464385032653809e-01 9.216263890266418457e-01
2.781839999999999868e-01 3.087590000000000057e-01 4.914180000000000215e-01 -1.169438287615776062e-01 -2.746404707431793213e-01 9.544090628623962402e-01
-4.507979999999999765e-01 3.906290000000000040e-01 -1.464630000000000098e-01 3.778959438204765320e-02 4.721068143844604492e-01 8.807309865951538086e-01
-6.101499999999999702e-01 -1.679279999999999939e-01 -3.193679999999999852e-01 9.527013301849365234e-01 2.926227152347564697e-01 -8.204949647188186646e-02
-4.334839999999999804e-01 3.900390000000000246e-01 -1.305550000000000044e-01 -8.969751000404357910e-01 4.177789986133575439e-01 -1.445553302764892578e-01
8.364800000000000013e-01 -3.203059999999999796e-01 5.054060000000000219e-01 -1.875395178794860840e-01 -2.100482881069183350e-01 9.595356583595275879e-01
2.900429999999999953e-01 -2.270749999999999991e-01 5.168359999999999621e-01 7.454881072044372559e-02 -2.995015978813171387e-01 9.511789083480834961e-01
-8.800289999999999502e-01 -4.073969999999999675e-02 -3.306359999999999855e-01 -9.565560221672058105e-01 -2.195881307125091553e-01 -1.917853802442550659e-01
4.149459999999999815e-01 -2.139979999999999938e-01 7.957530000000000436e-01 -2.544123232364654541e-01 -9.616649746894836426e-01 -1.023467034101486206e-01
5.483729999999999993e-01 1.588499999999999912e-01 2.211980000000000057e-01 -2.703754007816314697e-01 -7.459489107131958008e-01 -6.086520552635192871e-01
-1.488730000000000053e-01 4.254560000000000008e-01 -3.007099999999999773e-01 -5.390774011611938477e-01 1.310975700616836548e-01 -8.319909572601318359e-01
-1.926700000000000079e-01 4.285340000000000260e-01 1.849799999999999969e-03 5.919627547264099121e-01 2.897427082061767578e-01 -7.520832419395446777e-01
8.417729999999999935e-01 -1.429819999999999980e-01 7.186919999999999975e-01 -4.648131728172302246e-01 1.288335584104061127e-02 8.853150010108947754e-01
-4.104700000000000015e-01 8.198900000000000632e-02 -5.708389999999999853e-01 8.424399495124816895e-01 5.013684630393981934e-01 1.972930431365966797e-01
-7.671609999999999818e-01 1.333880000000000066e-01 -3.612239999999999895e-01 2.780184447765350342e-01 -5.946651101112365723e-01 7.543733716011047363e-01
3.844989999999999797e-01 1.961660000000000070e-01 1.246120000000000005e-01 -5.582370162010192871e-01 3.528776764869689941e-01 -7.508986592292785645e-01
6.358279999999999488e-01 -2.040959999999999996e-01 3.693509999999999849e-01 6.946860551834106445e-01 -4.291601777076721191e-01 -5.772632360458374023e-01
-8.270039999999999614e-01 2.252439999999999998e-01 -4.406809999999999894e-01 -7.631116509437561035e-01 6.188939213752746582e-01 -1.860939264297485352e-01
3.132320000000000104e-01 -2.418959999999999999e-01 5.863850000000000451e-01 1.163309291005134583e-01 -3.814914822578430176e-01 9.170230627059936523e-01
1.781179999999999986e-01 4.001540000000000097e-01 -6.305660000000000431e-02 -4.391009211540222168e-01 6.237935423851013184e-01 -6.465848684310913086e-01
7.926819999999999977e-01 -1.963139999999999885e-01 2.348590000000000122e-01 4.829503595829010010e-01 8.739992976188659668e-01 5.370405688881874084e-02
6.082300000000000484e-01 2.459770000000000012e-01 2.877350000000000185e-01 -3.022729158401489258e-01 -4.301148056983947754e-01 -8.506658673286437988e-01
4.600850000000000217e-01 -4.753120000000000261e-02 8.235360000000000458e-01 -3.391597270965576172e-01 7.471268177032470703e-01 5.716399550437927246e-01
-9.297220000000000484e-01 -5.184339999999999782e-02 -3.556639999999999802e-01 -9.085156321525573730e-01 -1.105970963835716248e-01 -4.029485881328582764e-01
4.342030000000000056e-01 -7.412639999999999507e-02 8.180370000000000141e-01 2.521192729473114014e-01 -4.526533186435699463e-03 9.676855802536010742e-01
-3.094889999999999881e-03 4.001950000000000229e-01 2.373530000000000084e-01 -9.238213896751403809e-01 9.235288947820663452e-02 -3.715171217918395996e-01
6.252079999999999860e-01 2.436020000000000130e-01 7.183439999999999825e-01 8.956673145294189453e-01 2.293338030576705933e-01 3.810327947139739990e-01
6.193870000000000209e-01 -3.205999999999999961e-01 7.240459999999999674e-01 9.511782526969909668e-01 -2.212484776973724365e-01 -2.151954174041748047e-01
7.365920000000000245e-01 -4.623549999999999882e-02 2.024350000000000038e-01 9.368039965629577637e-01 -2.035928517580032349e-01 2.845141887664794922e-01
4.584929999999999839e-01 -1.841150000000000009e-01 3.461589999999999945e-01 -6.916078925132751465e-01 -3.266105949878692627e-01 -6.442081332206726074e-01
6.677389999999999715e-01 3.046610000000000151e-01 3.635300000000000198e-01 7.200169563293457031e-01 4.663893580436706543e-01 5.138643383979797363e-01
-7.938450000000000228e-01 -3.264960000000000084e-01 -9.159829999999999917e-01 9.070631861686706543e-01 -2.837143652141094208e-02 -4.200374186038970947e-01
-1.049279999999999990e+00 9.758239999999999970e-02 -6.694219999999999615e-01 1.319398134946823120e-01 9.653450250625610352e-01 2.251683175563812256e-01
-6.301919999999999744e-01 -1.143679999999999974e-01 -9.653760000000000119e-01 9.555893540382385254e-01 2.748767733573913574e-01 1.062624081969261169e-01
7.278820000000000290e-01 -2.628130000000000188e-01 2.728599999999999914e-01 -1.015585437417030334e-01 -9.234963655471801758e-01 -3.699193894863128662e-01
-6.035129999999999661e-01 -2.742720000000000158e-01 -9.287499999999999645e-01 8.093960881233215332e-01 5.406992435455322266e-01 -2.291771769523620605e-01
9.114210000000000367e-01 8.650079999999999228e-03 5.086659999999999515e-01 9.226707741618156433e-03 9.842911362648010254e-01 -1.763118207454681396e-01
-1.288789999999999936e-01 4.276070000000000149e-01 -2.771250000000000102e-01 -6.889143586158752441e-01 2.282465696334838867e-01 -6.879684925079345703e-01
7.832459999999999978e-01 2.591709999999999847e-01 4.883140000000000258e-01 3.669897019863128662e-01 -7.152629643678665161e-02 9.274709820747375488e-01
5.614559999999999551e-01 -2.166069999999999940e-01 1.896549999999999903e-01 9.231892228126525879e-01 -3.801467418670654297e-01 5.665848776698112488e-02
9.172390000000000265e-01 -4.797959999999999725e-02 5.256610000000000449e-01 2.556651532649993896e-01 -9.273665547370910645e-01 2.731786966323852539e-01
-3.846149999999999847e-01 3.828699999999999881e-01 -8.551190000000000180e-02 -8.939631581306457520e-01 3.326155245304107666e-01 -3.003278672695159912e-01
-2.425150000000000083e-01 4.064570000000000127e-01 -4.142190000000000039e-01 -5.204249024391174316e-01 3.111219406127929688e-01 -7.952113151550292969e-01
-4.277440000000000131e-01 -1.962609999999999910e-01 -8.087029999999999497e-01 8.697996139526367188e-01 -1.546897143125534058e-01 4.685293138027191162e-01
8.932280000000000220e-01 8.212229999999999530e-02 4.980359999999999787e-01 4.581286907196044922e-01 -8.633179664611816406e-01 2.116603404283523560e-01
-6.936419999999999808e-01 -1.410770000000000080e-01 -9.800990000000000535e-01 -5.149806737899780273e-01 -5.054062008857727051e-01 -6.923579573631286621e-01
-1.069160000000000110e+00 -9.258920000000000344e-03 -6.902009999999999534e-01 -4.238007590174674988e-03 9.968582987785339355e-01 7.909155637025833130e-02
5.633610000000000007e-01 1.917840000000000100e-01 2.388929999999999942e-01 -1.639357656240463257e-01 -7.231363654136657715e-01 -6.709685921669006348e-01
6.044699999999999518e-01 2.282520000000000122e-03 1.767660000000000065e-01 9.923568964004516602e-01 -8.175775408744812012e-02 -9.243053197860717773e-02
4.475569999999999826e-01 1.115960000000000008e-01 1.726779999999999982e-01 6.132747530937194824e-01 -3.804797530174255371e-01 -6.921916007995605469e-01
-9.028739999999999544e-01 -1.717289999999999928e-01 -9.268170000000000019e-01 5.553644895553588867e-01 2.880931198596954346e-01 -7.801107168197631836e-01
2.617670000000000274e-01 -5.119369999999999823e-03 6.009590000000000209e-01 -4.477416276931762695e-01 -9.613805264234542847e-02 8.889797329902648926e-01
8.391030000000000433e-01 -3.096110000000000251e-01 4.406919999999999726e-01 1.049369480460882187e-02 9.995940327644348145e-02 -9.949361085891723633e-01
2.660859999999999892e-01 3.564109999999999778e-01 4.659539999999999793e-01 3.261092305183410645e-01 3.552301526069641113e-01 8.760504126548767090e-01
2.296060000000000045e-01 1.510469999999999868e-01 3.318320000000000158e-01 -1.646306067705154419e-01 -6.565003991127014160e-01 -7.361413240432739258e-01
-1.031989999999999963e+00 -1.847189999999999943e-01 -7.907290000000000152e-01 2.046496123075485229e-01 4.628068208694458008e-02 -9.777405858039855957e-01
7.155839999999999979e-01 -2.596649999999999792e-01 2.860989999999999922e-01 3.113948702812194824e-01 -8.003370761871337891e-01 -5.123413801193237305e-01
9.015109999999999513e-01 -1.416930000000000134e-01 6.128249999999999531e-01 -2.122616618871688843e-01 -1.192576810717582703e-01 9.699085354804992676e-01
7.951930000000000387e-01 -2.810420000000000140e-01 3.189710000000000045e-01 -4.190196394920349121e-01 -8.811067789793014526e-02 -9.036918878555297852e-01
-7.935900000000000176e-01 -2.269170000000000076e-01 -3.311419999999999919e-01 8.785483241081237793e-01 2.361900359392166138e-01 4.151710569858551025e-01
-7.711259999999999781e-01 2.916699999999999848e-01 -4.186230000000000229e-01 1.412783116102218628e-01 4.141918122768402100e-01 8.991582393646240234e-01
-7.578949999999999854e-01 2.981539999999999746e-01 -4.074479999999999769e-01 -9.209589958190917969e-01 -3.428794443607330322e-01 -1.851173788309097290e-01
-1.612079999999999902e-01 4.344109999999999916e-01 -4.527840000000000337e-02 5.232783555984497070e-01 1.766661107540130615e-01 -8.336479067802429199e-01
-7.580750000000000544e-01 -2.132280000000000009e-01 -3.182030000000000136e-01 8.791934251785278320e-01 2.817077934741973877e-01 3.842651247978210449e-01
9.213789999999999480e-01 -8.801689999999999514e-02 5.274140000000000494e-01 4.109212756156921387e-01 -9.116208553314208984e-01 -9.545845910906791687e-03
8.412849999999999495e-01 -3.132519999999999749e-01 4.612120000000000108e-01 1.835274547338485718e-01 -2.634179890155792236e-01 9.470631480216979980e-01
4.449460000000000082e-01 -1.901559999999999917e-01 3.319949999999999846e-01 -6.164041757583618164e-01 -4.760501384735107422e-01 -6.272337436676025391e-01
5.400589999999999558e-01 -9.538280000000000369e-02 8.485000000000000320e-01 -9.803311228752136230e-01 1.243021115660667419e-01 1.532966047525405884e-01
-1.030829999999999913e+00 -1.042249999999999982e-01 -4.588439999999999741e-01 -4.561977386474609375e-01 -5.694378614425659180e-01 -6.838304996490478516e-01
-5.164819999999999967e-01 1.920330000000000092e-01 -2.328490000000000004e-01 -6.369269490242004395e-01 -3.019249439239501953e-01 -7.093415856361389160e-01
7.864659999999999984e-01 -3.286740000000000217e-01 5.942819999999999769e-01 -5.535932779312133789e-01 -1.546032875776290894e-01 8.183106184005737305e-01
9.141390000000000349e-01 -8.952379999999999366e-03 5.144140000000000379e-01 2.548852860927581787e-01 -8.886540532112121582e-01 3.812182545661926270e-01
-3.806129999999999791e-01 -1.651819999999999955e-01 -6.744539999999999980e-01 3.563601672649383545e-01 1.312051862478256226e-01 9.250906705856323242e-01
8.749919999999999920e-01 -1.428989999999999982e-01 6.713750000000000551e-01 7.880423218011856079e-02 -1.848343014717102051e-01 9.796051383018493652e-01
-4.593619999999999925e-01 -2.089139999999999886e-01 -8.474469999999999503e-01 8.883162736892700195e-01 3.117204904556274414e-01 3.372308611869812012e-01
-9.414479999999999515e-01 -2.854749999999999788e-01 -4.375879999999999770e-01 5.012818574905395508e-01 2.026118040084838867e-01 8.412281870841979980e-01
1.182890000000000053e-01 1.991390000000000104e-01 -6.667119999999999991e-02 9.142506122589111328e-01 -3.644615411758422852e-02 4.035064578056335449e-01
3.260049999999999892e-01 -4.372979999999999923e-02 7.311269999999999714e-01 -7.973539233207702637e-01 3.480294644832611084e-01 -4.930538535118103027e-01
8.678619999999999390e-02 3.707750000000000212e-01 3.219859999999999944e-01 -2.495713531970977783e-01 7.483487129211425781e-01 6.145635247230529785e-01
-3.673919999999999964e-01 3.873510000000000009e-01 -7.136499999999999788e-02 -8.902674317359924316e-01 5.482390150427818298e-02 -4.521264433860778809e-01
3.716059999999999919e-01 3.316439999999999944e-01 5.510829999999999895e-01 -8.548392057418823242e-01 3.136540353298187256e-01 -4.133653640747070312e-01
-7.867060000000000164e-01 -2.306120000000000114e-01 -4.394319999999999893e-01 -8.556432723999023438e-01 -4.667175710201263428e-01 -2.237170487642288208e-01
-5.091200000000000170e-01 -2.178940000000000043e-01 -7.325099999999999945e-01 4.361933469772338867e-01 -7.020930051803588867e-01 5.628506541252136230e-01
3.625579999999999914e-01 -5.966729999999999950e-02 7.712620000000000031e-01 5.230708122253417969e-01 -2.741658985614776611e-01 8.069882392883300781e-01
5.606719999999999482e-01 -9.884410000000000418e-02 8.496890000000000276e-01 -9.914108514785766602e-01 7.143853604793548584e-02 1.095490902662277222e-01
-6.194530000000000175e-02 3.945830000000000171e-01 1.926960000000000062e-01 6.637456417083740234e-01 2.130441963672637939e-01 7.169755101203918457e-01
8.170979999999999910e-01 -3.256009999999999738e-01 5.483029999999999848e-01 -4.673917293548583984e-01 -1.627807766199111938e-01 8.689346313476562500e-01
6.104650000000000354e-01 2.929780000000000162e-01 3.013129999999999975e-01 -5.853547453880310059e-01 1.659725010395050049e-01 -7.936075925827026367e-01
-8.079030000000000378e-01 2.020969999999999989e-01 -4.156909999999999772e-01 -5.003452897071838379e-01 8.432822823524475098e-01 1.962896883487701416e-01
-1.013579999999999925e+00 -3.291479999999999961e-01 -6.627969999999999695e-01 -1.873293966054916382e-01 -2.055944055318832397e-01 -9.605408310890197754e-01
-3.886000000000000010e-01 -1.739469999999999905e-01 -7.168999999999999817e-01 3.404974043369293213e-01 -3.145680949091911316e-02 9.397190809249877930e-01
-7.291210000000000191e-01 -1.571660000000000001e-01 -9.808999999999999941e-01 -1.468677371740341187e-01 -4.424208998680114746e-01 -8.846998214721679688e-01
-9.837449999999999806e-01 2.283580000000000054e-01 -6.825820000000000221e-01 2.094261050224304199e-01 3.420101851224899292e-02 -9.772261381149291992e-01
8.710139999999999549e-01 1.357410000000000005e-01 4.970350000000000046e-01 -2.256001383066177368e-01 9.683313965797424316e-01 1.069533899426460266e-01
-8.853729999999999656e-01 2.571399999999999797e-01 -5.094840000000000479e-01 -7.459924817085266113e-01 5.118399858474731445e-01 -4.260457158088684082e-01
4.762930000000000219e-01 1.283999999999999985e-03 8.188450000000000450e-01 -2.376451194286346436e-01 7.593249082565307617e-01 6.057644486427307129e-01
6.447589999999999710e-01 -8.808409999999999157e-03 1.794320000000000082e-01 9.769789576530456543e-01 -2.130174040794372559e-01 1.165194530040025711e-02
-1.564939999999999942e-01 3.931479999999999975e-01 1.126560000000000061e-01 2.277168072760105133e-02 6.974961161613464355e-01 7.162266969680786133e-01
-5.244659999999999878e-01 -1.484290000000000054e-01 -3.578640000000000154e-01 9.718260765075683594e-01 -9.469193965196609497e-02 -2.158414721488952637e-01
5.883920000000000261e-01 -1.843589999999999951e-01 4.195840000000000125e-01 7.258269190788269043e-01 -1.729786098003387451e-01 -6.657729148864746094e-01
-4.438329999999999775e-01 3.547569999999999890e-01 -5.991819999999999924e-01 -6.419609785079956055e-01 1.596560119651257992e-03 -7.667356729507446289e-01
2.332839999999999914e-01 1.112780000000000019e-01 4.611279999999999824e-01 -6.363730430603027344e-01 -3.429172039031982422e-01 6.909682750701904297e-01
5.073260000000000547e-01 6.086779999999999968e-02 1.827169999999999905e-01 -1.069711223244667053e-01 -7.384715080261230469e-01 -6.657453775405883789e-01
-7.174819999999999531e-01 -1.970339999999999869e-01 -3.075789999999999913e-01 9.360991716384887695e-01 2.806962430477142334e-01 2.119621932506561279e-01
1.689519999999999911e-01 1.845910000000000051e-01 3.306160000000000210e-01 -3.124157153069972992e-02 -9.479582309722900391e-01 -3.168583214282989502e-01
-6.904369999999999674e-01 -1.999259999999999926e-01 -4.163080000000000114e-01 -7.962551116943359375e-01 -5.930601954460144043e-01 1.194042190909385681e-01
-7.652670000000000305e-01 6.827629999999999810e-02 -9.623739999999999517e-01 -4.519348964095115662e-03 -9.096036553382873535e-01 -4.154525697231292725e-01
3.876140000000000141e-01 3.274279999999999968e-01 5.639619999999999633e-01 6.558916568756103516e-01 -6.268414855003356934e-02 7.522477507591247559e-01
-5.161820000000000297e-01 -2.374139999999999862e-01 -8.933219999999999494e-01 9.266693592071533203e-01 1.852716505527496338e-01 3.270446360111236572e-01
-9.067699999999999649e-01 5.197559999999999680e-02 -8.928810000000000358e-01 2.195552438497543335e-01 9.747430086135864258e-01 4.088476672768592834e-02
-4.427559999999999829e-01 -2.519029999999999880e-02 -7.998899999999999899e-01 -2.124154269695281982e-01 -7.146153599023818970e-02 -9.745630621910095215e-01
-9.115640000000000409e-01 2.548619999999999775e-01 -5.354020000000000445e-01 -8.829461336135864258e-01 6.920873373746871948e-02 -4.643449783325195312e-01
8.282530000000000170e-01 -1.433730000000000004e-01 7.345880000000000187e-01 -5.303332209587097168e-01 -2.645120769739151001e-02 8.473765254020690918e-01
9.217279999999999918e-01 -1.118600000000000011e-01 4.664429999999999965e-01 2.097850739955902100e-01 -2.082487046718597412e-01 9.553128480911254883e-01
-8.057870000000000310e-01 -2.366479999999999972e-01 -4.461200000000000165e-01 8.863801956176757812e-01 -3.857721388339996338e-02 4.613480269908905029e-01
4.815450000000000008e-01 2.413949999999999985e-01 6.823860000000000481e-01 -9.688183665275573730e-01 -1.868737488985061646e-01 -1.626936495304107666e-01
7.137719999999999620e-01 -3.802429999999999699e-02 1.933120000000000116e-01 -7.774894833564758301e-01 4.257755279541015625e-01 -4.628449082374572754e-01
2.604960000000000053e-01 3.909259999999999957e-01 8.631190000000000390e-03 9.367278218269348145e-01 2.539734542369842529e-01 -2.409120053052902222e-01
7.053000000000000241e-03 2.769980000000000220e-01 -2.329330000000000012e-01 1.498943418264389038e-01 -9.880064129829406738e-01 3.708187490701675415e-02
-1.011519999999999975e+00 -3.299279999999999990e-01 -6.201320000000000165e-01 -3.595055341720581055e-01 -4.069267809391021729e-01 -8.397418260574340820e-01
9.942929999999999824e-02 4.069479999999999764e-01 -1.308340000000000058e-01 8.710565567016601562e-01 1.104586049914360046e-01 4.786015152931213379e-01
7.477530000000000010e-01 -2.642829999999999901e-01 2.649139999999999828e-01 4.997510910034179688e-01 -8.661611676216125488e-01 -3.686309326440095901e-03
8.653239999999999821e-01 -1.432410000000000072e-01 6.869060000000000166e-01 8.077880740165710449e-02 3.335613608360290527e-01 9.392611980438232422e-01
-9.147210000000000063e-01 3.279909999999999770e-02 -8.934109999999999552e-01 -5.508836507797241211e-01 -8.336665034294128418e-01 -3.908054158091545105e-02
-7.556389999999999496e-01 1.118920000000000053e-01 -3.481620000000000270e-01 -5.174470543861389160e-01 8.547085523605346680e-01 -4.149505496025085449e-02
-8.977410000000000112e-01 2.584219999999999851e-01 -5.231000000000000094e-01 3.997056782245635986e-01 6.019917130470275879e-01 6.912606358528137207e-01
6.784189999999999943e-01 -2.331290000000000029e-01 3.318300000000000138e-01 5.538139343261718750e-01 -7.198433876037597656e-01 -4.184682667255401611e-01
-9.063630000000000297e-01 -3.470440000000000191e-01 -8.375249999999999639e-01 6.077209115028381348e-01 -2.842177748680114746e-01 -7.415494322776794434e-01
-7.625429999999999708e-01 1.065480000000000038e-01 -9.493589999999999529e-01 -6.508088856935501099e-02 -8.555232882499694824e-01 -5.136578679084777832e-01
2.942370000000000263e-01 3.804449999999999776e-01 3.565859999999999863e-02 5.869780182838439941e-01 1.727743744850158691e-01 -7.909524440765380859e-01
-7.313589999999999813e-01 7.213790000000000480e-02 -3.291529999999999734e-01 -4.713158309459686279e-01 8.595881462097167969e-01 1.974072754383087158e-01
-5.454620000000000024e-01 -1.728550000000000086e-01 -4.748049999999999771e-01 -7.737980484962463379e-01 -4.654192626476287842e-01 4.296761155128479004e-01
4.395399999999999863e-01 1.275890000000000080e-01 1.679130000000000067e-01 -6.329014152288436890e-02 6.355854868888854980e-01 -7.694318294525146484e-01
8.147079999999999878e-01 -1.447279999999999955e-01 7.489289999999999559e-01 -6.131788492202758789e-01 -7.079237699508666992e-02 7.867656350135803223e-01
2.449409999999999921e-01 6.164399999999999567e-03 4.858850000000000113e-01 -8.986279368400573730e-01 -3.763639330863952637e-01 2.254285067319869995e-01
4.903259999999999841e-01 -8.536030000000000006e-02 8.387289999999999468e-01 -9.875662922859191895e-01 9.965059906244277954e-02 1.215838864445686340e-01
-5.598250000000000171e-01 -2.374020000000000019e-01 -7.702120000000000077e-01 5.031939148902893066e-01 -3.366587758064270020e-01 7.958999276161193848e-01
-1.437420000000000087e-01 2.399570000000000036e-01 1.181370000000000059e-01 -8.997572064399719238e-01 -7.902538031339645386e-02 -4.291759431362152100e-01
2.975269999999999998e-02 3.789460000000000051e-01 2.721560000000000090e-01 -7.434257268905639648e-01 -6.671593189239501953e-01 4.708182066679000854e-02
-9.825700000000000545e-01 2.440509999999999902e-01 -6.339470000000000383e-01 -1.722998917102813721e-01 4.368910491466522217e-01 -8.828584551811218262e-01
-8.267079999999999984e-01 -2.388940000000000161e-02 -3.143889999999999740e-01 -9.129908680915832520e-01 -3.019954264163970947e-01 2.743108868598937988e-01
4.339109999999999912e-01 -1.326170000000000126e-01 8.179720000000000324e-01 -3.867533206939697266e-01 -8.902658224105834961e-01 2.405171990394592285e-01
-9.069309999999999872e-02 1.923420000000000130e-01 -8.323210000000000330e-02 -6.199120283126831055e-01 -1.222363933920860291e-01 7.750918865203857422e-01
-6.450050000000000505e-01 3.406669999999999976e-01 -3.114430000000000254e-01 -7.970905900001525879e-01 -6.467349827289581299e-02 -6.003865599632263184e-01
5.073159999999999892e-01 -1.832209999999999950e-01 5.064819999999999878e-01 6.374389529228210449e-01 1.295872479677200317e-01 -7.595253586769104004e-01
-4.491589999999999749e-01 2.246839999999999948e-01 -1.470720000000000083e-01 -8.167890310287475586e-01 -4.404594898223876953e-01 -3.726273179054260254e-01
-9.821849999999999747e-01 -6.522790000000000532e-02 -3.957100000000000062e-01 -7.657012939453125000e-01 -3.328686058521270752e-01 -5.503634810447692871e-01
6.891369999999999996e-01 -2.479290000000000105e-01 2.266019999999999979e-01 8.925080299377441406e-01 -4.137101769447326660e-01 1.796477138996124268e-01
-8.974889999999999812e-01 1.539909999999999890e-01 -8.560280000000000111e-01 1.005659699440002441e-01 9.905915856361389160e-01 -9.281525015830993652e-02
-9.637369999999999548e-01 -5.776940000000000373e-03 -8.547599999999999643e-01 5.793399810791015625e-01 3.615872859954833984e-01 -7.304929494857788086e-01
2.006269999999999998e-01 1.672250000000000125e-01 4.166449999999999876e-01 -9.168449640274047852e-01 2.299694716930389404e-01 3.263575434684753418e-01
-9.866669999999999607e-01 1.154590000000000061e-01 -7.713790000000000369e-01 4.032567739486694336e-01 8.269569277763366699e-01 -3.918244540691375732e-01
-8.640219999999999567e-01 2.347160000000000080e-01 -8.236630000000000340e-01 7.286434769630432129e-01 1.851880848407745361e-01 -6.593815088272094727e-01
-4.588889999999999914e-01 3.510409999999999919e-01 -6.121480000000000254e-01 7.918083071708679199e-01 3.968842327594757080e-01 4.642441868782043457e-01
5.746510000000000229e-01 -3.134140000000000259e-01 7.336559999999999748e-01 9.647635817527770996e-01 -2.625901103019714355e-01 -1.666477136313915253e-02
-5.357300000000000395e-01 3.799109999999999987e-01 -2.220590000000000064e-01 -8.182266354560852051e-01 -2.465035766363143921e-02 -5.743670463562011719e-01
5.922760000000000247e-01 1.403979999999999950e-01 7.927370000000000250e-01 2.269375473260879517e-01 -7.659872770309448242e-01 6.014672517776489258e-01
2.575100000000000167e-01 -2.225969999999999858e-03 5.832559999999999967e-01 -6.357530355453491211e-01 1.627406924962997437e-01 -7.545419335365295410e-01
7.716399999999999926e-01 -1.455710000000000059e-01 7.839159999999999462e-01 -6.450071930885314941e-01 3.071202524006366730e-02 7.635590434074401855e-01
-8.942759999999999598e-02 2.342029999999999945e-01 1.636420000000000097e-01 -8.727756142616271973e-01 -4.353599548339843750e-01 2.207360565662384033e-01
-9.896310000000000384e-01 -3.402729999999999921e-01 -7.270809999999999773e-01 1.852135658264160156e-01 -4.078634083271026611e-01 -8.940600752830505371e-01
-9.527099999999999458e-01 2.580720000000000236e-01 -6.018449999999999633e-01 -7.089550495147705078e-01 3.026353660970926285e-03 -7.052472233772277832e-01
-9.202719999999999789e-01 -1.766790000000000027e-01 -9.143369999999999553e-01 -8.741191625595092773e-01 -2.616319358348846436e-01 4.092240929603576660e-01
-4.162950000000000261e-01 -1.578259999999999941e-01 -5.070820000000000327e-01 6.653388738632202148e-01 -7.165419459342956543e-01 2.095036506652832031e-01
4.425279999999999769e-01 3.632989999999999831e-01 1.681799999999999962e-01 4.419620037078857422e-01 4.049735963344573975e-01 -8.004161119461059570e-01
-2.715270000000000183e-01 1.878009999999999957e-01 -3.861319999999999752e-01 7.757014036178588867e-01 -1.354319602251052856e-01 6.163972020149230957e-01
-3.529209999999999847e-01 3.877490000000000103e-01 -5.829039999999999916e-02 -9.071962237358093262e-01 1.823690980672836304e-01 -3.791259229183197021e-01
7.977760000000000407e-01 -6.813740000000000074e-02 2.394330000000000069e-01 9.117289185523986816e-01 -1.696639508008956909e-01 3.741182982921600342e-01
-2.557189999999999741e-01 1.873370000000000035e-01 -3.714299999999999824e-01 -5.341137051582336426e-01 -1.140780001878738403e-01 -8.376805186271667480e-01
4.704200000000000048e-01 -1.788770000000000082e-01 3.591739999999999933e-01 -6.646959185600280762e-01 -2.886858582496643066e-01 -6.890862584114074707e-01
-4.059499999999999775e-01 -1.348229999999999984e-01 -4.973029999999999951e-01 7.380213141441345215e-01 -2.494556605815887451e-01 6.269739866256713867e-01
-7.924339999999999717e-01 2.393720000000000014e-01 -8.767570000000000086e-01 6.324682235717773438e-01 2.618089616298675537e-01 -7.289992570877075195e-01
-8.496989999999999821e-01 -2.430710000000000093e-01 -3.495820000000000038e-01 7.463264465332031250e-01 2.683294415473937988e-01 6.090944409370422363e-01
-1.413159999999999972e-01 3.951230000000000020e-01 1.253080000000000027e-01 -8.512788414955139160e-01 1.696766465902328491e-01 -4.965219199657440186e-01
3.934869999999999757e-01 -2.057070000000000010e-01 3.118460000000000121e-01 1.902194470167160034e-01 -6.132926344871520996e-01 7.666085958480834961e-01
9.186769999999999659e-01 -1.073670000000000041e-01 4.449150000000000049e-01 2.633995711803436279e-01 -2.715135812759399414e-01 9.256895184516906738e-01
2.639589999999999992e-01 3.133639999999999759e-01 4.790099999999999913e-01 -9.668631553649902344e-01 1.550464704632759094e-02 2.548240423202514648e-01
5.395090000000000163e-01 1.353669999999999873e-01 2.103780000000000094e-01 -1.750328540802001953e-01 -7.325740456581115723e-01 -6.577984690666198730e-01
-8.927500000000000435e-01 -3.064009999999999789e-01 -6.794409999999999616e-01 -1.299439519643783569e-01 -2.437692880630493164e-01 9.610884785652160645e-01
5.076340000000000297e-01 -8.954650000000000110e-02 8.430079999999999796e-01 -9.798890948295593262e-01 1.428597569465637207e-01 1.393138319253921509e-01
-6.067219999999999835e-01 3.197769999999999779e-01 -7.256820000000000492e-01 8.063692450523376465e-01 4.643049836158752441e-01 3.663187026977539062e-01
1.348330000000000084e-01 2.097080000000000055e-01 3.496600000000000263e-01 -9.445471167564392090e-01 9.332055598497390747e-02 -3.148364722728729248e-01
-3.535369999999999902e-01 2.637260000000000160e-01 -4.487189999999999929e-02 -3.382322788238525391e-01 -1.052790582180023193e-01 9.351551532745361328e-01
-8.409170000000000256e-01 -2.496289999999999898e-01 -4.682209999999999983e-01 7.847802639007568359e-01 3.341393917798995972e-02 6.188727617263793945e-01
-7.536279999999999646e-01 -3.220230000000000037e-01 -9.247640000000000304e-01 9.718652963638305664e-01 -1.374957859516143799e-01 -1.912399530410766602e-01
-4.419390000000000263e-01 -1.440329999999999944e-01 -4.424330000000000207e-01 4.094118773937225342e-01 -5.343130230903625488e-01 7.395211458206176758e-01
-9.318840000000000456e-01 2.309829999999999939e-01 -7.532389999999999919e-01 5.582306385040283203e-01 6.467633694410324097e-02 -8.271610736846923828e-01
-7.268130000000000424e-01 2.158349999999999991e-01 -8.772520000000000318e-01 -1.124184727668762207e-01 -5.116435885429382324e-01 -8.518115282058715820e-01
-1.058680000000000065e+00 5.643600000000000005e-02 -6.779260000000000286e-01 1.079466938972473145e-01 9.776360392570495605e-01 1.804861575365066528e-01
-4.312110000000000110e-01 2.289090000000000014e-01 -1.295949999999999880e-01 4.005784094333648682e-01 -1.455650627613067627e-01 9.046257734298706055e-01
-8.459330000000000460e-01 -3.389360000000000150e-01 -8.869709999999999539e-01 -7.625897526741027832e-01 -4.319223165512084961e-01 4.815599024295806885e-01
3.682739999999999903e-01 -2.659650000000000070e-01 6.789479999999999960e-01 -6.922168731689453125e-01 -4.163438379764556885e-01 -5.894860029220581055e-01
6.013129999999999864e-02 3.763969999999999816e-01 2.986329999999999818e-01 -9.125787615776062012e-01 3.824359178543090820e-01 -1.447162926197052002e-01
3.084120000000000195e-01 -3.593709999999999960e-02 7.064949999999999841e-01 2.585198879241943359e-01 -2.481090277433395386e-01 9.336002469062805176e-01
-9.455620000000000136e-01 -5.392299999999999871e-02 -3.660050000000000248e-01 -9.117945432662963867e-01 -8.180923014879226685e-02 -4.024152457714080811e-01
-2.996750000000000247e-01 1.903670000000000084e-01 -4.310050000000000270e-01 8.224591016769409180e-01 -1.905022747814655304e-02 5.685052275657653809e-01
-8.375430000000000375e-01 -1.595739999999999936e-01 -9.601669999999999927e-01 -9.784190058708190918e-01 -1.511276811361312866e-01 1.409139484167098999e-01
-6.652460000000000040e-01 -1.836609999999999909e-01 -3.083699999999999775e-01 9.969022870063781738e-01 4.732170701026916504e-02 -6.282151490449905396e-02
8.519820000000000171e-01 -8.593780000000000516e-03 3.154950000000000254e-01 3.593428134918212891e-01 -5.983120799064636230e-01 -7.161671519279479980e-01
-8.285540000000000127e-01 -3.093460000000000099e-01 -7.717570000000000263e-01 8.041654825210571289e-01 -1.540530472993850708e-01 -5.740953683853149414e-01
-4.533420000000000227e-01 -2.926640000000000144e-02 -8.177370000000000472e-01 6.837159991264343262e-01 3.132380545139312744e-01 6.591012477874755859e-01
-6.085399999999999698e-01 3.508510000000000240e-01 -2.804209999999999758e-01 -7.793927788734436035e-01 -3.169260621070861816e-01 -5.404672026634216309e-01
-2.338089999999999891e-01 3.701439999999999730e-01 4.855999999999999900e-02 -6.320004165172576904e-02 9.967412352561950684e-01 5.012648925185203552e-02
-1.071390000000000065e+00 -1.734709999999999863e-01 -6.631960000000000077e-01 1.472124271094799042e-02 -3.483062386512756348e-01 -9.372652173042297363e-01
3.792070000000000163e-01 -6.676500000000000490e-02 7.858239999999999670e-01 -9.222650527954101562e-01 3.794972598552703857e-01 -7.354583591222763062e-02
2.073399999999999965e-01 3.615659999999999985e-01 4.210840000000000138e-01 -9.196687936782836914e-01 3.855287432670593262e-01 -7.467859238386154175e-02
-4.581080000000000152e-01 1.463250000000000106e-01 -6.605130000000000168e-01 8.430304527282714844e-01 -5.331365466117858887e-01 7.116859406232833862e-02
9.340400000000000091e-02 1.980860000000000121e-01 -8.216700000000000392e-02 -6.970771551132202148e-01 -9.100196510553359985e-02 -7.111976146697998047e-01
-1.006490000000000107e+00 -3.248630000000000129e-01 -5.837280000000000246e-01 -2.816524803638458252e-01 -5.275877714157104492e-01 -8.014506101608276367e-01
-2.012460000000000082e-01 4.187919999999999976e-01 -3.549220000000000153e-01 -8.226738572120666504e-01 1.567858755588531494e-01 -5.464667677879333496e-01
3.226530000000000231e-01 3.480730000000000213e-01 5.048099999999999810e-01 5.311848521232604980e-01 2.825936675071716309e-01 7.987386584281921387e-01
6.998140000000000471e-01 -2.722189999999999888e-01 5.756269999999999998e-01 -9.377118945121765137e-01 1.450628340244293213e-01 -3.156788349151611328e-01
1.227420000000000073e-02 2.027760000000000118e-01 -1.564359999999999917e-01 -4.583424627780914307e-01 -2.831657826900482178e-01 -8.424602746963500977e-01
4.170690000000000230e-01 3.502460000000000018e-01 1.400150000000000006e-01 5.693081021308898926e-01 1.068079173564910889e-01 -8.151566982269287109e-01
8.369919999999999582e-01 -7.697320000000000551e-02 2.773479999999999834e-01 7.835423946380615234e-01 4.431066513061523438e-01 4.355660676956176758e-01
-4.293870000000000187e-01 -1.389900000000000024e-01 -4.571259999999999768e-01 8.310842514038085938e-01 -4.119306504726409912e-01 3.736470341682434082e-01
-7.608430000000000470e-01 1.338850000000000040e-01 -9.373190000000000133e-01 -9.273288398981094360e-02 -6.623213887214660645e-01 -7.434587478637695312e-01
3.234680000000000194e-02 2.008900000000000130e-01 -1.361829999999999985e-01 7.527573108673095703e-01 -2.967057824134826660e-01 5.876411199569702148e-01
-5.052119999999999944e-01 4.742960000000000231e-02 -4.180280000000000107e-01 -5.707225799560546875e-01 1.507942080497741699e-01 8.071782588958740234e-01
-4.907369999999999788e-01 4.413319999999999743e-02 -4.345419999999999838e-01 -5.447958707809448242e-01 1.403239369392395020e-01 8.267446160316467285e-01
6.943040000000000322e-01 -1.212379999999999985e-01 8.262760000000000105e-01 -6.230704784393310547e-01 2.684160470962524414e-01 7.346672415733337402e-01
2.178900000000000003e-01 1.404080000000000050e-01 4.396820000000000173e-01 -7.545944452285766602e-01 -1.282352209091186523e-01 6.435393095016479492e-01
3.371160000000000267e-01 1.738089999999999913e-01 5.780459999999999487e-01 4.585405290126800537e-01 5.078092813491821289e-01 7.292944192886352539e-01
7.304509999999999614e-01 2.824760000000000049e-01 4.231409999999999894e-01 8.919581770896911621e-01 -1.837166994810104370e-01 4.131086468696594238e-01
6.851580000000000448e-01 -3.290069999999999939e-01 7.004129999999999523e-01 -7.633424401283264160e-01 -1.290134638547897339e-01 6.329802274703979492e-01
-1.793780000000000097e-01 1.886359999999999981e-01 -2.797999999999999932e-01 -9.425694942474365234e-01 -2.175488620996475220e-01 -2.534465491771697998e-01
-2.614020000000000232e-01 2.284440000000000082e-01 1.021780000000000084e-02 -5.552890300750732422e-01 -5.998963713645935059e-01 5.760021805763244629e-01
3.508029999999999760e-01 1.839429999999999954e-01 5.899600000000000399e-01 -7.649775743484497070e-01 -5.012410879135131836e-01 -4.044339656829833984e-01
-4.683339999999999725e-01 2.157179999999999931e-01 -1.678060000000000107e-01 5.780813097953796387e-01 1.481673419475555420e-01 8.024141192436218262e-01
7.679420000000000135e-01 -5.640440000000000037e-02 2.191099999999999992e-01 8.962938785552978516e-01 -2.929930984973907471e-01 3.328849077224731445e-01
-8.224770000000000136e-01 -2.344090000000000062e-01 -3.378829999999999889e-01 -9.489768147468566895e-01 -2.938247919082641602e-01 -1.144986599683761597e-01
4.956809999999999827e-01 -1.864270000000000094e-01 5.215589999999999948e-01 5.662114024162292480e-01 2.079664915800094604e-01 -7.975930571556091309e-01
3.616349999999999842e-01 -1.949180000000000079e-01 2.695460000000000078e-01 -9.595166444778442383e-01 -2.564615607261657715e-01 1.164269894361495972e-01
3.682500000000000218e-01 -2.619909999999999739e-01 6.591540000000000177e-01 7.030753493309020996e-01 -6.187703609466552734e-01 -3.504402637481689453e-01
5.380819999999999492e-01 -1.745549999999999879e-01 4.233549999999999813e-01 -6.651696562767028809e-01 1.654132157564163208e-01 -7.281399369239807129e-01
5.014809999999999546e-01 2.946699999999999875e-01 6.388679999999999914e-01 -7.436232566833496094e-01 5.629004836082458496e-01 -3.607874214649200439e-01
5.572099999999999831e-01 1.729400000000000104e-01 2.301640000000000075e-01 -2.238897383213043213e-01 -7.142876982688903809e-01 -6.630734205245971680e-01
-4.877409999999999801e-01 -2.262170000000000014e-01 -8.730409999999999560e-01 8.972090482711791992e-01 2.775627672672271729e-01 3.434747457504272461e-01
6.265819999999999723e-01 -2.055500000000000105e-01 5.159310000000000285e-01 -5.975041389465332031e-01 3.053482174873352051e-01 -7.414520382881164551e-01
5.805759999999999810e-01 -2.222729999999999984e-01 1.933060000000000056e-01 9.309420585632324219e-01 -3.544188439846038818e-01 8.794497698545455933e-02
-8.020019999999999927e-01 -9.951039999999999885e-02 -9.791739999999999888e-01 -5.600856542587280273e-01 -6.341059803962707520e-01 -5.331169962882995605e-01
-7.805789999999999951e-02 4.376410000000000022e-01 -1.442489999999999883e-01 7.305834889411926270e-01 6.920590996742248535e-02 -6.793071627616882324e-01
-8.210429999999999673e-01 -2.418510000000000104e-01 -4.549110000000000098e-01 -7.706155180931091309e-01 -4.351212382316589355e-01 -4.656407535076141357e-01
-8.561630000000000074e-01 -2.572840000000000127e-01 -4.830929999999999946e-01 -5.791479945182800293e-01 -4.812693893909454346e-01 -6.580026149749755859e-01
-2.766970000000000107e-03 2.230999999999999928e-01 -2.093470000000000053e-01 2.355967834591865540e-02 -8.669969439506530762e-01 4.977562129497528076e-01
2.222409999999999941e-01 1.389670000000000072e-01 3.626889999999999836e-01 -7.687551379203796387e-01 -5.553309321403503418e-01 -3.172116279602050781e-01
2.477810000000000012e-01 2.365410000000000082e-02 4.911179999999999990e-01 -6.045837402343750000e-01 6.416948437690734863e-01 4.719177484512329102e-01
7.319200000000000150e-01 -2.588920000000000110e-01 2.502800000000000025e-01 5.807095766067504883e-01 -6.059349179267883301e-01 -5.437087416648864746e-01
-7.328599999999999559e-01 3.098910000000000275e-01 -3.863900000000000112e-01 1.981025934219360352e-01 3.478437066078186035e-01 9.163842201232910156e-01
-4.688720000000000110e-01 1.602200000000000013e-01 -6.690009999999999568e-01 2.124995142221450806e-01 6.604351997375488281e-01 -7.201869487762451172e-01
-1.076729999999999965e+00 -1.154919999999999974e-01 -6.924029999999999907e-01 -8.710566163063049316e-02 9.757512211799621582e-01 -2.008037865161895752e-01
8.046560000000000379e-01 -2.855739999999999945e-01 3.353229999999999822e-01 5.369423031806945801e-01 -5.100049972534179688e-01 6.720029115676879883e-01
4.458509999999999973e-01 -9.618870000000000198e-02 8.226839999999999709e-01 -8.176202327013015747e-02 -6.146780252456665039e-01 7.845291495323181152e-01
8.331880000000000397e-01 2.031139999999999890e-01 4.915649999999999742e-01 6.933960914611816406e-01 -7.123582959175109863e-01 1.083860844373703003e-01
4.984109999999999929e-01 2.476279999999999870e-01 6.897900000000000142e-01 5.103545784950256348e-01 4.067883491516113281e-01 7.576683759689331055e-01
5.772890000000000521e-01 -1.854909999999999892e-01 4.637089999999999823e-01 -9.814204275608062744e-02 1.174596101045608521e-01 -9.882162213325500488e-01
-9.037119999999999598e-01 -3.014370000000000105e-01 -6.391299999999999759e-01 4.603185653686523438e-01 -3.929832279682159424e-01 7.960345149040222168e-01
7.741379999999999928e-01 2.467940000000000134e-01 5.515999999999999792e-01 5.524592399597167969e-01 2.226734608411788940e-01 -8.032467365264892578e-01
-9.476109999999999811e-01 1.230809999999999934e-03 -8.706369999999999942e-01 -7.534876465797424316e-01 -3.187995553016662598e-01 5.749984383583068848e-01
3.365659999999999763e-01 3.892200000000000104e-01 8.245619999999999339e-02 8.118970394134521484e-01 4.235904514789581299e-01 -4.017392694950103760e-01
2.847990000000000244e-01 2.012130000000000030e-01 4.855170000000000319e-02 -6.153315305709838867e-01 -1.089768391102552414e-02 -7.881929874420166016e-01
1.495579999999999965e-01 4.044880000000000142e-01 -8.679199999999999415e-02 -6.219807267189025879e-01 1.964613199234008789e-01 -7.579861879348754883e-01
-2.258360000000000090e-01 4.161850000000000271e-01 3.737349999999999700e-02 1.110096201300621033e-01 9.278833270072937012e-01 -3.559627234935760498e-01
8.866349999999999509e-01 1.000579999999999942e-01 4.943810000000000149e-01 -1.478322148323059082e-01 9.851005077362060547e-01 -8.787876367568969727e-02
5.285530000000000506e-01 -1.813619999999999954e-01 4.870269999999999877e-01 7.079548835754394531e-01 3.980182483792304993e-02 -7.051351666450500488e-01
-5.850090000000000012e-01 -1.604829999999999868e-01 -3.270290000000000141e-01 -8.164318203926086426e-01 -2.389376759529113770e-01 5.256880521774291992e-01
-4.731650000000000023e-01 3.469809999999999839e-01 -6.242250000000000298e-01 -6.677506566047668457e-01 -2.715916931629180908e-02 -7.438893318176269531e-01
2.206660000000000010e-01 3.998749999999999805e-01 -2.294500000000000012e-02 9.010837078094482422e-01 3.956725597381591797e-01 1.774580478668212891e-01
-9.751199999999999868e-01 -3.442990000000000217e-01 -7.517239999999999478e-01 2.660065293312072754e-01 -4.415955245494842529e-01 -8.568745255470275879e-01
-1.028080000000000105e+00 1.704660000000000064e-01 -6.537370000000000125e-01 2.523726224899291992e-01 9.589211344718933105e-01 1.295314133167266846e-01
6.373799999999999466e-01 -3.233570000000000055e-01 7.195019999999999749e-01 -9.464963078498840332e-01 4.642760753631591797e-02 3.193575739860534668e-01
6.813609999999999944e-01 -2.589319999999999955e-01 5.759210000000000163e-01 -9.842948317527770996e-01 -1.299422085285186768e-01 -1.194937303662300110e-01
5.866999999999999993e-01 1.893229999999999913e-01 7.667469999999999564e-01 -1.204847171902656555e-02 -4.801771044731140137e-01 8.770887255668640137e-01
-3.921540000000000026e-01 2.326479999999999937e-01 -9.639259999999999495e-02 2.053414136171340942e-01 -5.397239327430725098e-01 8.164147138595581055e-01
3.437439999999999940e-01 2.005510000000000070e-01 9.929449999999999388e-02 3.138903155922889709e-02 8.502380549907684326e-02 -9.958844184875488281e-01
-7.606739999999999613e-01 -2.957710000000000061e-01 -7.940120000000000511e-01 9.190043807029724121e-01 -3.717663586139678955e-01 -1.312272101640701294e-01
-9.414789999999999548e-01 -3.493160000000000154e-01 -7.943149999999999933e-01 2.068871855735778809e-01 -8.067981004714965820e-01 -5.534207820892333984e-01
-7.615009999999999835e-01 -1.596239999999999881e-01 -9.773370000000000113e-01 -7.016270756721496582e-01 -2.497244179248809814e-01 -6.673508882522583008e-01
1.712449999999999910e-03 3.201890000000000014e-01 -2.308729999999999949e-01 1.866265684366226196e-01 -9.530276656150817871e-01 -2.385557442903518677e-01
-4.837319999999999953e-01 -1.819590000000000096e-01 -5.958550000000000235e-01 -2.175382338464260101e-02 -2.531413435935974121e-01 9.671847224235534668e-01
8.547749999999999515e-01 -1.430069999999999952e-01 7.020849999999999591e-01 -2.519471049308776855e-01 1.729686260223388672e-01 9.521578550338745117e-01
-2.337720000000000076e-01 2.435070000000000012e-01 4.135690000000000199e-02 -7.423024773597717285e-01 -2.829298377037048340e-01 6.074025630950927734e-01
6.384499999999999620e-01 -1.084579999999999989e-01 8.432199999999999696e-01 -9.085348248481750488e-01 2.260079085826873779e-01 3.514043688774108887e-01
-3.286459999999999937e-01 3.776329999999999965e-01 -5.002680000000000460e-01 -6.761516332626342773e-01 -4.361055791378021240e-02 -7.354706525802612305e-01
-3.926430000000000198e-01 -1.765180000000000082e-01 -7.351400000000000157e-01 -5.991638824343681335e-02 -3.038139641284942627e-01 -9.508454203605651855e-01
-1.075779999999999959e+00 -9.425469999999999682e-02 -6.946039999999999992e-01 -5.701850727200508118e-02 9.854385256767272949e-01 -1.601865738630294800e-01
-1.022880000000000039e-01 1.919059999999999933e-01 -6.850370000000000070e-02 -6.467307209968566895e-01 -1.418905705213546753e-01 7.494040131568908691e-01
6.707920000000000549e-01 2.717019999999999991e-01 3.477080000000000171e-01 5.072901844978332520e-01 -5.858083367347717285e-01 -6.320484280586242676e-01
-6.230999999999999872e-01 3.146829999999999905e-01 -7.377610000000000001e-01 -6.753042340278625488e-01 -2.544195391237735748e-02 -7.371003031730651855e-01
-3.371840000000000254e-02 4.149869999999999948e-01 -2.420259999999999911e-01 -3.087620437145233154e-01 3.069534003734588623e-01 -9.002475142478942871e-01
-6.138449999999999740e-01 -2.668320000000000136e-01 -8.236250000000000515e-01 7.032523751258850098e-01 -3.073575794696807861e-01 6.410674452781677246e-01
9.192280000000000451e-01 -1.288449999999999873e-01 5.516020000000000367e-01 -2.640429697930812836e-02 -3.527228832244873047e-01 9.353552460670471191e-01
2.224200000000000066e-01 3.606889999999999818e-01 4.322659999999999836e-01 4.837537705898284912e-01 2.697459459304809570e-01 8.325979709625244141e-01
-4.857659999999999756e-01 -1.921110000000000040e-01 -6.453969999999999985e-01 3.867985308170318604e-02 -2.036222070455551147e-01 9.782851338386535645e-01
-3.995659999999999767e-01 -1.383530000000000038e-01 -5.144739999999999869e-01 8.914135098457336426e-01 -4.415605366230010986e-01 1.020105108618736267e-01
-6.780549999999999633e-01 -3.024999999999999911e-01 -9.340000000000000524e-01 7.708071470260620117e-01 3.851529657840728760e-01 -5.074579715728759766e-01
-1.001430000000000042e+00 1.970210000000000017e-02 -7.966119999999999868e-01 1.172847002744674683e-01 -6.963513493537902832e-01 -7.080529928207397461e-01
4.125619999999999843e-01 -2.393000000000000127e-01 6.170790000000000441e-01 5.685943365097045898e-01 3.881365656852722168e-01 -7.252932786941528320e-01
-1.073960000000000053e-01 3.972359999999999780e-01 1.537650000000000128e-01 -8.342834711074829102e-01 1.053124517202377319e-01 -5.411842465400695801e-01
