2.573039999999999772e-01 5.218049999999999772e-02 3.686050000000000160e-01 -9.954559057950973511e-02 -1.262745261192321777e-01 9.869880676269531250e-01
4.545370000000000243e-01 -2.196549999999999891e-02 -2.864160000000000039e-01 1.903752386569976807e-01 3.479299545288085938e-01 -9.179880619049072266e-01
-5.689539999999999875e-02 -3.319429999999999950e-03 -2.901290000000000258e-01 -1.745806820690631866e-02 -3.639324307441711426e-01 -9.312617182731628418e-01
2.356030000000000069e-01 -2.726729999999999987e-01 -2.931840000000000002e-01 -7.157989144325256348e-01 3.117200136184692383e-01 6.248700022697448730e-01
3.820200000000000262e-01 -2.512690000000000201e-01 -4.456609999999999738e-01 -9.557281434535980225e-02 7.590140104293823242e-01 -6.440213918685913086e-01
2.914789999999999881e-01 -4.044079999999999897e-01 -5.896719999999999740e-01 -3.596033751964569092e-01 -2.878211140632629395e-01 -8.876059651374816895e-01
2.763340000000000241e-01 3.006369999999999876e-02 3.662610000000000032e-01 -6.250590085983276367e-02 -1.118786260485649109e-01 9.917541146278381348e-01
-9.496949999999999559e-01 -2.976559999999999762e-01 3.186209999999999876e-01 -1.785454154014587402e-01 8.284714221954345703e-01 5.308074355125427246e-01
3.373860000000000192e-01 -3.456310000000000215e-01 -3.689189999999999969e-01 1.250607818365097046e-01 -8.130360841751098633e-01 5.686228871345520020e-01
-6.278200000000000447e-01 4.064260000000000095e-02 -1.872070000000000123e-01 -4.904712438583374023e-01 6.380074620246887207e-01 -5.936198830604553223e-01
6.363079999999999847e-01 3.463510000000000200e-01 2.959669999999999801e-01 5.277449488639831543e-01 -2.347989566624164581e-02 8.490783572196960449e-01
3.477709999999999968e-01 2.082239999999999924e-01 3.584559999999999969e-01 1.061198562383651733e-01 3.294736146926879883e-02 9.938073158264160156e-01
-9.869339999999999780e-01 -2.816159999999999775e-01 1.546109999999999984e-01 -8.718534708023071289e-01 -4.721971750259399414e-01 1.300052851438522339e-01
2.429099999999999870e-01 -2.893899999999999806e-01 3.456009999999999915e-01 -8.867866992950439453e-01 2.505438029766082764e-01 -3.883775174617767334e-01
-1.713619999999999866e-01 2.712700000000000111e-01 -5.253780000000000255e-02 -2.371576428413391113e-01 7.836919426918029785e-01 -5.740933418273925781e-01
1.557999999999999940e-01 5.035309999999999508e-01 6.658550000000000579e-02 -6.037454605102539062e-01 7.411407232284545898e-01 -2.936014235019683838e-01
1.288940000000000086e-01 -4.675070000000000059e-01 -4.855849999999999889e-01 -6.924946308135986328e-01 -5.586100816726684570e-01 4.565150737762451172e-01
1.327599999999999891e-01 -4.241320000000000090e-01 -4.154959999999999765e-01 -4.667342603206634521e-01 1.783504486083984375e-01 8.662275671958923340e-01
2.129179999999999962e-01 5.455290000000000417e-01 -1.864970000000000169e-02 -6.898665428161621094e-01 7.069349884986877441e-01 1.559715867042541504e-01
6.868009999999999948e-01 5.177549999999999653e-01 2.082309999999999994e-01 3.778383731842041016e-01 -1.534047126770019531e-01 9.130745530128479004e-01
-9.175769999999999760e-01 -3.683569999999999900e-01 -3.438749999999999862e-01 4.461933858692646027e-03 8.142781853675842285e-01 -5.804575681686401367e-01
-5.421000000000000263e-01 -1.211180000000000034e-01 3.194119999999999737e-01 -4.351435974240303040e-02 -4.842941761016845703e-01 8.738224506378173828e-01
-1.939180000000000070e-01 2.943740000000000245e-01 2.414439999999999989e-02 -4.868427217006683350e-01 8.702784776687622070e-01 7.483045011758804321e-02
4.719740000000000046e-01 4.193160000000000220e-01 3.483550000000000257e-01 1.266332417726516724e-01 2.729445695877075195e-01 9.536589384078979492e-01
-1.317419999999999980e-01 1.026959999999999956e-01 3.724379999999999913e-01 -2.319290488958358765e-02 -2.428074926137924194e-01 9.697971940040588379e-01
-9.461279999999999690e-01 -4.404629999999999934e-01 2.717269999999999963e-01 -2.113535441458225250e-02 -7.378421425819396973e-01 -6.746422648429870605e-01
-6.521689999999999987e-01 1.031939999999999941e-01 5.320099999999999829e-02 -5.313814282417297363e-01 8.456988334655761719e-01 4.926767945289611816e-02
-1.400299999999999878e-01 -2.928870000000000084e-01 7.021750000000000214e-02 8.139035850763320923e-02 -9.788114428520202637e-01 1.878930777311325073e-01
-8.142919999999999325e-02 -1.211480000000000057e-01 2.579110000000000014e-01 1.476678252220153809e-01 -7.004033923149108887e-01 6.983046531677246094e-01
-8.867789999999999839e-01 -3.878770000000000273e-01 -2.186079999999999968e-01 -7.062149792909622192e-02 -7.319210767745971680e-01 6.777198314666748047e-01
3.508490000000000220e-01 -3.481190000000000118e-01 4.150710000000000233e-01 3.242034614086151123e-01 -7.118657827377319336e-01 -6.230081319808959961e-01
-9.415740000000000220e-01 -5.079169999999999519e-01 3.983439999999999759e-01 -9.525819122791290283e-02 7.923275828361511230e-01 6.026133894920349121e-01
-3.122789999999999941e-02 3.833820000000000006e-01 6.931510000000000449e-02 -5.252393484115600586e-01 7.472681999206542969e-01 -4.070796966552734375e-01
-8.996300000000000130e-02 3.557170000000000054e-01 6.502159999999999884e-02 -5.716693401336669922e-01 7.574208378791809082e-01 -3.154484927654266357e-01
-6.315530000000000310e-01 1.165530000000000038e-01 5.249709999999999793e-02 -5.985781550407409668e-01 7.939854860305786133e-01 1.062602773308753967e-01
6.487849999999999451e-01 7.568070000000000075e-01 6.164769999999999972e-02 -3.709940612316131592e-01 9.235942363739013672e-01 9.662874788045883179e-02
3.179850000000000176e-01 5.009900000000000464e-01 -1.676489999999999925e-01 -2.515735328197479248e-01 4.921160340309143066e-01 -8.333861231803894043e-01
6.969840000000000479e-01 1.264470000000000038e-01 3.868459999999999954e-02 9.292235374450683594e-01 -3.655276596546173096e-01 5.415734648704528809e-02
4.316470000000000029e-01 4.620139999999999803e-01 -2.223489999999999911e-01 -2.920321822166442871e-01 3.743897974491119385e-01 -8.800849318504333496e-01
-7.276240000000000485e-01 -3.075590000000000268e-01 -9.027630000000000030e-03 2.796795964241027832e-01 -9.596957564353942871e-01 -2.762803994119167328e-02
-9.703650000000000331e-01 -3.542230000000000101e-01 3.495590000000000086e-01 -1.959311068058013916e-01 3.950737118721008301e-01 8.975120186805725098e-01
-6.707680000000000586e-02 -1.771989999999999954e-01 2.161599999999999910e-01 7.540618628263473511e-02 -5.467132329940795898e-01 8.339175581932067871e-01
4.703439999999999843e-01 5.031109999999999749e-01 -2.188209999999999877e-01 -7.351836562156677246e-02 5.138832330703735352e-01 -8.547041416168212891e-01
4.951329999999999898e-01 7.281450000000000422e-01 5.676380000000000314e-02 -2.366677671670913696e-01 9.704567790031433105e-01 4.692615196108818054e-02
-8.761170000000000346e-01 -3.167840000000000100e-01 4.217259999999999759e-02 9.313414990901947021e-02 -9.737842679023742676e-01 -2.075333893299102783e-01
4.277549999999999963e-01 -1.515009999999999968e-01 -1.687659999999999993e-01 5.112252235412597656e-01 -7.233843803405761719e-01 4.640730023384094238e-01
2.071089999999999876e-01 5.525970000000000049e-01 6.689029999999999976e-02 -7.154783010482788086e-01 6.644785404205322266e-01 -2.157756984233856201e-01
3.141900000000000248e-01 -4.552300000000000235e-01 5.553040000000000198e-01 2.101796679198741913e-02 -9.835268259048461914e-01 -1.795362681150436401e-01
-8.376869999999999594e-01 -3.880100000000000215e-01 -3.449409999999999976e-01 3.433550298213958740e-01 5.539019703865051270e-01 -7.584852576255798340e-01
6.451170000000000515e-01 3.275799999999999823e-01 -1.629440000000000055e-01 7.625250816345214844e-01 -8.447391539812088013e-02 -6.414200067520141602e-01
1.648139999999999883e-01 -4.798799999999999732e-01 5.184039999999999759e-01 -1.271815896034240723e-01 -8.384460210800170898e-01 5.299368500709533691e-01
2.428299999999999903e-01 5.945160000000000444e-01 8.413110000000000033e-02 -6.459761857986450195e-01 7.305102944374084473e-01 -2.215161621570587158e-01
3.683719999999999772e-01 -1.909019999999999884e-01 4.120380000000000154e-01 -5.620767474174499512e-01 4.509274065494537354e-01 6.933500170707702637e-01
5.818259999999999543e-01 3.754310000000000147e-01 3.288139999999999952e-01 6.544282436370849609e-01 1.267624795436859131e-01 7.454227209091186523e-01
1.099659999999999943e-01 4.573409999999999975e-01 6.010360000000000008e-02 -4.613938033580780029e-01 8.344466090202331543e-01 -3.013545274734497070e-01
-9.050679999999999836e-01 -4.760240000000000027e-01 -3.590610000000000190e-01 -4.235735908150672913e-02 9.159716367721557617e-01 3.990010619163513184e-01
2.060019999999999907e-01 5.506189999999999696e-01 4.101099999999999884e-02 -6.537266373634338379e-01 7.027933001518249512e-01 -2.805764377117156982e-01
-6.339770000000000127e-01 7.438219999999999554e-02 -1.304130000000000011e-01 -5.350913405418395996e-01 7.665828466415405273e-01 -3.550043404102325439e-01
-7.763179999999999525e-01 -2.735560000000000214e-01 -2.516059999999999963e-01 4.949186742305755615e-01 6.985970139503479004e-01 -5.167375802993774414e-01
8.153549999999999687e-02 4.048689999999999789e-01 2.607709999999999889e-02 -4.206792116165161133e-01 5.003526806831359863e-01 -7.567537426948547363e-01
5.169949999999999823e-01 -2.163990000000000080e-01 4.184789999999999899e-01 8.707747459411621094e-01 1.579927355051040649e-01 4.656066596508026123e-01
-4.406800000000000161e-01 1.946680000000000077e-01 4.878489999999999910e-02 -3.996623456478118896e-01 9.137365221977233887e-01 7.318187505006790161e-02
1.769330000000000069e-01 -4.739659999999999984e-01 5.388230000000000519e-01 1.872807741165161133e-01 -5.350137948989868164e-01 8.238240480422973633e-01
-9.006910000000000194e-01 -4.546760000000000246e-01 -3.480880000000000085e-01 2.778350412845611572e-01 -1.882129907608032227e-01 -9.420103430747985840e-01
-7.685220000000000384e-01 -2.336600000000000066e-01 2.721379999999999910e-01 1.655913591384887695e-01 4.773478806018829346e-01 8.629707098007202148e-01
8.315569999999999906e-01 5.036380000000000301e-01 2.995969999999999883e-02 2.917217314243316650e-01 -9.514606595039367676e-01 9.808732569217681885e-02
7.552569999999999562e-01 7.082939999999999792e-01 -6.887780000000000291e-02 -1.057812273502349854e-01 3.151641786098480225e-01 -9.431235194206237793e-01
4.653760000000000119e-01 -2.877680000000000238e-01 -3.471520000000000161e-01 1.777856051921844482e-01 -7.420288324356079102e-01 6.463633179664611816e-01
8.314279999999999449e-01 5.270350000000000312e-01 -3.960280000000000050e-02 2.551036179065704346e-01 -9.272958636283874512e-01 -2.739424705505371094e-01
3.436270000000000158e-01 3.028430000000000011e-02 3.356000000000000094e-01 8.067216873168945312e-01 -2.865309715270996094e-01 5.168173313140869141e-01
-9.763629999999999809e-01 -3.786280000000000201e-01 3.584229999999999916e-01 -2.889858186244964600e-01 1.223504394292831421e-01 9.494827985763549805e-01
-5.423309999999999936e-02 3.225549999999999806e-01 3.033280000000000004e-02 -5.863403156399726868e-02 6.058443784713745117e-01 -7.934195399284362793e-01
3.978430000000000022e-01 -3.481150000000000078e-01 -5.735350000000000170e-01 4.600254893302917480e-01 1.988629102706909180e-01 -8.653497099876403809e-01
-3.429989999999999983e-01 -2.969829999999999970e-01 1.197379999999999972e-02 2.476542294025421143e-01 -9.681514501571655273e-01 3.674539551138877869e-02
-9.951790000000000358e-01 -3.029040000000000066e-01 -1.498710000000000042e-01 -8.237969279289245605e-01 1.721298694610595703e-01 5.401203632354736328e-01
-8.343169999999999753e-01 -4.452760000000000051e-01 -3.190330000000000110e-01 8.236916065216064453e-01 -5.519558787345886230e-01 1.299109160900115967e-01
6.336300000000000265e-01 4.742699999999999694e-02 9.887740000000000765e-03 8.423947691917419434e-01 -5.365153551101684570e-01 -5.022286623716354370e-02
7.210509999999999975e-01 7.740259999999999918e-01 6.324290000000000467e-02 -1.333995908498764038e-01 9.859550595283508301e-01 1.004842072725296021e-01
-8.389149999999999385e-02 1.765549999999999897e-01 -2.842669999999999919e-01 1.410474926233291626e-01 5.649945735931396484e-01 -8.129493594169616699e-01
-4.588260000000000255e-02 -2.499879999999999880e-01 1.367569999999999897e-01 1.380401253700256348e-01 -8.309776782989501953e-01 5.389073491096496582e-01
-9.046309999999999629e-01 -2.739840000000000053e-01 -2.226200000000000123e-01 -1.909263432025909424e-01 9.217795729637145996e-01 -3.374457061290740967e-01
-2.915250000000000133e-02 -2.780159999999999854e-01 8.400150000000000672e-02 2.796624600887298584e-01 -8.660932183265686035e-01 4.143323600292205811e-01
3.306359999999999855e-01 -3.662859999999999987e-03 -2.907569999999999877e-01 -7.235039956867694855e-03 1.766211688518524170e-01 -9.842523336410522461e-01
3.561420000000000141e-01 -1.930550000000000044e-01 -1.825360000000000038e-01 2.850742042064666748e-01 -8.463465571403503418e-01 4.499223828315734863e-01
6.746189999999999687e-01 3.312089999999999756e-01 2.510640000000000094e-01 7.995095849037170410e-01 -2.938547432422637939e-01 5.238642692565917969e-01
-1.176600000000000007e-01 4.059890000000000027e-02 3.429960000000000231e-01 3.640886768698692322e-02 -3.634163737297058105e-01 9.309151172637939453e-01
-1.691830000000000001e-01 2.996240000000000014e-01 2.515399999999999928e-02 -5.102874040603637695e-01 8.588071465492248535e-01 -4.535526782274246216e-02
2.786580000000000168e-01 5.357420000000000515e-01 -1.673469999999999958e-01 -3.172701299190521240e-01 5.508521795272827148e-01 -7.719466090202331543e-01
-3.898139999999999938e-01 2.133210000000000106e-01 4.220240000000000102e-02 -4.028622508049011230e-01 9.129570722579956055e-01 6.489610671997070312e-02
-8.819719999999999782e-01 -5.273430000000000062e-01 3.848320000000000074e-01 8.828303813934326172e-01 -3.967790305614471436e-01 2.513503432273864746e-01
2.750409999999999799e-01 1.522850000000000037e-01 3.682050000000000045e-01 1.502347290515899658e-01 -5.417678132653236389e-02 9.871647953987121582e-01
-8.136660000000000004e-01 -3.640570000000000195e-01 -2.184480000000000033e-01 5.451887845993041992e-01 -7.428522109985351562e-01 3.885097503662109375e-01
2.841560000000000197e-01 -2.154560000000000086e-01 6.842550000000000195e-03 5.187641382217407227e-01 -8.513220548629760742e-01 7.832266390323638916e-02
7.435690000000000355e-01 7.673250000000000348e-01 5.811689999999999912e-02 -4.125488549470901489e-02 9.986858963966369629e-01 3.040679730474948883e-02
-8.699210000000000553e-01 -3.306410000000000182e-01 -2.914660000000000029e-01 -1.757913380861282349e-01 4.637863337993621826e-01 -8.683315515518188477e-01
1.759080000000000088e-01 7.425629999999999731e-02 3.594180000000000152e-01 -1.413947492837905884e-01 -2.095528393983840942e-01 9.675200581550598145e-01
-6.316619999999999457e-01 1.173680000000000001e-01 -9.596119999999999867e-04 -4.353634417057037354e-01 8.809096813201904297e-01 1.856254786252975464e-01
5.402679999999999982e-02 3.864620000000000277e-01 2.813759999999999872e-02 -4.007233679294586182e-01 4.337509274482727051e-01 -8.070197701454162598e-01
5.599480000000000013e-01 4.599579999999999780e-01 2.655159999999999743e-01 3.954597711563110352e-01 6.300379037857055664e-01 6.683291196823120117e-01
8.656279999999999530e-01 5.226520000000000055e-01 -6.901519999999999877e-02 2.576272785663604736e-01 -8.616803884506225586e-01 -4.371900558471679688e-01
-3.607719999999999816e-01 2.254500000000000115e-01 3.861479999999999774e-02 -4.458159208297729492e-01 8.920647501945495605e-01 7.395052909851074219e-02
-8.142770000000000286e-01 -3.881740000000000190e-01 -2.714260000000000006e-01 7.862088680267333984e-01 -6.176163554191589355e-01 2.063172496855258942e-02
-8.808890000000000331e-01 -2.418480000000000074e-01 2.559529999999999861e-01 -4.041826128959655762e-01 5.897965431213378906e-01 6.991254687309265137e-01
8.383920000000000261e-01 6.496269999999999545e-01 2.079120000000000135e-01 3.010448515415191650e-01 2.943381965160369873e-01 9.070484638214111328e-01
6.474659999999999860e-01 4.934709999999999930e-01 2.332190000000000096e-01 3.294688463211059570e-01 3.074814975261688232e-01 8.926955461502075195e-01
2.610279999999999823e-01 3.520010000000000083e-01 -2.582110000000000238e-01 -2.037796974182128906e-01 4.848306179046630859e-01 -8.505369424819946289e-01
-5.649239999999999817e-01 8.855459999999999721e-02 2.324519999999999920e-01 -3.089225888252258301e-01 6.740097403526306152e-01 6.710273027420043945e-01
-9.826660000000000394e-01 -2.942830000000000168e-01 4.336360000000000214e-02 -4.424649178981781006e-01 -8.572101593017578125e-01 -2.634683549404144287e-01
1.093900000000000011e-01 4.205690000000000262e-01 2.788739999999999969e-02 -4.124881625175476074e-01 6.223366260528564453e-01 -6.652448177337646484e-01
-8.000070000000000237e-01 -3.580150000000000277e-01 2.363770000000000038e-01 5.100940465927124023e-01 -8.349438905715942383e-01 -2.065742313861846924e-01
5.536699999999999955e-01 5.689469999999999805e-01 -1.887780000000000014e-01 -1.177713200449943542e-01 4.413577616214752197e-01 -8.895691037178039551e-01
7.061009999999999787e-01 2.742260000000000253e-01 -3.781849999999999795e-02 9.579348564147949219e-01 -4.349845275282859802e-02 -2.836700081825256348e-01
-5.228500000000000369e-01 5.761399999999999855e-02 -2.360609999999999931e-01 -1.870456188917160034e-01 6.294026970863342285e-01 -7.542321085929870605e-01
3.945330000000000226e-01 -9.145699999999999663e-02 3.657590000000000008e-01 -3.956727087497711182e-01 4.052058160305023193e-01 8.241671323776245117e-01
4.033379999999999743e-01 4.324140000000000206e-01 -2.302829999999999877e-01 -2.204887419939041138e-01 1.295073032379150391e-01 -9.667536020278930664e-01
-9.356789999999999552e-02 -3.816169999999999979e-02 -2.665529999999999844e-01 -1.295670419931411743e-01 -4.947233498096466064e-01 -8.593376278877258301e-01
8.082780000000000520e-01 4.955879999999999730e-01 3.832429999999999864e-02 6.124446988105773926e-01 -7.811092734336853027e-01 -1.215716078877449036e-01
3.354369999999999852e-01 -1.848080000000000001e-01 1.102000000000000028e-02 5.747706294059753418e-01 -8.140495419502258301e-01 8.343855291604995728e-02
7.064279999999999449e-01 5.760340000000000460e-01 2.391840000000000077e-01 2.447135448455810547e-01 -1.718001626431941986e-02 9.694432020187377930e-01
-1.020780000000000021e+00 -4.187649999999999983e-01 3.104560000000000097e-01 -9.105144143104553223e-01 -3.915388882160186768e-01 -1.328934133052825928e-01
6.980340000000000433e-01 2.810849999999999738e-01 -6.567330000000000390e-02 9.037768244743347168e-01 -4.240572825074195862e-02 -4.258981347084045410e-01
5.245459999999999567e-01 -1.113640000000000047e-01 3.374219999999999997e-01 8.841619491577148438e-01 2.616591751575469971e-01 3.870298564434051514e-01
2.130890000000000006e-01 5.208909999999999929e-01 3.249169999999999836e-02 -7.702468037605285645e-01 6.371761560440063477e-01 -2.695228159427642822e-02
5.591120000000000534e-01 -5.645730000000000193e-02 -2.383480000000000043e-01 9.500198364257812500e-01 6.969688087701797485e-02 -3.043101131916046143e-01
-3.528019999999999767e-02 -2.339549999999999963e-01 -1.220170000000000005e-01 5.440426990389823914e-02 -8.056977391242980957e-01 -5.898232460021972656e-01
1.883469999999999867e-01 -2.583989999999999898e-01 -4.841120000000000162e-05 3.702017068862915039e-01 -9.288120865821838379e-01 1.609005965292453766e-02
-9.068779999999999619e-01 -5.292499999999999982e-01 -4.128709999999999880e-01 2.534823715686798096e-01 -7.627858519554138184e-01 -5.948988199234008789e-01
8.921810000000000018e-01 6.528840000000000199e-01 -7.432709999999999317e-02 4.345272183418273926e-01 3.974178731441497803e-01 -8.082358241081237793e-01
-8.243420000000000192e-01 -3.403030000000000221e-01 1.859540000000000082e-01 6.902947276830673218e-02 -8.835714459419250488e-01 -4.631807506084442139e-01
5.092109999999999692e-01 -1.173259999999999997e-01 -1.612329999999999874e-01 5.619982481002807617e-01 -7.187153697013854980e-01 4.093973636627197266e-01
5.254229999999999734e-01 -1.307260000000000089e-01 3.523089999999999833e-01 8.904868960380554199e-01 2.723551392555236816e-01 3.644937276840209961e-01
8.950280000000000458e-01 5.449180000000000135e-01 -9.144499999999999851e-03 5.609140396118164062e-01 -7.785105705261230469e-01 -2.815966308116912842e-01
-9.989120000000000221e-01 -2.771830000000000127e-01 4.826980000000000159e-02 -5.315568447113037109e-01 -8.075147271156311035e-01 -2.556704878807067871e-01
-5.412099999999999689e-01 -1.658870000000000067e-01 2.993739999999999735e-01 -3.092240169644355774e-02 -5.469161272048950195e-01 8.366160988807678223e-01
-7.861890000000000545e-02 7.500179999999999347e-02 -3.156220000000000137e-01 -4.273179173469543457e-02 -1.581027954816818237e-01 -9.864975810050964355e-01
3.525809999999999778e-01 -2.432880000000000043e-01 4.582200000000000162e-01 -4.908286333084106445e-01 6.981143355369567871e-01 5.212711691856384277e-01
-6.171900000000000164e-01 -3.366179999999999867e-02 -2.520430000000000170e-01 -4.479737281799316406e-01 3.999049067497253418e-01 -7.996221184730529785e-01
2.650089999999999946e-01 -3.204089999999999994e-01 -4.827500000000000124e-01 -4.976854622364044189e-01 8.285640478134155273e-01 -2.564970850944519043e-01
4.179599999999999982e-01 -3.777750000000000274e-01 6.052370000000000250e-01 8.668684959411621094e-01 -9.647528640925884247e-03 4.984434843063354492e-01
-5.283780000000000143e-01 1.587600000000000122e-01 5.022460000000000119e-02 -2.529015243053436279e-01 9.661130309104919434e-01 5.163672938942909241e-02
2.449709999999999943e-01 -2.543210000000000193e-01 -2.803340000000000276e-01 -8.733934164047241211e-01 2.277801334857940674e-01 4.304650127887725830e-01
2.028409999999999935e-02 -2.925650000000000195e-01 3.218959999999999877e-02 2.262896001338958740e-01 -9.681998491287231445e-01 1.066863238811492920e-01
-1.652590000000000005e-03 -8.911290000000000530e-03 3.323909999999999920e-01 -2.205485850572586060e-01 -3.366202414035797119e-01 9.154480695724487305e-01
-3.299889999999999768e-01 -1.054319999999999979e-01 2.990689999999999737e-01 1.146688461303710938e-01 -3.312885761260986328e-01 9.365356564521789551e-01
-6.245720000000000161e-01 1.878729999999999983e-02 -2.132400000000000129e-01 -4.762531220912933350e-01 5.900962352752685547e-01 -6.518967151641845703e-01
8.994240000000000013e-01 5.513590000000000435e-01 6.651509999999999367e-02 7.061614990234375000e-01 -6.845757961273193359e-01 1.808090656995773315e-01
-8.902600000000000513e-01 -4.654929999999999901e-01 -3.072590000000000043e-01 1.512746214866638184e-01 -7.036585211753845215e-01 6.942483782768249512e-01
5.256180000000000296e-01 -2.837189999999999990e-01 -3.595220000000000082e-01 6.378576159477233887e-01 -6.347774863243103027e-01 4.361137747764587402e-01
8.453239999999999643e-01 5.337169999999999970e-01 1.264570000000000138e-01 3.187991082668304443e-01 -9.237366914749145508e-01 2.123148888349533081e-01
2.244909999999999961e-01 -1.916599999999999970e-01 -2.244309999999999916e-01 -5.875555276870727539e-01 -5.708148479461669922e-01 -5.735406279563903809e-01
3.266930000000000112e-01 -3.597549999999999915e-01 4.124610000000000221e-01 3.523805439472198486e-01 -6.771244406700134277e-01 -6.460111737251281738e-01
3.528149999999999897e-01 -4.264379999999999837e-01 6.373630000000000129e-01 2.566407918930053711e-01 -4.751785695552825928e-01 8.416299223899841309e-01
-1.329649999999999999e-01 1.241359999999999963e-01 -2.661069999999999824e-01 -8.297265768051147461e-01 2.350471168756484985e-01 -5.062673091888427734e-01
4.423190000000000177e-01 -2.932569999999999899e-01 -3.436029999999999918e-01 2.547476887702941895e-01 -7.549273371696472168e-01 6.043081283569335938e-01
-3.575650000000000217e-01 -1.109139999999999987e-01 2.963239999999999763e-01 2.002214789390563965e-01 -3.033406138420104980e-01 9.316092729568481445e-01
2.008790000000000020e-01 4.976300000000000168e-01 3.374989999999999934e-02 -9.400007724761962891e-01 3.341124057769775391e-01 -6.904735416173934937e-02
3.038239999999999830e-01 4.629539999999999766e-01 2.741210000000000035e-01 -6.864342093467712402e-01 3.965545892715454102e-01 6.095510721206665039e-01
-1.007759999999999989e+00 -3.174989999999999757e-01 -2.042090000000000016e-01 -9.940792322158813477e-01 8.459331840276718140e-02 -6.819396466016769409e-02
-6.827960000000000106e-03 4.012100000000000111e-01 6.962870000000000170e-02 -5.501450300216674805e-01 6.960263252258300781e-01 -4.613976180553436279e-01
2.612519999999999842e-01 -1.109440000000000009e-01 3.178050000000000042e-01 -3.602492809295654297e-01 -2.123292088508605957e-01 9.083703160285949707e-01
3.575059999999999905e-01 -3.546420000000000128e-02 -2.926329999999999765e-01 -4.611028730869293213e-02 1.859992295503616333e-01 -9.814673662185668945e-01
4.946130000000000249e-01 -9.115950000000000442e-02 1.165180000000000035e-02 4.959869086742401123e-01 -8.672100305557250977e-01 4.408677294850349426e-02
-5.158970000000000500e-01 -2.974629999999999774e-01 -8.716200000000000336e-03 1.691487133502960205e-01 -9.832988381385803223e-01 -6.717120110988616943e-02
4.025079999999999769e-01 -1.454969999999999875e-01 1.788109999999999977e-01 5.387338399887084961e-01 -6.191771030426025391e-01 -5.713015794754028320e-01
3.679540000000000033e-01 3.089870000000000116e-01 3.388869999999999938e-01 3.586856648325920105e-02 2.984324693679809570e-01 9.537565112113952637e-01
-8.643239999999999812e-01 -4.593470000000000053e-01 3.569280000000000230e-01 8.201022744178771973e-01 -2.480676323175430298e-01 5.156498551368713379e-01
6.186380000000000212e-01 2.700359999999999913e-02 1.006370000000000008e-02 9.666530489921569824e-01 -2.208327054977416992e-01 -1.296712309122085571e-01
-3.100010000000000265e-01 -2.964370000000000061e-01 1.784099999999999922e-02 2.337695211172103882e-01 -9.717653989791870117e-01 3.199547901749610901e-02
4.771500000000000186e-01 4.555339999999999945e-01 -2.553440000000000154e-01 -3.328307569026947021e-01 4.685765504837036133e-01 -8.183274269104003906e-01
-1.427130000000000065e-01 2.390869999999999940e-01 2.533329999999999749e-01 -3.818672895431518555e-01 8.488626480102539062e-01 3.655264079570770264e-01
-1.000860000000000083e+00 -1.780440000000000078e-01 6.253499999999999337e-02 -7.053982019424438477e-01 7.088050842285156250e-01 2.960978075861930847e-03
3.556770000000000209e-01 -2.111220000000000041e-01 -3.792059999999999875e-01 -4.289323687553405762e-01 7.319708466529846191e-01 -5.293729305267333984e-01
-2.787859999999999783e-01 -2.975090000000000234e-01 2.379830000000000140e-02 1.808500289916992188e-01 -9.833523631095886230e-01 1.764452084898948669e-02
8.065799999999999637e-01 5.144739999999999869e-01 1.553869999999999973e-01 2.793601453304290771e-01 -8.018935322761535645e-01 5.281331539154052734e-01
-9.449130000000000029e-01 -3.041590000000000127e-01 1.340749999999999997e-01 -3.656067252159118652e-01 -9.144504070281982422e-01 -1.735287010669708252e-01
-8.563070000000000404e-01 -2.402880000000000016e-01 2.636990000000000167e-01 -3.962559998035430908e-01 5.571855306625366211e-01 7.297433614730834961e-01
-1.272649999999999892e-01 2.073349999999999915e-01 -2.839360000000000217e-01 -2.082319110631942749e-01 4.669589400291442871e-01 -8.594119548797607422e-01
2.655830000000000135e-01 -3.836760000000000170e-01 3.916859999999999786e-01 2.052990347146987915e-01 -5.898772478103637695e-01 -7.809591293334960938e-01
1.755859999999999921e-01 -3.684760000000000257e-01 -3.679859999999999798e-01 -5.527115464210510254e-01 1.728147864341735840e-01 8.152576088905334473e-01
-2.475719999999999865e-01 1.461169999999999969e-01 -2.740029999999999966e-01 1.736283185891807079e-03 7.550662159919738770e-01 -6.556462645530700684e-01
2.367329999999999990e-01 -1.013349999999999945e-01 -2.604989999999999806e-01 -5.485283732414245605e-01 -2.751066982746124268e-01 -7.895776629447937012e-01
-8.049610000000000376e-01 -3.651400000000000201e-01 -2.539950000000000263e-01 8.060656189918518066e-01 -5.772377848625183105e-01 -1.305940002202987671e-01
7.553109999999999546e-01 5.802819999999999645e-01 -1.177020000000000011e-01 1.936346739530563354e-01 -1.235424503684043884e-01 -9.732640981674194336e-01
-8.633309999999999595e-01 -3.108670000000000044e-01 -2.795540000000000247e-01 -1.841081678867340088e-01 4.602748453617095947e-01 -8.684763908386230469e-01
3.748909999999999743e-01 -1.802499999999999936e-01 -1.749169999999999892e-01 3.300814032554626465e-01 -8.247374296188354492e-01 4.591889083385467529e-01
2.114810000000000023e-01 -3.143369999999999775e-01 -3.254810000000000203e-01 -8.795213699340820312e-01 -7.688938826322555542e-02 4.696064889430999756e-01
7.563920000000000365e-02 2.453160000000000063e-01 -2.861130000000000062e-01 5.026486888527870178e-02 6.416934132575988770e-01 -7.653124332427978516e-01
3.794330000000000203e-01 -3.604620000000000046e-01 -5.870809999999999640e-01 3.106663823127746582e-01 9.434304386377334595e-02 -9.458254575729370117e-01
7.770070000000000032e-01 7.617519999999999847e-01 1.172190000000000037e-01 2.475689500570297241e-01 9.602993726730346680e-01 1.285875290632247925e-01
-6.800289999999999946e-01 -3.038640000000000230e-01 -3.629830000000000122e-03 5.935808643698692322e-02 -9.981430768966674805e-01 -1.367376279085874557e-02
-5.496119999999999894e-01 -5.368850000000000011e-02 3.248010000000000064e-01 -1.341959983110427856e-01 -4.389150068163871765e-03 9.909451603889465332e-01
5.913329999999999975e-01 -2.674070000000000179e-03 1.304529999999999926e-02 9.541960358619689941e-01 -2.924470305442810059e-01 -6.312458217144012451e-02
9.441810000000000480e-01 5.690110000000000445e-01 2.945050000000000098e-02 9.120950102806091309e-01 -3.296743929386138916e-01 2.437160313129425049e-01
4.477090000000000236e-01 4.679099999999999926e-01 -2.430329999999999990e-01 -9.196209162473678589e-02 2.821717262268066406e-01 -9.549461603164672852e-01
7.693520000000000358e-01 7.462250000000000272e-01 1.354309999999999958e-01 2.072594910860061646e-01 8.730563521385192871e-01 4.413797855377197266e-01
3.643089999999999939e-01 2.258419999999999872e-01 3.560340000000000171e-01 7.653632014989852905e-02 4.444254562258720398e-02 9.960758090019226074e-01
-2.959330000000000016e-01 2.519669999999999965e-01 3.024019999999999833e-02 -5.154247879981994629e-01 8.552645444869995117e-01 5.347872897982597351e-02
2.820989999999999956e-02 4.287480000000000180e-01 7.326159999999999617e-02 -5.861073136329650879e-01 7.191941142082214355e-01 -3.731461465358734131e-01
-4.213820000000000066e-02 -9.414000000000000146e-02 -2.347059999999999980e-01 2.335402183234691620e-02 -5.904390811920166016e-01 -8.067442774772644043e-01
4.874229999999999952e-01 -1.283140000000000114e-01 -1.642589999999999884e-01 4.668995738029479980e-01 -7.591444849967956543e-01 4.535465240478515625e-01
3.024270000000000014e-01 9.496780000000000499e-02 -2.824729999999999741e-01 4.753953218460083008e-02 1.389179825782775879e-01 -9.891621470451354980e-01
-1.580310000000000048e-01 2.815139999999999865e-01 4.169370000000000021e-02 -4.242320358753204346e-01 9.046732783317565918e-01 -3.991982713341712952e-02
-9.834659999999999513e-01 -4.245129999999999737e-01 3.734339999999999882e-01 -5.270310044288635254e-01 8.088504895567893982e-03 8.498075604438781738e-01
-9.916779999999999484e-01 -4.469620000000000259e-01 3.841370000000000062e-01 -4.327768385410308838e-01 1.514120548963546753e-01 8.886948823928833008e-01
6.677199999999999802e-01 5.042759999999999465e-01 2.164609999999999868e-01 4.318176805973052979e-01 1.084771156311035156e-01 8.954139351844787598e-01
-6.559369999999999923e-01 -3.044399999999999884e-01 -3.421140000000000032e-03 -7.125844806432723999e-02 -9.974506497383117676e-01 3.806937951594591141e-03
-4.804699999999999943e-02 -5.524740000000000206e-02 -2.625720000000000276e-01 3.936601057648658752e-02 -4.788503944873809814e-01 -8.770134449005126953e-01
-6.396779999999999688e-01 9.646240000000000370e-02 -4.193870000000000237e-02 -5.462941527366638184e-01 8.221806883811950684e-01 -1.599421948194503784e-01
-1.508740000000000081e-01 2.833319999999999728e-01 1.140560000000000046e-01 -4.805174469947814941e-01 8.697013258934020996e-01 1.127949357032775879e-01
5.260850000000000248e-01 3.984920000000000129e-01 3.489510000000000112e-01 -1.911388635635375977e-01 4.932014644145965576e-01 8.486567139625549316e-01
-9.348800000000000443e-01 -4.758560000000000012e-01 3.150490000000000235e-01 -2.361072227358818054e-02 -7.813346385955810547e-01 -6.236655712127685547e-01
-8.515500000000000291e-01 -5.425050000000000011e-02 6.644790000000000418e-02 -6.545249223709106445e-01 7.465806603431701660e-01 1.192241758108139038e-01
-4.334110000000000046e-02 -2.137010000000000021e-01 -1.455420000000000047e-01 1.623405329883098602e-02 -7.035768628120422363e-01 -7.104337811470031738e-01
-3.469959999999999711e-02 -2.676200000000000245e-01 1.069620000000000015e-01 2.101383954286575317e-01 -8.471675515174865723e-01 4.880051612854003906e-01
8.596409999999999885e-01 5.311120000000000285e-01 -2.571450000000000125e-02 2.999029755592346191e-01 -9.329005479812622070e-01 -1.993860304355621338e-01
5.536750000000000282e-01 -1.927250000000000074e-01 -3.614510000000000223e-01 9.253410696983337402e-01 2.975457012653350830e-01 -2.349690198898315430e-01
2.410390000000000033e-01 5.383949999999999569e-01 -9.352630000000000665e-02 -5.502843260765075684e-01 6.547321081161499023e-01 -5.181822776794433594e-01
4.429049999999999931e-01 -2.660560000000000147e-01 3.238179999999999947e-01 2.984525561332702637e-01 -8.150959610939025879e-01 -4.965326189994812012e-01
7.025150000000000006e-01 3.626690000000000191e-01 6.416209999999999969e-02 9.623212814331054688e-01 2.680909931659698486e-01 4.544055461883544922e-02
-7.039279999999999982e-01 -3.045200000000000129e-01 -7.643839999999999836e-03 5.616916343569755554e-02 -9.976642131805419922e-01 -3.887398168444633484e-02
8.951710000000000500e-01 5.366790000000000171e-01 1.426810000000000023e-01 6.949464678764343262e-01 -5.691353082656860352e-01 4.394706487655639648e-01
9.364609999999999879e-01 6.983179999999999943e-01 8.189219999999999833e-02 5.877749919891357422e-01 6.875511407852172852e-01 4.263731837272644043e-01
-6.055880000000000152e-01 1.056079999999999935e-01 1.650939999999999908e-01 -4.952328801155090332e-01 7.939827442169189453e-01 3.526129722595214844e-01
-9.695209999999999662e-01 -2.897830000000000128e-01 1.385019999999999862e-01 -7.628840804100036621e-01 -6.433705687522888184e-01 6.389180570840835571e-02
2.731049999999999867e-01 5.739880000000000537e-01 2.620789999999999925e-02 -5.029144883155822754e-01 8.141031861305236816e-01 -2.903669774532318115e-01
7.666589999999999794e-01 7.615140000000000242e-01 5.464900000000000313e-02 2.309669256210327148e-01 9.729409217834472656e-01 6.345259491354227066e-03
6.365509999999999780e-01 6.115620000000000500e-01 -1.641440000000000121e-01 4.355166852474212646e-02 5.037361979484558105e-01 -8.627590537071228027e-01
3.535249999999999782e-01 -3.255680000000000240e-01 -3.488260000000000249e-01 2.232881337404251099e-01 -7.161498069763183594e-01 6.612653732299804688e-01
-8.055949999999999500e-01 -1.440980000000000039e-02 6.717109999999999748e-02 -5.420690774917602539e-01 8.291706442832946777e-01 1.365185230970382690e-01
-1.472070000000000045e-01 2.823109999999999786e-01 1.379199999999999871e-01 -4.913739562034606934e-01 8.649075031280517578e-01 1.024040430784225464e-01
1.925340000000000107e-01 -4.642220000000000235e-01 5.573050000000000503e-01 1.644601970911026001e-01 -4.291844964027404785e-01 8.881179094314575195e-01
2.545970000000000177e-01 -2.073530000000000095e-01 2.059989999999999877e-01 -1.314648836851119995e-01 -9.780646562576293945e-01 -1.615748852491378784e-01
3.596119999999999872e-01 -3.180040000000000089e-01 -3.255540000000000100e-01 3.567161262035369873e-01 -6.576539874076843262e-01 6.635094881057739258e-01
5.214619999999999811e-01 -8.537970000000000281e-02 2.036179999999999934e-01 8.199459910392761230e-01 -4.610095024108886719e-01 -3.393505811691284180e-01
-5.428760000000000252e-01 -2.708929999999999949e-01 -1.218719999999999942e-01 6.010073423385620117e-02 -9.494410753250122070e-01 -3.081390261650085449e-01
1.584009999999999863e-01 3.043680000000000274e-01 -2.465620000000000034e-01 -3.598189949989318848e-01 5.637768507003784180e-01 -7.434285879135131836e-01
-1.036599999999999966e+00 -5.672420000000000240e-01 4.194209999999999883e-01 -6.814830303192138672e-01 -5.020654201507568359e-01 5.324578285217285156e-01
3.595920000000000227e-01 -3.165470000000000089e-02 3.564060000000000006e-01 7.409541308879852295e-02 -9.177942574024200439e-02 9.930189251899719238e-01
-5.353890000000000038e-01 -2.104520000000000002e-01 2.681410000000000182e-01 -2.182565443217754364e-02 -6.150963902473449707e-01 7.881497740745544434e-01
3.550740000000000007e-01 4.784140000000000059e-01 3.106559999999999877e-01 -4.369076788425445557e-01 4.535472393035888672e-01 7.767924666404724121e-01
5.154410000000000380e-01 -2.423980000000000024e-01 4.395419999999999883e-01 8.985533118247985840e-01 1.187050566077232361e-01 4.225057959556579590e-01
-8.614730000000000443e-01 -4.653709999999999791e-01 3.091769999999999796e-01 5.702602863311767578e-01 -6.114886999130249023e-01 -5.485296845436096191e-01
2.743260000000000143e-01 6.150029999999999664e-01 7.373090000000000199e-02 -6.509734392166137695e-01 7.483897805213928223e-01 -1.270684450864791870e-01
-9.289880000000000360e-01 -2.804260000000000086e-01 -2.206299999999999928e-01 -1.359182745218276978e-01 9.232913255691528320e-01 -3.592482507228851318e-01
8.205170000000000519e-01 7.480580000000000007e-01 5.229810000000000014e-02 5.415962934494018555e-01 8.394066691398620605e-01 4.549664258956909180e-02
4.485279999999999823e-01 -2.016300000000000037e-01 2.509859999999999869e-01 3.334962427616119385e-01 -7.024270296096801758e-01 -6.287896037101745605e-01
-4.293069999999999942e-01 -2.981219999999999981e-01 1.772980000000000091e-05 1.421608328819274902e-01 -9.887479543685913086e-01 4.655966907739639282e-02
-1.581629999999999980e-01 2.172139999999999904e-01 -1.764670000000000127e-01 -7.659412026405334473e-01 -6.284515857696533203e-01 1.355828940868377686e-01
4.152120000000000255e-01 4.595790000000000153e-01 -2.418700000000000017e-01 -4.299249872565269470e-02 4.000272452831268311e-01 -9.154942631721496582e-01
5.196079999999999588e-01 7.301549999999999985e-01 5.554139999999999772e-02 -2.492031604051589966e-01 9.668812155723571777e-01 5.512198060750961304e-02
-8.684859999999999802e-01 -4.705340000000000078e-01 -3.173670000000000102e-01 5.551480054855346680e-01 -6.667784452438354492e-01 4.972093403339385986e-01
-5.755799999999999805e-01 1.106520000000000004e-01 1.904359999999999942e-01 -3.471157848834991455e-01 7.861375808715820312e-01 5.113690495491027832e-01
7.100009999999999932e-01 2.713550000000000129e-01 1.153290000000000010e-01 9.565718770027160645e-01 -1.214582026004791260e-01 2.649872899055480957e-01
-7.899680000000000035e-01 -3.422569999999999779e-01 -2.348760000000000014e-01 8.285807371139526367e-01 -5.598372817039489746e-01 6.014470942318439484e-03
-1.009589999999999987e+00 -3.641900000000000137e-01 -3.239489999999999870e-01 -5.846573710441589355e-01 7.296941876411437988e-01 -3.545731902122497559e-01
4.124639999999999973e-01 -2.567360000000000197e-01 -2.744699999999999918e-01 2.500437498092651367e-01 -7.687605023384094238e-01 5.886301994323730469e-01
3.497190000000000021e-01 4.052529999999999744e-01 -2.453649999999999998e-01 -8.040259033441543579e-02 3.187586069107055664e-01 -9.444195628166198730e-01
4.859220000000000206e-01 -2.895849999999999813e-01 3.892140000000000044e-01 6.070146560668945312e-01 -7.420606613159179688e-01 -2.843926250934600830e-01
5.092269999999999852e-01 -2.334189999999999876e-01 -4.331829999999999847e-01 4.417732954025268555e-01 4.007249474525451660e-01 -8.026555180549621582e-01
-5.846940000000000470e-01 1.391779999999999962e-01 5.565400000000000208e-02 -4.642560482025146484e-01 8.782075643539428711e-01 1.149683967232704163e-01
-1.229080000000000034e-01 1.626869999999999983e-01 3.449169999999999736e-01 -1.401976644992828369e-01 4.749496877193450928e-01 8.687734007835388184e-01
8.182310000000000416e-01 6.361179999999999612e-01 2.198279999999999956e-01 1.831426024436950684e-01 1.685222834348678589e-01 9.685344696044921875e-01
-7.786629999999999940e-01 1.285780000000000039e-03 6.667270000000000141e-02 -7.161516547203063965e-01 6.851109266281127930e-01 1.332282871007919312e-01
-7.845720000000000471e-01 -3.412600000000000078e-01 2.286269999999999969e-01 5.515009760856628418e-01 -8.335899710655212402e-01 -3.121497482061386108e-02
5.836559999999999526e-01 4.706359999999999988e-01 2.617380000000000262e-01 4.854762554168701172e-01 5.484483838081359863e-01 6.808210015296936035e-01
9.119899999999999674e-01 5.709899999999999975e-01 1.299230000000000107e-01 8.711650371551513672e-01 -3.719716966152191162e-01 3.204817473888397217e-01
-5.735090000000000465e-01 -2.209520000000000095e-01 -2.199419999999999986e-01 -6.835107505321502686e-02 -6.301681399345397949e-01 -7.734444141387939453e-01
-8.614469999999999628e-01 -4.856670000000000154e-01 3.574490000000000167e-01 7.038789987564086914e-01 -6.497263908386230469e-01 2.870714366436004639e-01
6.101410000000000444e-01 5.960910000000000375e-01 -1.709579999999999989e-01 1.471047252416610718e-01 5.406055450439453125e-01 -8.283150792121887207e-01
2.828979999999999828e-01 1.298060000000000047e-01 -2.869820000000000149e-01 6.298291683197021484e-01 -6.474682688713073730e-01 -4.290688335895538330e-01
8.099920000000000453e-01 5.364640000000000519e-01 -5.715909999999999741e-02 -1.214078739285469055e-01 -9.317960143089294434e-01 -3.420766294002532959e-01
-2.387799999999999992e-02 -2.847700000000000231e-01 5.976290000000000074e-02 1.820502877235412598e-01 -9.619017839431762695e-01 2.039672434329986572e-01
2.411530000000000062e-01 -1.260989999999999889e-01 3.120899999999999785e-01 -3.586529791355133057e-01 -2.170360088348388672e-01 9.078895449638366699e-01
-8.708219999999999850e-01 -6.997549999999999604e-02 6.915359999999999563e-02 -6.523838043212890625e-01 7.490904927253723145e-01 1.151472330093383789e-01
5.596050000000000191e-01 -1.774930000000000119e-01 -3.412919999999999843e-01 9.499230980873107910e-01 3.084405660629272461e-01 -5.010608956217765808e-02
9.104449999999999488e-01 6.934460000000000068e-01 -3.020549999999999971e-02 4.665845632553100586e-01 6.620970964431762695e-01 -5.864523053169250488e-01
-8.262739999999999529e-01 -4.101639999999999731e-01 2.719409999999999883e-01 6.625334024429321289e-01 -5.735212564468383789e-01 -4.817913472652435303e-01
1.455899999999999972e-01 3.210959999999999925e-01 -2.308850000000000069e-01 -3.539702892303466797e-01 6.369702816009521484e-01 -6.848166584968566895e-01
5.169010000000000549e-01 5.419410000000000061e-01 -1.981239999999999946e-01 2.504419721662998199e-02 5.977557897567749023e-01 -8.012869358062744141e-01
8.247400000000000286e-01 5.241940000000000488e-01 1.098630000000000023e-01 2.672434747219085693e-01 -9.423817992210388184e-01 2.012400627136230469e-01
6.098780000000000312e-01 -2.123840000000000103e-02 1.103449999999999917e-02 9.721478819847106934e-01 -2.254938781261444092e-01 -6.388209015130996704e-02
-5.466720000000000468e-01 -2.849579999999999891e-01 1.300270000000000072e-02 1.937388330698013306e-01 -9.804105758666992188e-01 3.550231829285621643e-02
-8.803929999999999811e-01 -2.682930000000000037e-01 -2.279100000000000015e-01 -2.298334240913391113e-01 9.142904281616210938e-01 -3.335408568382263184e-01
-4.963139999999999774e-01 6.613579999999999459e-02 -2.435759999999999870e-01 -1.941052526235580444e-01 6.175958514213562012e-01 -7.621670365333557129e-01
-5.798740000000000006e-01 4.247889999999999999e-02 2.705679999999999752e-01 -3.832497298717498779e-01 4.688143134117126465e-01 7.958220243453979492e-01
-7.691949999999999621e-01 -3.279719999999999858e-01 1.953969999999999874e-01 4.398701488971710205e-01 -8.696627020835876465e-01 -2.240557968616485596e-01
-4.890519999999999867e-01 -2.987279999999999935e-01 -7.367119999999999572e-03 -9.383837133646011353e-02 -9.954922795295715332e-01 1.376446709036827087e-02
7.875429999999999930e-01 4.861880000000000090e-01 4.627219999999999944e-02 6.582485437393188477e-01 -7.527712583541870117e-01 -6.659743841737508774e-03
4.472949999999999982e-01 -3.680309999999999970e-01 5.754420000000000091e-01 8.638620376586914062e-01 -1.806602478027343750e-01 4.702171981334686279e-01
1.448109999999999953e-01 -4.071859999999999924e-01 -4.013789999999999858e-01 -4.218206703662872314e-01 2.479970008134841919e-01 8.721037507057189941e-01
-5.291010000000000435e-01 -2.535669999999999868e-01 2.202169999999999961e-01 3.124941326677799225e-02 -9.357110857963562012e-01 3.513804674148559570e-01
6.261889999999999956e-01 7.488679999999999781e-01 6.446620000000000128e-02 -4.069436192512512207e-01 9.067178368568420410e-01 1.107231900095939636e-01
4.647510000000000252e-01 -3.023939999999999961e-01 3.957359999999999767e-01 5.537620186805725098e-01 -7.521766424179077148e-01 -3.571805655956268311e-01
4.132140000000000257e-01 -2.582729999999999748e-01 4.650770000000000182e-01 1.087853536009788513e-01 5.019662380218505859e-01 8.580185174942016602e-01
-1.684289999999999954e-01 2.481760000000000077e-01 -1.224569999999999964e-01 -6.308842301368713379e-01 7.752978205680847168e-01 -2.997148782014846802e-02
1.995730000000000004e-01 5.128169999999999673e-01 1.520620000000000027e-01 -7.377601861953735352e-01 6.627227663993835449e-01 1.284849047660827637e-01
9.479410000000000336e-01 6.361799999999999677e-01 4.734359999999999957e-02 8.756434917449951172e-01 -4.764322340488433838e-01 7.912547141313552856e-02
6.104819999999999691e-01 3.607909999999999728e-01 3.172260000000000080e-01 5.356141328811645508e-01 9.562239050865173340e-02 8.390315175056457520e-01
-7.361929999999999863e-02 -1.490279999999999938e-01 2.369120000000000115e-01 9.735774248838424683e-02 -5.697913765907287598e-01 8.160020709037780762e-01
4.938910000000000244e-01 -9.885030000000000205e-02 1.885830000000000006e-01 7.112855315208435059e-01 -5.472025275230407715e-01 -4.411828517913818359e-01
-1.025679999999999925e+00 -5.081729999999999858e-01 3.573819999999999775e-01 -6.042255759239196777e-01 4.584853649139404297e-01 -6.516921520233154297e-01
9.032130000000000436e-01 5.772770000000000401e-01 6.282719999999999971e-02 7.870016694068908691e-01 -5.861260890960693359e-01 1.925737261772155762e-01
8.638710000000000555e-01 5.143600000000000394e-01 5.951739999999999808e-02 1.679783910512924194e-01 -9.857650995254516602e-01 7.103721611201763153e-03
1.430619999999999947e-01 -4.550390000000000268e-01 -5.391820000000000501e-01 -4.989761412143707275e-01 -4.029881954193115234e-01 -7.672179341316223145e-01
-3.093049999999999966e-02 -2.470930000000000071e-01 -1.024879999999999958e-01 6.593971699476242065e-02 -8.820938467979431152e-01 -4.664358794689178467e-01
-5.377389999999999670e-01 -2.813599999999999990e-01 6.495960000000000623e-02 6.816915422677993774e-02 -9.604274034500122070e-01 2.700596749782562256e-01
7.666260000000000296e-01 4.771960000000000091e-01 5.510459999999999664e-02 7.206603288650512695e-01 -6.875922679901123047e-01 8.868870884180068970e-02
5.258610000000000229e-01 -2.299489999999999867e-01 -4.160849999999999826e-01 5.319253802299499512e-01 4.955184757709503174e-01 -6.866708397865295410e-01
-8.986950000000000216e-01 -5.538459999999999495e-01 4.064969999999999972e-01 8.645739555358886719e-01 -3.580069541931152344e-01 3.526230752468109131e-01
1.857739999999999947e-01 5.215180000000000371e-01 1.047470000000000068e-01 -7.222359180450439453e-01 6.913101077079772949e-01 -2.157962135970592499e-02
6.949020000000000197e-01 7.766150000000000553e-01 6.392340000000000522e-02 -1.257422864437103271e-01 9.858464598655700684e-01 1.108854636549949646e-01
8.649689999999999879e-01 7.262560000000000127e-01 5.267840000000000023e-02 4.134652912616729736e-01 9.047021269798278809e-01 1.027641892433166504e-01
-3.698139999999999761e-01 -3.019450000000000189e-01 9.032039999999999860e-03 2.553879022598266602e-01 -9.650338292121887207e-01 5.904832854866981506e-02
9.429849999999999621e-01 7.062199999999999589e-01 3.702749999999999792e-02 5.925292372703552246e-01 8.049494028091430664e-01 -3.107460029423236847e-02
