ply
format ascii 1.0
element vertex 500
property float x
property float y
property float z
property float nx
property float ny
property float nz
end_header
0.0146021 -0.112856 0.167267 0.049924 -0.00345747 -0.998747 
0.318306 0.441346 -0.0119502 -0.876305 -0.481451 -0.0171422 
-0.199349 -0.803984 0.0203284 -0.13407 0.990971 -0.00104199 
-0.0603922 0.0840494 0.162154 0.0804304 -0.00138915 -0.996759 
0.167361 -0.68531 -0.17695 -0.104896 -1.28461e-17 0.994483 
-0.0509788 -0.0694889 -0.162973 0.0773064 -0.00111528 0.997007 
0.0814831 -0.372981 0.169698 0.0292288 -0.00316685 -0.999568 
-0.152484 0.0310757 0.147293 0.296805 0.00968736 -0.954889 
-0.14954 -0.185757 0.147967 0.280628 0.00124923 -0.959816 
0.175638 -0.787887 -0.175957 -0.160204 -0.0673604 0.984783 
0.269766 0.0857584 -0.0569215 -0.98785 -0.105432 0.114178 
-0.235853 -0.223315 -0.087845 0.872143 -0.00661592 0.489206 
-0.250806 0.13524 -0.023493 0.996209 0.00689245 0.0867195 
0.233028 0.188075 0.155178 -0.712682 -0.034873 -0.70062 
-0.25095 -0.208643 0.0206201 0.996971 -0.0080621 -0.0773535 
0.127361 0.55052 0.167046 -0.295689 -0.488691 -0.820822 
0.320431 -0.616603 -0.0774241 -0.948235 -0.246136 0.200665 
0.212718 -0.38343 0.166214 -0.287507 -0.0708508 -0.955154 
-0.228842 0.546383 -0.156032 0.421222 -0.0494147 0.90561 
-0.301905 0.577212 -0.039319 0.987092 -0.0877341 0.133983 
0.0897235 0.627952 0.119163 -0.525115 -0.636523 -0.564883 
0.00762654 0.161003 0.166931 0.0536263 -0.00120193 -0.99856 
-0.0276834 0.487428 -0.174993 0.014529 0.0955319 0.99532 
0.1244 -0.176124 0.170691 1.21353e-16 1.64654e-17 -1 
0.0691495 0.195731 0.169387 0.0321319 0.0078375 -0.999453 
0.028446 0.158037 -0.167928 0.0420278 0.00242026 0.999114 
-0.23295 -0.388138 -0.0938487 0.851637 -0.0219585 0.523672 
0.0999173 -0.53702 0.172081 0.038936 -0.0971263 -0.99451 
0.285174 -0.144253 0.0288123 -0.998006 -0.00823513 -0.0625767 
-0.311014 -0.776214 0.0369304 0.986115 -0.136557 -0.0944948 
0.291814 -0.810584 -0.134115 -0.662642 0.347522 0.663426 
-0.244171 -0.27722 0.0652728 0.95193 0.0146824 -0.305963 
0.258837 -0.5162 -0.101938 -0.943486 -0.181958 0.276992 
-0.0605396 -0.137355 -0.162078 0.0864142 -0.000995087 0.996259 
0.192996 -0.745134 0.173655 -0.10346 1.26701e-17 -0.994634 
0.195103 0.355655 -0.168461 -0.129002 1.57982e-17 0.991644 
0.0754426 0.935948 0.0603886 -0.814712 0.291282 -0.501397 
-0.000134669 -0.647832 -0.182979 0.00461863 -0.0145713 0.999883 
-0.149517 0.348061 0.148166 0.178085 0.042677 -0.983089 
-0.236646 0.0905451 -0.0866206 0.89742 0.00219808 0.441171 
-0.0727413 -0.41684 -0.160613 0.0930975 -0.00828748 0.995623 
-0.0700984 0.418729 0.16125 0.0654653 0.113553 -0.991373 
0.276793 -0.405555 0.0335425 -0.991094 0.101136 -0.0866269 
-0.251201 -0.0648756 -0.0141482 0.999045 -0.00155186 0.0436586 
0.0243266 0.300842 -0.167738 0.0398715 -0.00192736 0.999203 
-0.134635 -0.310715 0.151396 0.227751 -0.0136811 -0.973623 
0.127146 -0.737346 0.180049 -0.0446372 5.46648e-18 -0.999003 
0.17923 0.0690339 -0.169678 -0.0553617 0.0203071 0.99826 
0.218999 0.146756 -0.165715 -0.526044 -0.071721 0.847428 
0.275731 -0.766501 0.146876 -0.615664 -0.102104 -0.781366 
-0.159287 -0.802439 -0.0427902 -0.0371773 0.990866 -0.129626 
-0.231643 -0.813908 0.0828075 -0.45768 0.84653 0.271875 
-0.250875 -0.561644 0.0482972 0.916216 -0.36607 -0.162913 
0.323702 -0.697344 0.0584667 -0.97987 0.0885901 -0.178904 
-0.134852 0.983422 0.0548995 0.715338 -0.548494 -0.432951 
0.0160944 -0.298873 -0.167321 0.0489545 0.000251749 0.998801 
0.222509 -0.837205 -0.163887 -0.11902 0.890956 0.438215 
0.27596 -0.00843109 0.0752039 -0.989599 -0.0724799 -0.124256 
0.00345011 0.3061 0.166704 0.0607021 -0.00560483 -0.99814 
0.2938 0.42355 0.124471 -0.800815 -0.202906 -0.563493 
0.104758 0.308821 0.170315 0.00620838 -0.00322587 -0.999976 
-0.293593 0.626425 0.0630087 0.958823 -0.102331 -0.264927 
-0.231247 -0.387011 0.096574 0.833723 -0.0268972 -0.551527 
-0.038466 -0.771892 -0.182205 0.311713 -0.358528 0.879939 
-0.126959 -0.536432 0.15297 0.19207 -0.148093 -0.970143 
-0.0237784 0.597371 0.171968 -0.0716784 -0.0947288 -0.992919 
0.25186 -0.274678 0.158304 -0.620794 0.125182 -0.773915 
0.0946161 -0.799245 0.0555438 -0.00799077 0.98485 0.173224 
-0.250976 0.212552 0.0194519 0.992835 0.0676221 -0.0985178 
0.145283 -0.00247936 -0.170815 0.00280313 3.29931e-05 0.999996 
0.066193 -0.650853 -0.182315 -0.0167985 -2.05722e-18 0.999859 
-0.0742364 0.188302 -0.160776 0.0992138 0.00806912 0.995033 
-0.105643 0.712822 -0.164422 -0.0612604 -0.0677152 0.995822 
0.244689 -0.565969 0.162284 -0.499057 -0.11769 -0.85854 
0.211349 0.29107 -0.166553 -0.285639 0.0613343 0.956373 
0.0936031 0.459116 0.177166 -0.0138129 0.0787152 -0.996801 
0.00456881 0.817935 0.082995 -0.760601 -9.31468e-17 -0.64922 
-0.111318 -0.229988 -0.155639 0.161395 -0.00711439 0.986864 
-0.00600868 1.0372 0.103881 0.0814852 -0.268248 -0.959898 
-0.133965 0.45512 0.163875 0.0616491 0.180231 -0.98169 
0.0864915 0.21972 -0.169868 0.0279078 0.010328 0.999557 
0.254674 0.118123 0.112319 -0.943994 -0.0891459 -0.317693 
0.0091341 -0.54083 0.168754 0.025339 -0.165337 -0.985912 
-0.184115 -0.0359479 0.136058 0.451261 -0.00589136 -0.892372 
-0.109983 0.127724 -0.155984 0.155123 0.0054655 0.98788 
-0.00896894 -0.735737 0.182834 0.0442949 -0.0343701 -0.998427 
-0.174537 0.117151 -0.140218 0.383945 0.00584941 0.923337 
-0.241644 -0.720569 0.157009 0.441224 0.00493947 -0.897383 
-0.223064 0.80957 0.110035 0.706094 -0.276846 -0.651757 
-0.23529 -0.45292 0.0894672 0.877111 0.0466213 -0.478019 
-0.0286522 0.864535 0.118126 -0.541847 -0.00148074 -0.840476 
-0.248473 0.0603507 0.0442367 0.986453 0.000415871 -0.164046 
-0.0737167 0.235155 0.160861 0.0948826 0.00615917 -0.995469 
-0.0723081 -0.485978 0.160603 0.119831 0.0038163 -0.992787 
0.215876 0.12436 0.166205 -0.423924 -0.0356519 -0.904996 
-0.170289 0.95377 0.00555945 0.706247 -0.7078 -0.0153361 
-0.139895 -0.802021 0.0891142 -0.0991171 0.932286 0.347878 
0.059433 -0.837331 -0.179649 -0.0162353 0.985545 0.168636 
0.268974 -0.509114 0.0374898 -0.966597 -0.231729 -0.10951 
0.129029 -0.316108 0.170769 1.11937e-16 4.96754e-17 -1 
-0.267208 0.781968 -0.0275471 0.952771 -0.277694 0.122935 
0.271568 -0.481208 -0.0307742 -0.998114 -0.0283826 0.0544351 
0.257019 0.498544 0.0699355 -0.660634 -0.738997 -0.132086 
-0.217701 0.706252 0.144549 0.470793 -0.160518 -0.867518 
0.0264512 -0.158286 -0.167796 0.0479843 -0.00263572 0.998845 
0.088221 0.0839679 -0.169904 0.0223591 0.000759482 0.99975 
-0.0863114 -0.837194 0.176542 -0.0661491 0.978535 -0.195176 
0.172827 -0.802855 0.0782979 0.0942879 0.951886 0.291587 
-0.296226 0.649578 -0.0261592 0.985034 -0.136725 0.104953 
-0.116129 -0.0526651 0.155016 0.165119 0.00892704 -0.986233 
0.164848 0.178149 0.170333 -0.0107897 -0.0351204 -0.999325 
-0.0944694 0.875371 -0.124258 -0.0204951 -0.331077 0.943381 
-0.23561 -0.147501 0.088442 0.880722 -0.00617993 -0.473593 
-0.20018 0.90875 0.0725527 0.675202 -0.595519 -0.43527 
0.307606 0.446834 -0.0873185 -0.774764 -0.54641 0.318082 
-0.0266489 0.865487 -0.117717 -0.309409 -0.127822 0.942299 
0.266259 -0.0284894 -0.117964 -0.928394 0.0118129 0.37141 
-0.0235788 0.725022 -0.136187 -0.525293 -0.190312 0.829366 
0.00563311 -0.245432 0.166805 0.0504159 -0.00292404 -0.998724 
-0.10884 -0.687044 0.180167 0.0891362 0.0396131 -0.995231 
0.0461707 -0.831739 0.133146 -0.022261 0.966748 0.254761 
0.108345 0.627436 -0.097552 -0.624537 -0.655156 0.425118 
0.247391 -0.817406 0.0657621 0.364014 0.897775 0.247978 
0.0994192 0.15448 -0.170186 0.0392488 0.00151379 0.999228 
0.0133703 -0.0910017 -0.16721 0.0526211 -0.00237098 0.998612 
-0.17242 0.106385 0.141016 0.391247 -0.0105262 -0.920225 
0.0782284 -0.327149 -0.169614 0.030395 -0.00414804 0.999529 
0.0416805 0.76694 0.0485386 -0.906489 -0.207614 -0.36766 
-0.17012 0.866962 0.126974 0.424466 -0.38909 -0.81758 
0.23849 0.524683 0.00950579 -0.717225 -0.696246 -0.0288091 
-0.297819 -0.836855 -0.0730708 0.592988 0.798772 0.10163 
0.0930877 -0.191146 -0.170002 0.00854919 -0.00099407 0.999963 
0.260152 0.282131 0.149225 -0.602666 0.323385 -0.729531 
0.0302087 0.881984 -0.0875689 -0.650388 0.158053 0.742977 
-0.246529 -0.0722379 0.0549253 0.971145 0.00290233 -0.238471 
0.25971 0.173499 0.0639636 -0.969159 -0.202641 -0.140242 
0.219365 -0.730405 -0.168971 -0.177995 -0.0393069 0.983246 
-0.275874 0.407235 -0.134547 0.576203 0.222369 0.786475 
0.320157 0.386767 0.0712807 -0.967541 -0.122898 -0.22082 
-0.236487 -0.0112068 0.0866301 0.890341 0.0115477 -0.455148 
0.323666 -0.686406 -0.0584612 -0.981448 0.0719196 0.177728 
-0.0631222 -0.16022 0.161843 0.0919623 -0.00292916 -0.995758 
-0.179973 -0.370326 -0.137773 0.431517 -0.00292187 0.9021 
0.323557 0.313423 0.0592834 -0.92662 0.361089 -0.104829 
0.317679 -0.757827 0.0878948 -0.952637 -0.193694 -0.234446 
0.0985494 -0.624074 0.181254 -0.0396777 -0.0299985 -0.998762 
-0.0460624 -0.269424 -0.163374 0.0808724 0.000345423 0.996724 
-0.218804 -0.810295 0.165268 0.361665 0.33771 -0.868994 
0.159727 0.452076 0.172933 -0.0694584 0.0607974 -0.99573 
-0.257499 0.754138 0.0892431 0.847127 -0.257227 -0.464983 
0.211319 -0.383641 -0.166386 -0.26571 -0.0062682 0.964033 
-0.0173785 1.12474 0.044229 0.566488 -0.739519 -0.363596 
0.245673 -0.451477 -0.154279 -0.726172 0.04548 0.686007 
-0.239588 -0.094451 -0.0793256 0.917622 0.00482241 0.397426 
-0.186381 -0.15386 -0.135054 0.490148 -0.00479952 0.871626 
0.136803 -0.36407 -0.17077 0.00124778 0.000269258 0.999999 
0.0721267 0.894148 -0.0321282 -0.899465 0.352176 0.258719 
0.142193 -0.532164 -0.172387 -0.0206764 -0.0750914 0.996962 
-0.285448 0.327472 0.0731155 0.758483 0.506268 -0.410361 
-0.0883288 -0.79934 0.03985 -0.0255174 0.99801 -0.0576706 
-0.18271 0.770483 0.147438 0.362312 -0.164332 -0.917456 
0.265545 -0.383747 0.106386 -0.954305 0.0212672 -0.298078 
0.0320986 1.14591 -0.0421916 -0.170751 -0.963049 0.208281 
0.285593 -0.316567 0.0022413 -0.999275 0.038016 -0.00201646 
-0.294856 -0.779562 -0.107479 0.883099 -0.0601929 0.46531 
0.0266804 0.788422 -0.0886729 -0.876102 0.0388235 0.480561 
-0.0158565 -0.796322 0.0249442 -0.0342469 0.998733 -0.0368762 
0.096603 0.66643 -0.0412817 -0.685101 -0.700487 0.199884 
-0.25141 -0.512483 -0.00963339 0.998049 -0.0539925 -0.031348 
-0.196317 0.299809 0.130322 0.4681 0.103255 -0.877622 
-0.0192199 0.106653 -0.165356 0.066335 0.00254691 0.997794 
-0.229011 0.364553 0.133229 0.284716 0.324519 -0.902011 
-0.0875704 -0.79925 -0.0332078 -0.0612859 0.997304 0.040354 
-0.310302 0.434097 -0.0340954 0.996658 -0.0591501 0.0563362 
-0.0301811 -0.468074 -0.164523 0.0950799 0.00772302 0.99544 
-0.0239888 0.801497 -0.134874 -0.443184 -0.156423 0.882678 
-0.0761942 0.955331 -0.113343 0.289968 -0.205998 0.934603 
0.31679 -0.62844 0.0911789 -0.909427 -0.164353 -0.382009 
-0.134273 -0.074203 -0.151555 0.227886 -0.00379633 0.97368 
-0.00744976 0.372849 -0.166103 0.0437108 -0.00112537 0.999044 
-0.183079 0.410514 0.150925 0.0464318 0.201396 -0.978409 
-0.205007 -0.312952 0.123978 0.608102 -0.0022555 -0.793856 
0.269089 0.1111 0.0413768 -0.992312 -0.0620547 -0.107078 
0.139309 -0.0692485 -0.170778 0.00557445 -0.000410378 0.999984 
-0.193837 0.443582 -0.160378 0.0883433 0.189187 0.977959 
-0.301963 0.559257 0.0503103 0.978792 -0.0889271 -0.184549 
0.238436 -0.828378 -0.0968234 0.202586 0.953771 -0.221992 
-0.0935229 0.473278 -0.168736 0.0345779 0.17499 0.983963 
-0.0691774 -0.541017 -0.160956 0.12592 -0.179248 0.975712 
0.257106 -0.198843 -0.151219 -0.742438 9.09224e-17 0.669915 
-0.22921 0.641004 -0.148061 0.463568 -0.108015 0.879453 
-0.209556 0.0245434 -0.120814 0.630579 0.00485783 0.77611 
0.159141 -0.454503 -0.170426 0.00297877 0.00396585 0.999988 
0.246236 -0.0419763 0.159805 -0.587146 0.0225393 -0.809168 
-0.0756846 0.486157 0.172451 0.0390304 0.113863 -0.992729 
0.027174 0.721429 -0.0867942 -0.817551 -0.29144 0.496662 
0.148664 -0.238888 0.170704 0.0105647 -0.00625669 -0.999925 
0.186168 -0.484975 0.169152 -0.079407 0.0101094 -0.996791 
0.0646267 0.98058 -0.0870372 -0.604959 0.135361 0.784666 
0.278445 -0.315741 -0.0702251 -0.987197 0.0301473 0.156631 
0.256157 0.135036 -0.100372 -0.960761 -0.162534 0.224768 
-0.153012 -0.837536 0.176328 0.112962 0.917713 -0.380845 
0.0664715 -0.215472 0.169274 0.0361718 0.00256129 -0.999342 
0.247569 0.234731 0.10391 -0.940894 0.309499 -0.137582 
-0.162371 -0.440392 -0.144335 0.3354 0.0192388 0.941879 
-0.312221 0.375894 0.00845261 0.992606 0.117944 -0.028684 
-0.308724 -0.837218 -0.00362324 0.558452 0.826382 0.0722753 
0.196737 -0.803133 0.00875031 0.163683 0.98429 -0.0661882 
0.247552 0.237767 -0.113258 -0.825832 0.366472 0.428603 
0.147493 -0.404093 0.170671 0.00901002 0.00337511 -0.999954 
0.175508 0.566643 0.0940661 -0.642132 -0.709205 -0.291026 
-0.248427 0.128026 0.0445962 0.984531 -0.000778284 -0.175211 
-0.0547751 0.275191 -0.162728 0.0867155 0.00913457 0.996191 
0.00270723 -0.220867 -0.166654 0.0562967 -0.00471016 0.998403 
-0.253768 0.724094 -0.109316 0.777623 -0.219208 0.589279 
0.286409 -0.562461 0.0900055 -0.83824 -0.46903 -0.278144 
-0.235566 0.176972 0.0884872 0.886479 -0.00939049 -0.462674 
0.0489713 1.09629 -0.0871799 -0.274395 -0.342717 0.898473 
-0.0588603 1.07219 0.060309 0.599818 -0.5724 -0.559085 
-0.0282333 0.604855 -0.171588 -0.0540656 -0.09668 0.993846 
-0.0245359 -0.837253 -0.182299 0.166529 0.975393 0.144487 
0.274791 0.485249 -0.0398224 -0.680567 -0.728285 0.0801804 
0.00717246 0.0941642 0.166907 0.053553 0.00360865 -0.998558 
0.3184 -0.837461 -0.0793317 -0.500954 0.843445 0.194025 
-0.150926 0.00836407 -0.147658 0.280884 0.000627349 0.959742 
-0.167044 0.658202 -0.164853 0.158545 -0.0614314 0.985439 
0.203453 -0.505678 -0.167399 -0.228746 0.0332935 0.972917 
0.0517927 1.13206 0.0750129 -0.198834 -0.732104 -0.651528 
0.0749933 0.385743 -0.169569 0.059078 0.0106446 0.998197 
0.0430886 -0.796837 -0.0295456 0.00225362 0.999738 0.0227881 
0.193499 0.279992 0.168474 -0.113554 0.0316755 -0.993027 
0.0895978 0.593608 -0.153191 -0.385477 -0.514231 0.766142 
-0.310623 0.486037 0.0112353 0.99913 -0.0235723 -0.0344014 
-0.00570751 0.0238877 0.16619 0.0579384 0.000401182 -0.99832 
-0.0945529 0.778174 -0.158092 -0.133734 -0.168355 0.976613 
0.301356 0.342269 0.12295 -0.784805 -9.61109e-17 -0.619743 
0.251216 0.480849 0.14107 -0.613374 -0.549291 -0.567495 
0.000304911 0.662989 -0.153862 -0.353804 -0.387487 0.851279 
0.0625707 0.996873 0.0912036 -0.550464 0.065043 -0.832321 
0.00692007 0.228785 0.166894 0.054851 0.0065015 -0.998473 
0.164693 0.602437 0.00308944 -0.726458 -0.686924 -0.0198555 
-0.0771405 0.408792 -0.160424 0.124531 0.0798375 0.988998 
-0.171457 0.172995 0.141384 0.389283 0.0316763 -0.920574 
0.0401548 -0.0204248 -0.168372 0.0455714 -0.000338068 0.998961 
0.283222 -0.0181218 0.0058415 -0.997152 -0.0706878 -0.0262776 
-0.242309 0.272522 0.072051 0.82789 0.314149 -0.464659 
-0.2507 0.0586589 -0.0250869 0.995717 0.00795512 0.0921073 
0.257006 0.238248 0.0318561 -0.916668 0.379493 -0.125315 
0.0331534 0.878228 0.0832668 -0.659631 0.33921 -0.670689 
0.327233 0.371078 0.00513832 -0.998616 -0.000731227 -0.0525907 
0.287119 -0.592403 -0.13884 -0.721331 -0.252217 0.645033 
-0.0789903 0.638707 0.169642 -0.0221059 -0.0917218 -0.995539 
-0.198065 -0.607121 0.157323 0.273586 -0.342655 -0.898743 
-0.306609 -0.715261 0.070305 0.976016 0.0203077 -0.21675 
-0.23482 -0.773028 -0.159663 0.437356 -0.0888433 0.894889 
0.233718 -0.131262 -0.162588 -0.447989 -0.0441334 0.892949 
-0.0763886 -0.803925 0.111368 -0.0660036 0.901109 0.42854 
-0.107134 -0.477681 -0.156075 0.155073 0.0409916 0.987052 
-0.231341 0.19002 -0.0963478 0.85208 -0.0130809 0.523248 
-0.0186025 -0.837307 0.179445 0.00162422 0.952593 -0.304245 
-0.0873481 0.843606 0.153566 -0.182524 -0.242481 -0.952831 
-0.17056 0.581175 -0.16892 0.140908 -0.0804787 0.986746 
-0.257029 0.303081 -0.0791977 0.723933 0.412588 0.552894 
0.235903 0.0138423 -0.162355 -0.523477 -0.00684391 0.852013 
-0.109464 -0.60139 -0.174348 0.106118 -0.223672 0.96887 
0.173123 -0.168283 -0.169895 -0.0212414 0.0319736 0.999263 
-0.244983 -0.161921 -0.0622468 0.957637 -0.0114259 0.28775 
-0.29705 0.386974 0.102513 0.835113 0.209755 -0.508516 
-0.147686 -0.837432 -0.175691 -0.082681 0.992794 0.0867376 
-0.236998 -0.0284497 -0.0858217 0.892039 0.0122186 0.451794 
0.0871151 -0.800056 -0.105082 0.00465831 0.926867 -0.375362 
0.289988 -0.558505 -0.0457563 -0.849803 -0.504518 0.152634 
-0.118359 0.251716 -0.154728 0.178755 -0.00754678 0.983865 
0.0795083 0.0158039 0.16968 0.0268879 -0.000875453 -0.999638 
-0.0536337 -0.000364639 -0.162763 0.0796658 0.0011419 0.996821 
0.280815 -0.0788936 0.0572431 -0.989884 -0.0261389 -0.139452 
0.26968 0.406042 -0.147039 -0.527462 -0.114097 0.841882 
0.174528 -0.0893392 0.169885 -0.0507222 0.0288072 -0.998297 
0.0235161 1.02996 -0.104542 -0.174653 -0.139811 0.974653 
0.265088 -0.454994 0.0880152 -0.988277 0.0969606 -0.117932 
-0.25094 -0.00391118 0.0201325 0.997718 0.00272803 -0.0674597 
0.185648 0.517681 0.160555 -0.420935 -0.497229 -0.758668 
-0.293691 0.318318 -0.0216134 0.887393 0.443514 0.12581 
-0.0753272 0.0641212 -0.160572 0.104515 -0.00448954 0.994513 
0.181191 -0.83747 0.174044 0.123251 0.929539 -0.347515 
0.0772249 0.685571 0.0445244 -0.76031 -0.608523 -0.227221 
0.0108241 -0.0407017 0.167093 0.0515204 0.000837926 -0.998672 
-0.227427 -0.221287 0.102243 0.804749 0.00849006 -0.593555 
0.268887 -0.144095 0.115938 -0.918077 -0.0690579 -0.390341 
-0.1483 0.38861 -0.148462 0.0798177 0.14215 0.986622 
0.124951 1.09056 0.045905 -0.834766 -0.295119 -0.464835 
0.202965 -0.583362 -0.172193 -0.190112 -0.0523035 0.980368 
-0.307796 0.371644 -0.0642679 0.93366 0.262067 0.244133 
-0.199363 0.267527 -0.12798 0.546641 0.0343747 0.836661 
-0.280286 0.738535 0.0215091 0.965689 -0.246162 -0.082764 
0.195736 0.463389 -0.166538 -0.300754 -0.0833612 0.950052 
-0.192462 0.802354 -0.136232 0.486312 -0.219454 0.845778 
0.102232 -0.258724 -0.170211 0.00967674 -0.00693506 0.999929 
0.277425 0.00775432 -0.0578408 -0.990934 -0.0725154 0.1131 
0.192663 -0.163207 0.16869 -0.0869154 -0.0671171 -0.993952 
-0.238767 -0.807195 -0.0378954 -0.355789 0.91778 -0.176332 
-0.187857 -0.681153 0.172113 0.146473 -0.0124556 -0.989136 
0.195459 -0.24541 -0.168383 -0.055099 -0.033472 0.99792 
-0.276155 -0.614189 0.0876078 0.834459 -0.495184 -0.241806 
0.118491 -0.799739 -0.00746936 0.0269104 0.999633 -0.00325336 
-0.197174 -0.104687 0.129078 0.546767 -0.00274362 -0.837281 
0.124998 0.231999 0.170734 1.06595e-16 -6.02919e-17 -1 
-0.311185 -0.767342 -0.0345035 0.996251 -0.0661959 0.0557025 
-0.21343 0.91651 -0.0284427 0.718423 -0.659091 0.222414 
0.246102 0.0798425 -0.148405 -0.724104 -0.0899577 0.683799 
0.162489 -0.564468 0.176648 -0.0511853 -0.0442548 -0.997708 
-0.192399 -0.833436 -0.123951 -0.195548 0.94813 -0.250619 
0.0545825 0.71801 -0.0159262 -0.8696 -0.466101 0.162928 
0.293023 0.2766 -0.0244253 -0.786116 0.616253 -0.047472 
-0.100602 0.582852 -0.172617 0.0202246 -0.0491034 0.998589 
-0.269514 -0.586699 -0.018334 0.885554 -0.464038 -0.0215276 
0.274208 -0.63582 0.147944 -0.587202 -0.033461 -0.808749 
0.214585 0.411794 0.167741 -0.149173 -1.82684e-17 -0.988811 
-0.109434 0.763271 0.160781 -0.0468175 -0.0449664 -0.997891 
0.267199 0.149146 -0.014952 -0.988145 -0.138783 0.0656452 
0.278693 -0.193563 -0.0795465 -0.991169 -0.00346203 0.132562 
-0.00346805 0.218469 -0.166359 0.0586648 0.00460036 0.998267 
0.06506 -0.70661 0.182296 -0.0280576 -3.43606e-18 -0.999606 
-0.179561 0.194295 -0.138192 0.414844 -4.24942e-05 0.909892 
0.131325 1.08889 -0.0339518 -0.834008 -0.371684 0.407777 
-0.167082 0.553363 0.170835 0.112347 -0.0098958 -0.99362 
0.0913798 -0.446852 0.169939 0.0234935 3.25464e-05 -0.999724 
0.257491 0.216514 -0.0492035 -0.974488 0.20204 0.0977376 
-0.173816 0.867217 -0.124805 0.370661 -0.49835 0.783746 
-0.075181 0.313733 0.160693 0.108157 -0.0204957 -0.993922 
0.123372 -0.613917 -0.180214 -0.0416636 -0.0413761 0.998275 
0.300972 -0.699263 0.122206 -0.809775 -9.91688e-17 -0.586741 
0.0392514 0.553297 0.173104 -0.0339082 -0.156413 -0.98711 
0.265487 -0.440243 -0.0907519 -0.982283 0.0776718 0.170553 
-0.0471483 1.02912 -0.0971939 0.35241 -0.391728 0.849916 
-0.28487 0.56384 -0.105187 0.868823 -0.080051 0.488609 
-0.229712 0.615789 0.151054 0.457754 -0.111484 -0.882061 
-0.223159 0.858911 -0.0790191 0.783579 -0.4056 0.47063 
0.0255025 0.0482047 -0.167794 0.0458478 0.00144483 0.998947 
0.306966 0.451282 0.0546529 -0.835542 -0.528736 -0.149358 
-0.061658 -0.557352 0.166741 0.112461 -0.220247 -0.96894 
-0.131222 -0.118331 0.152158 0.204291 -0.0031149 -0.978905 
0.0792311 1.11871 0.00380766 -0.429617 -0.902972 0.00846382 
-0.0799299 -0.416446 0.15972 0.103436 -0.00740648 -0.994609 
-0.282536 0.49583 0.12132 0.801095 -0.12002 -0.586381 
-0.0304849 1.12427 -0.0221188 0.621747 -0.768467 0.151294 
-0.216701 0.506474 0.162368 0.242127 0.00433011 -0.970235 
-0.186519 -0.604591 -0.160201 0.304168 -0.328584 0.894156 
-0.167443 -0.303773 -0.142784 0.362991 -0.0105818 0.931732 
-0.0717881 0.155254 0.16101 0.0857798 0.00449582 -0.996304 
0.286243 -0.222886 -0.0163104 -0.998116 -0.00846803 0.0607664 
-0.269925 -0.719354 -0.141165 0.670428 0.0227842 0.741625 
-0.115325 -0.601482 0.173688 0.131454 -0.229685 -0.964347 
0.0884115 0.103457 0.16991 0.0339486 0.0062486 -0.999404 
-0.0419368 -0.798932 -0.101703 0.0847465 0.949989 -0.300564 
0.171523 0.52516 -0.163528 -0.398206 -0.483 0.779835 
-0.279479 0.632077 -0.100717 0.868711 -0.130502 0.477818 
-0.0673591 -0.769051 0.181547 7.83251e-17 9.41424e-17 -1 
0.167837 0.567383 -0.105762 -0.598661 -0.725945 0.338539 
0.127574 -0.837407 -0.17815 -0.062269 0.956292 0.285706 
-0.249978 -0.362511 -0.0311466 0.991699 -0.0322029 0.124485 
0.0982494 0.955018 -0.0187611 -0.928893 0.338218 0.150884 
-0.1398 -0.663683 -0.178138 0.0604005 -0.00591162 0.998157 
-0.207434 0.229988 0.122222 0.659174 -0.0178572 -0.751779 
0.0233405 0.714139 0.0988892 -0.703812 -0.382706 -0.598485 
0.0630864 -0.289636 0.169162 0.0344631 -0.00496933 -0.999394 
0.24473 -0.452428 0.15665 -0.709731 0.0729093 -0.700689 
0.163728 0.23658 -0.170319 -0.0983384 0.0128456 0.99507 
0.247276 0.0582613 0.150595 -0.755082 -0.117373 -0.645038 
0.278182 -0.298001 0.077818 -0.984053 0.06766 -0.164503 
0.0252339 0.437491 -0.167757 0.0208586 0.0808708 0.996506 
-0.248078 -0.341215 0.0467173 0.980328 -0.0217287 -0.196177 
-2.25132e-05 -0.35717 0.166489 0.0578996 -0.00647279 -0.998301 
-0.257986 -0.837404 -0.14642 0.417531 0.693487 0.587149 
-0.303663 -0.705302 -0.0842945 0.952494 -0.0156874 0.304154 
-0.199766 0.715191 -0.150851 0.373049 -0.134189 0.918057 
-0.241669 0.857404 0.0294171 0.923713 -0.3479 -0.160375 
0.203104 -0.620183 0.172282 -0.16501 0.0310835 -0.985802 
0.291553 0.287972 -0.104758 -0.776712 0.480484 0.407252 
-0.226305 -0.4589 -0.104223 0.767085 0.0228911 0.641137 
0.316626 -0.582986 0.0140218 -0.892628 -0.450759 -0.00556807 
-0.153513 0.505616 -0.174161 0.0609342 0.0997393 0.993146 
-0.250234 -0.291151 -0.0294052 0.994231 0.00905886 0.106875 
-0.2242 0.0694328 0.10648 0.770054 -0.00118719 -0.637977 
-0.220217 -0.537006 0.112269 0.742698 -0.223358 -0.631278 
-0.00464626 -0.474872 0.166202 0.0430991 0.00787641 -0.99904 
0.222035 -0.0582492 -0.165074 -0.365762 -4.47929e-17 0.930709 
0.162323 -0.675421 0.177402 -0.102892 -0.0094582 -0.994648 
-0.312746 -0.708286 -0.00187478 0.999217 0.0353588 -0.0177597 
-0.303619 0.512893 -0.0638641 0.974583 -0.0757793 0.210819 
0.300595 -0.667525 -0.123572 -0.800676 0.0791915 0.59384 
0.11566 0.389847 0.170545 -0.0166006 0.0257506 -0.999531 
-0.254785 -0.594292 -0.104681 0.735972 -0.44361 0.511424 
0.246597 0.499488 -0.10166 -0.669184 -0.673533 0.313921 
-0.0202001 -0.583953 -0.177549 0.0537684 -0.156922 0.986146 
0.141757 0.0638354 0.170862 0.00903614 0.0191857 -0.999775 
-0.263898 0.473822 -0.141306 0.564581 -0.106354 0.818497 
-0.234526 -0.666073 -0.159827 0.45956 -0.187543 0.86812 
0.0204066 -0.71892 -0.182929 0.0105511 -0.0451703 0.998924 
-0.00744458 0.948665 -0.117553 -0.210939 0.0211415 0.97727 
0.281236 -0.737444 -0.14283 -0.639989 -0.0949331 0.762497 
-0.143476 -0.731386 -0.177765 -0.033098 -0.0973402 0.994701 
0.308039 0.362343 -0.111239 -0.819117 0.0752614 0.568668 
0.0893033 -0.115312 0.169917 0.0252065 -0.00565688 -0.999666 
0.314966 -0.837535 0.0940405 -0.501126 0.862192 -0.0741432 
0.0950341 -0.421229 -0.170027 0.0204645 0.000665875 0.99979 
0.317756 -0.750493 -0.0878457 -0.93743 -0.152529 0.312987 
-0.172684 -0.399 0.140752 0.390605 -0.0138235 -0.920454 
0.228932 -0.644427 -0.16663 -0.255262 -3.12605e-17 0.966872 
0.0644689 -0.483448 -0.169191 0.0289746 -0.0176491 0.999424 
-0.21768 -0.538385 -0.114504 0.652726 -0.207853 0.728523 
0.246267 -0.836259 0.160913 -0.325982 0.780893 -0.532863 
-0.133914 0.983579 -0.0565123 0.730859 -0.495108 0.469802 
-0.15094 -0.540114 -0.147471 0.271794 -0.194418 0.942513 
-0.0699211 -0.661477 -0.18173 0.0371191 0.0432481 0.998375 
-0.0739148 -0.3448 -0.160542 0.0908682 0.00488867 0.995851 
-0.0749153 0.0173188 0.160603 0.0969464 0.00813969 -0.995256 
0.133413 0.427313 -0.172727 -0.0101838 0.0315934 0.999449 
0.227828 0.346467 0.164266 -0.21558 2.64009e-17 -0.976486 
-0.108078 -0.243977 0.156075 0.158598 0.00547334 -0.987328 
-0.27194 0.681437 0.0963439 0.855848 -0.163353 -0.490755 
-0.163504 0.63238 0.167072 0.127204 -0.0793136 -0.9887 
-0.251193 -0.139715 0.0146945 0.998206 0.00104313 -0.0598697 
-0.137794 0.262969 0.150925 0.232034 -0.00782858 -0.972676 
0.325194 0.329364 -0.0499263 -0.956661 0.272437 0.102846 
-0.14125 0.701386 0.16421 0.082233 -0.072721 -0.993956 
0.252307 -0.197608 0.158153 -0.622843 -0.130123 -0.77145 
0.123834 -0.823471 0.127382 0.0342624 0.959698 0.278938 
-0.266105 0.562599 0.130757 0.719735 -0.092353 -0.688079 
-0.296983 -0.775721 0.102491 0.911269 -0.131613 -0.390214 
0.0581652 1.06496 0.0910783 -0.302124 -0.08566 -0.949412 
-0.253995 -0.643334 0.150524 0.579208 -0.265235 -0.770823 
0.327599 -0.781923 0.00461665 -0.995698 0.053288 -0.0757987 
0.0424329 0.787697 -0.0220442 -0.9944 0.0294977 0.101479 
-0.139289 -0.770315 0.178151 0.0235086 -0.257802 -0.965912 
-0.100137 0.564396 0.173852 0.026516 -0.0199532 -0.999449 
0.110373 -0.0481575 0.170417 0.0144553 -0.00107294 -0.999895 
0.0035171 -0.798174 0.0946237 0.176852 0.90816 0.379433 
-0.242478 0.793832 -0.0921849 0.810596 -0.291601 0.507841 
0.116872 1.01164 0.02391 -0.9072 0.341869 -0.245181 
0.0139436 0.552694 -0.174059 -0.0586874 -0.0705465 0.995781 
-0.0114452 -0.60254 0.182876 0.0171933 -0.133715 -0.990871 
0.0856379 -0.125125 -0.169829 0.0252543 -0.00210883 0.999679 
0.0220645 -0.810851 -0.118641 -0.0194565 0.880389 -0.473852 
-0.0883463 0.337893 -0.159119 0.150736 -0.0238233 0.988287 
-0.301064 -0.636853 0.0157114 0.912995 -0.40363 -0.0593576 
-0.113883 -0.809631 -0.113385 -0.225516 0.937214 -0.266033 
0.00088837 0.658246 0.156211 -0.340093 -0.349837 -0.872898 
-0.272254 -0.837298 0.134741 0.488075 0.554996 -0.673619 
0.254613 -0.291396 -0.157314 -0.685653 0.0191398 0.727677 
0.287316 -0.834051 -0.00827011 0.108366 0.983166 -0.147112 
-0.120817 1.02681 -0.00204169 0.811591 -0.58422 0.00280008 
-0.0773808 0.650242 -0.168973 -0.0441743 -0.0998378 0.994023 
-0.25692 0.42867 0.148 0.411866 0.145594 -0.899538 
0.280201 -0.221646 0.0743773 -0.991942 1.21478e-16 -0.126695 
0.0477223 -0.775494 0.182618 -0.114379 0.0571848 -0.99179 
0.129627 0.624876 0.0625715 -0.678182 -0.686377 -0.262595 
0.0939019 0.321036 -0.170061 0.0439611 0.000483111 0.999033 
0.252412 -0.510644 0.124798 -0.913577 -0.115206 -0.390006 
-0.308783 0.430264 0.0514297 0.993528 -0.0564623 -0.0985624 
0.172532 0.00281663 0.17002 -0.0250702 -3.07022e-18 -0.999686 
0.276616 0.0523498 0.00752121 -0.995543 -0.0884471 -0.032742 
0.00814866 -0.667374 0.183015 -9.12109e-17 -8.17201e-17 -1 
-0.0538655 -0.0815149 0.162715 0.0893037 0.00159084 -0.996003 
0.00739075 -0.384307 -0.166926 0.0595307 -0.00769798 0.998197 
0.168856 -0.802564 -0.0672188 0.202539 0.967088 -0.154007 
-0.0666787 1.07274 -0.049666 0.65869 -0.589811 0.467173 
0.0471537 0.841348 0.0294806 -0.907099 0.298303 -0.296964 
0.00674908 0.389914 0.166879 0.0848946 0.0268059 -0.996029 
-0.194772 -0.0572407 -0.130446 0.518961 -0.00012421 0.854798 
0.279259 -0.11365 -0.0703469 -0.985582 -0.0127135 0.168718 
0.0635191 -0.770489 -0.182353 -0.100586 -0.190242 0.976571 
0.244046 -0.696696 0.162534 -0.346086 -4.23833e-17 -0.938203 
-0.163827 0.321668 -0.143881 0.264647 0.0195303 0.964148 
0.273705 -0.257 -0.103717 -0.981395 0.000684793 0.191996 
0.0137807 0.46579 0.171855 0.0734578 0.093109 -0.992942 
0.0957796 1.04692 -0.0718453 -0.583383 0.0563016 0.810244 
-0.15985 -0.473079 0.144924 0.312751 0.0225316 -0.949568 
0.196338 -0.31507 0.168224 -0.113061 0.0688059 -0.991203 
-0.050506 -0.289835 0.162985 0.0857298 -0.00164319 -0.996317 
-0.225182 0.358492 -0.131017 0.280676 0.350278 0.893603 
-0.0369272 0.715035 0.148027 -0.407819 -0.217398 -0.886804 
0.00204227 0.958792 0.115735 -0.221753 2.71569e-17 -0.975103 
-0.181469 -0.235652 -0.137141 0.431029 0.001927 0.902336 
0.276499 -0.388019 -0.0496754 -0.987001 0.0937889 0.130511 
0.268131 0.0575896 0.0822903 -0.98508 -0.106414 -0.135251 
-0.248127 0.234906 -0.0453549 0.963008 0.144859 0.227225 
-0.0757042 1.01406 0.0901177 0.476418 -0.411712 -0.776865 
-0.306661 -0.837536 0.068155 0.683194 0.718063 -0.132788 
0.262638 -0.366674 -0.120944 -0.917552 0.105875 0.383262 
0.0477977 -0.548265 -0.172496 0.0100538 -0.118038 0.992958 
0.0896078 0.515775 -0.173198 0.000586353 -0.0813928 0.996682 
-0.0379114 0.795277 0.140687 -0.615485 -0.127117 -0.77783 
-0.10483 0.947932 0.104683 0.347778 -0.426476 -0.834966 
-0.149515 0.922798 -0.0858985 0.45014 -0.556083 0.698674 
-0.178986 -0.249049 0.138173 0.402687 -0.00297582 -0.915333 
-0.231482 -0.313703 -0.0961674 0.845551 0.00146404 0.533892 
-0.28209 0.711329 -0.0482596 0.956788 -0.207761 0.203451 
-0.301067 -0.641304 -0.0555531 0.925745 -0.338983 0.167589 
0.203515 0.555336 -0.0502108 -0.687723 -0.70743 0.16303 
