ply
format ascii 1.0
element vertex 500
property float x
property float y
property float z
property float nx
property float ny
property float nz
end_header
-0.155606 -0.769263 -0.461537 0.0967774 -0.475861 -0.87418 
0.501535 0.535275 -0.202017 0.750283 0.131791 -0.647847 
0.0529289 -0.726698 -0.360998 0.800762 -0.291199 -0.523435 
-0.264447 0.111872 0.337538 -0.805226 -0.152671 0.572976 
-0.545201 -0.414309 -0.138247 -0.934645 0.33728 0.112609 
-0.371428 0.0609002 -0.196965 -0.548984 -0.371919 0.748527 
0.611306 0.589899 -0.0814304 0.840071 -0.286256 -0.460802 
-0.0520687 -0.300141 -0.195044 0.401219 0.909019 -0.112724 
0.3886 0.374193 -0.361094 0.586289 0.0392192 -0.809152 
-0.291518 -0.23774 -0.255485 0.0787692 0.98474 -0.155186 
-0.0779597 -0.397704 0.256262 -0.770228 0.36542 0.522702 
-0.558692 -0.465383 -0.263359 -0.992798 -0.119445 -0.00924801 
-0.465869 -0.792953 0.0158972 -0.831853 -0.470991 0.293577 
0.462591 0.186511 0.454288 0.725487 -0.0505233 0.686379 
-0.158013 -0.950338 -0.0841094 0.0905328 -0.983855 0.154381 
0.489781 0.157334 -0.208985 0.78041 -0.342221 -0.523302 
-0.293 -0.478221 -0.513735 -0.0927932 0.0509422 -0.994381 
-0.568272 -0.271137 -0.308807 -0.850268 0.137209 0.508152 
0.276638 0.315297 0.5243 0.484436 0.554469 0.676672 
-0.511484 0.662371 0.017265 -0.0851532 -0.0427394 0.995451 
-0.25561 0.671898 0.262469 -0.715898 0.598304 0.359891 
0.20527 -0.93666 -0.168331 0.147522 -0.779816 -0.608378 
0.32071 0.681008 0.41653 0.431557 0.564198 0.703875 
-0.200087 -0.525971 0.180736 -0.3028 0.0870696 0.949069 
-0.500814 0.682868 -0.155666 -0.282025 0.548543 -0.787123 
-0.0326894 -0.170615 0.0714367 -0.789851 -0.572391 -0.220236 
0.182523 0.274756 0.630004 0.425282 0.268125 0.864433 
-0.380808 -0.289913 -0.0206561 -0.329043 0.855456 0.399907 
-0.193121 -0.945456 0.238106 0.0248832 -0.961366 0.274145 
-0.201037 -0.0257603 0.287618 -0.670614 -0.68963 0.27329 
0.36167 -0.324504 0.211869 0.936655 0.245772 0.249548 
0.0705829 0.294241 -0.463593 -0.0513795 -0.120259 -0.991412 
-0.101742 0.320134 0.479817 -0.768758 0.0776546 0.634808 
0.479639 0.719184 0.0969745 0.437457 0.522181 0.732092 
-0.0307499 -0.885216 -0.337671 0.209279 -0.583745 -0.784503 
0.24299 -0.0263496 -0.252474 0.270636 -0.791976 -0.547293 
-0.40018 -0.832716 -0.304324 -0.749256 -0.433769 -0.50046 
0.109604 0.54999 -0.433492 0.095952 0.343895 -0.934093 
0.567764 0.176288 0.234746 0.931866 -0.280115 0.230569 
-0.0379137 0.727255 -0.299635 -0.292223 0.72798 -0.620202 
0.388477 -0.0788991 0.0670492 0.708431 -0.699599 -0.0931982 
0.000697465 0.111538 -0.386242 -0.212124 -0.517577 -0.828926 
0.291144 -0.393616 0.363232 0.675523 0.0635567 0.734595 
-0.463493 0.298005 -0.14954 -0.916381 -0.393722 -0.0723085 
-0.266463 0.222982 0.340861 -0.608313 -0.0919776 0.78835 
0.273404 -0.0395392 0.435961 0.389505 -0.796515 0.462438 
0.157698 -0.673143 0.278881 0.458598 -0.557258 0.692207 
0.32662 -0.216203 0.0673321 0.935316 0.0521051 -0.349955 
0.229448 -0.120161 0.333901 0.40247 -0.507933 0.761591 
-0.321531 -0.844974 -0.378354 -0.507984 -0.441583 -0.739565 
-0.55835 -0.516406 -0.0988213 -0.995478 0.0389544 0.0866356 
-0.0229704 -0.119607 0.302262 -0.470582 -0.780929 0.410734 
0.438795 0.987027 0.0885641 -0.301425 0.726517 0.617508 
-0.27731 0.50281 -0.30676 -0.447234 0.273547 -0.85156 
0.184008 -0.94988 -0.0086735 0.0514002 -0.99841 0.0231491 
-0.442074 0.585371 0.0161978 -0.207483 -0.0342406 0.977639 
-0.444071 -0.455769 -0.480852 -0.415983 -0.316546 -0.8525 
-0.446387 0.747393 0.0172575 -0.0649924 0.703464 0.707753 
0.124824 -0.41282 -0.174642 0.615243 0.465756 -0.63604 
-0.274581 -0.576508 -0.511646 -0.211744 -0.140985 -0.967103 
0.31027 0.393896 0.464805 0.427372 0.175268 0.886924 
0.332715 -0.82062 -0.0302028 0.829043 0.48906 0.271124 
-0.0332448 0.0717365 0.575001 -0.27599 -0.491996 0.825693 
-0.504077 0.753348 -0.0776488 -0.0921523 0.928798 -0.358947 
-0.341965 0.300376 0.29184 -0.813612 -0.145029 0.563029 
0.676219 0.891114 0.0316093 0.847501 0.16932 0.503064 
0.591021 0.496627 -0.0525847 0.923142 -0.236264 -0.303295 
0.0749108 -0.346476 0.398693 -0.411272 0.20753 0.887574 
0.0873502 -0.62504 -0.354214 0.936242 -0.0873752 -0.340319 
0.385202 0.112111 -0.296925 0.574473 -0.451147 -0.682969 
0.365251 0.00660095 0.419716 0.541336 -0.697278 0.46985 
-0.270451 -0.943026 -0.0412069 -0.0459986 -0.998066 0.0418256 
-0.42135 -0.270728 -0.156838 -0.466939 0.862454 0.195298 
0.0327763 -0.0587914 -0.218547 -0.130611 -0.842432 -0.522733 
-0.173958 -0.946312 0.138077 0.234577 -0.958465 -0.162227 
0.100307 -0.908334 0.311718 0.767047 -0.325081 0.553138 
0.467805 -0.00968062 0.0673355 0.690479 -0.722382 -0.0374486 
0.107146 -0.949012 0.0969285 0.0988677 -0.993644 0.0538137 
0.0121079 0.500793 -0.445071 -0.152033 0.231178 -0.960959 
0.529271 0.264409 -0.191414 0.862386 -0.132623 -0.488572 
0.288831 0.761796 -0.225956 0.216144 0.691158 -0.689625 
0.251034 -0.591587 0.293497 0.531565 -0.64129 0.553341 
-0.0105822 -0.303608 -0.105107 0.189363 0.972731 -0.133928 
-0.570801 -0.172665 -0.345413 -0.875293 0.244612 0.417166 
-0.0237671 -0.245423 0.153803 -0.975904 0.21693 0.0234909 
0.434299 0.528937 -0.283885 0.682195 0.293701 -0.669589 
0.238167 0.61279 0.486653 0.258569 0.239589 0.935809 
0.304747 -0.369925 -0.0314573 0.713003 0.210896 -0.668692 
-0.0222445 0.00315673 -0.284298 -0.25184 -0.716217 -0.650854 
0.205074 -0.819212 0.144908 0.754222 -0.16532 0.635467 
-0.408416 -0.186518 -0.354381 0.952494 -0.0234515 0.303653 
0.358005 0.575001 0.446293 0.48172 0.0844454 0.872247 
-0.435915 0.14546 -0.232707 -0.834803 -0.339796 0.433178 
-0.187941 0.0794369 0.428853 -0.756142 -0.0995877 0.646786 
0.341961 -0.489801 0.00929196 0.869862 -0.158979 -0.466974 
-0.339322 -0.0254379 -0.33875 0.874575 -0.277813 -0.397416 
-0.520492 -0.245921 -0.500739 -0.347235 0.00728321 -0.93775 
0.0895842 -0.52888 -0.314998 0.92898 0.175664 -0.325788 
-0.541486 0.530561 0.0234221 -0.0449402 0.041264 0.998137 
-0.506773 0.457132 -0.2048 -0.671799 -0.193884 -0.71491 
0.459284 0.415987 -0.293963 0.741707 0.119646 -0.659966 
0.191446 0.621379 -0.38231 0.254015 0.480172 -0.83959 
-0.0457452 -0.322422 -0.305551 0.516434 0.808785 -0.281359 
0.584234 0.185984 0.0438214 0.961662 -0.263358 -0.0764735 
-0.604016 0.527525 -0.0718631 -0.956923 -0.20859 -0.201962 
0.145046 -0.0266099 -0.283779 0.0528317 -0.798202 -0.600068 
-0.415584 -0.88232 -0.213435 -0.779204 -0.57375 -0.252293 
-0.237711 -0.9453 -0.145966 -0.060665 -0.998076 0.0127774 
0.534133 0.438802 -0.181212 0.860569 0.108433 -0.497657 
-0.547924 -0.576229 -0.210695 -0.975208 -0.17579 -0.134415 
-0.0259516 0.851746 0.133019 -0.278497 0.95506 0.101484 
-0.123936 -0.835797 0.288318 -0.338287 0.522149 0.782894 
-0.0533415 -0.476731 0.319353 -0.71313 0.0725912 0.697263 
-0.38365 0.31885 0.19314 -0.927882 -0.0389662 0.370832 
0.219746 0.0256524 0.540687 0.188126 -0.589937 0.785228 
0.601996 0.45951 0.0711534 0.976894 -0.213523 -0.00931821 
0.456091 0.995881 -0.0164432 -0.489252 0.803963 -0.338047 
-0.501311 -0.357667 -0.0716894 -0.761585 0.597451 0.251078 
-0.116112 -0.527191 0.25265 -0.74914 -0.0147369 0.662248 
0.549303 0.652732 0.114727 0.298148 0.576913 0.760446 
-0.560969 0.435169 -0.108863 -0.853123 -0.38375 -0.353436 
-0.608972 0.61438 0.00907875 -0.642662 -0.0430719 0.764938 
0.557934 0.345746 -0.144632 0.923052 0.00101827 -0.384674 
-0.0205639 0.260667 -0.444379 -0.232345 -0.197943 -0.952279 
-0.310592 -0.748483 -0.441712 -0.410074 -0.414899 -0.812218 
-0.0912287 0.65348 -0.343864 -0.385024 0.570441 -0.725502 
-0.147789 0.799497 0.146727 -0.487365 0.865018 0.119247 
0.56172 0.217108 -0.10618 0.922045 -0.191474 -0.336409 
0.304102 0.12873 -0.359655 0.42447 -0.409716 -0.807439 
-0.276702 0.0267854 0.0930861 -0.757461 -0.652504 -0.0221527 
0.117605 0.0976274 0.577821 0.00157152 -0.459915 0.887962 
0.0508439 -0.254919 0.349336 -0.589059 0.322417 0.740983 
0.0673721 -0.127197 -0.0994651 -0.161992 -0.811689 -0.561177 
-0.0868394 -0.915789 0.102796 -0.0571515 -0.97432 -0.217794 
0.112594 0.651421 0.488463 0.0258577 0.479547 0.877135 
-0.323537 0.386659 -0.303707 -0.355239 0.145343 -0.923407 
0.400939 0.44869 0.416168 0.402015 0.0532401 0.914084 
0.195665 -0.606234 -0.130672 0.667691 -0.102526 -0.737345 
0.592419 0.284012 -0.0176161 0.984388 -0.0631468 -0.164295 
-0.380725 -0.397869 0.108558 -0.326815 0.55631 0.76401 
-0.0152461 -0.00976579 0.505933 -0.29322 -0.716617 0.632836 
0.273307 -0.632415 -0.0315008 0.898489 -0.170888 -0.404369 
0.349333 -0.12045 0.175184 0.865055 -0.446913 0.227921 
0.347828 0.574634 -0.332432 0.509959 0.405356 -0.758702 
-0.554488 -0.380121 -0.406404 -0.88418 -0.294944 -0.362261 
0.299731 -0.624593 0.0714215 0.900847 -0.432163 -0.0413551 
-0.397629 0.184443 -0.049896 -0.755721 -0.652106 -0.0603593 
-0.159012 0.0429991 -0.255821 -0.34159 -0.713191 -0.612107 
0.234325 -0.693179 -0.0977935 0.715455 0.190985 -0.672048 
0.443335 0.0891752 0.422674 0.708623 -0.488674 0.508971 
0.15947 0.820063 0.311037 0.0508089 0.877375 0.477107 
0.155239 -0.240114 0.379239 0.0392346 0.403021 0.914349 
-0.148966 0.69192 0.377946 -0.498507 0.634296 0.590897 
0.527129 0.0689003 0.192206 0.827245 -0.538618 0.159865 
-0.367019 -0.663289 0.187072 -0.357001 -0.0469699 0.932922 
0.386555 0.909845 0.125473 -0.172612 0.382979 0.907487 
0.433549 -0.00584319 0.282283 0.650442 -0.703672 0.285956 
-0.0559924 0.695643 0.429515 -0.291629 0.616476 0.731376 
0.043425 -0.538512 -0.417283 0.779988 0.175109 -0.600796 
0.078458 -0.949785 0.00254661 -0.183114 -0.983033 -0.0107611 
-0.291982 -0.600393 0.198786 0.0117516 0.102458 0.994668 
-0.571112 0.411579 0.0185405 -0.720428 -0.252137 0.646073 
0.0113696 -0.442565 -0.404711 0.67658 0.455896 -0.578272 
-0.506082 -0.042133 -0.322394 -0.830154 0.371284 0.415925 
-0.301244 0.0864366 0.224852 -0.865374 -0.448853 0.222843 
0.658527 0.672611 0.0804377 0.740175 0.0186476 0.672156 
-0.383007 -0.76364 0.158978 -0.637904 -0.204494 0.742469 
-0.465354 0.38644 0.0606165 -0.435634 0.368748 0.821126 
0.459628 0.310229 -0.295922 0.735075 -0.0800913 -0.673238 
0.145031 0.867632 -0.0464773 0.0112735 0.98107 -0.193323 
-0.0110787 -0.286472 -0.000775688 -0.363654 0.881343 -0.301646 
-0.49234 -0.359503 -0.491927 -0.411832 -0.240067 -0.879069 
0.275642 0.866565 -0.0576233 -0.241654 0.921561 -0.303856 
-0.141975 -0.00862707 0.413472 -0.566376 -0.644624 0.513496 
0.126179 -0.118103 0.367134 0.0473227 -0.705454 0.707174 
-0.264319 -0.260258 -0.0564102 -0.0272933 0.936351 0.350002 
-0.365552 0.450107 0.233447 -0.958881 0.155305 0.237543 
0.332283 0.252831 -0.386318 0.49059 -0.188337 -0.850794 
0.260671 -0.706228 0.108346 0.906481 -0.283541 0.312885 
0.573623 0.462815 0.223738 0.931219 0.0902519 0.353108 
-0.110288 0.823089 0.056149 -0.425382 0.904625 -0.0265197 
-0.11454 -0.0790441 0.312583 -0.424957 -0.860732 0.280271 
-0.0690952 0.354302 -0.439963 -0.305508 -0.015154 -0.952069 
0.271232 0.321284 -0.425119 0.38025 -0.059142 -0.922991 
0.441739 -0.0174664 -0.0301708 0.657241 -0.724138 -0.208944 
-0.0813716 0.0728252 -0.328172 -0.344246 -0.612939 -0.711197 
-0.218572 -0.806556 0.271962 -0.0626505 0.562485 0.824431 
0.144653 0.224162 -0.447509 0.120643 -0.269277 -0.955476 
0.17651 -0.503773 -0.158845 0.692397 0.0386039 -0.720484 
-0.450008 0.0384173 -0.29501 -0.870904 0.294498 0.393442 
0.334795 -0.223904 0.200159 0.93676 0.207542 0.281793 
-0.379975 0.466627 -0.27713 -0.320765 0.122754 -0.93917 
-0.0553474 0.402425 0.516746 -0.566834 0.179957 0.803937 
0.524221 0.634818 -0.175965 0.57889 -0.0491202 -0.813925 
-0.042171 -0.60133 0.317889 -0.582032 -0.242907 0.776038 
-0.0356898 0.783043 0.337607 -0.269429 0.811917 0.517879 
-0.519543 -0.334087 -0.216721 -0.748871 0.493188 0.442671 
-0.470858 -0.805939 -0.137721 -0.886909 -0.456042 -0.0736143 
0.204646 -0.724908 0.192433 0.722034 -0.413697 0.554547 
-0.0798741 0.169103 -0.394084 -0.319103 -0.430243 -0.844431 
0.149649 0.124176 -0.406111 0.0937706 -0.45656 -0.884737 
0.0258573 -0.63653 -0.435718 0.660591 -0.17775 -0.7294 
-0.378421 -0.935096 -0.133085 -0.431048 -0.902292 -0.00812366 
-0.296685 0.665024 0.169819 -0.79374 0.533184 0.292731 
-0.414967 -0.209497 -0.454128 0.851497 0.171371 -0.495566 
-0.510343 -0.0758465 -0.41459 -0.637637 0.592349 -0.492485 
-0.00767778 -0.363718 0.339344 -0.727805 0.228868 0.646467 
0.0805209 -0.83399 -0.304384 0.762218 -0.0322238 -0.646517 
0.0313833 0.660399 -0.3781 -0.0848689 0.566814 -0.819463 
0.575141 0.271829 0.265418 0.952175 -0.039509 0.302987 
0.316922 0.0370457 -0.2845 0.433566 -0.646644 -0.627593 
-0.399274 -0.101143 -0.421825 0.813936 0.0090044 -0.580885 
-0.49011 0.291265 0.0568823 -0.778211 -0.421283 0.465735 
0.382703 -0.396054 0.135936 0.996693 0.0623633 -0.0520907 
-0.0306682 -0.16 0.209272 -0.798786 -0.540908 0.263361 
-0.248526 -0.385517 -0.48724 0.134858 0.488335 -0.862173 
0.528049 0.959793 -0.0915885 0.0296542 0.610318 -0.791601 
-0.316942 0.08478 -0.0363634 -0.763912 -0.642689 -0.0582208 
0.0117001 0.633252 0.490464 -0.167503 0.424631 0.889736 
0.18488 -0.440244 0.41456 0.199473 -0.142569 0.969477 
0.251698 0.204629 0.61558 0.363125 0.030011 0.931257 
-0.250294 0.00411518 0.205731 -0.755057 -0.642101 0.132649 
0.55793 0.858207 0.067815 0.0993787 -0.0822411 0.991645 
0.679514 0.763668 0.0262604 0.975053 -0.00515061 0.221915 
-0.0258236 -0.738175 0.285703 -0.380151 0.225983 0.896893 
-0.194727 0.778068 0.0188215 -0.443322 0.895743 -0.0333207 
-0.383546 0.278739 -0.327093 -0.210463 0.245872 -0.946178 
-0.0404499 -0.79764 -0.40011 0.429254 -0.485839 -0.761381 
-0.0180169 -0.914025 -0.00605752 -0.228161 -0.97356 -0.011113 
-0.0307661 -0.510955 -0.475146 0.502796 0.220913 -0.8357 
-0.170315 -0.0508387 -0.00110213 -0.603722 -0.783507 -0.14709 
0.599255 0.258106 0.114082 0.99424 -0.0961595 0.0473294 
-0.0474047 0.804776 -0.160665 -0.324003 0.880588 -0.345815 
-0.270492 0.727833 -0.0764589 -0.198175 0.944615 -0.261589 
0.337195 0.915404 0.0383376 -0.592051 0.805126 0.0353236 
-0.282502 -0.944615 0.0847733 -0.170493 -0.982607 -0.0735951 
-0.246033 0.432996 0.407119 -0.603685 -0.112158 0.789294 
0.617438 0.70715 -0.111929 0.764272 -0.0868183 -0.639024 
-0.44077 -0.863339 -0.0628409 -0.837834 -0.537722 0.0942797 
0.207674 -0.419981 -0.117438 0.52161 0.260096 -0.812572 
-0.137412 0.460094 -0.402416 -0.437392 0.178306 -0.881417 
-0.547258 -0.616028 -0.0553876 -0.979713 -0.154536 0.127597 
0.279828 -0.738522 -0.0017911 0.955185 0.290068 0.0590047 
-0.487988 -0.148165 -0.491129 -0.00358821 0.385118 -0.922861 
0.161286 -0.833899 -0.19155 0.546249 0.280353 -0.789312 
-0.598309 0.728024 -0.0427021 -0.664727 0.73413 0.138528 
-0.154968 -0.437777 0.194287 -0.595235 0.312553 0.740274 
-0.179756 -0.480221 -0.51649 0.10215 0.232166 -0.967297 
0.440402 0.206226 -0.290916 0.68651 -0.248866 -0.683206 
-0.168428 -0.632665 0.191267 -0.32099 -0.0263351 0.946716 
-0.416126 0.562769 -0.245621 -0.248823 0.312702 -0.916681 
-0.107106 0.185759 0.537035 -0.831724 0.124425 0.541067 
0.111389 -0.635229 -0.222295 0.91264 -0.144869 -0.382231 
0.00812654 -0.950108 0.325241 0.0669818 -0.866197 0.495192 
-0.139517 -0.0861055 0.21657 -0.501762 -0.859058 0.10126 
0.0973304 -0.948073 0.195604 0.396288 -0.91622 0.0591339 
-0.251196 0.111615 -0.281763 0.210431 -0.437204 -0.874398 
0.478306 0.669679 0.183822 0.680037 0.670804 0.295925 
0.371079 -0.488006 0.103255 0.96421 -0.241076 -0.110371 
0.117617 0.876731 0.0879502 -0.0211432 0.998883 0.0422693 
0.265022 0.421947 -0.424487 0.372002 0.118583 -0.920626 
-0.392344 0.649985 -0.202256 -0.0601129 0.616696 -0.784903 
0.141527 -0.866804 0.233039 0.89426 -0.143569 0.423896 
0.512241 0.557606 0.302779 0.802136 0.391764 0.450665 
-0.35123 0.133167 -0.123351 -0.773013 -0.581444 0.253722 
-0.381366 -0.0283254 -0.242446 -0.0252724 -0.460625 0.887235 
0.0625048 0.828813 -0.172846 -0.104103 0.922102 -0.37268 
0.252609 -0.950869 -0.078455 -0.0185253 -0.999527 0.0245632 
-0.0413031 -0.950062 0.20283 -0.177796 -0.970902 -0.160433 
-0.0999597 -0.30837 0.077102 -0.299411 0.921045 0.249056 
-0.0295045 -0.127894 -0.0373379 -0.441578 -0.82115 -0.361553 
-0.325653 0.0738873 -0.340738 0.688764 0.0667623 -0.721906 
0.212709 0.115587 0.598552 0.0510337 -0.463431 0.884662 
-0.570018 -0.367937 -0.295629 -0.973744 0.00376086 0.227614 
-0.481506 -0.719898 -0.26853 -0.843534 -0.406344 -0.351191 
0.593749 0.36258 0.178554 0.982497 0.0509057 0.179185 
-0.475695 0.242908 -0.252839 -0.99978 -0.00849267 -0.0191908 
0.0408815 0.852279 0.216682 -0.152153 0.953461 0.26031 
-0.0896395 -0.916135 0.336497 -0.450298 -0.353733 0.81982 
0.240764 0.218212 -0.421445 0.33242 -0.241348 -0.911728 
0.29151 0.873045 0.121245 -0.106628 0.911266 0.397774 
-0.131685 0.777026 0.264212 -0.47545 0.80374 0.3577 
-0.391381 -0.901285 0.0212843 -0.649906 -0.722803 0.234901 
-0.0868776 -0.666345 0.258825 -0.650575 -0.184908 0.736588 
-0.266175 0.735815 0.074829 -0.464985 0.8493 0.249956 
0.552526 0.407288 0.301539 0.903759 0.13141 0.40737 
0.0974744 -0.949726 -0.173882 0.14104 -0.977031 -0.159743 
0.458637 0.533765 0.388058 0.602844 0.159754 0.781702 
-0.383938 -0.5289 0.169081 -0.332096 0.234401 0.913657 
0.199441 -0.535569 0.375902 0.330831 -0.481301 0.811727 
0.142461 0.859767 0.214491 0.0150377 0.963748 0.266389 
0.0875361 0.0497193 -0.359664 -0.0784411 -0.618044 -0.78222 
0.0270175 0.459522 0.536683 -0.221152 0.378417 0.898828 
-0.222157 -0.665999 -0.502102 -0.130659 -0.285869 -0.949319 
-0.0227631 0.854859 0.0146557 -0.266268 0.960275 -0.0835007 
0.240078 0.847814 0.216309 0.233348 0.920934 0.312137 
0.537506 0.737456 -0.173779 0.42876 0.0508943 -0.901984 
-0.121871 0.805126 -0.0478259 -0.426487 0.886694 -0.178556 
0.363755 0.290695 0.483638 0.463521 0.488446 0.739303 
0.27048 0.494023 0.484579 0.355273 -0.040827 0.933871 
-0.601956 0.628585 -0.0925388 -0.856961 0.0420128 -0.513665 
0.213125 0.736251 -0.286752 0.271177 0.690338 -0.670744 
-0.305116 0.579311 0.287959 -0.821719 0.41553 0.390015 
0.440904 0.0647031 -0.193921 0.662402 -0.574305 -0.481039 
-0.368229 -0.397004 -0.504088 0.0532964 0.114708 -0.991969 
0.554214 0.13627 -0.0429189 0.88893 -0.407414 -0.209328 
-0.157352 0.452057 0.466927 -0.468717 -0.0651857 0.88094 
-0.197013 -0.0496978 0.136591 -0.615729 -0.787489 -0.0271926 
0.28205 0.796993 0.297818 0.406407 0.808782 0.425094 
0.281579 0.669889 -0.312221 0.395855 0.550946 -0.734682 
0.529657 0.206158 0.360246 0.871437 -0.168395 0.460696 
0.576277 0.157484 0.137199 0.940237 -0.334464 0.0639416 
0.0393396 -0.948443 -0.254545 0.190725 -0.916351 -0.352028 
0.481946 0.0514717 -0.0994344 0.737334 -0.599296 -0.311742 
-0.0384052 -0.302288 0.237966 -0.882076 0.397613 0.252676 
0.24784 -0.22445 0.335968 0.552327 0.387548 0.738066 
-0.143944 -0.263947 -0.18183 0.302405 0.951718 -0.0527693 
0.446218 0.312136 0.4333 0.446103 0.301131 0.8428 
0.342194 0.483931 -0.373232 0.503941 0.242288 -0.82906 
0.0503984 0.167484 0.626917 -0.0202668 -0.43671 0.899374 
0.170243 -0.217824 -0.0525405 0.0867241 -0.0689541 -0.993843 
0.663198 0.827927 -0.0494934 0.878018 0.0502222 -0.475985 
-0.219245 0.528804 0.421606 -0.600868 0.185684 0.777482 
0.444604 -0.0260675 0.172524 0.675315 -0.729928 0.105619 
-0.102037 -0.0344181 -0.181477 -0.437358 -0.789727 -0.430174 
-0.216332 0.582871 -0.311951 -0.524372 0.421752 -0.739702 
-0.442402 -0.596126 -0.419247 -0.655123 -0.348264 -0.670468 
0.0951008 -0.747132 -0.250827 0.910485 0.108373 -0.39909 
0.656225 0.656573 -0.025171 0.921063 -0.246227 -0.301686 
0.544287 0.871681 -0.142299 0.308022 0.381384 -0.87159 
-0.510065 -0.716746 -0.171659 -0.910215 -0.38949 -0.140734 
-0.150211 0.593217 0.448053 -0.458956 0.326334 0.826357 
0.322821 -0.488014 0.3078 0.782095 -0.314469 0.537994 
0.566573 1.0443 0.020696 0.0999412 0.963725 0.24748 
0.624685 0.947449 -0.0511125 0.663393 0.439052 -0.605923 
-0.138004 -0.274228 -0.280059 0.310777 0.932283 -0.185109 
-0.316496 -0.815937 0.214451 -0.690524 0.216354 0.690194 
0.523883 0.117503 0.299701 0.840929 -0.429371 0.329363 
-0.415073 -0.00597659 -0.406437 0.178872 0.413198 -0.892901 
0.204178 -0.935982 0.0930764 0.38999 -0.830187 0.398368 
-0.0322762 0.217825 0.61209 -0.615254 0.0105361 0.788259 
-0.0673402 -0.719024 -0.464136 0.386421 -0.422634 -0.819792 
0.397954 0.930659 -0.0746756 -0.478972 0.759075 -0.440899 
-0.264713 -0.452605 0.158742 -0.115835 0.347405 0.930533 
-0.0552932 0.826759 0.224079 -0.312617 0.915118 0.254617 
0.15735 -0.0805285 -0.191136 0.0715323 -0.87845 -0.47245 
-0.152339 -0.948075 -0.289299 0.0749273 -0.96759 -0.241153 
-0.380943 0.676306 0.0578877 -0.433709 0.107286 0.894643 
0.404383 0.639798 0.382827 0.621885 0.491208 0.609897 
-0.0687308 -0.363038 -0.401632 0.467385 0.666527 -0.580769 
-0.577611 -0.242225 -0.418032 -0.971883 -0.0374223 -0.23247 
0.187223 -0.1235 -0.10513 0.170095 -0.771725 -0.612787 
0.283712 -0.858425 0.0623072 0.746971 -0.0775948 0.660313 
0.127654 -0.609728 0.348318 0.231307 -0.578956 0.781861 
-0.525183 -0.456258 0.00438685 -0.871864 0.293865 0.391785 
-0.414198 -0.299156 -0.494672 0.41626 0.272087 -0.86758 
-0.0762856 -0.61865 -0.498262 0.33964 -0.132394 -0.931191 
0.36636 -0.484399 0.20929 0.932373 -0.291357 0.213988 
0.152665 -0.725922 -0.16279 0.613577 0.123901 -0.779853 
0.218631 0.726014 0.421701 0.201578 0.666528 0.717709 
0.365306 -0.916884 -0.0640086 0.911254 -0.356566 0.2061 
0.0425654 -0.560825 0.376439 -0.27726 -0.323127 0.904829 
-0.302857 0.374358 0.349181 -0.677163 -0.128176 0.724584 
-0.262007 -0.948752 -0.243517 -0.0708054 -0.99749 -0.000194657 
0.34245 0.121606 0.542974 0.562682 -0.347261 0.750199 
-0.512649 0.571253 -0.199143 -0.564589 0.179926 -0.805522 
0.1392 0.793765 -0.239836 0.108161 0.831786 -0.544457 
-0.10381 -0.0774462 -0.0833465 -0.476577 -0.835619 -0.27316 
-0.452281 -0.4751 0.11188 -0.600818 0.335873 0.725401 
-0.212589 0.670125 -0.241495 -0.472558 0.673032 -0.568961 
0.332865 0.806045 0.211044 0.541199 0.730911 0.415779 
-0.444096 -0.61203 0.145418 -0.628254 -0.012556 0.777907 
0.318842 -0.0625343 0.347065 0.459903 -0.776711 0.430359 
0.396051 0.717884 0.292511 0.667029 0.667138 0.331661 
0.170586 0.363866 0.582643 0.518626 0.613129 0.595902 
-0.241254 0.611213 0.360317 -0.688856 0.458349 0.5616 
0.217439 0.514608 -0.420812 0.294553 0.293842 -0.909338 
0.00830295 -0.947686 0.101053 -0.265074 -0.947244 -0.18018 
-0.44676 0.355742 -0.229665 -0.821761 0.0490659 -0.567716 
-0.342593 0.20925 0.253175 -0.867365 -0.267091 0.41993 
0.0536561 0.725979 0.431246 -0.0839047 0.673377 0.734523 
-0.135577 -0.919846 0.0129364 0.239101 -0.958827 0.153235 
-0.418277 0.208964 -0.150421 -0.811521 -0.498333 0.30512 
0.220663 -0.331911 -0.0751073 0.370157 0.373638 -0.850517 
-0.24119 -0.818745 -0.428862 -0.196438 -0.479685 -0.855169 
0.124688 0.438837 -0.459822 0.0998697 0.142081 -0.984804 
-0.381504 -0.549535 -0.480727 -0.411369 -0.25803 -0.874183 
-0.143004 -0.729879 0.209327 -0.377152 0.245726 0.892959 
0.165864 -0.0723778 0.443858 0.141336 -0.875682 0.461741 
-0.410379 0.176448 -0.334286 -0.336527 0.112813 -0.934892 
-0.0511019 -0.945352 -0.169657 -0.0101369 -0.992573 0.121229 
-0.290868 0.195264 -0.315923 0.0836249 -0.179417 -0.980213 
-0.214595 0.740786 0.204476 -0.625584 0.73896 0.250164 
0.0751172 -0.236828 -0.0361181 -0.476467 0.134241 -0.868883 
-0.40739 0.717523 -0.130071 0.130536 0.831268 -0.540328 
0.280134 -0.491427 -0.0690553 0.706231 -0.0602603 -0.705412 
-0.186165 0.736655 -0.158147 -0.448839 0.820752 -0.353426 
0.0454105 -0.666716 0.323065 -0.0501214 -0.449576 0.891835 
0.433207 0.876265 -0.149019 -0.151506 0.557723 -0.816083 
0.0889853 0.280741 0.658055 0.0748192 0.025885 0.996861 
-0.463673 -0.725998 0.0942368 -0.764385 -0.345259 0.544528 
-0.205462 -0.297875 0.0251487 -0.030657 0.866235 0.498695 
-0.51114 -0.626748 -0.292925 -0.872663 -0.330463 -0.359518 
0.0481677 0.190066 -0.436041 -0.116649 -0.368411 -0.922316 
0.414062 0.802259 0.108203 0.603832 0.111331 0.789299 
-0.417763 0.214347 0.0562893 -0.7016 -0.661126 0.265838 
-0.267392 -0.891419 0.282622 -0.496213 -0.129945 0.858421 
-0.275631 -0.301654 -0.414548 0.157023 0.835591 -0.526433 
-0.36365 -0.265225 -0.391932 0.566836 0.781221 -0.261516 
-0.237414 0.00994965 -0.0399822 -0.616873 -0.777522 -0.122178 
-0.514418 0.32687 -0.0332131 -0.803203 -0.571905 -0.166703 
0.284538 -0.12749 -0.0436741 0.529797 -0.631895 -0.565707 
0.491287 0.437218 0.38062 0.549003 0.135431 0.824775 
-0.232966 0.388643 -0.357625 -0.555981 0.0345112 -0.830478 
-0.200223 0.0129088 -0.163599 -0.384673 -0.887804 -0.252647 
-0.508986 -0.620961 0.0683697 -0.861813 -0.0995226 0.497366 
-0.364724 0.740283 -0.035983 0.237027 0.968679 -0.0740177 
-0.432546 0.474575 0.0324215 -0.446698 0.302164 0.842115 
0.00894538 0.846567 -0.0814645 -0.222522 0.947797 -0.228395 
0.633004 0.552058 0.0277919 0.932442 -0.348155 -0.0966458 
0.0818129 -0.773118 0.289926 0.506879 0.18962 0.840903 
-0.14689 -0.860827 -0.402288 0.202512 -0.584867 -0.785442 
-0.0306345 0.58126 -0.40964 -0.246101 0.385021 -0.88949 
-0.0918144 -0.432356 -0.47437 0.363949 0.458163 -0.810942 
-0.459887 -0.393358 0.0484458 -0.621447 0.538385 0.569162 
0.375637 0.792156 -0.189772 0.00400896 0.495946 -0.868344 
0.220087 0.401845 0.502963 0.432971 0.277896 0.857502 
-0.14254 -0.265741 -0.0695974 0.226704 0.958272 0.174127 
-0.248819 -0.732512 0.210884 -0.027535 0.420345 0.906946 
0.12418 0.441639 0.536738 0.340528 0.450068 0.825518 
-0.172332 -0.582596 -0.522172 0.0406583 -0.0813203 -0.995858 
0.34704 -0.328754 0.0464786 0.869174 0.251051 -0.426041 
-0.302231 -0.233394 -0.155259 -0.0369566 0.989366 0.140674 
0.339988 0.226408 0.555722 0.589414 0.391515 0.706617 
-0.185485 -0.28977 -0.37031 0.21559 0.863988 -0.455022 
0.0488371 0.772554 -0.27182 -0.0993432 0.807802 -0.581022 
-0.396579 -0.841235 0.0999349 -0.805673 -0.408842 0.428647 
0.587286 0.76546 0.0787836 -0.0181368 0.203803 0.978844 
0.274562 -0.240313 -0.0136213 0.639456 0.115491 -0.760104 
0.0614138 0.371617 0.62734 -0.0823283 0.631493 0.770999 
-0.359896 0.577709 0.0714918 -0.839275 0.149474 0.522757 
0.317371 -0.30172 0.298166 0.811053 0.292188 0.506774 
0.343857 -0.0639486 -0.0957705 0.472834 -0.806221 -0.355579 
0.533286 0.319799 0.358328 0.81471 0.0924668 0.572449 
-0.0505363 0.307621 0.568979 -0.794946 0.279721 0.538347 
-0.349935 0.555822 0.169293 -0.935236 0.317918 0.155765 
0.138328 0.701683 -0.341486 0.157101 0.630675 -0.759979 
0.290504 -0.161821 0.268129 0.797628 -0.0772491 0.598182 
0.403391 0.621053 -0.264518 0.540273 0.381835 -0.749872 
-0.410213 -0.110381 -0.287318 0.318891 -0.538664 0.77984 
0.083504 -0.0291419 0.516703 -0.0402845 -0.663918 0.74672 
-0.38227 0.448754 0.13586 -0.933083 0.269239 0.238467 
-0.367715 -0.651542 -0.451109 -0.503438 -0.325007 -0.800575 
-0.164731 0.194383 0.421313 -0.736048 0.0972359 0.66991 
0.0556736 0.817222 0.310179 -0.0978184 0.881655 0.461645 
-0.203315 0.218591 -0.354065 -0.444348 -0.31218 -0.839701 
0.0323061 -0.3883 -0.296766 0.725353 0.605566 -0.327342 
-0.304188 0.683288 -0.163102 -0.101721 0.83505 -0.540688 
-0.339661 0.112429 0.064597 -0.832906 -0.548764 0.071598 
0.32242 -0.57715 0.176965 0.813344 -0.560132 0.157239 
-0.457272 -0.235194 -0.280997 0.132917 0.635075 0.760929 
-0.35202 -0.923001 -0.280153 -0.524671 -0.790643 -0.315601 
0.352897 -0.0152751 -0.186799 0.480773 -0.747889 -0.457733 
-0.153833 0.317105 -0.40364 -0.451164 -0.0975131 -0.887098 
0.315344 0.034609 0.500547 0.478234 -0.621331 0.620678 
-0.127865 0.56614 -0.377032 -0.441495 0.353082 -0.824873 
-0.299449 0.585159 -0.25696 -0.290826 0.498101 -0.816894 
-0.159708 -0.35715 -0.447049 0.244663 0.643527 -0.725267 
0.539424 0.0791832 0.072346 0.858098 -0.511659 -0.0432691 
-0.180811 -0.355901 0.112766 -0.256383 0.731767 0.631494 
0.233893 -0.787309 -0.140745 0.361602 0.434994 -0.824636 
-0.271681 0.294472 -0.328544 -0.311944 -0.00852721 -0.950062 
-0.295911 -0.333099 0.070113 -0.0927825 0.746491 0.658895 
0.58505 0.385085 -0.051634 0.976752 0.0298076 -0.212292 
-0.378154 0.224644 0.156194 -0.877479 -0.353226 0.324442 
-0.0317731 -0.822353 0.355019 -0.294388 0.456128 0.839811 
0.0279725 -0.0973264 0.38657 -0.247582 -0.82653 0.505522 
-0.322104 0.469904 0.328195 -0.827409 0.122095 0.548167 
0.312351 -0.925639 -0.151675 0.366819 -0.494951 -0.787698 
-0.114473 -0.105381 0.117528 -0.563281 -0.825695 -0.0306929 
0.174379 0.323793 -0.458052 0.216451 -0.0582123 -0.974556 
-0.513546 -0.722896 -0.0340007 -0.909672 -0.390273 0.14207 
-0.314617 -0.930155 0.190401 -0.677256 -0.692111 0.249612 
0.219329 0.877252 0.052121 -0.073378 0.997038 0.0230409 
0.0935236 0.542938 0.527914 0.0818258 0.139338 0.986858 
0.436298 0.711106 -0.211099 0.304517 0.26641 -0.914492 
-0.39387 -0.742983 -0.381839 -0.640003 -0.430982 -0.636122 
0.621683 0.552593 0.126288 0.893039 -0.0570664 0.446347 
-0.177147 0.295339 0.412563 -0.584719 -0.13526 0.799881 
0.599678 0.359228 0.0495406 0.997991 0.0385783 -0.0502525 
0.54979 0.967511 0.0833987 0.259308 0.154632 0.953335 
-0.259749 -0.930897 -0.345418 -0.161048 -0.844751 -0.510352 
0.0301178 -0.460515 0.388307 -0.523895 -0.0152993 0.851645 
0.092462 -0.333278 -0.118559 0.233537 0.770422 -0.59322 
0.209998 0.0546405 -0.351603 0.232978 -0.585445 -0.776515 
-0.114429 0.738865 -0.232295 -0.41765 0.770631 -0.481349 
0.0328688 0.399258 -0.462663 -0.117617 0.054947 -0.991538 
-0.108257 0.0432159 0.498912 -0.617986 -0.476793 0.625109 
0.0420971 -0.354104 -0.205447 0.565564 0.757287 -0.326578 
-0.504098 -0.491679 -0.405963 -0.760236 -0.370135 -0.533893 
