ply
format ascii 1.0
element vertex 500
property float x
property float y
property float z
property float nx
property float ny
property float nz
end_header
-0.395859 -0.35866 -0.445699 0.784349 -0.228461 -0.576717 
0.277407 -0.182219 0.0992203 -0.0956587 0.802474 0.588969 
0.397169 0.0513702 0.150074 0.506521 -0.86218 -0.00908827 
-0.106117 -0.313611 0.32296 0.773032 0.534346 0.341902 
-0.0956932 -0.907496 0.125554 -0.997419 -0.0641717 -0.0322078 
-0.330776 -0.414066 0.234167 -0.533455 -0.691598 -0.486949 
0.254183 -0.109508 -0.196091 -0.82717 0.559912 0.0478462 
-0.470085 0.445857 0.313793 0.00439693 -0.0606951 0.998147 
-0.468811 0.190489 -0.333684 -0.514306 -0.124588 -0.848509 
-0.116703 0.573731 -0.306996 0.0127067 -0.0784784 -0.996835 
-0.0740665 -0.252918 -0.163423 0.176986 0.588268 -0.78906 
-0.287499 -0.152278 -0.434215 0.578953 0.408847 -0.705448 
0.208615 0.468736 0.269022 -0.0626031 -0.177763 0.98208 
-0.0806899 -0.58191 0.0325358 -0.964777 -0.111758 -0.23815 
0.395381 -0.412466 0.260286 0.710391 -0.544079 -0.446456 
0.272452 -0.468922 0.318684 0.188882 -0.971108 -0.145851 
0.455939 0.6649 0.218899 0.638249 0.7416 -0.206562 
0.523396 0.578996 0.321503 0.404409 0.323672 0.855389 
0.470059 0.569515 -0.187185 0.785774 0.550312 0.282342 
-0.406856 0.643954 -0.211784 -0.726431 0.670154 0.152289 
-0.2788 -0.387738 0.148268 -0.461999 -0.750863 -0.471977 
-0.470784 0.112129 -0.193746 -0.96479 -0.262676 0.0135024 
0.0669345 -0.518158 0.0657913 0.840579 -0.34498 -0.417632 
0.111818 0.0589239 -0.207935 -0.275804 -0.956616 0.0939082 
-0.489979 -0.250188 -0.383945 -0.868999 0.44335 -0.219731 
0.211534 -0.305552 0.465242 -0.830861 0.361174 0.423348 
-0.0521397 -0.253343 -0.0504031 0.224349 0.965385 0.13304 
-0.0325756 -0.619788 -0.114541 -0.511555 -0.114467 -0.851592 
-0.526153 0.243812 -0.263181 -0.986881 -0.150229 -0.0591393 
0.0669445 -0.740233 0.214668 0.933399 -0.283142 -0.220446 
0.608753 0.349758 0.299384 0.651568 -0.0361803 0.757727 
-0.386869 -0.354943 0.377732 -0.986132 0.157403 0.0526192 
0.0671551 -0.69528 0.327046 0.954404 0.0588565 0.292657 
0.506952 0.194238 -0.164844 0.887744 -0.274608 0.369461 
-0.522846 0.330792 -0.216131 -0.976202 -0.0237362 0.21556 
-0.193594 0.749709 -0.0152463 -0.417464 0.907952 -0.036707 
0.562721 -0.320499 -0.21624 0.402384 -0.401088 -0.822931 
0.273436 0.300368 0.256173 -0.00720409 0.0253374 0.999653 
0.214286 -0.263229 -0.220237 -0.289963 -0.905277 -0.310474 
0.296736 -0.133984 -0.378818 -0.505914 0.718773 -0.476881 
0.12897 -0.479389 0.142126 0.748048 -0.494756 -0.442312 
0.746829 -0.360804 -0.161253 -0.209512 -0.801767 -0.559709 
-0.0248427 0.214376 0.256725 -0.0270793 0.25272 0.96716 
0.225934 0.579642 0.296947 -0.12365 -0.272267 0.954244 
-0.179716 0.668486 0.324435 0.0699503 -0.223303 0.972236 
-0.397008 0.0918557 0.302774 -0.448222 -0.700814 0.554939 
-0.203818 -0.459326 0.207268 -0.514383 -0.690404 -0.508677 
-0.2878 -0.0604075 -0.309341 0.77729 0.244685 -0.579611 
0.380753 -0.306195 0.436623 0.904992 0.423501 -0.0404485 
0.424547 0.559252 0.32318 -0.143992 -0.166803 0.975419 
-0.526851 -0.218971 -0.2873 -0.769166 0.252732 -0.58695 
-0.751812 -0.234619 -0.0438314 -0.299786 0.901527 0.312054 
0.183702 -0.23836 0.194745 -0.29353 0.885351 0.360546 
-0.170537 0.0378645 -0.322362 0.312743 -0.883289 -0.349274 
0.32239 -0.494374 -0.200158 -0.81572 -0.420892 0.3968 
-0.409626 0.53211 0.319508 0.0370817 -0.141368 0.989262 
-0.121416 -0.530734 0.127132 -0.894371 -0.15647 -0.419068 
-0.198862 -0.234682 -0.27203 0.784512 -0.525274 -0.329586 
-0.119482 -0.387213 0.391568 0.878337 -0.0403938 0.476332 
0.449527 -0.10677 0.0375707 0.665715 0.259275 0.699714 
0.389354 -0.473456 0.425161 0.414404 -0.907741 -0.065393 
-0.323483 0.693518 -0.189984 -0.519332 0.818046 0.247174 
0.416096 -0.293617 -0.043274 0.0177564 -0.722764 0.690867 
-0.477313 0.189914 -0.0746974 -0.991926 -0.111966 0.0595545 
0.458919 0.0287776 -0.297646 0.830437 -0.497546 -0.250644 
0.296981 0.712427 -0.0463341 0.502829 0.864247 -0.015491 
-0.199232 0.513247 -0.303567 0.00871934 -0.0600333 -0.998158 
-0.0184597 0.351472 0.255988 -0.0112251 -0.0560613 0.998364 
-0.0673776 -0.350329 -0.160009 -0.136592 -0.298806 -0.944488 
0.46623 0.11956 -0.00502621 0.928181 -0.371122 -0.0273649 
-0.0600032 0.590062 0.295477 0.032262 -0.300358 0.953281 
0.494676 0.228147 -0.070236 0.967358 -0.25228 -0.023952 
-0.169624 -0.406035 0.100949 -0.469571 -0.747238 -0.470253 
-0.410241 0.640722 0.315029 -0.532353 0.389432 0.751627 
-0.467749 0.0907358 -0.0982509 -0.999445 -0.0230347 -0.0240524 
0.500583 -0.315578 0.00179336 -0.404477 -0.608224 0.68298 
-0.124799 0.50284 0.272249 0.0327628 -0.230337 0.972559 
-0.144324 0.787328 0.231803 -0.208382 0.970175 -0.123841 
0.367456 0.476875 0.289116 -0.164147 -0.278411 0.946331 
-0.277578 -0.258663 -0.334128 0.548502 -0.788825 -0.277311 
0.275532 -0.234094 0.488905 -0.321381 0.830256 0.455401 
0.379453 0.342669 0.263278 -0.151788 -0.0704083 0.985902 
0.169014 0.73816 -0.324601 0.044693 0.428422 -0.902473 
0.344011 -0.240604 0.308452 0.470709 0.879401 -0.0713207 
-0.154776 0.184142 -0.349255 0.0264112 0.375754 -0.926343 
0.0528994 0.783889 0.0928519 0.0971118 0.994758 -0.0320349 
0.203534 0.146075 0.284688 0.0340718 0.260765 0.964801 
-0.35857 -0.467474 -0.38906 0.872551 -0.139134 -0.468291 
-0.0850722 0.784043 -0.0262329 -0.149255 0.988542 0.0225099 
0.446574 -0.485092 -0.398058 0.88749 -0.3351 -0.316338 
-0.498157 0.246245 -0.157834 -0.950837 -0.143966 0.274196 
-0.180119 -0.38515 0.493006 0.734186 -0.32873 0.59406 
0.455409 0.419457 0.2935 -0.298877 -0.216147 0.929491 
-0.0679656 -0.41709 0.303323 0.701697 0.24961 0.66732 
0.515407 0.112011 -0.26016 0.871424 -0.470137 0.139968 
0.357199 -0.406741 -0.0897558 -0.35203 -0.582085 0.732975 
0.334585 -0.285083 0.549245 0.204291 0.562365 0.801256 
-0.00667621 -0.776754 0.000443536 0.989361 -0.0669068 0.129185 
-0.167965 -0.483641 0.381371 0.309472 -0.750023 0.584544 
-0.261914 0.46208 0.273505 0.103931 -0.223985 0.969035 
0.113596 0.15383 -0.371401 0.0111935 0.0879489 -0.996062 
-0.347597 0.289067 0.265781 0.286462 0.0972236 0.953146 
-0.082909 0.0667383 -0.160481 0.226989 -0.956439 0.183578 
-0.571992 -0.193086 0.0246922 -0.541848 0.456651 0.705599 
-0.231508 -0.121693 -0.25563 0.854202 0.490007 -0.173872 
-0.0689483 -0.983625 0.0700736 -0.751073 -0.639672 -0.16343 
-0.0867916 0.0847597 -0.016285 0.495185 -0.865831 -0.0716182 
0.484933 0.414817 -0.340821 0.084407 0.073404 -0.993724 
-0.957621 -0.343752 -0.0292088 -0.700568 0.378688 0.604814 
0.343175 -0.310577 0.155391 0.962584 -0.147781 -0.22714 
0.397023 0.631747 -0.0254914 0.706968 0.699202 -0.106361 
0.40279 -0.262715 -0.479565 0.657889 0.330724 -0.676612 
-0.00438758 0.456127 0.26526 0.0255819 -0.136225 0.990348 
0.0898942 0.410354 -0.322973 0.014943 0.130513 -0.991334 
-0.494917 -0.244786 0.069069 -0.160445 -0.391017 0.906291 
-0.0700767 0.0691111 0.0879466 0.16096 -0.95323 -0.255823 
0.564458 0.239518 0.297653 0.261183 -0.229383 0.937639 
0.433444 -0.225244 0.0634356 0.377802 -0.361917 0.852222 
0.301262 0.133392 0.283154 0.00208274 0.292749 0.956187 
-0.472224 -0.358455 -0.0632042 0.0842066 -0.603837 0.792647 
0.281051 -0.0215151 -0.0346098 -0.90557 -0.362249 0.220723 
-0.682551 -0.225016 -0.198493 -0.185617 0.728914 -0.658961 
-0.137178 0.287356 0.249786 -0.0037476 0.0277677 0.999607 
-0.410773 -0.06228 -0.317997 -0.692492 0.313049 -0.649965 
0.547035 -0.169385 -0.0899051 0.656194 0.753699 0.0367137 
0.495481 -0.424268 -0.174111 0.771724 -0.629279 0.09193 
0.125365 -0.2293 -0.244709 -0.605847 -0.460427 -0.648811 
0.115577 0.77757 -0.135475 0.177672 0.982061 0.0631646 
0.555908 0.348559 -0.31831 0.792637 0.110821 -0.599538 
0.519674 0.513448 -0.254171 0.926291 0.373235 0.051775 
-0.663708 -0.202771 -0.0992135 -0.340503 0.937469 0.0721833 
-0.373597 0.683501 0.209688 -0.607583 0.75943 -0.232614 
-0.114601 -0.628256 0.15162 -0.934156 -0.192654 -0.300394 
0.326051 0.579588 0.313188 -0.152065 -0.269549 0.950905 
0.120675 -0.275842 -0.148348 -0.307378 -0.587311 -0.748722 
0.133971 -0.223621 -0.0191119 -0.498887 0.866503 -0.0168896 
-0.516892 0.329495 0.313676 -0.220785 0.0469839 0.97419 
-0.334313 -0.252745 0.389769 -0.681153 0.719662 0.1346 
-0.392852 0.606962 0.0294325 -0.758264 0.640981 -0.11907 
0.448425 -0.33889 -0.423064 0.936068 0.0789184 -0.342853 
0.43641 -0.541816 -0.239789 0.511006 -0.819934 0.258035 
-0.408397 0.101047 0.203829 -0.627396 -0.761025 -0.164974 
0.13479 0.628786 0.305779 -0.0333955 -0.33004 0.943376 
0.333166 -0.331416 -0.481091 -0.775141 -0.13114 -0.618028 
-0.467015 0.483433 -0.110406 -0.925113 0.319154 0.205688 
-0.0418416 -0.876749 -0.0906918 -0.707078 -0.259028 -0.657986 
-0.56275 0.40027 0.228525 -0.974517 0.185526 -0.126083 
0.536572 0.31094 0.0402871 0.949069 -0.106689 -0.296456 
0.34876 -0.552714 -0.286526 -0.432544 -0.89987 0.0560307 
0.487172 -0.342139 -0.299833 0.889963 -0.169767 -0.423255 
-0.150896 0.40416 0.255941 0.0174062 -0.121368 0.992455 
-0.287015 0.267091 -0.311449 -0.0382422 0.215196 -0.975822 
-0.0463276 0.791413 0.191604 -0.0329397 0.989792 -0.138659 
0.0362523 -0.848776 0.275826 0.891123 -0.392723 -0.227306 
0.19829 0.026763 0.217468 -0.220281 -0.975019 -0.0285202 
0.153349 0.77914 0.206306 0.146562 0.977641 -0.15079 
-0.576225 -0.285561 -0.228645 -0.569379 -0.234468 -0.787929 
-0.452908 -0.153366 -0.338203 -0.74003 0.492379 -0.458168 
-0.40118 0.294061 -0.310689 0.139629 0.212788 -0.96707 
-0.456625 -0.504201 -0.24414 -0.674165 -0.711885 0.196777 
0.715501 -0.267266 -0.0202637 0.29024 0.614575 0.733525 
-0.519549 0.179657 0.284317 -0.713945 -0.576595 0.397266 
-0.505628 0.389046 0.0884075 -0.923255 0.157951 -0.350216 
-0.520522 -0.355105 -0.275999 -0.930632 -0.214374 -0.296594 
0.555169 0.345605 -0.220427 0.950193 0.0684975 0.304042 
-0.232819 0.763827 -0.25542 -0.461099 0.865241 -0.196837 
0.378059 0.458732 -0.322283 -0.192441 -0.120407 -0.973894 
-0.773725 -0.276172 -0.227675 -0.0584051 0.57247 -0.817843 
-0.325227 -0.422495 -0.18938 0.980665 -0.102525 0.166687 
-0.330214 -0.416186 0.546603 -0.310122 -0.24371 0.918929 
0.217525 -0.261238 0.288013 -0.386531 0.909759 0.151436 
-0.112535 -0.67659 0.236659 -0.983562 -0.100392 0.150091 
0.299276 0.729956 -0.236151 0.467655 0.878679 0.0960314 
-0.0873953 0.139812 0.278084 0.00548861 0.185915 0.98255 
0.222492 0.0159958 -0.217911 -0.599395 -0.800453 0.000380433 
0.0556714 0.796538 0.238016 0.0842343 0.994514 -0.0620128 
0.449688 0.0717837 -0.089653 0.972495 -0.220204 0.0759183 
-0.304335 -0.230612 0.144294 -0.71518 0.519837 0.467212 
0.378844 0.637745 -0.339804 0.136175 0.273733 -0.952117 
0.461517 0.550427 -0.0321662 0.834837 0.540348 -0.105223 
-0.441045 0.252026 0.307362 0.273894 0.133144 0.952499 
0.368393 0.701884 0.141953 0.506676 0.818214 -0.271672 
-0.260117 -0.345664 0.550686 0.146447 0.169127 0.974653 
0.339256 0.222014 0.261076 -0.0682844 0.144781 0.987105 
0.421042 -0.415643 -0.477321 0.70734 -0.0929676 -0.700733 
-0.241638 0.0416241 0.179056 -0.0447353 -0.99157 -0.121604 
0.272333 -0.233297 0.378455 -0.300789 0.949179 -0.0926535 
-0.463289 0.463712 -0.00492741 -0.948956 0.306757 -0.0733671 
-0.119032 0.047465 0.172159 0.157027 -0.967693 -0.197264 
0.367399 -0.143149 0.0780613 0.0544867 0.280921 0.958183 
-0.337706 -0.233263 0.256054 -0.517748 0.844642 -0.136077 
-0.192419 -0.172658 0.0816638 0.553258 0.810254 0.193376 
0.0545604 -0.47135 -0.0327625 0.864486 -0.481978 -0.142692 
0.453205 -0.389216 -0.0858636 0.0559657 -0.541439 0.838875 
0.143475 -0.428163 0.398149 -0.664135 -0.199417 0.720526 
-0.173479 0.0506581 -0.123971 0.369806 -0.914918 0.161768 
0.475835 0.192795 -0.352942 0.162227 0.193464 -0.967602 
-0.413 -0.0428539 0.0695748 -0.369833 0.0937243 0.924359 
0.923218 -0.409343 -0.0173416 -0.052002 -0.892292 0.448454 
-0.240968 0.732381 -0.123727 -0.528909 0.824466 0.201273 
0.633792 -0.223991 -0.0841783 0.38858 0.917211 0.0879155 
0.568124 0.16368 0.202528 0.699897 -0.621379 -0.352183 
-0.00182627 0.452934 -0.313814 -0.013728 0.137259 -0.99044 
0.835378 -0.366021 -0.010801 -0.393113 -0.445368 0.804431 
0.74431 -0.366324 -0.0531336 -0.182485 -0.812167 0.554151 
-0.210367 -0.2369 0.263915 0.269489 0.951903 0.145794 
0.010948 -0.505648 0.326781 -0.00548954 0.297147 0.954816 
-0.199866 -0.155482 -0.143763 0.81748 0.573307 -0.0551929 
0.0522907 -0.83612 0.37302 0.877002 -0.356196 0.322478 
0.839578 -0.413001 -0.0986186 -0.238827 -0.965161 0.106887 
0.400598 -0.024368 0.0679471 0.494017 -0.185775 0.849373 
0.26471 0.756652 0.201233 0.210312 0.963722 -0.164342 
-0.315902 -0.322644 -0.247124 0.838351 -0.499596 -0.21811 
-0.177448 -0.374183 0.00508853 -0.368814 -0.929494 0.00421346 
-0.249956 0.685125 -0.312927 -0.0935121 0.217841 -0.971494 
-0.0711808 -0.975132 0.234568 -0.422216 -0.896311 0.1355 
0.565152 0.224505 -0.286119 0.975729 -0.194989 -0.0996633 
-0.401642 0.593319 -0.0897818 -0.780725 0.604099 0.159791 
0.124553 -0.338322 0.317418 -0.801606 0.490479 0.341844 
0.0864896 0.184682 0.265701 -0.00665155 0.271676 0.962366 
-0.121404 0.291474 -0.31787 -0.0710479 0.157962 -0.984886 
0.394128 0.636955 -0.139555 0.693965 0.704693 0.147715 
0.146435 0.768827 0.0646075 0.19543 0.980177 -0.0325718 
0.263332 -0.105769 -0.0974032 -0.90101 0.417028 0.119452 
0.40082 -0.349581 0.345908 0.965813 0.24471 0.0855706 
0.0958788 0.154564 -0.0186669 -0.885477 -0.448237 -0.122533 
-0.0375255 -0.968503 -0.0215614 -0.58362 -0.654881 -0.480124 
-0.380111 -0.504874 -0.177232 0.035269 -0.703838 0.709484 
0.538094 0.45123 0.0805979 0.911891 0.262757 -0.315299 
-0.408368 0.524999 -0.31276 -0.21006 0.125168 -0.969643 
-0.20438 0.562422 0.29695 0.103608 -0.291864 0.950832 
-0.341519 -0.288017 0.0721106 -0.728714 -0.574674 0.372459 
0.247007 0.0533372 0.298595 -0.0493783 -0.35626 0.933081 
-0.492755 0.37806 -0.118218 -0.971953 0.100823 0.212468 
0.831594 -0.393272 -0.198257 -0.108973 -0.681196 -0.723945 
0.667444 -0.320807 -0.207478 0.0903641 -0.263611 -0.960387 
0.11552 -0.558883 0.203169 0.885219 -0.416188 -0.207784 
0.0474923 0.762358 -0.315676 0.0604245 0.510091 -0.857995 
0.801638 -0.29683 -0.10219 0.273561 0.961853 0.00204736 
0.18974 0.211366 -0.348899 0.0348815 0.297029 -0.954231 
0.394377 -0.401432 0.531404 0.709363 -0.212121 0.672168 
0.610461 0.402437 0.214763 0.916325 0.240386 -0.320253 
0.927856 -0.389113 -0.147015 0.555565 -0.632271 -0.539983 
-0.273568 -0.0371556 0.013039 0.898678 0.0605143 0.434415 
-0.325796 0.67926 0.0749663 -0.619203 0.768327 -0.162053 
0.278226 -0.121904 0.016713 -0.76765 0.5151 0.381295 
-0.52144 0.408246 -0.28886 -0.854797 0.224504 -0.467888 
0.442429 0.154082 0.291018 -0.0187533 0.155552 0.98765 
-0.214552 -0.498855 0.296261 -0.427086 -0.894782 -0.130244 
0.059868 -0.259444 0.0370393 -0.282451 0.956918 0.067293 
0.104759 -0.289279 0.222714 -0.555635 0.682798 0.474401 
0.219555 0.0232062 -0.320087 -0.459636 -0.811291 -0.361306 
-0.461576 0.0908471 0.0164511 -0.945967 -0.106088 0.306416 
0.209202 -0.410033 0.47573 -0.703616 -0.399195 0.587851 
-0.232206 0.337562 0.252215 0.0432022 -0.0751829 0.996233 
-0.434207 -0.279084 -0.0105832 -0.0201701 -0.760473 0.649056 
0.411 0.669978 0.321118 0.323854 0.372513 0.869685 
0.0145395 -0.791622 0.110942 0.909441 -0.265828 -0.319771 
-0.42917 -0.474156 -0.458659 0.140891 -0.505941 -0.850984 
-0.0321442 -0.87456 0.419111 0.254619 -0.428661 0.866844 
0.448243 -0.128298 -0.271351 0.806632 0.329132 -0.490934 
0.371712 -0.552052 -0.3839 -0.077794 -0.965299 -0.249292 
0.231852 0.751878 0.108892 0.266546 0.958529 -0.100874 
-0.140192 -0.235695 0.188402 0.427803 0.858427 0.282999 
-0.444019 -0.515661 -0.367641 -0.450754 -0.877745 -0.162433 
0.273483 0.277981 -0.329469 0.0315247 0.200887 -0.979107 
0.296863 0.540404 -0.321022 -0.170631 -0.140167 -0.975314 
0.527194 -0.194064 -0.216177 0.668 0.579135 -0.46731 
0.463068 -0.0635946 -0.188187 0.94934 0.264186 -0.170172 
-0.219709 0.114413 -0.380812 -0.0371225 0.202766 -0.978523 
-0.206014 0.756712 0.0941976 -0.3596 0.92535 -0.120062 
-0.0564131 -0.770878 -0.0897076 -0.763171 0.0199617 -0.645888 
-0.397285 -0.210679 0.0947141 -0.313296 -0.242805 0.918091 
0.201132 0.634817 -0.322286 -0.0779771 -0.165597 -0.983106 
0.280903 0.706255 -0.331623 0.129408 0.418777 -0.898821 
-0.460102 0.0140967 -0.185107 -0.973929 0.0584202 -0.219203 
0.0153349 0.0799783 -0.184547 0.00111435 -0.964363 0.264579 
-0.38319 -0.446936 0.443325 -0.888756 -0.457569 0.0272713 
-0.397402 0.401985 -0.305829 0.123023 -0.0493332 -0.991177 
-0.285816 0.695896 -0.043325 -0.557235 0.830355 -0.000261972 
0.267292 0.403242 -0.317856 0.00348354 0.0374843 -0.999291 
-0.253247 0.0568059 0.296124 0.0955734 -0.499874 0.860809 
0.404501 -0.204002 -0.400483 0.738275 0.510567 -0.440762 
0.0768661 -0.38078 -0.117944 0.545353 -0.336605 -0.76765 
0.0211259 0.786032 -0.0239852 0.073 0.997246 0.0130751 
0.169278 0.0561344 0.0344824 -0.316158 -0.944235 -0.0920081 
-0.122645 -0.885893 0.383118 -0.826142 -0.402784 0.394024 
-0.0520292 -0.26994 0.10828 0.326149 0.933522 0.148878 
0.127315 0.0544008 0.146 -0.159349 -0.983913 -0.0807683 
-0.122403 -0.774657 0.256635 -0.974782 0.0691656 -0.212169 
0.522373 0.294247 -0.142344 0.943556 -0.154645 0.292894 
-0.29489 -0.247999 0.492078 -0.300337 0.761171 0.574819 
-0.529352 0.517469 0.261591 -0.887521 0.445881 0.116177 
-0.00460599 -0.909915 0.0843928 0.987372 0.0472765 0.151202 
0.224398 0.124992 -0.379885 -0.0920726 0.128213 -0.987464 
0.298726 0.0181779 0.222764 0.025509 -0.997955 0.0586074 
0.0519844 0.0749871 -0.336118 -0.0241541 -0.838883 -0.543775 
-0.242113 0.359009 -0.301985 -0.060439 0.0665564 -0.99595 
-0.097164 0.476865 -0.30874 -0.0575463 0.0643762 -0.996265 
0.338689 -0.476909 -0.476478 -0.621634 -0.342579 -0.704422 
0.120327 -0.50501 0.342171 -0.0458833 -0.64939 0.75907 
-0.423863 0.353224 0.293475 0.356865 -0.0369735 0.933424 
-0.844539 -0.289065 -0.0228957 -0.255118 0.575701 0.776842 
0.192738 -0.376201 0.032441 0.113127 -0.972933 -0.201504 
-0.0654795 0.806325 -0.270243 -0.035123 0.940004 -0.339351 
-0.35754 0.436943 0.284304 0.244462 -0.235164 0.94071 
0.138744 0.0710347 0.288976 -0.211387 -0.525604 0.824049 
0.0287262 -0.69227 0.0822446 0.897263 -0.205614 -0.390695 
-0.687041 -0.336942 -0.143741 -0.00165428 -0.962389 -0.271669 
0.0185985 -0.304325 -0.154368 0.275205 0.126889 -0.952975 
-0.351478 -0.336219 -0.338106 0.92034 -0.284157 -0.268754 
-0.486487 0.296227 -0.0433404 -0.998849 -0.0473008 -0.00800489 
-0.588035 -0.176503 -0.185156 -0.543278 0.72543 -0.422612 
0.651517 -0.343455 -0.032914 0.102018 -0.710269 0.696498 
-0.0324297 0.630053 -0.312202 -0.00645435 -0.139898 -0.990145 
-0.107243 0.781352 0.103683 -0.128981 0.991293 -0.0264986 
-0.527569 0.285105 0.141334 -0.893909 -0.191398 -0.405332 
-0.822728 -0.260975 -0.135051 -0.377861 0.918514 -0.116417 
0.224695 -0.160933 -0.305913 -0.717979 0.513788 -0.469604 
0.540595 0.216792 0.121406 0.803584 -0.39238 -0.447539 
0.335513 -0.381789 -0.321078 -0.996809 -0.0604785 -0.05209 
-0.414214 -0.174127 -0.439423 -0.565411 0.642988 -0.516601 
0.167065 0.763291 -0.0460531 0.251062 0.967819 0.01713 
0.275297 -0.331189 -0.114101 -0.408946 -0.870028 -0.275343 
0.0774511 -0.642272 0.167799 0.918784 -0.238655 -0.314451 
0.0981004 0.770791 0.322906 0.0512568 0.62552 0.778523 
0.113632 -0.427974 0.0602338 0.692172 -0.618597 -0.371801 
-0.571488 -0.386196 -0.100566 -0.276656 -0.923938 0.264198 
0.471306 0.608524 -0.285489 0.791208 0.605491 -0.0858513 
-0.0128586 0.222759 -0.340552 -0.0851805 0.263696 -0.960838 
-0.120236 -0.226335 0.0388414 0.583579 0.81189 0.0164195 
0.581273 -0.222548 0.000175724 0.471539 0.61899 0.628094 
0.319301 0.165212 -0.365741 0.011003 0.371957 -0.928185 
-0.559339 0.259999 0.231662 -0.952264 -0.253212 -0.170521 
-0.0616752 0.794189 0.320917 -0.00116159 0.761086 0.64865 
0.282657 -0.067085 -0.294003 -0.899584 0.0710727 -0.430927 
0.0578142 0.581015 -0.307916 -0.0425105 -0.0866698 -0.99533 
0.12697 0.288541 -0.338371 0.04691 0.184721 -0.981671 
0.355888 -0.300019 0.0403137 0.781616 -0.586259 0.213017 
0.17601 -0.33744 -0.0935358 0.159194 -0.776741 -0.60937 
-0.00804856 -0.523024 -0.133459 -0.102231 -0.0736221 -0.992033 
0.300454 -0.422023 0.218965 0.210076 -0.810715 -0.546451 
0.496616 0.57425 0.119966 0.796637 0.525538 -0.298629 
0.0234005 -0.608945 0.0188957 0.968476 -0.213027 -0.129129 
-0.0582646 0.0612766 -0.264277 0.113479 -0.993536 0.00296801 
0.284019 0.404071 0.259724 -0.0539612 -0.130572 0.989969 
0.312189 -0.350339 -0.220298 -0.91846 -0.375881 -0.123064 
0.542757 0.456583 0.323868 0.0644622 -0.0712163 0.995376 
0.480142 -0.0816213 -0.0889249 0.898947 0.437974 0.00850131 
-0.242235 0.762652 0.238815 -0.320614 0.945428 -0.0580805 
0.383277 0.676276 -0.247506 0.572366 0.810907 0.121766 
-0.129207 0.738549 -0.314533 -0.0992163 0.268872 -0.958052 
-0.196139 0.147127 0.27323 0.0640952 0.303873 0.950554 
-0.235106 -0.457018 0.455472 0.379383 -0.823825 0.421166 
0.0940551 0.287377 0.256172 -0.0286539 0.0424309 0.998688 
-0.34563 0.690575 -0.288434 -0.471605 0.73007 -0.494557 
-0.310694 0.145031 0.29846 0.234656 0.293078 0.926845 
0.233724 0.0105669 -0.115492 -0.617522 -0.780327 0.0987759 
-0.119622 0.783912 -0.117698 -0.218441 0.960688 0.171352 
-0.497892 -0.446983 -0.317086 -0.944147 -0.32929 0.0124231 
0.491017 0.0809896 0.237785 0.640358 -0.767251 0.0355985 
-0.179285 -0.363411 -0.09387 -0.41832 -0.787973 -0.451782 
-0.281587 0.571105 -0.312181 0.0516717 -0.0824138 -0.995258 
-0.0897431 -0.517005 0.32606 0.0367668 -0.124234 0.991572 
-0.0627771 -0.678255 0.326201 -0.849476 0.209568 0.484223 
0.547409 0.541865 0.200479 0.833279 0.428923 -0.348814 
-0.262207 0.234013 0.256239 0.14607 0.196826 0.969496 
0.191201 -0.186818 -0.103199 -0.587884 0.792944 0.160101 
0.0446563 -0.256438 -0.0716828 -0.153638 0.98808 0.00963301 
0.0520117 0.0587437 0.209294 -0.0710644 -0.990907 0.114254 
0.18038 0.343664 0.256181 -0.020108 -0.0169715 0.999654 
-0.235526 -0.00624793 -0.242649 0.752366 -0.643928 -0.138931 
0.490362 0.131306 0.15208 0.650473 -0.650699 -0.391759 
0.397284 -0.0581492 -0.331104 0.655381 -0.106031 -0.747819 
0.297668 -0.285973 -0.390314 -0.848154 -0.523784 -0.0792774 
0.385694 -0.306765 0.248801 0.891664 0.341351 -0.297348 
0.201671 0.768058 0.311986 0.175008 0.741905 0.647263 
-0.291966 0.172441 -0.34304 -0.0810661 0.406874 -0.90988 
0.501869 -0.245104 -0.297491 0.78748 0.201642 -0.582422 
-0.320236 -0.49661 -0.282923 0.963645 -0.21797 -0.154525 
-0.284245 0.451286 -0.300357 0.0306986 -0.0560887 -0.997954 
0.476075 -0.441204 -0.313326 0.962246 -0.116959 -0.245772 
0.0444563 -0.281114 0.136144 -0.287662 0.899446 0.32901 
0.293226 -0.37337 0.0249973 0.324312 -0.945832 0.0149689 
-0.131834 -0.789568 0.361498 -0.900246 0.343801 0.267129 
0.071259 0.077975 0.0367066 -0.338507 -0.732091 -0.591148 
0.463836 0.0575092 -0.187767 0.92025 -0.312884 0.23504 
0.241963 0.674763 0.325214 -0.0389394 -0.150624 0.987824 
0.0843288 0.406284 0.256626 0.00903785 -0.0862294 0.996234 
-0.923015 -0.29749 -0.154575 -0.472146 0.872437 -0.126223 
-0.103732 -0.861492 0.214106 -0.968564 -0.07278 -0.237881 
-0.234504 -0.230568 0.359345 0.30866 0.950833 0.0254183 
-0.165226 -0.28311 0.40418 0.745714 0.624165 0.233083 
-0.408786 0.619974 0.134032 -0.702391 0.668051 -0.245672 
-0.742826 -0.343769 -0.0415008 0.0604478 -0.932981 0.354814 
0.283326 -0.226885 0.188162 0.163047 0.953591 0.25314 
0.615282 -0.23892 -0.189588 0.367099 0.676091 -0.638857 
-0.181851 0.0513359 0.0374966 0.27749 -0.959424 -0.0500458 
-0.0915112 -0.746366 0.120488 -0.976464 -0.033185 -0.213113 
-0.139882 -0.212731 -0.0652781 0.554684 0.830498 0.0509787 
-0.225719 -0.173222 -0.35591 0.904822 0.103149 -0.413107 
0.407831 0.0609989 0.298407 0.218423 -0.446345 0.867794 
0.280704 -0.290688 -0.293892 -0.700994 -0.694497 -0.162118 
0.519366 0.3545 -0.0633451 0.998508 -0.0315404 -0.0445785 
-0.298818 0.0334122 0.090729 0.142326 -0.874009 0.464598 
-0.0847859 -0.870268 0.00522706 -0.97499 -0.087901 -0.204128 
-0.499743 -0.400754 -0.439445 -0.863091 -0.206493 -0.460905 
-0.4975 0.462 -0.202158 -0.911226 0.348675 0.219302 
-0.0800366 -0.508026 -0.0503471 -0.950054 -0.254765 -0.180257 
-0.482823 -0.0871352 -0.203167 -0.802297 0.483188 -0.350498 
-0.00411455 -0.770127 0.422065 0.216768 0.120542 0.968753 
-0.0722602 -0.702701 -0.0141987 -0.99035 0.0837908 -0.11039 
0.0159898 0.119334 0.289791 -0.0320665 -0.00629097 0.999466 
-0.150221 -0.574445 0.267643 -0.817657 -0.514889 0.257541 
0.381889 0.235332 -0.333156 0.00738178 0.304479 -0.952491 
0.0312289 0.624966 0.30419 0.0266933 -0.328647 0.944076 
-0.220558 -0.136943 -0.031491 0.821459 0.561442 0.0999403 
-0.0247865 0.113566 -0.0922939 0.486633 -0.709058 0.510319 
-0.453084 0.559675 -0.174412 -0.86973 0.438664 0.22615 
0.190074 -0.471463 0.230272 0.538493 -0.722885 -0.43297 
-0.00646251 -0.633396 0.400254 -0.00162114 0.417322 0.908757 
-0.243228 -0.0677409 -0.148292 0.979113 0.202779 0.014772 
-0.326993 -0.347454 -0.005897 -0.349002 -0.857185 0.378722 
-0.476429 0.00879044 -0.0349607 -0.963183 0.212097 0.16521 
-0.973516 -0.384995 -0.123752 -0.970879 -0.191668 0.143727 
-0.344612 -0.463508 0.34388 -0.563787 -0.77533 -0.284619 
-0.303063 0.0573405 -0.363719 -0.0670864 -0.250857 -0.965697 
-0.177138 -0.252036 -0.178075 0.460061 -0.447291 -0.766991 
-0.460063 -0.129158 0.057328 -0.485512 0.256761 0.835675 
-0.397948 0.0940213 -0.352035 -0.407603 -0.171913 -0.896831 
0.219171 -0.411856 0.158463 0.334425 -0.848811 -0.409487 
0.588433 0.319685 0.14914 0.872607 -0.0591441 -0.484828 
-0.399991 0.0799164 0.103897 -0.648074 -0.587504 0.484602 
-0.463274 0.166193 0.151108 -0.741232 -0.651525 -0.161524 
0.334203 0.742607 0.294578 0.273751 0.862983 0.424641 
0.330007 0.700086 0.0518595 0.517097 0.842116 -0.153137 
-0.239281 0.0269803 -0.0525029 0.722309 -0.681225 0.119168 
0.450665 -0.00888838 -0.0152424 0.973304 0.150897 0.172944 
-0.1279 0.0458682 0.269947 0.193333 -0.702253 0.685174 
0.0977128 0.671116 -0.327054 -0.0390716 -0.119257 -0.992094 
0.278265 -0.200246 -0.450346 -0.789732 0.22299 -0.571488 
-0.481035 0.210395 0.0610631 -0.949615 -0.305748 -0.0689213 
-0.458783 -0.443693 -0.14765 -0.362022 -0.7197 0.592429 
-0.00906909 -0.928662 0.319021 0.659137 -0.726454 0.194431 
0.320057 0.702059 -0.142046 0.558052 0.82306 0.105594 
-0.146871 0.388397 -0.307139 -0.10038 0.039595 -0.994161 
0.13468 0.534492 0.276225 -0.047884 -0.225726 0.973013 
-0.516389 0.466402 0.157039 -0.861865 0.293837 -0.413337 
-0.386933 -0.334714 0.252807 -0.95354 -0.0874485 -0.288295 
-0.293878 0.725533 0.162606 -0.505698 0.837552 -0.206826 
0.25279 0.0300574 0.0838357 -0.325802 -0.943867 0.0544825 
-0.00415871 0.188877 -0.0220526 0.579646 -0.814854 -0.00492601 
-0.301052 0.549319 0.305115 0.165985 -0.301601 0.938875 
-0.066804 -0.443669 -0.122921 -0.541487 -0.351446 -0.763726 
-0.459911 0.601489 0.237521 -0.76247 0.640958 -0.0883919 
0.28539 -0.375084 0.555714 -0.383103 -0.196354 0.902595 
-0.971212 -0.357247 -0.220059 -0.83724 0.450369 -0.310156 
0.421529 -0.477622 -0.133255 0.273157 -0.645772 0.712996 
-0.266782 0.720698 0.32627 -0.149315 0.454489 0.878149 
-0.393218 -0.265805 -0.498171 0.18482 -0.0184077 -0.9826 
0.351253 0.0652278 -0.382705 -0.00853915 -0.160076 -0.987068 
0.357355 0.363094 -0.31975 -0.0718914 0.0358479 -0.996768 
0.464905 0.269403 0.281555 -0.305275 0.00209596 0.952262 
-0.515062 -0.0881828 -0.0268623 -0.804809 0.500224 0.319467 
-0.306698 -0.249154 -0.440946 0.730992 -0.491331 -0.473546 
-0.0632018 0.69575 0.331995 0.0209247 -0.251986 0.967505 
-0.0258389 0.347941 -0.330044 -0.0945356 0.0852794 -0.991862 
-0.198908 -0.288898 0.499975 0.645016 0.518634 0.561225 
0.165472 0.479034 -0.315205 -0.0141448 0.0576765 -0.998235 
-0.291753 -0.110524 0.0830982 0.392878 0.531371 0.750527 
-0.645224 -0.32845 -0.0236124 -0.0731004 -0.773774 0.62923 
0.421788 0.63734 0.0751381 0.653315 0.708492 -0.266867 
-0.466296 0.519262 0.0887927 -0.865543 0.4094 -0.288491 
0.455849 0.300296 -0.33438 -0.156757 0.0302557 -0.987174 
-0.485352 -0.297938 -0.475613 -0.707981 0.192774 -0.679413 
0.288766 -0.4686 0.415758 -0.110521 -0.991097 0.0742374 
0.0560332 -0.401352 0.255411 -0.460125 0.537671 0.706537 
0.508408 0.203307 0.0248306 0.918793 -0.346402 -0.189278 
0.103484 0.0806477 -0.0875975 -0.623625 -0.716307 0.313043 
-0.551001 -0.304932 0.0123507 0.0145534 -0.706695 0.707369 
0.445137 0.0993977 -0.375389 0.42525 -0.136652 -0.8947 
0.0521067 -0.594425 0.320824 0.712769 0.100874 0.694107 
0.00610401 -0.876886 0.186279 0.955443 -0.210287 -0.207144 
-0.572028 -0.145567 -0.0825105 -0.669646 0.741559 0.0407984 
0.144579 -0.220807 0.0786369 -0.484662 0.862771 0.143974 
0.523176 0.439695 -0.167931 0.94142 0.231083 0.24562 
-0.0667009 -0.299605 0.218297 0.602197 0.67018 0.433841 
-0.157594 0.765917 0.327032 -0.221351 0.502814 0.835573 
-0.033468 0.107843 -0.370156 0.025561 -0.310505 -0.950228 
-0.35937 -0.317619 0.468105 -0.864712 0.412088 0.287153 
0.190378 0.764132 -0.199491 0.256797 0.961936 0.0934633 
0.00783792 0.790159 -0.154442 0.117052 0.982591 0.144266 
0.499993 0.468932 -0.0761633 0.938949 0.343883 0.0109192 
0.446283 0.526269 -0.34331 0.115079 -0.0214562 -0.993125 
-0.104166 -0.445254 0.0246597 -0.890199 -0.438718 -0.12277 
0.550649 -0.383946 -0.0662442 0.026549 -0.917978 0.395742 
-0.833789 -0.36497 -0.0854264 0.355359 -0.900756 0.249718 
-0.441501 0.0499666 -0.27418 -0.903808 -0.260101 -0.339821 
-0.257645 -0.306395 -0.146616 0.342055 -0.815258 -0.467282 
-0.380509 -0.410756 -0.0989846 0.148943 -0.680038 0.717888 
