ply
format ascii 1.0
element vertex 820
property float x
property float y
property float z
property float nx
property float ny
property float nz
end_header
-0.358684 0.592143 -0.101934 -0.494136 0.439988 0.749826 
-0.242928 0.486129 -0.336549 -0.490578 0.867072 -0.0867103 
-0.173895 0.495428 -0.373241 0.676663 -0.177152 -0.714664 
-0.167508 0.403892 -0.361274 0.642289 0.761774 -0.0846453 
-0.195502 0.455064 -0.350848 0.95487 -0.274577 0.113275 
-0.217284 0.488394 -0.370305 -0.51669 -6.32763e-17 -0.856172 
-0.188543 0.372839 -0.381434 -0.293804 0.21577 -0.931194 
-0.190689 0.375264 -0.322959 0.444324 0.246518 0.861281 
-0.22417 0.354193 -0.287427 0.81669 0.199968 0.541323 
-0.222555 0.449328 -0.313485 0.601369 -0.00541202 0.798953 
-0.255927 0.403714 -0.260277 0.921504 0.349699 0.168943 
-0.23904 0.373591 -0.230543 0.808103 0.387007 -0.444067 
-0.147077 0.369282 -0.38446 0.529067 0.388282 -0.754537 
-0.132061 0.568032 -0.233776 0.135632 -0.644869 -0.752162 
-0.0410306 0.604526 -0.24615 0.456052 -0.473134 -0.753764 
-0.136141 0.615458 -0.228989 -0.370084 0.678969 -0.634065 
-0.179531 0.574617 -0.228403 -0.357483 0.128393 -0.925052 
-0.0860832 0.584797 -0.241837 0.0949774 -0.641869 -0.76091 
-0.0926067 0.630435 -0.238162 -0.440083 0.584171 -0.681961 
-0.211983 0.523003 -0.189143 0.273276 -0.923558 -0.269001 
-0.236788 0.451427 -0.131321 0.775681 0.617763 0.129184 
-0.197813 0.367255 -0.133832 0.9651 0.145197 0.217945 
-0.194464 0.403164 -0.155945 0.904663 0.403488 0.137047 
-0.238793 0.44887 -0.182456 0.632635 0.602923 -0.486061 
-0.206196 0.365984 -0.205696 0.482067 0.453791 -0.749456 
-0.246231 0.415769 -0.212722 0.655395 0.405014 -0.637511 
-0.178938 0.405437 -0.0758418 0.35653 0.568251 -0.741605 
-0.22559 0.436772 -0.0815286 0.769181 0.602304 -0.213519 
-0.179575 0.463444 -0.00260788 -0.215944 0.623998 -0.750995 
-0.250095 0.475434 -0.0666078 0.766685 0.63991 -0.0520585 
-0.13769 0.371572 -0.0760274 -9.66419e-17 -7.52193e-17 -1 
-0.209522 0.398202 -0.103598 0.873995 0.426031 -0.23373 
-0.119378 0.404892 -0.0359783 -1.05401e-16 -6.23553e-17 -1 
-0.0743377 0.383829 -0.0260688 -0.104432 -0.971362 0.213425 
-0.0736222 0.466877 -0.0325859 -0.575632 0.768152 -0.28034 
-0.0329576 0.365468 -0.0461111 -0.364369 -0.902527 0.229521 
-0.0624391 0.387223 -0.0674847 -0.461469 -0.738301 -0.491893 
-0.051314 0.489092 -0.0625183 -0.797599 0.578895 -0.169457 
-0.122192 0.465117 -0.0147258 -0.161114 0.606529 -0.778566 
-0.115982 0.367662 -0.0158544 0.804052 -0.411355 0.429288 
-0.0977129 0.437889 -0.0624795 -0.740677 0.394938 -0.543526 
-0.175521 0.611096 -0.196194 -0.374555 0.905231 -0.200665 
-0.165708 0.541221 -0.203216 0.304429 -0.93765 -0.167735 
-0.215735 0.602404 -0.180841 -0.176828 0.96088 -0.21317 
-0.218422 0.530099 -0.146925 0.370696 -0.701151 0.609074 
-0.178502 0.554562 -0.155803 0.504915 -0.487385 0.712402 
-0.254832 0.596548 -0.164297 -0.145274 0.983456 0.108212 
-0.257671 0.523705 -0.197623 -0.013072 -0.570935 -0.820891 
-0.136623 0.604199 -0.169402 0.27472 0.448302 0.85062 
-0.219965 0.575817 -0.134904 0.145613 0.385657 0.911079 
-0.219826 0.568592 -0.215734 -0.239349 0.246678 -0.939075 
-0.228356 0.55564 -0.010707 -0.221177 -0.307547 -0.92547 
-0.241678 0.595148 -0.00283361 -0.724695 0.228578 -0.650053 
-0.121697 0.566315 -0.183863 0.42007 -0.698525 0.579314 
-0.0956573 0.617406 -0.187176 0.00609023 0.456842 0.889527 
-0.289098 0.166061 0.0133206 0.713569 -0.495242 0.495535 
-0.486537 0.0793528 0.0160296 -0.615802 0.676293 0.404247 
-0.336569 0.144569 0.0307244 -0.229099 -0.544021 0.807189 
-0.315544 0.170442 0.0700772 0.344109 -0.573553 0.743388 
-0.433482 0.33897 0.0276045 -0.449918 -0.622882 0.639994 
-0.4435 0.195688 0.125119 0.348002 0.178388 0.920365 
-0.397571 0.198961 0.100185 0.528042 -0.104177 0.842804 
-0.453091 0.247522 0.106419 0.225456 0.410246 0.883667 
-0.492897 0.208444 0.0458449 -0.0437269 -0.992231 -0.116473 
-0.50072 0.301717 0.0115034 -0.25855 0.945782 0.19659 
-0.49377 0.297237 0.0674547 -0.442494 0.891663 0.0955812 
-0.409263 0.18615 0.00987061 -0.44699 -0.462206 0.765876 
-0.259364 0.315916 0.0347655 0.0792028 0.135144 0.987655 
-0.366763 0.17433 0.0266062 -0.556571 -0.513617 0.653013 
-0.30166 0.328203 0.0369156 0.112475 0.0378899 0.992932 
-0.314622 0.281776 0.04526 0.0967761 0.206806 0.973584 
-0.487017 0.192146 0.141249 0.329143 0.363946 0.871326 
-0.203237 0.207826 0.0152284 0.422963 -0.73219 0.533855 
-0.163369 0.329604 0.013541 0.502909 -0.251584 0.826915 
-0.327331 0.475985 0.0522901 0.0635229 0.0287282 0.997567 
-0.394335 0.472314 0.0637147 0.24408 0.437852 0.865281 
-0.284804 0.455812 0.0287148 0.521135 -0.222208 0.82404 
-0.447483 0.408463 0.111118 0.413138 0.0656219 0.908301 
-0.437033 0.496986 0.0607453 0.287757 0.612178 0.736501 
-0.294445 0.509929 0.0185056 -0.297911 0.678859 -0.671118 
-0.398912 0.505412 0.0370513 0.232369 0.811811 0.535693 
-0.481455 0.522143 0.0440038 0.061298 0.948858 0.309695 
-0.280003 0.381342 0.0322004 0.231019 0.0625321 0.970938 
-0.470137 0.357512 0.110216 0.430726 -0.552844 0.71333 
-0.302485 0.54735 0.0589221 -0.815783 0.491379 -0.305032 
-0.48122 0.533428 0.0019028 -0.038159 0.965107 0.259059 
-0.268861 0.580032 0.0319775 -0.81895 0.3657 -0.442249 
-0.442518 0.526028 0.0287313 0.16628 0.918411 0.358989 
-0.492788 0.396168 0.132758 0.36831 0.212084 0.90519 
-0.239444 0.364115 0.0271984 0.0512737 0.0898326 0.994636 
-0.215609 0.487947 0.0161574 1.13483e-16 4.60359e-17 -1 
-0.245627 0.519869 0.00509396 -0.0712101 -0.228711 -0.970886 
0.22265 -0.392887 -0.236981 -0.80752 0.160642 -0.567544 
0.22544 -0.510386 -0.317331 -0.961297 -0.241598 0.132429 
0.221415 -0.434586 -0.244224 -0.866716 -1.06142e-16 -0.498802 
0.00652968 -0.393513 -0.233333 0.543574 -0.380802 -0.748008 
0.232488 -0.537027 -0.237446 -0.573783 -0.378837 -0.726124 
0.203518 -0.546684 -0.0280899 -0.903873 -0.144655 0.402601 
0.199325 -0.605671 -0.0825733 -0.885122 -0.438067 0.157025 
0.224114 -0.602651 -0.185325 -0.711453 -0.49596 -0.497853 
0.217805 -0.56437 -0.207818 -0.727562 -0.375533 -0.574132 
0.00507778 -0.476108 -0.177866 0.656514 -0.513736 -0.552327 
0.0507177 -0.454954 -0.0790832 0.871026 -0.484905 0.0786196 
0.184555 -0.422333 -0.153343 -0.982388 0.0611876 -0.176551 
0.196978 -0.485283 -0.039896 -0.914514 0.137499 0.380472 
0.214246 -0.467916 -0.00524878 -0.925648 0.375038 0.0502285 
-0.00210956 -0.447275 -0.208973 0.590979 -0.460072 -0.662629 
0.0410289 -0.399572 -0.198752 0.677072 -0.406382 -0.613536 
0.301461 -0.582719 -0.370864 -0.317659 -0.657763 0.682965 
0.316536 -0.578619 -0.414711 6.46595e-17 1.04004e-16 -1 
0.265255 -0.601917 -0.395285 -0.23681 -0.933726 0.268472 
0.339754 -0.603765 -0.363389 -0.461486 -0.715083 0.52506 
0.337889 -0.564103 -0.303379 -0.411332 -0.900536 0.140857 
0.285414 -0.617832 -0.226147 -0.275512 -0.537426 -0.797036 
0.306125 -0.539572 -0.279402 -0.710551 -0.634862 -0.303427 
0.251026 -0.591562 -0.222691 -0.519844 -0.431063 -0.737528 
0.319042 -0.586387 -0.251366 -0.115501 -0.565107 -0.816893 
0.298641 -0.540544 -0.320567 -0.57474 -0.715857 0.396513 
0.329324 -0.62298 -0.227397 0.032162 -0.541975 -0.839779 
0.41201 -0.627141 -0.340225 -0.216918 -0.807293 0.54884 
0.418753 -0.64235 -0.441915 0.316811 0.166213 -0.933812 
0.364535 -0.686483 -0.432063 -0.713836 -0.561555 0.418443 
0.376823 -0.636952 -0.431898 -0.592261 0.311083 -0.743272 
0.375647 -0.645015 -0.389197 -0.594754 -0.613597 0.519391 
0.460314 -0.619703 -0.339329 0.451117 -0.869791 0.19989 
0.411245 -0.666636 -0.390756 -0.0311225 -0.748322 0.662606 
0.420212 -0.598621 -0.429255 0.244906 0.447078 -0.860315 
0.416363 -0.553467 -0.358922 0.1685 0.858544 -0.484263 
0.368901 -0.569288 -0.415015 0.0844848 0.344755 -0.934883 
0.369088 -0.597055 -0.332674 -0.448189 -0.674474 0.586695 
0.424505 -0.602462 -0.226862 0.0164363 -0.871942 -0.489333 
0.360608 -0.581148 -0.254169 0.000417397 -0.764566 -0.644546 
0.418601 -0.605765 -0.3036 -0.362569 -0.817774 0.446978 
0.386164 -0.578547 -0.288006 -0.44665 -0.871359 0.203068 
0.467527 -0.609239 -0.292342 0.0102811 -0.988334 0.151954 
0.27281 -0.398629 -0.278711 -0.412281 -5.04898e-17 -0.911057 
0.299727 -0.437953 -0.288511 -0.121182 -1.48405e-17 -0.99263 
0.270037 -0.509135 -0.28998 -0.287065 -0.924521 0.250708 
0.331962 -0.470033 -0.311163 -0.195098 0.936518 -0.291325 
0.259898 -0.530031 -0.331963 -0.132149 -0.887908 0.440632 
0.349227 -0.530059 -0.407715 0.326648 0.460144 -0.825571 
0.29966 -0.49025 -0.35288 -0.384271 0.838146 -0.387101 
0.260958 -0.487049 -0.325463 -0.0884388 0.875176 -0.475652 
0.340385 -0.467727 -0.353228 0.0542897 0.921609 -0.384303 
0.329462 -0.394412 -0.293885 -0.0476629 -0.00539518 -0.998849 
0.357999 -0.358271 -0.295509 0.0680513 -0.0839883 -0.99414 
0.378267 -0.397403 -0.290572 0.00447619 0.0731731 -0.997309 
0.362638 -0.525851 -0.356015 0.829136 0.398051 -0.392542 
0.456221 -0.449324 -0.296117 0.164683 -0.168879 -0.971781 
0.454946 -0.523977 -0.319808 -0.0613006 0.73851 -0.67145 
0.380131 -0.491233 -0.31997 0.679727 0.449159 -0.579851 
0.401206 -0.43716 -0.299286 -0.0166122 -0.0535697 -0.998426 
0.414788 -0.47992 -0.286312 0.239024 0.0187415 -0.970833 
0.410826 -0.521637 -0.323561 0.245291 0.677273 -0.693637 
0.438125 -0.404812 -0.300722 0.0888533 0.186557 -0.978418 
0.318322 -0.662545 -0.199653 -0.135882 -0.658442 -0.740264 
0.276626 -0.65077 -0.191417 -0.448303 -0.665095 -0.597221 
0.313309 -0.705298 -0.107558 -0.218832 -0.975315 0.0295343 
0.333206 -0.694202 -0.0412315 -0.0965261 -0.9948 0.0324807 
0.338724 -0.704854 -0.140952 -0.0961879 -0.954768 -0.281363 
0.414269 -0.686041 -0.163783 0.262647 -0.695832 -0.668457 
0.443814 -0.635084 -0.0183603 0.558471 -0.446084 0.699371 
0.463426 -0.687899 -0.138554 0.317906 -0.749045 -0.581264 
0.380681 -0.706515 -0.137724 0.0564676 -0.963169 -0.2629 
0.421925 -0.706137 -0.12224 0.0963209 -0.967714 -0.23292 
0.462484 -0.707312 -0.0979416 0.124726 -0.989431 -0.0739542 
0.469364 -0.615074 -0.208136 -0.124624 -0.878817 -0.460596 
0.378775 -0.645491 -0.206381 0.222882 -0.550904 -0.804257 
0.243914 -0.364348 -0.0278119 -0.604333 0.284468 0.744217 
0.039795 -0.232455 -0.276336 0.343711 -0.253621 -0.904179 
0.0710622 -0.198315 -0.274255 0.456365 -0.284049 -0.843236 
0.0353979 -0.333609 -0.238654 0.59341 -0.353983 -0.722883 
-0.00410731 -0.347585 -0.259602 0.396484 -0.292621 -0.870157 
0.028387 -0.275458 -0.269974 0.390863 -0.262221 -0.882307 
0.0724392 -0.114766 -0.291374 0.281842 -0.141392 -0.948985 
0.227054 -0.00598155 -0.248294 0.522396 -0.560241 -0.642832 
0.143095 -0.140559 -0.229769 0.671792 -0.415768 -0.613052 
0.213414 -0.0419366 -0.229526 0.638947 -0.547563 -0.540298 
0.148701 -0.0719234 -0.269268 0.531766 -0.346197 -0.772899 
0.189579 -0.0238224 -0.265035 0.503245 -0.434856 -0.746756 
0.180217 -0.0714973 -0.239396 0.653381 -0.440996 -0.615317 
0.0910193 -0.269692 -0.219323 0.716594 -0.345825 -0.605721 
0.113496 -0.317948 -0.0838535 0.956293 -0.238879 0.168643 
0.116016 -0.194303 -0.0109234 0.80663 -0.215964 0.550189 
0.141257 -0.208456 -0.178747 0.862877 -0.362463 -0.352228 
0.0609299 -0.349201 -0.207022 0.669871 -0.369779 -0.643845 
0.0737116 -0.309153 -0.216433 0.67515 -0.358222 -0.644864 
0.213172 -0.322476 -0.098175 -0.821937 0.48934 0.291489 
0.229724 -0.293531 -0.164728 -0.829811 0.529303 -0.176783 
0.226811 -0.340819 -0.220809 -0.809552 0.326489 -0.487884 
0.0849428 -0.351493 -0.0212248 0.845355 -0.272162 0.459677 
0.148682 -0.175255 -0.059339 0.887796 -0.276183 0.368159 
0.167058 -0.150149 -0.187071 0.82872 -0.458603 -0.320791 
0.173115 -0.110297 -0.220267 0.701448 -0.457879 -0.546185 
0.232557 -0.0465667 -0.186538 0.733259 -0.644808 -0.215762 
0.189008 -0.113882 -0.177707 0.870646 -0.474217 -0.13074 
0.160265 -0.179529 -0.113692 0.943097 -0.320811 0.0874518 
0.202004 -0.0806254 -0.202764 0.783619 -0.50435 -0.36273 
0.183041 -0.107712 -0.0982488 0.887126 -0.404542 0.222155 
0.175788 -0.0294488 -0.0145111 0.612246 -0.365615 0.701056 
0.166826 -0.145714 -0.087166 0.931065 -0.291332 0.219644 
0.164493 -0.0695217 -0.0219717 0.718749 -0.295269 0.629457 
0.204117 -0.0396808 -0.0507547 0.695702 -0.508181 0.507691 
0.181897 -0.0841576 -0.058619 0.821778 -0.414545 0.39094 
0.160833 -0.120901 -0.0474508 0.846805 -0.303907 0.436533 
0.345242 -0.219128 -0.265933 -0.507793 0.401002 -0.762459 
0.271625 -0.293572 -0.249766 -0.659071 0.411898 -0.629258 
0.332871 -0.322073 -0.292298 -0.239855 0.123692 -0.962897 
0.317887 -0.284586 -0.27786 -0.433192 0.295532 -0.851472 
0.28155 -0.249899 -0.224903 -0.716396 0.499589 -0.487019 
0.35451 -0.264642 -0.287979 -0.295022 0.2434 -0.923969 
0.294367 -0.35505 -0.284627 -0.353701 0.117373 -0.927965 
0.25463 -0.349703 -0.260904 -0.638295 0.225475 -0.73603 
0.456987 -0.181114 -0.292073 0.00525067 0.0619625 -0.998065 
0.46383 -0.274495 -0.282614 0.379264 -0.160241 -0.911308 
0.462968 -0.230102 -0.291137 0.232457 -0.103527 -0.967081 
0.37694 -0.180295 -0.267145 -0.487599 0.372399 -0.789662 
0.384039 -0.315433 -0.296985 0.055964 -0.0761631 -0.995524 
0.422258 -0.253325 -0.295611 0.0418357 0.0202466 -0.998919 
0.426742 -0.313111 -0.291457 0.215034 -0.0973229 -0.971745 
0.403599 -0.352689 -0.288756 0.11293 -0.0646515 -0.991497 
0.415237 -0.185243 -0.286898 -0.289556 0.222473 -0.930948 
0.385481 -0.233694 -0.288448 -0.255502 0.219231 -0.941624 
0.471462 -0.0336567 -0.289141 -0.248389 -0.070657 -0.96608 
0.39409 -0.134466 -0.257122 -0.580194 0.286618 -0.762381 
0.427452 -0.0146062 -0.269157 -0.564066 -0.103205 -0.819255 
0.468035 -0.121782 -0.288886 -0.135312 0.0863089 -0.987037 
0.400868 -0.0762832 -0.248678 -0.71887 0.0929573 -0.688901 
0.469744 -0.0771766 -0.285927 -0.225764 -0.00229228 -0.974179 
0.430142 -0.143399 -0.281726 -0.3701 0.208462 -0.905301 
0.432071 -0.0956531 -0.273197 -0.464444 0.105401 -0.879308 
0.279367 -0.208462 -0.140288 -0.849324 0.527146 -0.0276919 
0.273415 -0.22704 -0.102395 -0.826091 0.510252 0.239201 
0.320778 -0.241334 -0.0227038 -0.58228 0.249941 0.773614 
0.265234 -0.272029 -0.0610725 -0.725677 0.433315 0.534445 
0.302732 -0.194185 -0.0760651 -0.802804 0.458242 0.38147 
0.327505 -0.190514 -0.0388308 -0.715391 0.356827 0.600741 
0.294752 -0.277899 -0.0293118 -0.554468 0.314945 0.770308 
0.250013 -0.280139 -0.202157 -0.793114 0.489514 -0.362417 
0.300916 -0.203845 -0.200007 -0.734371 0.543302 -0.406844 
0.288327 -0.235902 -0.0565276 -0.733164 0.424205 0.531526 
0.47204 -0.306673 -0.00159333 0.462639 -0.148894 0.873954 
0.347058 -0.0258579 -0.132557 -0.787052 -0.615636 0.0392733 
0.277751 -0.0104178 -0.190646 0.432157 -0.856199 -0.283132 
0.300321 -0.175356 -0.114079 -0.841517 0.525214 0.12649 
0.328922 -0.131705 -0.112447 -0.866965 0.486258 0.109203 
0.320003 -0.14994 -0.154303 -0.843729 0.506409 -0.177966 
0.339766 -0.109644 -0.150629 -0.89132 0.434399 -0.12979 
0.355105 -0.0170128 -0.183634 -0.74079 -0.554967 -0.378473 
0.246615 -0.0283732 -0.119725 0.64368 -0.741073 0.191017 
0.283236 -0.00755857 -0.121483 0.289279 -0.935277 0.203897 
0.355295 -0.00788964 -0.0775318 -0.674871 -0.57759 0.459281 
0.349479 -0.107685 -0.0741822 -0.863032 0.419382 0.281594 
0.350883 -0.156948 -0.0300337 -0.730008 0.30578 0.611217 
0.325075 -0.155803 -0.0743514 -0.822394 0.454148 0.342662 
0.359815 -0.0554245 -0.159087 -0.986236 1.20779e-16 -0.165346 
0.38435 -0.0698478 -0.0266064 -0.843638 0.236897 0.481824 
0.371026 -0.0591271 -0.064612 -0.932052 0.174482 0.317546 
0.369038 -0.0846561 -0.203054 -0.877739 0.208249 -0.431517 
0.399875 -0.023985 -0.0187309 -0.807683 0.0186848 0.589321 
0.361173 -0.0566097 -0.106291 -0.983979 0.0531119 0.170191 
0.37675 -0.0390206 -0.21257 -0.874148 -0.104515 -0.47428 
-0.00611279 -0.532551 0.0243445 0.829594 -0.256628 0.4959 
0.0956315 -0.633814 0.167349 -0.58736 0.34112 0.733925 
0.0897745 -0.675381 0.167529 -0.0614761 -0.53369 0.843443 
0.17724 -0.575556 0.0827783 -0.754033 0.493081 -0.433942 
0.133509 -0.623305 0.0735718 0.253582 0.466778 -0.847239 
0.13333 -0.667678 0.0700264 0.529779 -0.449444 -0.71926 
0.170527 -0.637557 0.131439 0.315207 -0.885598 -0.341118 
0.146051 -0.657971 0.1618 0.372075 -0.927557 0.0346154 
0.216422 -0.643961 0.136058 -0.02669 -0.905152 -0.424249 
0.233783 -0.655491 0.196852 -0.216875 -0.967247 -0.131902 
0.15563 -0.657191 0.2051 0.0441227 -0.999024 -0.0019829 
0.188429 -0.649735 0.170769 0.0376124 -0.98953 -0.139339 
0.18955 -0.586598 0.134247 0.000617084 0.97614 0.21714 
0.119382 -0.613852 0.197357 -0.871948 0.236279 0.42881 
0.177153 -0.585857 0.180386 0.161547 0.96553 0.204096 
0.147489 -0.589837 0.128841 -0.200951 0.940162 -0.275161 
0.218332 -0.592375 0.194951 0.061454 0.997105 0.0447784 
0.16146 -0.602542 0.218817 -0.0916643 0.995646 0.0169059 
0.132292 -0.579277 0.177481 -0.266565 0.953255 0.142294 
0.224305 -0.446211 0.0852546 -0.848052 0.431781 0.307203 
0.0595825 -0.361888 0.0131821 0.784872 -0.258309 0.563252 
0.216905 -0.442409 0.0429736 -0.799486 0.596195 -0.073305 
0.23046 -0.513379 0.128316 -0.792732 -0.0434921 0.608017 
0.200685 -0.486932 0.031121 -0.993639 0.0500576 -0.100872 
0.201863 -0.527588 0.0586791 -0.995206 0.0546641 -0.0810997 
0.210107 -0.523419 0.00654791 -0.982901 -0.183949 0.00832854 
0.210743 -0.492516 0.0825577 -0.942266 0.157663 0.295427 
0.165713 -0.650862 0.305922 0.35862 -0.308285 0.881109 
0.162459 -0.608116 0.298373 0.184691 0.581068 0.792622 
0.215884 -0.611764 0.280193 0.317705 0.61513 0.72158 
0.214394 -0.656049 0.281183 0.201456 -0.724887 0.658752 
0.150631 -0.660024 0.246823 -0.0715954 -0.9447 -0.320025 
0.088542 -0.68212 0.282416 -0.0744292 -0.955624 -0.285033 
0.143096 -0.587844 0.262876 -0.198776 0.979226 -0.040065 
0.110722 -0.628825 0.266926 -0.864344 0.378609 -0.331005 
0.197938 -0.656712 0.230911 -0.0681477 -0.973184 -0.219702 
0.31874 -0.705793 0.0446693 -0.380497 -0.886995 0.261653 
0.240767 -0.591157 0.0454918 -0.721811 -0.684349 -0.103223 
0.267978 -0.60861 0.0744647 -0.389348 -0.883195 0.261484 
0.315162 -0.645782 0.108288 -0.926265 -0.375826 -0.0280781 
0.292608 -0.606627 0.108549 -0.277628 -0.929701 0.24203 
0.265413 -0.639916 0.0455945 -0.749437 -0.350739 0.561539 
0.292155 -0.541517 0.169003 -0.169421 -0.574259 0.800951 
0.300814 -0.668983 0.167197 -0.182182 -0.945614 -0.26949 
0.295098 -0.595002 0.187186 -0.205112 0.912704 -0.353413 
0.274514 -0.668599 0.211293 -0.244266 -0.963418 -0.110272 
0.276691 -0.586927 0.146012 0.267844 3.28014e-17 0.963462 
0.241646 -0.559352 0.12982 -0.632015 -7.73996e-17 0.774956 
0.335481 -0.543658 0.181107 -0.802638 -0.129462 0.582248 
0.265421 -0.648926 0.146152 -0.0262197 -0.729822 -0.683134 
0.319852 -0.583325 0.151289 -0.773145 0.00989176 0.634152 
0.444146 -0.679156 0.0296596 0.80509 -0.187258 -0.562819 
0.44281 -0.594435 0.0239774 0.419185 -0.581069 0.697598 
0.382885 -0.646353 0.046063 0.616173 0.688226 0.382983 
0.389029 -0.594222 0.0414006 0.513076 -0.588691 0.624656 
0.368948 -0.704815 0.0792046 -0.211924 -0.941125 0.263385 
0.412729 -0.630345 0.0135469 0.56717 -0.0637355 0.821131 
0.416438 -0.688954 -0.000496721 0.708368 -0.652154 -0.270019 
0.470423 -0.538239 0.030791 0.672308 -0.459542 0.580364 
0.45638 -0.577628 0.158495 -0.975162 0.21363 0.0584855 
0.42521 -0.666351 0.188735 -0.737894 -0.400861 0.542976 
0.379306 -0.637283 0.196495 0.684483 -0.728969 0.0093831 
0.372556 -0.66034 0.155354 0.0621863 -0.772124 0.632422 
0.400379 -0.705246 0.112357 -0.126969 -0.953478 0.27342 
0.476751 -0.683927 0.111924 0.438035 -0.724465 -0.532237 
0.406088 -0.575868 0.199822 0.976118 -0.21632 0.0199575 
0.47501 -0.602865 0.111593 5.6144e-17 -1.08837e-16 -1 
0.440673 -0.701988 0.129432 0.075601 -0.995271 0.0609924 
0.308044 -0.400771 0.0346391 -0.198892 0.943536 0.26492 
0.272155 -0.39691 0.0963319 -0.492977 0.870037 -0.00301598 
0.242649 -0.424039 0.00176927 -0.735386 0.620333 0.272752 
0.345564 -0.374478 0.0269284 -0.131827 0.401643 0.906258 
0.330149 -0.3939 0.0694811 0.187579 0.931649 -0.311199 
0.245863 -0.415238 0.0589606 -0.540055 0.840787 -0.0376461 
0.313229 -0.499212 0.196922 -0.159526 -0.301152 0.940138 
0.262011 -0.423143 0.136476 -0.740331 0.518858 0.427431 
0.32701 -0.365707 0.183614 -0.704818 0.657941 0.265226 
0.354236 -0.358606 0.142889 -0.135902 0.873102 -0.468213 
0.351927 -0.497491 0.21257 -0.94218 1.15384e-16 0.335108 
0.375818 -0.405939 0.0945451 0.643914 0.514364 -0.566396 
0.405555 -0.44125 0.0697549 0.363836 0.7654 0.530835 
0.40828 -0.39473 0.0269371 0.243696 0.396596 0.885056 
0.445616 -0.450622 0.0763749 0.103675 0.904191 0.414355 
0.471412 -0.439416 0.0100572 0.388931 0.738639 0.550585 
0.361716 -0.41261 0.0488582 0.408814 0.832708 0.373456 
0.434535 -0.426242 0.0390542 0.407889 0.716654 0.565715 
0.470672 -0.495333 0.180802 -0.114415 0.894099 0.433007 
0.39756 -0.454228 0.109392 0.937071 0.34901 -0.0094558 
0.47094 -0.457438 0.210289 0.880411 -0.358016 -0.310969 
0.450758 -0.453496 0.166636 0.667789 -0.0888339 -0.739031 
0.47978 -0.475118 0.137498 -0.00523816 0.943732 0.330669 
0.426175 -0.529448 0.208835 0.67384 -0.66465 -0.32277 
0.415715 -0.474031 0.157143 0.552746 -0.200009 -0.808992 
0.440781 -0.469529 0.121405 -0.195487 0.850451 0.488383 
0.396054 -0.386152 0.126462 0.598825 0.436498 -0.671474 
0.42022 -0.430177 0.140354 0.656211 -0.107787 -0.74684 
0.453902 -0.38813 0.188549 0.551185 0.202802 -0.809362 
0.31145 -0.579247 0.225977 -0.630838 0.771544 0.0822392 
0.283233 -0.610547 0.247635 -0.117923 0.762109 0.636619 
0.257294 -0.663303 0.266153 0.0560022 -0.806999 0.587892 
0.303452 -0.669988 0.256196 -0.155866 -0.885645 0.437423 
0.238531 -0.59701 0.241587 0.223722 0.940265 0.256614 
0.356809 -0.627683 0.271717 -0.0311997 0.257608 0.965746 
0.344185 -0.68022 0.252875 -0.16701 -0.980862 -0.100082 
0.340243 -0.578345 0.267749 -0.504396 0.0225845 0.863177 
0.389968 -0.606523 0.231713 0.929972 -0.232865 0.284474 
0.398448 -0.639223 0.27536 0.498887 0.803233 0.325468 
0.389447 -0.675021 0.250595 0.284593 -0.522032 -0.804046 
0.371864 -0.666612 0.293794 -0.521589 0.2968 0.799909 
0.455472 -0.645755 0.221042 -0.615942 7.54312e-17 0.787791 
0.432691 -0.539558 0.256451 0.738465 -0.656802 0.152579 
0.389284 -0.563973 0.27804 0.338198 -0.557924 0.757854 
0.479204 -0.606047 0.24175 -0.646586 7.91839e-17 0.762841 
0.405522 -0.687456 0.312908 0.131854 -0.104752 0.985719 
0.456977 -0.556955 0.22216 -0.899856 0.0295117 0.435187 
0.340225 -0.396178 0.223937 -0.753535 0.208692 0.623404 
0.34811 -0.526078 0.273091 -0.904354 0.139551 0.403323 
0.382469 -0.526214 0.297431 -0.190244 -0.315319 0.929721 
0.367883 -0.481945 0.295364 -0.771112 0.131584 0.622955 
0.369477 -0.378193 0.266993 -0.883051 0.196137 0.426323 
0.451016 -0.506019 0.235548 0.915618 -0.400536 -0.0348431 
0.397881 -0.456106 0.322597 -0.548636 -0.102959 0.829698 
0.389576 -0.416344 0.299103 -0.909798 0.0176189 0.414676 
0.423525 -0.511526 0.299267 0.445256 -0.493158 0.747357 
0.389049 -0.361399 0.302035 -0.891536 0.284548 0.352415 
0.473033 -0.468094 0.25251 0.893547 -0.44634 0.0485179 
0.365853 -0.445919 0.273556 -0.849129 0.22503 0.477851 
0.444475 -0.43419 0.330615 0.350089 -0.446629 0.823383 
0.423059 -0.370608 0.34746 -0.355896 0.0947111 0.929714 
0.404584 -0.411312 0.338243 -0.678501 -0.159901 0.716986 
0.00599117 -0.208328 0.0666564 0.142983 0.0793854 0.986536 
0.0749477 -0.320348 0.00718105 0.800137 -0.175177 0.573667 
0.0643434 -0.269302 0.0352437 0.722211 -0.159662 0.672993 
0.0543438 -0.226817 0.0526006 0.555772 -0.0752556 0.827921 
0.0408853 -0.180808 0.0598405 0.297142 -0.0168949 0.954684 
0.0854846 -0.225222 0.0209875 0.775747 -0.157398 0.611099 
0.0197762 -0.248428 0.0680199 0.326006 0.0531635 0.943872 
0.0903399 -0.271102 0.000687482 0.813451 -0.17428 0.554909 
0.0494774 -0.311671 0.0419367 0.725595 -0.136211 0.674506 
0.0329209 -0.351473 0.0505894 0.70386 -0.178412 0.687569 
0.0823467 -0.165986 0.0377092 0.628652 -0.101025 0.771097 
0.0148831 -0.29801 0.0709891 0.490219 0.00500047 0.871585 
0.363345 -0.285113 0.00835867 -0.300395 0.101964 0.948349 
0.39089 -0.35482 0.0183362 0.158795 0.199638 0.966917 
0.406887 -0.297676 0.0152803 0.0210255 -0.0627194 0.99781 
0.466481 -0.262488 0.00823921 0.313192 -0.233047 0.920652 
0.424573 -0.226584 0.0207009 -0.0792482 9.7051e-18 0.996855 
0.377037 -0.207862 0.00351025 -0.478988 0.125518 0.868801 
0.43966 -0.336647 0.00617376 0.313254 -0.0774345 0.946507 
0.38867 -0.252441 0.014234 -0.275649 0.0382901 0.960495 
0.369596 -0.334124 0.181548 -0.514061 0.798532 -0.313191 
0.402405 -0.261189 0.179279 -0.645679 -0.141114 -0.750457 
0.465099 -0.212704 0.151146 0.48677 -0.241046 -0.839614 
0.466019 -0.292729 0.182548 0.227763 -0.385227 -0.894273 
0.401909 -0.201823 0.174316 -0.895248 -0.321662 -0.308325 
0.450634 -0.34066 0.190111 0.346665 -0.0403338 -0.937121 
0.380652 -0.162156 -5.86141e-05 -0.590311 0.133868 0.795998 
0.455949 -0.0955474 0.0278663 -0.160736 1.96845e-17 0.986997 
0.416212 -0.0555518 0.0070539 -0.705108 0.142048 0.694727 
0.451625 -0.163628 0.0259295 -0.0654539 -0.0495976 0.996622 
0.429235 -0.115028 0.108864 -0.0588364 -0.257999 -0.964352 
0.392757 -0.112438 -4.23444e-05 -0.693377 0.16894 0.700491 
0.392752 -0.172806 0.139787 -0.872561 -0.3106 -0.377048 
0.395851 -0.127327 0.139378 -0.941354 0.17687 -0.28735 
0.427749 -0.0617757 0.14909 -0.215773 0.426786 0.878235 
0.415771 -0.0293263 0.125558 -0.623889 0.561908 0.543159 
0.47389 -0.160185 0.158328 0.936254 0.097499 -0.337524 
0.441664 -0.107448 0.186686 0.211262 0.708064 0.673805 
0.436595 -0.155311 0.118279 0.269157 -0.206443 -0.94071 
0.402073 -0.0699575 0.112346 -0.991645 -0.0583401 -0.115047 
0.463365 -0.109278 0.14603 0.971613 0.231272 -0.0498159 
0.38254 -0.234659 0.222886 -0.975692 0.100973 0.194497 
0.38454 -0.327299 0.239514 -0.804605 0.462025 0.373019 
0.416805 -0.300784 0.277143 -0.927824 0.241428 0.28435 
0.399707 -0.199596 0.2409 -0.804583 0.283213 0.521954 
0.386738 -0.280865 0.229624 -0.941612 -0.0629213 0.330769 
0.445954 -0.227414 0.311355 -0.384707 0.589777 0.710045 
0.451912 -0.267271 0.33884 -0.20062 0.383604 0.901443 
0.449412 -0.311137 0.348645 -0.159942 0.120687 0.979721 
0.355741 -0.35343 0.219805 -0.761875 0.501744 0.409632 
0.409063 -0.236035 0.261664 -0.822233 0.0758762 0.564071 
0.432365 -0.196584 0.271907 -0.488783 0.578517 0.653 
0.493926 -0.569078 -0.333252 0.725021 0.0229511 -0.688344 
0.527788 -0.633227 -0.234024 -0.429629 -0.853196 -0.295763 
0.493786 -0.612121 -0.250134 -0.336119 -0.93402 -0.120959 
0.573054 -0.580266 -0.247032 0.742696 0.38506 -0.547843 
0.525384 -0.552141 -0.289897 0.801404 0.491291 -0.341152 
0.508184 -0.444296 -0.266513 0.674467 0.0126796 -0.738197 
0.531171 -0.479345 -0.243132 0.713062 -0.0482628 -0.699437 
0.496253 -0.396612 -0.265075 0.755998 0.268323 -0.597051 
0.511219 -0.524308 -0.259422 0.786798 0.376727 -0.488902 
0.496821 -0.52687 -0.317574 0.552097 0.594327 -0.584777 
0.528316 -0.427892 -0.23 0.901235 0.365805 -0.232296 
0.486908 -0.479051 -0.275438 0.571403 -0.0158309 -0.820517 
0.525807 -0.694481 -0.0906096 0.0895907 -0.90328 -0.419593 
0.582082 -0.686616 -0.111937 -0.157527 -0.970992 -0.179888 
0.550175 -0.665457 -0.15074 -0.330238 -0.909215 -0.253516 
0.592745 -0.57448 -0.208743 0.762465 0.429623 -0.483809 
0.580576 -0.677005 -0.177992 -0.374952 -0.913067 -0.160371 
0.553254 -0.656107 -0.206572 -0.458296 -0.835759 -0.302444 
0.506269 -0.631808 -0.195822 -0.364835 -0.84877 -0.382733 
0.53207 -0.706305 -0.0446601 -0.114263 -0.988726 0.096773 
0.483987 -0.698733 -0.0566568 -0.177613 -0.874115 0.45208 
0.638891 -0.558682 -0.130592 0.702712 0.622371 -0.344747 
0.689324 -0.694265 -0.146748 0.335471 -0.790364 -0.512624 
0.610661 -0.691117 -0.142469 -0.227143 -0.971884 -0.0620294 
0.644227 -0.613974 -0.179915 0.620821 0.518363 -0.588117 
0.643801 -0.694291 -0.111353 -0.161868 -0.98351 0.0806634 
0.606326 -0.654668 -0.220324 0.370591 -0.49659 -0.784895 
0.67273 -0.602424 -0.134177 0.706823 0.511964 -0.488153 
0.610488 -0.535667 -0.15759 0.768423 0.502851 -0.395812 
0.62284 -0.580123 -0.166756 0.679319 0.447657 -0.581489 
0.615102 -0.693407 -0.0604073 0.109807 -0.986059 -0.125017 
0.66953 -0.576025 -0.102006 0.631833 0.720636 -0.285431 
0.715657 -0.697564 -0.0565551 -0.0926407 -0.994897 0.0399749 
0.71676 -0.534818 -0.0435044 0.302314 0.455359 -0.837409 
0.704683 -0.581466 -0.0655791 0.453198 0.514288 -0.728092 
0.713477 -0.633062 -0.101716 0.652843 0.527483 -0.543652 
0.667083 -0.552571 -0.031781 -0.270303 0.757487 -0.594265 
0.637212 -0.555675 -0.0826691 0.502854 0.861103 0.0750876 
0.592264 -0.517524 -0.117748 0.539509 0.817019 0.203494 
0.58233 -0.507146 -0.169266 0.752651 0.608563 -0.251332 
0.551717 -0.476263 -0.146133 0.701625 0.662736 0.261731 
0.499502 -0.397859 -0.164335 0.994331 0.063292 0.0854384 
0.565305 -0.528567 -0.210292 0.707833 0.318967 -0.630264 
0.557319 -0.475894 -0.195023 0.887231 0.422288 -0.185725 
0.547314 -0.481429 -0.0339792 0.814153 0.54604 -0.19747 
0.512954 -0.390404 -0.0871369 0.921924 -0.167407 -0.349329 
0.526427 -0.398779 -0.0426131 0.979478 0.0794809 0.18522 
0.529793 -0.43658 -0.0237768 0.931104 0.330682 0.153929 
0.547961 -0.496308 -0.0992787 0.613628 0.752212 0.240079 
0.517179 -0.458793 -0.077496 0.926358 0.35263 -0.132333 
0.589139 -0.513747 -0.0242485 0.509303 0.844649 -0.164859 
0.693154 -0.512875 -0.0132161 -0.304719 0.928006 -0.214361 
0.769979 -0.68075 -0.0346922 0.868589 -0.452138 -0.202791 
0.736558 -0.699311 -0.0176338 0.0322854 -0.994148 0.103093 
0.741722 -0.569432 -0.029994 0.688124 0.261423 -0.676862 
0.744983 -0.528906 -0.00744113 0.691548 0.589132 -0.417953 
0.760505 -0.64509 -0.0595356 0.775276 0.28687 -0.56272 
0.728872 -0.685251 -0.111918 0.778512 -0.297086 -0.552865 
0.75269 -0.683867 -0.0769302 0.802008 -0.398019 -0.44538 
0.498494 -0.203377 -0.283411 0.324218 -0.138042 -0.935856 
0.526269 -0.227923 -0.263553 0.517516 -0.295873 -0.802893 
0.588115 -0.0292822 -0.266115 0.473225 -0.0442005 -0.879832 
0.508636 -0.0574521 -0.290755 0.0586577 -0.0498502 -0.997033 
0.541267 -0.0826011 -0.282854 0.251998 -0.0830847 -0.964155 
0.509559 -0.114047 -0.287164 0.152264 -0.0310012 -0.987853 
0.591107 -0.0799927 -0.263113 0.521569 -0.0774842 -0.849683 
0.532183 -0.175113 -0.275106 0.397562 -0.154691 -0.904442 
0.492878 -0.155533 -0.289107 0.1532 -0.0321773 -0.987671 
0.514383 -0.0154828 -0.290513 0.113377 -0.0195706 -0.993359 
0.572159 -0.140338 -0.2612 0.475797 -0.210161 -0.854078 
0.610227 -0.125447 -0.238894 0.685347 -0.244672 -0.685883 
0.622726 -0.0675352 -0.238451 0.704679 -0.104704 -0.701758 
0.624796 -0.0257805 -0.241777 0.665063 -0.0652794 -0.743928 
0.596161 -0.23132 -0.158848 0.833419 -0.499764 -0.235899 
0.597921 -0.209103 -0.197031 0.801089 -0.489959 -0.343796 
0.517802 -0.346031 -0.155979 0.875354 -0.473162 -0.0993617 
0.540136 -0.281012 -0.0435106 0.386691 -0.191259 0.902158 
0.518194 -0.34844 -0.0414169 0.624184 -0.166777 0.763269 
0.540205 -0.24264 -0.023984 0.518526 -0.428241 0.740095 
0.564253 -0.329193 -0.0545731 0.669069 -0.568948 0.478168 
0.570394 -0.208153 -0.0285836 0.498312 -0.33856 0.798162 
0.557635 -0.310068 -0.094279 0.633373 -0.610544 -0.475473 
0.532861 -0.350974 -0.0859184 0.75739 -0.590325 -0.279065 
0.599019 -0.238059 -0.052166 0.353076 -0.3013 0.885752 
0.582306 -0.284297 -0.0527234 0.396839 -0.234788 0.887352 
0.723862 -0.202432 -0.0435733 -0.331115 -0.58903 -0.737161 
0.68132 -0.189734 -0.0336056 -0.780856 -0.447628 -0.435767 
0.62183 -0.197283 -0.138531 0.806308 -0.511377 -0.297255 
0.610559 -0.269341 -0.0798286 0.83797 -0.542631 -0.0579479 
0.639724 -0.213911 -0.0532118 0.612624 -0.41332 0.67369 
0.646832 -0.199013 -0.0956391 0.792506 -0.460298 -0.400076 
0.614903 -0.228492 -0.109752 0.773077 -0.444927 -0.452097 
0.593894 -0.170312 -0.0292285 0.524072 -0.285475 0.802405 
0.670947 -0.0979462 -0.132193 0.835008 -0.245332 -0.492517 
0.696066 -0.0091973 -0.140046 0.396222 -0.197312 -0.896703 
0.627829 -0.168471 -0.175128 0.858741 -0.435599 -0.269848 
0.656229 -0.00701396 -0.201947 0.877729 -0.00629488 -0.479116 
0.678443 -0.0518689 -0.142657 0.776053 -0.246689 -0.580419 
0.649353 -0.0558574 -0.206627 0.867389 -0.146419 -0.475603 
0.647787 -0.156545 -0.130031 0.799519 -0.442919 -0.405699 
0.68909 -0.0378246 -0.0798856 -0.624135 -0.171774 0.7622 
0.659131 -0.0819184 -0.0655609 0.694726 0.259031 0.671014 
0.634652 -0.0734622 -0.0316842 0.818004 -0.00932595 0.575136 
0.708652 -0.0197369 -0.0440655 -0.799722 0.235674 0.55218 
0.649592 -0.129639 -0.0575586 0.47327 -0.175236 0.863312 
0.621654 -0.0304341 -0.0128327 0.711048 0.0152523 0.702978 
0.63697 -0.171511 -0.0544905 0.523773 -0.0030226 0.851852 
0.726067 -0.0450172 -0.0113621 -0.562067 0.432283 0.705133 
0.67579 -0.145401 -0.100773 0.676968 -0.546993 -0.492457 
0.610057 -0.100924 -0.0111502 0.603497 -0.251613 0.756626 
0.782313 -0.0488118 -0.131741 0.492026 -0.320533 -0.809425 
0.794434 -0.216308 -0.056825 0.168459 -0.443009 -0.880548 
0.800218 -0.263032 -0.0319678 0.0466385 -0.496643 -0.866701 
0.833842 -0.238803 -0.0278215 0.61283 -0.262304 -0.74541 
0.823421 -0.185005 -0.0526584 0.660222 -0.190167 -0.726597 
0.759521 -0.265091 -0.0208877 -0.294868 -0.524963 -0.798415 
0.833056 -0.282712 -0.00888894 0.48578 -0.381921 -0.786228 
0.855226 -0.188026 -0.00283675 0.941766 0.0730324 -0.328241 
0.758515 -0.197128 -0.0669394 -0.218243 -0.558518 -0.800267 
0.729513 -0.167572 -0.0767954 -0.303196 -0.5429 -0.783155 
0.790114 -0.166819 -0.0801153 0.339768 -0.366441 -0.866186 
0.822095 -0.115277 -0.0650259 0.860634 0.0123629 -0.509073 
0.783401 -0.10149 -0.110226 0.488596 -0.303269 -0.818108 
0.754853 -0.141717 -0.0986736 -0.0470295 -0.459229 -0.887072 
0.794507 -0.0417808 -0.0217377 0.592294 0.583273 0.55586 
0.820193 -0.073237 -0.034202 0.917731 0.375956 0.128164 
0.805893 -0.0137863 -0.123133 0.71559 -0.390006 -0.579505 
0.765539 -0.0126236 -0.0300316 0.275305 0.582205 0.765013 
0.749762 -0.0803404 -0.126629 -0.0320775 -0.41334 -0.910012 
0.809156 -0.0508404 -0.0902621 0.940018 -0.171689 -0.29477 
0.838784 -0.14225 -0.0378454 0.889526 0.0584606 -0.45313 
0.592391 -0.685908 0.0938072 -0.264655 -0.949221 0.170112 
0.514339 -0.703293 0.183281 0.0714215 -0.99674 -0.0375367 
0.593687 -0.698831 0.187896 -0.00618571 -0.994819 -0.101476 
0.545738 -0.696332 0.00096248 -0.347672 -0.898838 0.266862 
0.596396 -0.705995 0.00044756 0.00931275 -0.999396 -0.0334705 
0.535843 -0.681716 0.0499912 -0.495432 -0.851429 0.17209 
0.480994 -0.702206 0.155823 0.0678418 -0.981057 -0.181449 
0.543258 -0.68785 0.154659 0.106972 -0.913161 -0.393311 
0.550372 -0.700664 0.214774 -0.0681426 -0.927465 0.367648 
0.488488 -0.560413 0.000476475 0.327009 -0.424066 0.844531 
0.654768 -0.705102 0.0733004 0.0431602 -0.999066 0.00228975 
0.658895 -0.692698 0.000962784 0.177926 -0.978213 -0.10697 
0.648631 -0.700826 0.18164 0.0566823 -0.997287 0.0469608 
0.626813 -0.705685 0.0301308 0.085985 -0.995857 -0.0295965 
0.684775 -0.70106 0.108965 0.260373 -0.965348 0.0176078 
0.640092 -0.698007 0.112639 -0.233237 -0.969102 0.0802652 
0.690097 -0.68872 0.0406346 0.285686 -0.957777 -0.0323516 
0.709879 -0.662047 0.212944 0.510412 -0.775186 0.372245 
0.482944 -0.453274 0.053348 0.410503 0.85922 0.305333 
0.481107 -0.462917 0.0948958 0.265328 0.950219 0.163353 
0.514224 -0.52265 0.0238518 -0.0971894 -0.514812 0.851776 
0.485914 -0.494183 0.0417129 0.58481 -0.50932 0.63134 
0.582705 -0.44296 0.0707703 -0.277379 0.881137 -0.382959 
0.540704 -0.456315 0.073044 -0.286679 0.954847 -0.0779865 
0.541144 -0.484824 0.0256786 0.866278 0.410932 0.284074 
0.515549 -0.451956 0.0225939 0.312789 0.84993 0.424007 
0.483551 -0.414225 0.209485 0.793237 -0.148397 -0.590553 
0.594356 -0.448912 0.199228 -0.503008 0.851385 0.148751 
0.579866 -0.452853 0.155026 -0.450928 0.892121 0.0279978 
0.494451 -0.368209 0.209163 0.619625 -0.105359 -0.777794 
0.6036 -0.435814 0.122443 -0.565662 0.822721 0.0561832 
0.567566 -0.455262 0.11369 -0.365712 0.91091 0.191041 
0.523739 -0.473694 0.153992 -0.257344 0.957615 0.129416 
0.522684 -0.466932 0.111203 -0.210921 0.966517 0.146144 
0.634638 -0.409941 0.0993908 -0.666535 0.722418 -0.183968 
0.637384 -0.409968 0.189034 -0.733773 0.673158 0.0918518 
0.660315 -0.380647 0.12363 -0.813718 0.580498 -0.0297607 
0.724896 -0.367221 0.0541957 -0.340545 -0.218461 -0.914497 
0.678191 -0.516095 0.0280946 -0.0639603 0.91575 -0.396626 
0.678723 -0.357669 0.0653001 -0.694184 0.0786258 -0.71549 
0.666223 -0.372881 0.181895 -0.811056 0.577568 0.0927547 
0.632813 -0.413074 0.142901 -0.702423 0.711724 0.00715501 
0.721502 -0.50933 0.0362725 -0.081902 0.799731 -0.594746 
0.520629 -0.634189 0.258731 -0.280697 -0.370806 0.885275 
0.578155 -0.636884 0.271014 -0.116437 -0.442457 0.889198 
0.588369 -0.560231 0.287191 -0.246473 0.0666441 0.966856 
0.547888 -0.595355 0.275886 -0.274492 3.36155e-17 0.961589 
0.59244 -0.693219 0.229367 0.0301086 -0.849528 0.526684 
0.549947 -0.664697 0.247315 -0.189131 -0.570007 0.799576 
0.515238 -0.679127 0.224517 -0.146706 -0.668379 0.729209 
0.537542 -0.551497 0.266795 -0.372246 0.245132 0.895178 
0.664973 -0.654301 0.253696 0.224617 -0.646332 0.729247 
0.699131 -0.574793 0.291484 0.132899 -0.188517 0.973036 
0.613189 -0.664155 0.25485 0.0541304 -0.596309 0.800928 
0.627353 -0.629617 0.277345 0.0371334 -0.464006 0.885053 
0.642803 -0.592505 0.290292 0.00128553 -0.220568 0.975371 
0.717966 -0.620978 0.265563 0.360697 -0.593676 0.719337 
0.634014 -0.692104 0.224766 0.150771 -0.852776 0.500042 
0.679324 -0.613925 0.280874 0.121121 -0.452267 0.88362 
0.662482 -0.552688 0.295497 -0.00555161 -0.0317728 0.99948 
0.599582 -0.463124 0.245614 -0.503067 0.702296 0.503691 
0.517657 -0.356746 0.252032 0.93996 -0.189279 -0.283987 
0.568214 -0.521665 0.270596 -0.383892 0.356679 0.851708 
0.48754 -0.523526 0.224328 -0.395261 0.636205 0.662579 
0.505491 -0.402003 0.298753 0.830032 -0.464817 0.308209 
0.554237 -0.477808 0.224978 -0.442678 0.792786 0.418959 
0.491984 -0.362784 0.333335 0.570427 -0.153719 0.806836 
0.490149 -0.4291 0.24929 0.901679 -0.420082 -0.102499 
0.52519 -0.509187 0.23899 -0.485215 0.588945 0.646304 
0.688563 -0.514467 0.294197 0.020083 0.0764839 0.996869 
0.695687 -0.440828 0.279528 -0.131415 0.38109 0.915151 
0.617396 -0.530488 0.2902 -0.199357 0.169649 0.96513 
0.69501 -0.372659 0.241329 -0.477651 0.548029 0.686668 
0.659661 -0.392052 0.219362 -0.711693 0.626364 0.318058 
0.677169 -0.410817 0.256814 -0.405382 0.529695 0.745043 
0.637575 -0.44298 0.259459 -0.484669 0.603519 0.633135 
0.80647 -0.546082 0.0661708 0.900557 -0.260793 -0.347829 
0.774031 -0.555435 0.0176556 0.787802 0.289543 -0.543629 
0.793754 -0.581302 0.0852223 0.840131 -0.531458 -0.108312 
0.77609 -0.607445 0.0566767 0.894564 -0.420871 0.150408 
0.76783 -0.62475 0.0992467 0.815621 -0.576978 -0.0431174 
0.743877 -0.654505 0.0547454 0.663921 -0.667488 0.337147 
0.786459 -0.596416 0.014576 0.983084 0.132912 -0.126015 
0.78504 -0.644574 0.00819853 0.959833 -0.222078 0.17147 
0.763464 -0.680253 0.00918861 0.595176 -0.664468 0.451937 
0.757868 -0.632079 0.198532 0.682156 -0.703291 0.200114 
0.804371 -0.573311 0.169447 0.838635 -0.54458 0.0111468 
0.769157 -0.623451 0.150591 0.796211 -0.60495 0.00919683 
0.734896 -0.657918 0.169388 0.651588 -0.741704 0.159086 
0.788913 -0.593597 0.127255 0.841665 -0.538148 -0.0446853 
0.818659 -0.545828 0.133818 0.885655 -0.451623 -0.107945 
0.823936 -0.356869 0.0214199 0.316168 -0.381509 -0.868613 
0.781574 -0.448435 0.0295092 -0.0938581 0.100133 -0.990537 
0.746861 -0.402887 0.0492732 -0.374742 4.58926e-17 -0.927129 
0.83535 -0.443906 0.0674529 0.86691 -0.233843 -0.44021 
0.832723 -0.408532 0.042037 0.590208 -0.267916 -0.761496 
0.822623 -0.511582 0.0863682 0.901787 -0.337901 -0.269452 
0.773171 -0.500491 0.0326346 0.0647073 0.0506463 -0.996618 
0.794035 -0.397365 0.0302958 -0.098128 -0.140445 -0.985214 
0.76469 -0.365423 0.0299256 -0.413164 -0.342182 -0.843924 
0.817235 -0.469806 0.0397425 0.652943 -0.14116 -0.744137 
0.84814 -0.485909 0.160214 0.930461 -0.365948 -0.0180066 
0.837381 -0.510869 0.195606 0.918955 -0.362149 0.15611 
0.85772 -0.409469 0.20052 0.901398 -0.00452116 0.432967 
0.871044 -0.403995 0.122727 0.969247 -0.217291 -0.115517 
0.860857 -0.399293 0.0757837 0.863375 -0.321549 -0.388831 
0.853999 -0.456332 0.112817 0.901548 -0.326175 -0.284291 
0.864247 -0.439037 0.166351 0.965032 -0.236388 0.113282 
0.875369 -0.366983 0.0980335 0.96957 -0.182299 -0.163406 
0.850938 -0.465946 0.197105 0.935986 -0.244474 0.253301 
0.870303 -0.382241 0.169738 0.953306 -0.0142164 0.301671 
0.858814 -0.356748 0.0456231 0.764542 -0.282747 -0.57925 
0.751441 -0.590516 0.265172 0.547517 -0.451042 0.704831 
0.738628 -0.548437 0.287373 0.313441 -0.141183 0.939054 
0.838542 -0.42917 0.232145 0.768914 0.029652 0.638665 
0.729011 -0.406354 0.268526 -0.0505449 0.367854 0.928509 
0.807845 -0.510684 0.252959 0.697361 -0.235224 0.677021 
0.834791 -0.38192 0.2269 0.632778 0.236452 0.737348 
0.738343 -0.366654 0.252014 -0.0781448 0.480184 0.87368 
0.794732 -0.403361 0.256667 0.354051 0.281416 0.891882 
0.750392 -0.482788 0.284534 0.216295 0.0710214 0.973741 
0.797306 -0.467958 0.267719 0.490754 0.00978944 0.871243 
0.829836 -0.475349 0.237424 0.800637 -0.156731 0.578287 
0.483365 -0.201319 0.0193205 0.191873 -0.175194 0.965656 
0.501819 -0.239053 0.00353832 0.405307 -0.346892 0.845809 
0.49549 -0.32103 0.202682 0.517926 -0.219985 -0.826655 
0.517873 -0.231861 0.215929 0.898345 0.305349 -0.315814 
0.488923 -0.248197 0.175061 0.584839 -0.14878 -0.797389 
0.509567 -0.281548 0.198109 0.649412 -0.233711 -0.723632 
0.491435 -0.199297 0.182903 0.863821 0.254389 -0.434856 
0.683072 -0.219769 -0.00106606 -0.928088 -0.328042 -0.176183 
0.68486 -0.310816 0.070531 -0.965915 0.197402 -0.167453 
0.689217 -0.253068 0.0277238 -0.986279 -0.163425 0.0233824 
0.700458 -0.264136 0.0807151 -0.941832 0.274587 0.193787 
0.712226 -0.325227 0.0424959 -0.480373 -0.401011 -0.78002 
0.707822 -0.22296 0.068979 -0.902162 0.174109 0.394702 
0.709601 -0.2905 0.0169101 -0.600725 -0.537283 -0.591994 
0.680615 -0.33967 0.110214 -0.930604 0.34875 0.111129 
0.696021 -0.309564 0.149063 -0.908884 0.388157 0.152523 
0.713152 -0.266926 0.146179 -0.847819 0.423179 0.319565 
0.720995 -0.300896 0.198922 -0.576542 0.553773 0.600779 
0.695374 -0.297054 0.109196 -0.936245 0.314145 0.157349 
0.691525 -0.333367 0.184575 -0.834493 0.494944 0.242182 
0.482641 -0.135759 0.0280766 0.0332813 -0.0809786 0.99616 
0.515272 -0.0353895 0.029042 0.200568 -0.051859 0.978306 
0.554049 -0.155616 0.00747223 0.445812 -0.31384 0.838305 
0.524052 -0.0760021 0.0261871 0.16483 -0.00849424 0.986285 
0.715206 -0.0873478 0.00475266 -0.731976 0.446653 0.514502 
0.514483 -0.162775 0.0199229 0.246605 -0.222861 0.943143 
0.571414 -0.0884821 0.0150539 0.343461 -0.104169 0.933372 
0.532766 -0.119435 0.0230456 0.243937 -0.100586 0.964561 
0.524831 -0.258976 0.279982 0.870716 0.294506 0.393853 
0.525627 -0.355329 0.29323 0.965155 -0.203783 0.16416 
0.532676 -0.306702 0.285549 0.971724 0.0302428 0.234174 
0.50084 -0.276331 0.315272 0.651512 0.266114 0.710433 
0.506179 -0.318222 0.324263 0.663773 0.114997 0.739041 
0.494137 -0.186244 0.222623 0.802003 0.594079 0.062138 
0.5261 -0.308126 0.242139 0.923527 -0.19885 -0.327959 
0.714195 -0.336329 0.223306 -0.465149 0.577513 0.670906 
0.847101 -0.32203 0.0180061 0.59296 -0.327401 -0.735668 
0.801822 -0.252187 0.178006 0.192442 0.579036 0.792264 
0.747891 -0.256097 0.176377 -0.366055 0.61286 0.70029 
0.842392 -0.276229 0.172336 0.634832 0.40215 0.659745 
0.7636 -0.304137 0.0019633 -0.306411 -0.450077 -0.838775 
0.733902 -0.230247 0.141576 -0.653511 0.549431 0.520624 
0.805983 -0.297573 0.206538 0.273213 0.440585 0.855125 
0.803659 -0.212882 0.147594 0.188171 0.640127 0.744869 
0.797052 -0.329012 0.00307007 -0.0870102 -0.401873 -0.911552 
0.865586 -0.269223 0.0193612 0.851915 -0.156388 -0.499784 
0.876018 -0.234855 0.0611592 0.983269 0.182157 -0.00117271 
0.861888 -0.185828 0.0472496 0.929373 0.357608 0.0915538 
0.868285 -0.237904 0.104028 0.881395 0.320139 0.347352 
0.862504 -0.22802 0.00761114 0.899232 0.00691045 -0.437417 
0.88005 -0.275102 0.0788921 0.999123 0.0418475 0.00111113 
0.880542 -0.321653 0.101155 0.999483 -0.0200393 -0.0251421 
0.873649 -0.317168 0.0568853 0.936832 -0.140133 -0.320482 
0.855022 -0.198606 0.0920858 0.767068 0.480957 0.424603 
0.866872 -0.274942 0.136043 0.864713 0.284968 0.4136 
0.855405 -0.316036 0.177368 0.768913 0.263496 0.582532 
0.878418 -0.340858 0.140041 0.977996 0.0462335 0.203437 
0.852815 -0.352808 0.197119 0.773616 0.227509 0.591403 
0.766118 -0.117881 0.0651506 -0.0578792 0.644189 0.762673 
0.747531 -0.175882 0.105537 -0.499557 0.558478 0.662228 
0.807001 -0.179586 0.115589 0.258673 0.671878 0.694023 
0.731625 -0.150625 0.0720497 -0.599637 0.43096 0.674321 
0.834879 -0.152087 0.0662772 0.617316 0.621647 0.482158 
0.797444 -0.144124 0.0836653 0.234198 0.681825 0.693013 
0.798394 -0.0772001 0.0121682 0.518644 0.633052 0.574677 
0.84593 -0.128926 0.0011153 0.924883 0.376166 0.0555984 
0.808479 -0.116191 0.0469874 0.471565 0.651077 0.594748 
0.755988 -0.0842281 0.0338811 -0.13904 0.667233 0.731757 
0.807861 -0.338956 0.2246 0.341037 0.401221 0.850127 
0.762293 -0.320339 0.224053 0.00819285 0.493942 0.869457 
0.00141002 0.0835843 -0.247991 -0.687918 0.361136 -0.629562 
0.0373055 0.0761723 -0.276179 -0.402515 0.247837 -0.881226 
0.0338486 0.1557 -0.232601 -0.528393 0.471735 -0.70588 
0.108632 0.0880097 -0.293068 -0.195043 0.11391 -0.974157 
0.0647696 0.138415 -0.263971 -0.434484 0.407398 -0.803275 
0.0988262 0.0294592 -0.296721 -0.0554043 0.0153571 -0.998346 
-0.0121728 0.0154394 -0.266729 -0.567395 0.270176 -0.777861 
0.0274808 0.117711 -0.253173 -0.558231 0.415846 -0.717949 
0.152139 0.0116889 -0.292622 0.185673 -0.21359 -0.959117 
0.200297 0.0149223 -0.279483 0.359269 -0.403247 -0.841616 
0.139624 0.117691 -0.297269 -0.191499 0.0970342 -0.976684 
0.187498 0.118811 -0.301635 -0.00161098 0.0210785 -0.999777 
0.138551 0.0584117 -0.299581 -0.0501186 6.13776e-18 -0.998743 
0.225163 0.0997472 -0.298723 0.11867 -0.12525 -0.985002 
0.198877 0.0557592 -0.294785 0.194184 -0.24398 -0.95014 
0.228141 0.145018 -0.300565 0.00148629 -0.00834816 -0.999964 
0.230548 0.287383 -0.22654 -0.143689 0.807475 -0.572134 
0.175619 0.240896 -0.256067 -0.318794 0.637196 -0.701678 
0.219224 0.260623 -0.258098 -0.277121 0.706816 -0.650858 
0.116057 0.202535 -0.254799 -0.463548 0.545272 -0.698428 
0.187748 0.276725 -0.223631 -0.224432 0.644397 -0.731015 
0.199352 0.188637 -0.293083 -0.180498 0.260964 -0.948324 
-0.00717791 0.119708 -0.213273 -0.721921 0.2995 -0.623803 
0.00611328 0.112646 -0.019556 -0.582701 0.543169 0.604506 
0.0601197 0.292935 -0.152679 -0.247131 0.736144 -0.630094 
0.0587879 0.227413 -0.1844 -0.261782 0.490038 -0.831464 
0.035344 0.217904 -0.13116 -0.114677 0.277288 0.953918 
0.101728 0.255179 -0.192428 -0.559507 0.382713 -0.735176 
0.0768619 0.240205 -0.113536 -0.584516 -7.15826e-17 0.811382 
0.0209305 0.266103 -0.159052 -0.448815 0.474316 -0.757357 
0.00461244 0.228454 -0.169366 -0.446929 0.54696 -0.707876 
0.227244 0.31309 -0.131899 0.0304809 0.821822 0.568929 
0.167305 0.291444 -0.121956 -0.260221 0.80962 0.526119 
0.17342 0.32735 -0.148267 -0.392679 0.542755 0.742442 
0.123149 0.300793 -0.135049 -0.0204766 0.833754 0.551756 
0.129864 0.314802 -0.174745 -0.50911 0.829494 -0.229668 
0.179782 0.210074 -0.00326253 -0.163786 0.458644 0.873396 
0.169906 0.27255 -0.0666663 -0.367126 0.820867 0.437488 
0.204587 0.298101 -0.0954659 -0.221428 0.917204 0.33122 
0.214334 0.281809 -0.0564331 -0.191244 0.823258 0.534482 
0.197605 0.253715 -0.0302886 -0.220506 0.650527 0.726768 
0.222282 0.224175 -0.00418828 -0.132908 0.447372 0.884417 
0.354868 0.0997727 -0.288104 -0.0324491 -0.328643 -0.943897 
0.303047 0.0611681 -0.271083 0.15382 -0.585011 -0.796305 
0.247104 0.033488 -0.269376 0.342758 -0.554311 -0.758456 
0.276761 0.0206074 -0.240694 0.35648 -0.711656 -0.605366 
0.319079 0.0313291 -0.236021 0.0713976 -0.78424 -0.616337 
0.28622 0.155868 -0.300033 0.0140827 -0.0914653 -0.995709 
0.254998 0.0728155 -0.287385 0.203268 -0.345332 -0.916203 
0.269113 0.116104 -0.295169 0.101048 -0.16768 -0.980649 
0.31586 0.115998 -0.29212 0.0144641 -0.240516 -0.970537 
0.389021 0.0258194 -0.253828 -0.479436 -0.454882 -0.750482 
