-0.244907 -0.392814 -0.134911 
-0.244675 -0.392609 -0.118522 
-0.244349 -0.389925 -0.110979 
-0.243671 -0.387362 -0.10259 
-0.242881 -0.381868 -0.0955856 
-0.242958 -0.373237 -0.0871051 
-0.243308 -0.367811 -0.0808779 
-0.245299 -0.360118 -0.0742918 
-0.248074 -0.352814 -0.0692998 
-0.250551 -0.346936 -0.0640079 
-0.255876 -0.335972 -0.0566295 
-0.257325 -0.332796 -0.0542651 
-0.263378 -0.319462 -0.0454619 
-0.263656 -0.318796 -0.0451041 
-0.267882 -0.307612 -0.0396087 
-0.269537 -0.303115 -0.0373946 
-0.269679 -0.302654 -0.0372213 
-0.273223 -0.289481 -0.0320939 
-0.278032 -0.275409 -0.0266147 
-0.278032 -0.275409 -0.0266147 
-0.281855 -0.260347 -0.0229645 
-0.283658 -0.253022 -0.020942 
-0.285751 -0.241938 -0.018268 
-0.287587 -0.230987 -0.0148618 
-0.288902 -0.222259 -0.0125036 
-0.290048 -0.212522 -0.00984907 
-0.293059 -0.201082 -0.00635319 
-0.293378 -0.198823 -0.00567081 
-0.295815 -0.182814 -0.000968719 
-0.296146 -0.180563 -0.000271812 
-0.299053 -0.164824 0.00432134 
-0.29937 -0.163 0.00486898 
-0.302112 -0.143763 0.0102487 
-0.302301 -0.142237 0.0106865 
-0.304165 -0.12509 0.0151365 
-0.304462 -0.121565 0.0159839 
-0.306679 -0.107312 0.0196498 
-0.306776 -0.106318 0.019848 
-0.307663 -0.0847194 0.023382 
-0.307663 -0.0847194 0.023382 
-0.307364 -0.0649679 0.0262319 
-0.3072 -0.0622676 0.0264478 
-0.307134 -0.0505968 0.0274219 
-0.306844 -0.0459214 0.0277806 
-0.306879 -0.0447705 0.0278696 
-0.306026 -0.0292322 0.0296641 
-0.306775 -0.0220883 0.030841 
-0.307458 -0.0113933 0.0326769 
-0.308375 -0.00279794 0.034648 
-0.311065 0.0088346 0.0382409 
-0.311545 0.0123567 0.0390655 
-0.313427 0.0201396 0.0416721 
-0.314657 0.0281146 0.0441456 
-0.315323 0.030848 0.045071 
-0.317298 0.0440716 0.0491827 
-0.320663 0.0566694 0.0529362 
-0.32111 0.0594344 0.0536209 
-0.321528 0.0612966 0.0540858 
-0.323357 0.0747021 0.0569854 
-0.326084 0.0848417 0.0600743 
-0.326605 0.0887889 0.0610639 
-0.327167 0.0912784 0.0619414 
-0.329369 0.102266 0.0659065 
-0.330361 0.106751 0.067863 
-0.333247 0.115976 0.0723132 
-0.334688 0.122034 0.0759281 
-0.335063 0.128408 0.0792508 
-0.337528 0.137152 0.0851805 
-0.337904 0.140841 0.0875597 
-0.338459 0.143408 0.0893007 
-0.339461 0.153351 0.0956392 
-0.342909 0.166333 0.104082 
-0.342909 0.166333 0.104082 
-0.344803 0.180286 0.110736 
-0.34726 0.187708 0.114958 
-0.348028 0.194246 0.118575 
-0.350698 0.20341 0.12362 
-0.351292 0.208258 0.126242 
-0.352345 0.211996 0.128522 
-0.353277 0.222956 0.134517 
-0.354929 0.237113 0.142931 
-0.354897 0.238939 0.143961 
-0.354965 0.241346 0.145318 
-0.352715 0.254443 0.152547 
-0.351883 0.260104 0.15539 
-0.349307 0.273511 0.161257 
-0.346922 0.278177 0.16233 
-0.338183 0.296489 0.167718 
-0.338183 0.296489 0.167718 
-0.323528 0.303855 0.176664 
-0.30789 0.303051 0.181859 
-0.305852 0.302477 0.182453 
-0.288334 0.29132 0.181114 
-0.288334 0.29132 0.181114 
-0.278078 0.274281 0.173157 
-0.277868 0.273748 0.17295 
-0.276914 0.27085 0.171298 
-0.273587 0.258384 0.163992 
-0.272948 0.256417 0.162507 
-0.270235 0.24379 0.152998 
-0.269674 0.241167 0.150783 
-0.267312 0.229646 0.141049 
-0.26665 0.226969 0.138639 
-0.265032 0.214452 0.128068 
-0.265096 0.212411 0.126391 
-0.263482 0.205308 0.121609 
-0.262817 0.198525 0.116846 
-0.262407 0.196856 0.115666 
-0.258528 0.184536 0.106598 
-0.258528 0.184536 0.106598 
-0.256208 0.171131 0.0987558 
-0.253923 0.16496 0.0950456 
-0.252345 0.156535 0.0896727 
-0.24891 0.146358 0.0837744 
-0.248365 0.141511 0.0811591 
-0.243567 0.124494 0.0748471 
-0.238246 0.106125 0.0706932 
-0.236329 0.100803 0.0699712 
-0.233421 0.089052 0.0679671 
-0.227883 0.0737805 0.0648905 
-0.227883 0.0737805 0.0648905 
-0.221037 0.0716782 0.0504753 
-0.208888 0.059458 0.0414507 
-0.208888 0.059458 0.0414507 
-0.19072 0.0592591 0.0444275 
-0.185777 0.0702388 0.0445121 
-0.183788 0.0753878 0.0457724 
-0.184171 0.0906883 0.0447668 
-0.184094 0.0944041 0.0462759 
-0.184889 0.100205 0.0485784 
-0.185921 0.10988 0.0516602 
-0.187007 0.115032 0.0538265 
-0.187314 0.124837 0.0579516 
-0.188264 0.134177 0.0620133 
-0.189005 0.142827 0.0657113 
-0.190775 0.161656 0.0712523 
-0.190775 0.161656 0.0712523 
-0.190648 0.178626 0.075135 
-0.191818 0.190457 0.078143 
-0.191685 0.194208 0.0789373 
-0.193219 0.21239 0.0850045 
-0.193225 0.212482 0.0850349 
-0.193715 0.22912 0.0914614 
-0.194398 0.235369 0.0943382 
-0.194271 0.246699 0.0993896 
-0.194833 0.257075 0.104758 
-0.194478 0.264059 0.108156 
-0.194711 0.281312 0.116637 
-0.194671 0.281608 0.116778 
-0.194684 0.281811 0.116873 
-0.194174 0.30188 0.125569 
-0.194174 0.30188 0.125569 
-0.192318 0.317703 0.133286 
-0.192761 0.326732 0.138088 
-0.192368 0.332686 0.141157 
-0.193163 0.34086 0.145489 
-0.192681 0.349209 0.149476 
-0.193368 0.355556 0.153196 
-0.192826 0.363905 0.157566 
-0.194029 0.370093 0.161071 
-0.193693 0.377322 0.164596 
-0.194703 0.385137 0.168923 
-0.194375 0.391605 0.172014 
-0.195245 0.396725 0.174922 
-0.195374 0.407913 0.180562 
-0.19491 0.414358 0.183616 
-0.194684 0.42733 0.190212 
-0.194172 0.430193 0.191383 
-0.192367 0.444837 0.197835 
-0.192367 0.444837 0.197835 
-0.185223 0.461541 0.200541 
-0.170227 0.476625 0.20025 
-0.169349 0.477226 0.200081 
-0.1516 0.484395 0.198067 
-0.1516 0.484395 0.198067 
-0.134964 0.48097 0.193304 
-0.128624 0.478106 0.190277 
-0.121786 0.47152 0.187027 
-0.113806 0.459006 0.179076 
-0.11277 0.456135 0.178054 
-0.11053 0.440349 0.170041 
-0.109844 0.436536 0.168081 
-0.109341 0.424431 0.161467 
-0.108716 0.419279 0.158258 
-0.108489 0.40919 0.152609 
-0.108164 0.403533 0.149064 
-0.106157 0.391097 0.141856 
-0.106157 0.391097 0.141856 
-0.106194 0.374736 0.133432 
-0.10621 0.373049 0.132602 
-0.105606 0.361803 0.126817 
-0.105617 0.360293 0.126078 
-0.105564 0.35992 0.125901 
-0.106184 0.349024 0.121069 
-0.104549 0.341679 0.116648 
-0.104416 0.336598 0.113954 
-0.102837 0.328481 0.109138 
-0.102468 0.323168 0.106316 
-0.101593 0.319271 0.10392 
-0.100236 0.308556 0.0980452 
-0.0987951 0.299771 0.0931293 
-0.0979085 0.293558 0.0897468 
-0.0953126 0.282896 0.0836558 
-0.0947794 0.279795 0.081902 
-0.0915423 0.265384 0.0733094 
-0.0915423 0.265384 0.0733094 
-0.0895901 0.24997 0.0638938 
-0.0895877 0.249951 0.0638826 
-0.0895763 0.249796 0.0637963 
-0.0889246 0.233991 0.0552988 
-0.0887296 0.231514 0.0538243 
-0.0891264 0.219999 0.0480407 
-0.0886552 0.207568 0.0413629 
-0.0887185 0.20485 0.0401053 
-0.088503 0.2006 0.0380982 
-0.0888302 0.188756 0.0330539 
-0.0881179 0.178777 0.0288145 
-0.0879354 0.174168 0.0283811 
-0.0843065 0.155845 0.0321999 
-0.0843065 0.155845 0.0321999 
-0.0700773 0.148962 0.0248137 
-0.063482 0.156236 0.0277482 
-0.0588523 0.160429 0.0303711 
-0.0583653 0.163883 0.0340571 
-0.0595521 0.179054 0.0362355 
-0.0589643 0.1954 0.0451384 
-0.0589643 0.1954 0.0451384 
-0.0585577 0.213076 0.0497496 
-0.058432 0.218223 0.050892 
-0.0578842 0.228137 0.052429 
-0.0574391 0.238101 0.0541639 
-0.0570251 0.244384 0.0548317 
-0.0561864 0.259164 0.0574487 
-0.0560231 0.260444 0.0576349 
-0.0557243 0.265098 0.058687 
-0.0541682 0.277731 0.0611782 
-0.0538458 0.281313 0.0620643 
-0.0521189 0.298135 0.0665605 
-0.0514352 0.301874 0.0676332 
-0.0492796 0.319433 0.0727304 
-0.0492796 0.319433 0.0727304 
-0.0465527 0.335514 0.0839606 
-0.0459795 0.33965 0.0867926 
-0.0435843 0.352022 0.0951477 
-0.0423507 0.363602 0.102524 
-0.0416526 0.366388 0.104241 
-0.0413447 0.369661 0.106173 
-0.0391205 0.380663 0.112619 
-0.0383379 0.390034 0.117799 
-0.036366 0.397516 0.121866 
-0.0360337 0.404147 0.126211 
-0.0344749 0.412033 0.131193 
-0.0336513 0.42525 0.140034 
-0.0336513 0.42525 0.140034 
-0.0318967 0.439892 0.147571 
-0.0316619 0.446125 0.150871 
-0.030401 0.45546 0.155279 
-0.030051 0.470504 0.162587 
-0.0298173 0.471932 0.163295 
-0.0297633 0.473169 0.163917 
-0.0266364 0.488186 0.171497 
-0.0263271 0.496033 0.175221 
-0.0241167 0.503763 0.17976 
-0.0205833 0.518651 0.186738 
-0.0205833 0.518651 0.186738 
-0.00897424 0.53556 0.188796 
0.0105896 0.547366 0.185224 
0.0105896 0.547366 0.185224 
0.0331553 0.54677 0.179861 
0.0349388 0.546272 0.179276 
0.0461924 0.540842 0.175468 
0.0519349 0.537627 0.173453 
0.0535121 0.536124 0.172634 
0.0618337 0.524467 0.167109 
0.0647558 0.518957 0.164074 
0.0681063 0.507778 0.159545 
0.0699867 0.49764 0.154209 
0.0707288 0.490784 0.151116 
0.0707069 0.477591 0.144733 
0.0709081 0.471893 0.142164 
0.0706166 0.453829 0.134762 
0.0706166 0.453829 0.134762 
0.069337 0.435024 0.130257 
0.06926 0.434475 0.130125 
0.0684302 0.427175 0.128428 
0.0668619 0.415089 0.125643 
0.0668045 0.414159 0.12541 
0.0646667 0.396768 0.122427 
0.0646008 0.394074 0.121988 
0.0651091 0.388941 0.121336 
0.0650716 0.377852 0.119033 
0.0656868 0.361419 0.115686 
0.0656868 0.361419 0.115686 
0.0652696 0.347296 0.11015 
0.0653307 0.344866 0.109038 
0.0647288 0.330937 0.102332 
0.0646944 0.327594 0.100706 
0.0636197 0.312359 0.0925151 
0.0633642 0.311154 0.0918364 
0.0631413 0.303377 0.0877773 
0.0625328 0.296614 0.08407 
0.0624963 0.295451 0.0835038 
0.0606782 0.282244 0.0761276 
0.0601757 0.275742 0.0733262 
0.0588858 0.268964 0.0701933 
0.057356 0.252976 0.064843 
0.057356 0.252976 0.064843 
0.0543594 0.235399 0.063522 
0.0532167 0.221951 0.0628877 
0.0527973 0.219692 0.0626631 
0.0525844 0.216982 0.0623252 
0.0505227 0.203602 0.0602445 
0.0497284 0.194013 0.0582752 
0.0481497 0.185281 0.0559671 
0.0472906 0.171076 0.0511761 
0.0465019 0.168265 0.0500111 
0.0445299 0.153121 0.0443381 
0.0445299 0.153121 0.0443381 
0.0422706 0.139498 0.0314576 
0.0428406 0.131728 0.0266138 
0.0448084 0.126956 0.0143334 
0.0483978 0.123349 0.0103354 
0.0517052 0.114106 -0.00738229 
0.0517052 0.114106 -0.00738229 
0.0708475 0.114571 -0.00700418 
0.0794283 0.127159 -0.00599296 
0.0812683 0.129946 -0.00649364 
0.0824298 0.13298 -0.0070182 
0.0875357 0.148339 -0.00554617 
0.0935628 0.162347 -0.0167199 
0.0935628 0.162347 -0.0167199 
0.0969411 0.174636 -0.00701152 
0.0983318 0.183621 -0.000839994 
0.0995439 0.187851 0.00231664 
0.10043 0.192212 0.00507825 
0.102869 0.20212 0.011632 
0.104896 0.213111 0.018323 
0.105349 0.215051 0.0195866 
0.105666 0.217007 0.0208329 
0.108701 0.22803 0.0288152 
0.109804 0.232545 0.0322278 
0.113019 0.241895 0.0391114 
0.114678 0.249487 0.0447803 
0.116545 0.253891 0.0484182 
0.120152 0.266747 0.0601483 
0.120152 0.266747 0.0601483 
0.12455 0.279638 0.0687691 
0.125513 0.2831 0.0711374 
0.129526 0.296023 0.0795766 
0.13068 0.299739 0.0817985 
0.134785 0.312577 0.0892597 
0.136286 0.317942 0.0921739 
0.139013 0.32698 0.0972976 
0.140399 0.332219 0.100325 
0.142363 0.345761 0.108088 
0.142593 0.346696 0.108611 
0.142657 0.347282 0.108977 
0.145503 0.361721 0.11849 
0.146371 0.366817 0.122 
0.146701 0.379482 0.131434 
0.146701 0.379482 0.131434 
0.14904 0.39392 0.142526 
0.150598 0.402066 0.148853 
0.152426 0.408367 0.153815 
0.153392 0.414259 0.158621 
0.156038 0.422374 0.165127 
0.159016 0.432398 0.172337 
0.161234 0.436926 0.175749 
0.167673 0.451119 0.18394 
0.168805 0.452532 0.184957 
0.184494 0.468784 0.19133 
0.184494 0.468784 0.19133 
0.208429 0.471422 0.191476 
0.211242 0.471071 0.190976 
0.225284 0.4649 0.186421 
0.238908 0.455014 0.18069 
0.244888 0.439337 0.171979 
0.249403 0.424482 0.163748 
0.249403 0.424482 0.163748 
0.250432 0.407594 0.156254 
0.250436 0.406621 0.155821 
0.250708 0.401894 0.153838 
0.250333 0.391642 0.149256 
0.250152 0.388476 0.147841 
0.249699 0.374932 0.141455 
0.249123 0.371275 0.139649 
0.246712 0.358425 0.133281 
0.244909 0.350063 0.129142 
0.242979 0.34329 0.125919 
0.238627 0.327748 0.1198 
0.238627 0.327748 0.1198 
0.237939 0.312428 0.111247 
0.238019 0.304437 0.107318 
0.237443 0.295493 0.102845 
0.236072 0.287324 0.0978262 
0.235805 0.277877 0.0918766 
0.234892 0.273105 0.08857 
0.234277 0.261713 0.0814466 
0.23402 0.257081 0.0785164 
0.232176 0.243611 0.070403 
0.231003 0.237163 0.0666704 
0.228444 0.224627 0.060288 
0.227299 0.220233 0.0579443 
0.225131 0.202743 0.0503955 
0.225131 0.202743 0.0503955 
0.220876 0.186608 0.0478423 
0.219195 0.17573 0.0462204 
0.217665 0.170189 0.0451892 
0.215593 0.159129 0.0428713 
0.214528 0.154656 0.0418126 
0.210527 0.140085 0.0374444 
0.209743 0.136386 0.0364652 
0.205853 0.123723 0.0323308 
0.204062 0.116186 0.0300906 
0.201266 0.108931 0.0273332 
0.196175 0.0916607 0.0225211 
0.196175 0.0916607 0.0225211 
0.192969 0.0747381 0.0120451 
0.193586 0.068442 0.0096284 
0.193167 0.0546036 0.00448364 
0.194193 0.0433569 -0.000105111 
0.194402 0.0350925 -0.00347577 
0.196029 0.0238284 -0.00852467 
0.196469 0.0178373 -0.0117236 
0.198243 0.00236365 -0.0196051 
0.198243 0.00236365 -0.0196051 
0.19615 -0.0187561 -0.0248178 
0.201658 -0.020281 -0.0229739 
0.210103 -0.0243695 -0.0219965 
0.216196 -0.0150553 -0.0102472 
0.216548 -0.0150608 -0.00941145 
0.221824 -0.00858737 0.00443142 
0.221824 -0.00858737 0.00443142 
0.22583 0.00922818 0.00447406 
0.226925 0.0147228 0.00531967 
0.229876 0.0254604 0.00727431 
0.232706 0.0390477 0.00889506 
0.232966 0.0397188 0.00900872 
0.240107 0.057496 0.0108873 
0.240479 0.0583872 0.0109902 
0.248902 0.0740813 0.0131812 
0.252938 0.0807477 0.0143276 
0.259131 0.0911891 0.015784 
0.263186 0.0982373 0.0166587 
0.268309 0.105571 0.0174269 
0.273515 0.111127 0.0179773 
0.28311 0.124771 0.0193915 
0.28311 0.124771 0.0193915 
0.295671 0.13533 0.0254242 
0.303175 0.140681 0.0297791 
0.309078 0.143762 0.0335437 
0.32203 0.148416 0.0428225 
0.33697 0.146657 0.0553512 
0.33697 0.146657 0.0553512 
0.352676 0.138383 0.060757 
0.354167 0.136342 0.0613638 
0.363209 0.12347 0.0635967 
0.365753 0.114138 0.064586 
0.366866 0.10626 0.0647764 
0.367833 0.100461 0.0645005 
0.366586 0.0891538 0.0642793 
0.365849 0.0723142 0.0619151 
0.365849 0.0723142 0.0619151 
0.361488 0.0525902 0.0627998 
0.361206 0.0501364 0.0628256 
0.356883 0.0320724 0.0616199 
0.355749 0.0277501 0.0610948 
0.351273 0.0146681 0.0591791 
0.34924 0.00657331 0.0581326 
0.345917 -0.00170185 0.0562687 
0.343049 -0.0114543 0.0544897 
0.340758 -0.0177243 0.0528639 
0.33898 -0.0235291 0.0515649 
0.334817 -0.0327083 0.0485194 
0.332951 -0.0387746 0.0467509 
0.32862 -0.0505458 0.0435286 
0.325836 -0.0555443 0.041637 
0.317914 -0.0752804 0.0381017 
0.317914 -0.0752804 0.0381017 
0.31398 -0.0897367 0.0306477 
0.311738 -0.104373 0.0249169 
0.311581 -0.104977 0.0246374 
0.311449 -0.106015 0.0242642 
0.308542 -0.119811 0.0174888 
0.308025 -0.131666 0.0134962 
0.30775 -0.133495 0.0127478 
0.307349 -0.13777 0.0114993 
0.305514 -0.149795 0.00735966 
0.305161 -0.153478 0.00628588 
0.303778 -0.167499 0.00301453 
0.303275 -0.173052 0.00191902 
0.30159 -0.185355 0.000204655 
0.300902 -0.189924 -0.000885448 
0.299275 -0.201983 -0.0032488 
0.297869 -0.209276 -0.00445143 
0.296255 -0.216397 -0.00589609 
0.292938 -0.228303 -0.00853159 
0.288214 -0.244772 -0.0113076 
0.288214 -0.244772 -0.0113076 
0.28293 -0.261881 -0.0152635 
0.279725 -0.26963 -0.0167296 
0.275225 -0.280821 -0.0189216 
0.268142 -0.296199 -0.0209031 
0.260301 -0.309208 -0.0230163 
0.257817 -0.314232 -0.0238441 
0.251447 -0.32461 -0.0260349 
0.244466 -0.336728 -0.0292729 
0.242878 -0.338884 -0.0299374 
0.240144 -0.343052 -0.0316297 
0.233474 -0.352115 -0.0355085 
0.230222 -0.357109 -0.0379356 
0.224089 -0.365126 -0.0420518 
0.21797 -0.373784 -0.0467357 
0.213818 -0.379229 -0.0500882 
0.206916 -0.388043 -0.0556145 
0.20203 -0.3941 -0.0599442 
0.193824 -0.403053 -0.0664357 
0.190899 -0.405668 -0.0685081 
0.179417 -0.415536 -0.0772007 
0.178642 -0.416104 -0.0776926 
0.164364 -0.426031 -0.0881423 
0.164364 -0.426031 -0.0881423 
0.148665 -0.433311 -0.0921097 
0.14087 -0.436251 -0.0973729 
0.135092 -0.43758 -0.099573 
0.123747 -0.437848 -0.106055 
0.117177 -0.437202 -0.10924 
0.106865 -0.435387 -0.113665 
0.100272 -0.433494 -0.117204 
0.0848769 -0.428803 -0.124445 
0.0847515 -0.428768 -0.124496 
0.0845519 -0.428725 -0.124558 
0.0687587 -0.425372 -0.129217 
0.0627895 -0.424219 -0.131076 
0.0540042 -0.422505 -0.133742 
0.0388365 -0.419779 -0.138281 
0.0388365 -0.419779 -0.138281 
0.021855 -0.417652 -0.1412 
0.00806734 -0.416006 -0.143562 
0.0036912 -0.415486 -0.144313 
-0.00408925 -0.41458 -0.145684 
-0.0138195 -0.41346 -0.14739 
-0.0223161 -0.412515 -0.148923 
-0.0316834 -0.411474 -0.150653 
-0.0403841 -0.410519 -0.152252 
-0.0496405 -0.40951 -0.153932 
-0.0608338 -0.408302 -0.155916 
-0.066818 -0.407659 -0.15697 
-0.0708312 -0.407225 -0.157683 
-0.0844421 -0.405754 -0.160105 
-0.0939084 -0.404728 -0.16184 
-0.101333 -0.403951 -0.163212 
-0.110597 -0.40301 -0.164822 
-0.123994 -0.401686 -0.167192 
-0.127533 -0.40134 -0.167791 
-0.144214 -0.399744 -0.170482 
-0.144214 -0.399744 -0.170482 
-0.156572 -0.402674 -0.160722 
-0.161517 -0.403843 -0.156931 
-0.16854 -0.40557 -0.15146 
-0.17559 -0.407271 -0.146172 
-0.180276 -0.408377 -0.14269 
-0.191136 -0.410955 -0.134416 
-0.204576 -0.412989 -0.127345 
-0.221084 -0.414333 -0.121305 
-0.32062 0.286525 0.194234 
-0.313189 0.268259 0.196082 
-0.310828 0.263527 0.195801 
-0.307633 0.251566 0.192136 
-0.304831 0.238924 0.187486 
-0.304475 0.235556 0.185534 
-0.303701 0.229165 0.181859 
-0.302909 0.221065 0.176016 
-0.302359 0.215739 0.172454 
-0.30214 0.208358 0.165778 
-0.301488 0.202566 0.161362 
-0.300894 0.197303 0.156358 
-0.298626 0.187733 0.148179 
-0.294578 0.177486 0.138474 
-0.291463 0.170509 0.134591 
-0.289665 0.164061 0.130592 
-0.285427 0.151372 0.124097 
-0.285427 0.151372 0.124097 
-0.283854 0.139376 0.116008 
-0.282309 0.129954 0.110271 
-0.281881 0.126575 0.107687 
-0.281234 0.124078 0.106077 
-0.281501 0.113235 0.0989366 
-0.280582 0.106419 0.0967359 
-0.279774 0.0986527 0.0933234 
-0.279023 0.0896022 0.0921802 
-0.27691 0.0817006 0.090478 
-0.274325 0.067484 0.0888826 
-0.273928 0.0658176 0.0885093 
-0.273701 0.0644508 0.0882756 
-0.270492 0.0497009 0.0852419 
-0.150094 0.442615 0.224395 
-0.149456 0.425035 0.22205 
-0.149169 0.415558 0.219512 
-0.148487 0.408185 0.216684 
-0.148098 0.401426 0.213312 
-0.148126 0.394278 0.208196 
-0.147847 0.388911 0.206259 
-0.147305 0.380539 0.201578 
-0.146507 0.372684 0.196666 
-0.145664 0.364778 0.192358 
-0.145053 0.358279 0.188144 
-0.143793 0.344301 0.180536 
-0.143793 0.344301 0.180536 
-0.142616 0.330055 0.171988 
-0.141572 0.319866 0.168702 
-0.141333 0.313721 0.166439 
-0.140495 0.296767 0.16118 
-0.140493 0.29672 0.161162 
-0.140493 0.296707 0.161157 
-0.140492 0.296661 0.161141 
-0.14024 0.280621 0.154303 
-0.139842 0.265692 0.147834 
-0.139819 0.264614 0.147291 
-0.139801 0.264196 0.147105 
-0.139193 0.250408 0.139757 
-0.138805 0.243211 0.136373 
-0.138387 0.237248 0.133099 
-0.137876 0.230402 0.129997 
-0.138141 0.223572 0.126398 
-0.138277 0.208747 0.121045 
-0.138277 0.208747 0.121045 
-0.134445 0.193529 0.117722 
-0.132263 0.181992 0.115882 
-0.131138 0.174897 0.11457 
-0.128696 0.158055 0.11028 
-0.128664 0.157756 0.110194 
-0.128608 0.157201 0.110008 
-0.127477 0.143888 0.104289 
-0.126762 0.133906 0.0996869 
-0.126291 0.128943 0.0969959 
-0.125628 0.124079 0.094161 
-0.124056 0.113095 0.0864467 
-0.11855 0.095901 0.0762207 
0.0278748 0.522898 0.20668 
0.0276509 0.505038 0.21065 
0.0278159 0.502224 0.210802 
0.0275259 0.486377 0.210739 
0.0270566 0.478558 0.209206 
0.0260431 0.470108 0.206071 
0.0252068 0.463773 0.203881 
0.0244335 0.454716 0.198609 
0.022872 0.440685 0.19216 
0.0227763 0.439824 0.191612 
0.022544 0.437868 0.190557 
0.0209502 0.425595 0.181878 
0.0202583 0.417897 0.176684 
0.0194827 0.411571 0.171458 
0.0190437 0.405897 0.167929 
0.0198491 0.398357 0.161846 
0.0211269 0.384001 0.15615 
0.0211269 0.384001 0.15615 
0.0210256 0.368306 0.152034 
0.0213558 0.358259 0.150119 
0.0208566 0.353188 0.14866 
0.0199542 0.342406 0.144584 
0.0196502 0.336114 0.141998 
0.0183625 0.326817 0.137708 
0.0176742 0.320726 0.134948 
0.0166018 0.311018 0.130696 
0.0159341 0.306325 0.128277 
0.0146316 0.296506 0.123397 
0.0137293 0.290424 0.119869 
0.0130547 0.286592 0.117924 
0.0116279 0.275546 0.111636 
0.0095739 0.260948 0.106546 
0.0095739 0.260948 0.106546 
0.00968663 0.246485 0.101989 
0.00987321 0.240962 0.101389 
0.00912231 0.228919 0.0992953 
0.00860936 0.216016 0.0971998 
0.00817824 0.211828 0.0963196 
0.00778169 0.206896 0.0950447 
0.00676762 0.195788 0.0911804 
0.0061026 0.18393 0.0869755 
0.00568371 0.179006 0.0848508 
0.00546837 0.176593 0.0836523 
0.00354444 0.164369 0.0765786 
0.00234361 0.15669 0.0719911 
0.000501796 0.150096 0.0674556 
-0.00417778 0.135857 0.0585722 
0.210452 0.455178 0.205777 
0.20186 0.439029 0.208171 
0.19805 0.43038 0.208342 
0.196214 0.421986 0.206643 
0.194521 0.413461 0.204771 
0.192961 0.405541 0.201861 
0.191526 0.398868 0.199357 
0.190138 0.389825 0.194086 
0.186219 0.374633 0.185361 
0.186219 0.374633 0.185361 
0.183702 0.360698 0.173743 
0.182322 0.353466 0.167918 
0.181211 0.346405 0.161561 
0.179935 0.333296 0.151344 
0.179692 0.331663 0.14985 
0.179064 0.328225 0.14831 
0.177327 0.317954 0.142593 
0.175503 0.304104 0.137816 
0.175234 0.302373 0.137153 
0.172475 0.286151 0.129513 
0.169129 0.26888 0.119677 
0.169129 0.26888 0.119677 
0.165808 0.25474 0.110109 
0.164403 0.24798 0.106411 
0.16184 0.240826 0.101333 
0.156271 0.225306 0.0945565 
0.149664 0.20793 0.0899981 
0.146118 0.197822 0.0877975 
0.144199 0.191861 0.0862569 
0.143387 0.189259 0.0855187 
0.139731 0.17776 0.0815643 
0.136479 0.168032 0.0786332 
0.135435 0.164789 0.0772763 
0.131164 0.147887 0.0696466 
0.131164 0.147887 0.0696466 
0.128541 0.134081 0.0616124 
0.127532 0.130252 0.0593734 
0.120925 0.121399 0.0514337 
0.12016 0.117975 0.049678 
0.111176 0.103949 0.0446686 
0.223898 0.470645 0.178119 
0.206185 0.471706 0.170642 
0.201123 0.465788 0.160437 
0.197025 0.461839 0.155622 
0.195125 0.454432 0.148055 
0.192562 0.447517 0.142116 
0.19065 0.441229 0.13601 
0.188628 0.435332 0.129529 
0.186519 0.429188 0.122297 
0.185046 0.422843 0.114663 
0.183611 0.416638 0.108772 
0.181035 0.406533 0.0978835 
0.181035 0.406533 0.0978835 
0.180444 0.393519 0.089302 
0.180169 0.390515 0.0867893 
0.179357 0.378965 0.0794 
0.178623 0.371945 0.0741178 
0.177155 0.361449 0.065267 
0.176853 0.358113 0.0628054 
0.175986 0.352602 0.0581405 
0.175162 0.34406 0.0521879 
0.174596 0.339149 0.0482757 
0.173783 0.330627 0.0427096 
0.171783 0.316035 0.032308 
0.171783 0.316035 0.032308 
0.170837 0.301944 0.0239021 
0.170224 0.295115 0.0186023 
0.169776 0.289444 0.0140669 
0.168625 0.279624 0.0054244 
0.168453 0.277634 0.00394786 
0.168016 0.27594 0.00240758 
0.166692 0.265339 -0.00560298 
0.165282 0.257296 -0.0102492 
0.164357 0.252526 -0.0122506 
0.163886 0.249999 -0.0136339 
0.162105 0.23915 -0.0186068 
0.161004 0.230447 -0.0237566 
0.160685 0.227608 -0.0251998 
0.160049 0.214586 -0.0317842 
0.160049 0.214586 -0.0317842 
0.155206 0.200503 -0.0398407 
0.155072 0.200102 -0.0400212 
0.154766 0.19938 -0.0405393 
0.149941 0.187049 -0.047692 
0.146336 0.178862 -0.0531006 
0.144869 0.175288 -0.0546951 
0.143512 0.172562 -0.0569025 
0.139226 0.164406 -0.0625021 
0.134063 0.15508 -0.0694608 
0.131877 0.150751 -0.0724651 
0.123862 0.135057 -0.0799863 
0.0202499 0.54956 0.164076 
0.0172579 0.540571 0.149974 
0.0182137 0.535543 0.145037 
0.0156047 0.524487 0.136075 
0.0156631 0.517751 0.131295 
0.0146877 0.507103 0.124126 
0.0142052 0.501747 0.120383 
0.0126119 0.48906 0.10966 
0.0122821 0.486614 0.107814 
0.0106916 0.472465 0.0972707 
0.0106916 0.472465 0.0972707 
0.00812173 0.456791 0.0892616 
0.00741759 0.453399 0.0875825 
0.00527113 0.439894 0.0810929 
0.0046057 0.434784 0.0783706 
0.0031369 0.422875 0.0719139 
0.00227922 0.416657 0.0676196 
0.00163484 0.407667 0.0619871 
0.0011201 0.399577 0.0564602 
-8.25774e-005 0.388409 0.0485863 
-0.000290704 0.385765 0.0470887 
-0.00132052 0.371369 0.0400113 
-0.00166767 0.368212 0.0385965 
-0.00326705 0.353879 0.0304957 
-0.00326705 0.353879 0.0304957 
-0.00414514 0.337101 0.0221243 
-0.00419172 0.336301 0.0216893 
-0.00437498 0.323899 0.0160104 
-0.00574088 0.314953 0.00990626 
-0.00672216 0.307716 0.00648055 
-0.00933144 0.293218 -0.000220506 
-0.00976563 0.290436 -0.00133555 
-0.0100511 0.28913 -0.00223607 
-0.0118462 0.274978 -0.0100513 
-0.0118408 0.265262 -0.014771 
-0.0116507 0.258108 -0.0178354 
-0.0110265 0.247353 -0.022937 
-0.0107705 0.240946 -0.0260802 
-0.0103381 0.226769 -0.0337797 
-0.0103381 0.226769 -0.0337797 
-0.0137356 0.208217 -0.0421216 
-0.0160135 0.198779 -0.0466086 
-0.0170268 0.194314 -0.0483954 
-0.019788 0.183626 -0.0521356 
-0.0213024 0.178167 -0.0542504 
-0.0233321 0.16911 -0.0566303 
-0.0267028 0.155793 -0.0612589 
-0.15102 0.484025 0.179539 
-0.156538 0.47387 0.166802 
-0.158573 0.470512 0.163214 
-0.158402 0.462018 0.157226 
-0.159171 0.454817 0.153406 
-0.159256 0.444989 0.145608 
-0.15932 0.441871 0.143634 
-0.159895 0.424588 0.130839 
-0.159895 0.424588 0.130839 
-0.159181 0.409856 0.121564 
-0.158944 0.407352 0.120005 
-0.15862 0.402888 0.117179 
-0.157537 0.393842 0.112779 
-0.156999 0.386022 0.108222 
-0.156573 0.380396 0.105843 
-0.156316 0.377685 0.104442 
-0.155782 0.365942 0.0988704 
-0.155506 0.361649 0.0959846 
-0.154779 0.353621 0.091815 
-0.153956 0.341251 0.0822031 
-0.153956 0.341251 0.0822031 
-0.15374 0.328311 0.0749257 
-0.153557 0.318173 0.0679801 
-0.15341 0.315463 0.0666341 
-0.153492 0.308428 0.0627892 
-0.153433 0.300997 0.0593007 
-0.153478 0.299041 0.0582288 
-0.154088 0.285537 0.0516751 
-0.154251 0.282493 0.0499773 
-0.154909 0.269803 0.0425521 
-0.155196 0.266545 0.0405618 
-0.156053 0.254511 0.0330268 
-0.156189 0.252212 0.031789 
-0.157159 0.237992 0.0232222 
-0.158301 0.219091 0.0139494 
-0.158301 0.219091 0.0139494 
-0.156541 0.202637 0.00618167 
-0.15647 0.201378 0.00559854 
-0.155919 0.190122 -0.000149506 
-0.155606 0.18506 -0.00254546 
-0.15557 0.184446 -0.00281344 
-0.154536 0.169395 -0.00926212 
-0.15448 0.165533 -0.0110628 
-0.154024 0.152121 -0.0164105 
-0.154008 0.143607 -0.0197749 
-0.153794 0.134212 -0.0229444 
-0.153725 0.117566 -0.0295003 
-0.31672 0.30806 0.16551 
-0.324714 0.298951 0.151322 
-0.325067 0.298212 0.150593 
-0.326458 0.286658 0.142011 
-0.325841 0.282316 0.136989 
-0.325466 0.274094 0.129209 
-0.325189 0.269833 0.124831 
-0.324018 0.261128 0.11538 
-0.323712 0.258039 0.112439 
-0.321686 0.246842 0.10187 
-0.32139 0.245527 0.100772 
-0.318573 0.231001 0.0897399 
-0.318573 0.231001 0.0897399 
-0.313838 0.218144 0.0809233 
-0.313313 0.216912 0.0799597 
-0.309185 0.20732 0.0712816 
-0.308255 0.204907 0.0691192 
-0.304124 0.19623 0.0604587 
-0.299614 0.186657 0.0500897 
-0.299142 0.185655 0.0491658 
-0.298933 0.185194 0.0486721 
-0.293822 0.174253 0.0398732 
-0.289471 0.165756 0.0308601 
-0.289471 0.165756 0.0308601 
-0.285122 0.154568 0.0218659 
-0.283298 0.148832 0.0169537 
-0.280492 0.141133 0.0127611 
-0.276618 0.131366 0.00679629 
-0.275599 0.127277 0.00515335 
-0.272453 0.116982 0.00279576 
-0.270023 0.108278 -0.000338595 
-0.267495 0.0997782 -0.00329653 
-0.263439 0.0868217 -0.00878591 
-0.263439 0.0868217 -0.00878591 
-0.258723 0.0689062 -0.0155004 
-0.258665 0.0686618 -0.0155898 
-0.253156 0.0511238 -0.0210706 
-0.248154 -0.135282 0.0664503 
-0.227456 -0.133754 0.0680998 
-0.226512 -0.133606 0.0681167 
-0.224716 -0.13357 0.0678786 
-0.210263 -0.134051 0.0671308 
-0.201658 -0.134645 0.0662021 
-0.192693 -0.134131 0.0648102 
-0.182173 -0.1336 0.0632414 
-0.165028 -0.129239 0.0603925 
-0.165028 -0.129239 0.0603925 
-0.149873 -0.119923 0.0581368 
-0.147966 -0.11887 0.0578012 
-0.134043 -0.111916 0.0551735 
-0.129488 -0.110013 0.0541573 
-0.117289 -0.105844 0.0510579 
-0.111486 -0.104346 0.049404 
-0.0981165 -0.101505 0.0456204 
-0.0951577 -0.101051 0.0446782 
-0.0789807 -0.0986766 0.0397801 
-0.0789807 -0.0986766 0.0397801 
-0.0680775 -0.0821852 0.0363458 
-0.0680775 -0.0821852 0.0363458 
-0.0587438 -0.0715864 0.0341495 
-0.0522148 -0.0632249 0.0331611 
-0.0476429 -0.0570041 0.0333264 
-0.0344944 -0.0424554 0.0336283 
-0.0336042 -0.0414254 0.0337107 
-0.0285521 -0.0362619 0.0338624 
-0.0179295 -0.0256274 0.0345236 
-0.0167035 -0.0243295 0.0345682 
-0.0131964 -0.0201618 0.0347233 
-0.00324271 -0.00900208 0.0357663 
0.00117876 -0.00349954 0.0362988 
0.00838723 0.00578505 0.0375007 
0.0157343 0.017295 0.0391094 
0.0157343 0.017295 0.0391094 
0.0195103 0.0315099 0.0419279 
0.0232282 0.0449502 0.0427201 
0.0240744 0.0482384 0.0431195 
0.0257229 0.0541433 0.0427139 
0.0286277 0.0638045 0.0432133 
0.0312651 0.070053 0.0420327 
0.03576 0.0787534 0.0410312 
0.0449548 0.0921559 0.0366792 
-0.21944 -0.252694 0.0507438 
-0.200605 -0.247753 0.0546812 
-0.195296 -0.245922 0.0550754 
-0.184007 -0.242764 0.05544 
-0.180322 -0.241512 0.0553785 
-0.166209 -0.237005 0.054383 
-0.165181 -0.236595 0.0542552 
-0.158057 -0.234383 0.0530553 
-0.147806 -0.231254 0.0514822 
-0.144882 -0.230429 0.0509242 
-0.132421 -0.226013 0.048037 
-0.122667 -0.222309 0.045548 
-0.118459 -0.220187 0.0444973 
-0.105565 -0.211115 0.0411505 
-0.105565 -0.211115 0.0411505 
-0.0938888 -0.197577 0.0387257 
-0.0894477 -0.192324 0.0377963 
-0.0841068 -0.18578 0.036761 
-0.0804061 -0.179847 0.0359755 
-0.075457 -0.17262 0.0350204 
-0.0691437 -0.162912 0.0339499 
-0.0646308 -0.156258 0.0329598 
-0.0600599 -0.150056 0.0323606 
-0.0494222 -0.135832 0.030301 
-0.0494222 -0.135832 0.030301 
-0.0379613 -0.118958 0.0278973 
-0.037208 -0.117751 0.02771 
-0.0256419 -0.102056 0.0255482 
-0.0120023 -0.0877774 0.0244466 
-0.0120023 -0.0877774 0.0244466 
0.00421586 -0.0782775 0.0244317 
0.00558502 -0.0776845 0.0245539 
0.0196751 -0.0718848 0.0254249 
0.0247691 -0.0700514 0.0256724 
0.0350642 -0.0675055 0.0264547 
0.0476324 -0.0658639 0.0280129 
0.0534441 -0.0651675 0.0284323 
0.0705503 -0.0645581 0.0293506 
0.0705503 -0.0645581 0.0293506 
0.0858355 -0.0583064 0.0280392 
0.0892416 -0.0571328 0.0276725 
0.0990803 -0.0538438 0.0281116 
0.114918 -0.0477294 0.0231629 
0.133845 -0.0454248 0.0191875 
0.149544 -0.0450401 0.0125597 
0.152113 -0.04493 0.0119367 
0.153019 -0.0449003 0.0114122 
0.170917 -0.0394295 -0.000356236 
-0.12556 -0.3694 0.0352674 
-0.108424 -0.355471 0.0389477 
-0.107842 -0.354958 0.0390533 
-0.0942817 -0.343396 0.039548 
-0.0911572 -0.340651 0.0393632 
-0.0795534 -0.329669 0.0376217 
-0.070902 -0.324793 0.0357297 
-0.0629677 -0.320829 0.0336891 
-0.0520395 -0.318797 0.0313215 
-0.0455365 -0.317146 0.0300998 
-0.0405045 -0.316092 0.0302163 
-0.0273359 -0.313664 0.0299126 
-0.00931472 -0.308807 0.032554 
-0.00931472 -0.308807 0.032554 
-0.0106105 -0.290342 0.0321031 
-0.0109827 -0.282577 0.0316278 
-0.0105426 -0.271261 0.031204 
-0.00997631 -0.26179 0.0309206 
-0.00805407 -0.250826 0.0307409 
-0.00721765 -0.247634 0.0309948 
-0.0049073 -0.240709 0.0306664 
-0.00202008 -0.232092 0.0309344 
-0.000827369 -0.228568 0.0310753 
0.00457777 -0.213255 0.0310629 
0.005259 -0.211307 0.0310778 
0.0113237 -0.192064 0.0304156 
0.0113237 -0.192064 0.0304156 
0.0237956 -0.173245 0.0324124 
0.0246773 -0.172021 0.0324484 
0.0344387 -0.159024 0.035512 
0.0374907 -0.155487 0.0358948 
0.0470435 -0.147008 0.0388314 
0.051445 -0.142996 0.0400526 
0.0685238 -0.133698 0.0440287 
0.0685238 -0.133698 0.0440287 
0.0840491 -0.125089 0.046157 
0.0911583 -0.120944 0.0466547 
0.101901 -0.114988 0.0464791 
0.106446 -0.112078 0.0463744 
0.120318 -0.104561 0.0439942 
0.124834 -0.102077 0.0433891 
0.126047 -0.101521 0.0430423 
0.144071 -0.0938845 0.0370899 
0.144174 -0.0938462 0.0370425 
0.144386 -0.0938027 0.0369325 
0.161035 -0.0908466 0.0294332 
0.176722 -0.0915483 0.0213953 
0.176722 -0.0915483 0.0213953 
0.191282 -0.0898844 0.0128708 
0.196479 -0.0882754 0.0135038 
0.208563 -0.0790655 0.018337 
0.221677 -0.071716 0.031452 
0.222797 -0.0714485 0.0319982 
0.23908 -0.0676495 0.0391398 
0.23908 -0.0676495 0.0391398 
0.25148 -0.0591557 0.0419878 
0.259823 -0.0549517 0.0448787 
0.265959 -0.0532759 0.046624 
0.278312 -0.0465391 0.0533569 
0.283199 -0.0324758 0.0613682 
0.284314 -0.0244856 0.0660969 
0.285173 -0.017998 0.0691896 
0.285632 -0.0104249 0.0729808 
0.28653 -0.00415553 0.0749264 
0.289176 0.010764 0.0807817 
0.289176 0.010764 0.0807817 
0.289321 0.029258 0.0827001 
0.289371 0.033598 0.0831695 
0.289867 0.0476659 0.0843663 
0.289907 0.0522401 0.0840839 
0.291582 0.0709315 0.0832194 
0.291582 0.0709315 0.0832194 
0.299869 0.0847651 0.0817883 
0.307292 0.0970379 0.0818003 
0.307964 0.0980216 0.0816784 
0.316742 0.11067 0.0809322 
0.0262846 -0.39338 0.0192566 
0.0410239 -0.386997 0.0235155 
0.0453865 -0.38522 0.0252433 
0.0555365 -0.380572 0.0286259 
0.0681364 -0.374847 0.032977 
0.073123 -0.372168 0.034706 
0.0814112 -0.367683 0.0369905 
0.0942384 -0.360151 0.0412962 
0.0945567 -0.359963 0.0413825 
0.0965228 -0.358647 0.0418977 
0.110669 -0.349152 0.0453666 
0.112663 -0.347752 0.0458388 
0.12618 -0.33764 0.0485161 
0.130689 -0.334267 0.0494278 
0.142139 -0.325921 0.0510745 
0.146533 -0.322535 0.0516005 
0.161444 -0.310992 0.0527697 
0.161444 -0.310992 0.0527697 
0.168864 -0.294311 0.0560942 
0.175719 -0.279341 0.0588298 
0.175839 -0.279079 0.0588652 
0.176492 -0.277417 0.0591062 
0.183409 -0.259725 0.0615633 
0.183832 -0.258338 0.0617507 
0.190827 -0.240724 0.0624341 
0.191139 -0.239498 0.0625156 
0.193246 -0.232853 0.0618686 
0.197268 -0.220696 0.0605029 
0.198349 -0.217778 0.0596272 
0.203368 -0.204637 0.0551143 
0.211283 -0.188763 0.0460332 
-0.0880313 -0.448138 -0.0208982 
-0.0902153 -0.448449 -0.0411542 
-0.0897415 -0.447154 -0.0450185 
-0.0916601 -0.441533 -0.0598022 
-0.0906769 -0.440457 -0.0627861 
-0.0878459 -0.434628 -0.0789958 
-0.0876691 -0.434249 -0.0800459 
-0.0876291 -0.434118 -0.0804107 
-0.085642 -0.427536 -0.0988394 
-0.0850669 -0.425692 -0.104016 
-0.0834379 -0.420695 -0.118158 
-0.0831205 -0.419714 -0.12093 
-0.0816087 -0.414953 -0.13443 
-0.0805094 -0.411316 -0.144824 
-0.0798357 -0.409046 -0.151354 
-0.0786261 -0.404398 -0.164705 
-0.0781538 -0.40265 -0.169728 
-0.0766835 -0.397019 -0.185826 
-0.0766334 -0.396821 -0.186393 
-0.0764657 -0.396174 -0.188238 
-0.0749799 -0.390685 -0.203965 
-0.0743958 -0.388799 -0.209318 
-0.0747044 -0.384622 -0.220968 
-0.0749132 -0.378197 -0.237161 
-0.0749132 -0.378197 -0.237161 
-0.0570404 -0.377837 -0.239129 
-0.0561647 -0.377862 -0.239249 
-0.0494937 -0.378007 -0.239912 
-0.0378052 -0.378055 -0.24067 
-0.0353603 -0.378147 -0.240748 
-0.0219492 -0.378555 -0.239661 
-0.0119451 -0.379581 -0.238804 
-0.00567409 -0.379758 -0.237473 
0.00965495 -0.382097 -0.235174 
0.0246523 -0.383887 -0.231616 
0.0285528 -0.38451 -0.230647 
0.0403182 -0.386268 -0.227477 
0.050347 -0.388301 -0.223804 
0.0545734 -0.388573 -0.221546 
0.0577798 -0.38952 -0.220414 
0.0678664 -0.391402 -0.214865 
0.0771232 -0.394571 -0.210114 
0.0808279 -0.395651 -0.207569 
0.0940532 -0.400529 -0.19721 
0.107041 -0.406377 -0.182734 
0.108108 -0.406944 -0.18146 
0.118714 -0.413913 -0.166602 
0.118714 -0.413913 -0.166602 
0.125959 -0.420921 -0.150659 
0.12647 -0.421685 -0.148996 
0.130316 -0.427907 -0.134259 
0.130318 -0.429375 -0.130556 
0.130619 -0.434375 -0.115983 
0.127856 -0.436696 -0.109037 
0.124069 -0.439227 -0.0988686 
0.119189 -0.440676 -0.0934834 
0.111886 -0.442923 -0.085173 
0.103965 -0.444321 -0.0781271 
0.0977024 -0.445267 -0.0726841 
0.084203 -0.447337 -0.0633719 
0.084203 -0.447337 -0.0633719 
0.0683144 -0.447766 -0.0554866 
0.0651151 -0.448035 -0.0539416 
0.0542152 -0.447443 -0.0488886 
0.039199 -0.449357 -0.042513 
0.038243 -0.449322 -0.0421098 
0.0364704 -0.449362 -0.0415306 
0.0216797 -0.447311 -0.0370856 
0.0140243 -0.447066 -0.0351142 
0.00408549 -0.445919 -0.0328708 
-0.0096782 -0.446701 -0.030117 
-0.0118935 -0.446545 -0.0296939 
-0.0257492 -0.446442 -0.0270224 
-0.0312986 -0.445994 -0.0260948 
-0.0321464 -0.445746 -0.0258549 
-0.0494947 -0.443486 -0.020928 
-0.0494947 -0.443486 -0.020928 
-0.064294 -0.444585 -0.0211508 
-0.0673009 -0.444892 -0.0211172 
-0.0867911 -0.447896 -0.0207372 
-0.0879007 -0.447992 -0.0207434 
-0.0881356 -0.448015 -0.020734 
-0.106309 -0.447809 -0.0216115 
-0.107863 -0.447875 -0.0216485 
-0.123862 -0.446826 -0.0232832 
-0.125649 -0.446842 -0.0235442 
-0.142856 -0.44526 -0.0269143 
-0.14765 -0.445027 -0.0281833 
-0.162459 -0.44158 -0.0336699 
-0.170972 -0.4406 -0.0370423 
-0.181906 -0.438809 -0.0427718 
-0.187665 -0.436891 -0.0461697 
-0.201505 -0.433752 -0.0559854 
-0.201505 -0.433752 -0.0559854 
-0.210676 -0.427478 -0.0705177 
-0.213317 -0.425828 -0.0754255 
-0.220134 -0.422067 -0.0892227 
-0.222403 -0.42019 -0.0950214 
-0.226034 -0.416586 -0.106329 
-0.227591 -0.413996 -0.114393 
-0.228759 -0.411277 -0.124743 
-0.228081 -0.408317 -0.13348 
-0.22632 -0.40466 -0.14394 
-0.223449 -0.401972 -0.153418 
-0.220993 -0.399181 -0.159559 
-0.218423 -0.398102 -0.167739 
-0.216335 -0.396372 -0.172385 
-0.210111 -0.392796 -0.183387 
-0.209055 -0.39225 -0.185007 
-0.197807 -0.388039 -0.197807 
-0.197807 -0.388039 -0.197807 
-0.184436 -0.384132 -0.207884 
-0.178695 -0.383088 -0.212158 
-0.170915 -0.381345 -0.216364 
-0.162447 -0.380265 -0.220032 
-0.152553 -0.379828 -0.22509 
-0.147237 -0.379193 -0.226861 
-0.131922 -0.378056 -0.231828 
-0.130706 -0.377982 -0.232069 
-0.112164 -0.377662 -0.234691 
-0.0922298 -0.349676 -0.25186 
-0.109405 -0.34658 -0.249542 
-0.113319 -0.344577 -0.248125 
-0.1239 -0.340874 -0.244491 
-0.129816 -0.333759 -0.23891 
-0.132752 -0.329978 -0.236026 
-0.134975 -0.319275 -0.228993 
-0.137505 -0.31136 -0.223758 
-0.138988 -0.306452 -0.220279 
-0.142655 -0.295132 -0.213279 
-0.142811 -0.294596 -0.21293 
-0.145634 -0.284619 -0.206159 
-0.148031 -0.276204 -0.201172 
-0.149164 -0.271894 -0.198301 
-0.150912 -0.265411 -0.194847 
-0.152561 -0.257834 -0.1903 
-0.154439 -0.250035 -0.185924 
-0.156064 -0.243294 -0.181813 
-0.160366 -0.226567 -0.172388 
-0.160424 -0.226341 -0.172253 
-0.160445 -0.226277 -0.172213 
-0.164258 -0.213243 -0.163829 
-0.167578 -0.203173 -0.157934 
-0.168387 -0.20032 -0.156109 
-0.169115 -0.197665 -0.154707 
-0.172374 -0.185577 -0.147491 
-0.176042 -0.169889 -0.139307 
-0.176172 -0.169396 -0.139022 
-0.176833 -0.16679 -0.137597 
-0.180313 -0.152606 -0.129789 
-0.180782 -0.150868 -0.128914 
-0.186145 -0.133972 -0.120082 
-0.191278 -0.116529 -0.112139 
-0.192934 -0.112014 -0.110185 
-0.195763 -0.101628 -0.105193 
-0.199541 -0.0906042 -0.100521 
-0.200338 -0.0877282 -0.0991452 
-0.203255 -0.0795002 -0.0953128 
-0.20583 -0.0724818 -0.0915876 
-0.207755 -0.0673946 -0.0892531 
-0.212324 -0.0561277 -0.0830413 
-0.21952 -0.0424429 -0.0741789 
-0.227283 -0.0318066 -0.0635401 
-0.232137 -0.0262252 -0.0568511 
-0.235169 -0.0231164 -0.0535559 
-0.240092 -0.0119813 -0.044931 
-0.240687 -0.0105555 -0.0436971 
-0.240728 -0.0085421 -0.0423347 
-0.241067 0.00468208 -0.0347465 
-0.240892 0.00884512 -0.033545 
-0.241208 0.0188454 -0.0280542 
-0.24356 0.0349931 -0.0238387 
-0.150701 0.0831682 -0.0427196 
-0.15018 0.067715 -0.0491037 
-0.1505 0.060805 -0.052683 
-0.149848 0.0476943 -0.0599576 
-0.149975 0.0442105 -0.0617209 
-0.151128 0.0265914 -0.0699083 
-0.151207 0.0250712 -0.0706562 
-0.152756 0.00762215 -0.0779803 
-0.153593 -0.00922732 -0.0858012 
-0.153231 -0.0177916 -0.0898333 
-0.153036 -0.0258425 -0.0938839 
-0.151605 -0.0365834 -0.0987777 
-0.150793 -0.0409893 -0.10149 
-0.144904 -0.0546195 -0.110462 
-0.144904 -0.0546195 -0.110462 
-0.138154 -0.0679419 -0.119476 
-0.137672 -0.0686476 -0.119935 
-0.129348 -0.0876368 -0.132121 
-0.119958 -0.104281 -0.138937 
-0.118665 -0.105992 -0.13973 
-0.116359 -0.108922 -0.14087 
-0.109006 -0.120415 -0.145161 
-0.105209 -0.128227 -0.147645 
-0.100712 -0.136456 -0.150594 
-0.0936736 -0.153061 -0.155385 
-0.0885939 -0.169797 -0.162777 
-0.0804394 -0.183089 -0.172184 
-0.0804394 -0.183089 -0.172184 
-0.0732967 -0.195412 -0.184027 
-0.0692861 -0.203168 -0.188969 
-0.0667151 -0.209472 -0.193549 
-0.0641812 -0.219606 -0.197695 
-0.0619532 -0.228105 -0.202431 
-0.0607928 -0.23766 -0.206437 
-0.0597366 -0.248249 -0.211249 
-0.0585517 -0.261487 -0.21757 
-0.0584133 -0.265496 -0.219331 
-0.058681 -0.270942 -0.222117 
-0.0593627 -0.281767 -0.226684 
-0.0600548 -0.289525 -0.230503 
-0.0612738 -0.298122 -0.234493 
-0.0634249 -0.316251 -0.241837 
-0.0336612 0.106665 -0.0829984 
-0.0348201 0.0899351 -0.092979 
-0.0349558 0.0888487 -0.0936835 
-0.0362721 0.0799156 -0.0992919 
-0.0372572 0.0731283 -0.103255 
-0.0373378 0.0723706 -0.103727 
-0.0392603 0.0575457 -0.112342 
-0.0392622 0.0557062 -0.113428 
-0.0400882 0.040952 -0.121329 
-0.0400304 0.0401933 -0.1217 
-0.0400008 0.0338036 -0.124586 
-0.0400091 0.0257558 -0.12799 
-0.0400436 0.0248566 -0.128351 
-0.0414089 0.00990317 -0.133248 
-0.0416337 0.00786142 -0.133887 
-0.0437701 -0.00578161 -0.137571 
-0.0441166 -0.00941492 -0.138577 
-0.0449617 -0.0185857 -0.140114 
-0.0454705 -0.0260128 -0.142068 
-0.0457795 -0.036101 -0.144579 
-0.0455051 -0.048846 -0.148036 
-0.0453427 -0.0553744 -0.14966 
-0.0445473 -0.0733704 -0.154952 
-0.0444721 -0.0747862 -0.155318 
-0.0443813 -0.075856 -0.15569 
-0.0434101 -0.0905487 -0.160342 
-0.0430476 -0.0953853 -0.161817 
-0.0429941 -0.0958481 -0.161938 
-0.0398289 -0.113623 -0.166481 
-0.038719 -0.11796 -0.167705 
-0.0334663 -0.136352 -0.172388 
-0.0334663 -0.136352 -0.172388 
-0.0396832 -0.15477 -0.178393 
-0.0406566 -0.158341 -0.179448 
-0.0430236 -0.170547 -0.183322 
-0.0453511 -0.186212 -0.188902 
-0.0455066 -0.187836 -0.189483 
-0.0453679 -0.194284 -0.191988 
-0.0448967 -0.204863 -0.195902 
-0.044782 -0.207492 -0.197002 
-0.043306 -0.22014 -0.201806 
-0.041954 -0.233215 -0.207352 
-0.0414111 -0.237819 -0.209291 
-0.0362267 -0.259869 -0.218822 
-0.0361397 -0.26028 -0.219004 
-0.0360576 -0.260625 -0.219165 
-0.0309655 -0.278805 -0.226322 
-0.0271436 -0.289089 -0.23052 
-0.025214 -0.29406 -0.232526 
-0.0196966 -0.307969 -0.238232 
0.12451 0.0830816 -0.103587 
0.120192 0.0700308 -0.110826 
0.116664 0.0608054 -0.116896 
0.114624 0.0566158 -0.119468 
0.109674 0.0455531 -0.125576 
0.105306 0.0373658 -0.129983 
0.101952 0.0305113 -0.132986 
0.0946068 0.0160044 -0.138449 
0.094383 0.0156088 -0.138583 
0.0938955 0.0147054 -0.138842 
0.0868301 0.00140797 -0.142344 
0.0842544 -0.00340548 -0.143677 
0.0792572 -0.0149352 -0.14662 
0.0751502 -0.022907 -0.149267 
0.0703513 -0.0324486 -0.152416 
0.0676813 -0.0385683 -0.154984 
0.0632274 -0.0520802 -0.160965 
0.0625587 -0.0541701 -0.161758 
0.0617598 -0.0585327 -0.163129 
0.0592599 -0.0716206 -0.167333 
0.0580193 -0.0818446 -0.170232 
0.0574266 -0.0881934 -0.17118 
0.054648 -0.0989554 -0.172707 
0.0532491 -0.105374 -0.17335 
0.0522537 -0.107947 -0.173887 
0.0456034 -0.123328 -0.176972 
0.0441682 -0.126233 -0.177659 
0.0366516 -0.142711 -0.181934 
0.0366516 -0.142711 -0.181934 
0.0363832 -0.161368 -0.187233 
0.0355029 -0.169835 -0.189796 
0.0349599 -0.177246 -0.192077 
0.0325317 -0.192421 -0.196647 
0.0323589 -0.193391 -0.196932 
0.0319147 -0.195491 -0.19758 
0.0288201 -0.209512 -0.201219 
0.0276696 -0.215984 -0.203118 
0.0254552 -0.228125 -0.206652 
0.0250582 -0.234159 -0.208096 
0.0236163 -0.246408 -0.211706 
0.0233629 -0.262541 -0.216966 
0.0232862 -0.265403 -0.217852 
0.0232729 -0.266518 -0.218239 
0.0231436 -0.270524 -0.219813 
0.0225678 -0.28591 -0.225415 
0.0220801 -0.291955 -0.227795 
0.0205852 -0.307517 -0.234007 
0.019995 -0.314119 -0.236471 
0.015172 -0.332451 -0.244657 
0.361103 0.125715 0.0342245 
0.350796 0.122468 0.0198917 
0.349869 0.121813 0.0186367 
0.341528 0.112207 0.0089622 
0.337797 0.106571 0.00493303 
0.333632 0.0984996 0.00100986 
0.32961 0.0892984 -0.00363689 
0.328555 0.0866116 -0.00460523 
0.327545 0.0825599 -0.00682505 
0.325352 0.0743384 -0.0104401 
0.324824 0.0702877 -0.0125589 
0.322947 0.0602681 -0.0180502 
0.320938 0.0464882 -0.0251161 
0.320938 0.0464882 -0.0251161 
0.320834 0.0306783 -0.0316443 
0.32074 0.0269073 -0.033338 
0.320906 0.0159081 -0.0381154 
0.321293 0.00746875 -0.042321 
0.321072 0.00207397 -0.044672 
0.320772 -0.0118228 -0.0508771 
0.320691 -0.0128427 -0.0512962 
0.317359 -0.0285672 -0.0562308 
0.317019 -0.0314778 -0.0571268 
0.315475 -0.0404652 -0.0601975 
0.313835 -0.0479775 -0.0623168 
0.312507 -0.057351 -0.065384 
0.311077 -0.0658783 -0.0678118 
0.310628 -0.0686556 -0.0687718 
0.308448 -0.0807209 -0.0719262 
0.307006 -0.0927961 -0.0765415 
0.3065 -0.0952504 -0.0771868 
0.306248 -0.0974215 -0.0778884 
0.304064 -0.114128 -0.0835554 
0.304064 -0.114128 -0.0835554 
0.30018 -0.129903 -0.0908874 
0.298417 -0.138374 -0.0954035 
0.296724 -0.14664 -0.0997046 
0.294772 -0.154765 -0.104655 
0.293683 -0.160787 -0.107352 
0.290677 -0.171017 -0.114182 
0.290074 -0.173931 -0.11548 
0.2836 -0.189056 -0.122765 
0.27446 -0.201466 -0.12861 
0.270666 -0.206546 -0.131102 
0.265448 -0.212109 -0.133724 
0.258075 -0.220782 -0.138077 
0.255607 -0.223629 -0.139133 
0.243702 -0.238699 -0.143788 
0.233907 -0.253927 -0.144711 
0.231334 -0.258289 -0.144708 
0.224785 -0.270881 -0.14387 
0.224067 -0.272336 -0.143773 
0.222746 -0.274828 -0.143715 
0.216665 -0.285792 -0.143293 
0.207022 -0.301977 -0.143672 
0.207022 -0.301977 -0.143672 
0.192238 -0.31427 -0.151032 
0.190936 -0.315368 -0.151703 
0.186739 -0.319041 -0.154395 
0.177483 -0.326841 -0.159866 
0.171033 -0.334053 -0.163643 
0.166119 -0.33974 -0.166315 
0.164176 -0.342287 -0.167095 
0.155136 -0.355423 -0.170283 
0.153614 -0.357422 -0.170822 
0.144315 -0.370941 -0.175245 
0.256225 -0.099698 -0.102639 
0.241032 -0.101958 -0.107991 
0.234308 -0.100136 -0.111677 
0.227525 -0.0951173 -0.115416 
0.222258 -0.0912635 -0.121532 
0.215586 -0.087259 -0.127422 
0.210687 -0.0855745 -0.131036 
0.201633 -0.0841433 -0.139605 
0.191365 -0.0836112 -0.146697 
0.187062 -0.0835073 -0.149658 
0.169937 -0.0835989 -0.158005 
0.169937 -0.0835989 -0.158005 
0.154242 -0.0860097 -0.163396 
0.147452 -0.0868112 -0.164436 
0.137204 -0.0869693 -0.164676 
0.123172 -0.0882749 -0.164519 
0.104366 -0.0862953 -0.163087 
0.10116 -0.0856441 -0.163526 
0.0829933 -0.0880191 -0.16903 
0.0829933 -0.0880191 -0.16903 
0.0631761 -0.0906031 -0.172112 
0.0600409 -0.0906264 -0.172002 
0.0383971 -0.0879594 -0.168339 
0.0189706 -0.0814918 -0.165339 
0.0160932 -0.0801329 -0.164557 
-0.00265929 -0.0719362 -0.158851 
-0.00265929 -0.0719362 -0.158851 
-0.0230883 -0.0750117 -0.155917 
-0.0388173 -0.0767462 -0.156205 
-0.0432564 -0.076983 -0.156219 
-0.0460168 -0.0772215 -0.15584 
-0.0623206 -0.0793326 -0.153514 
-0.0805516 -0.083247 -0.146874 
-0.0805516 -0.083247 -0.146874 
-0.0974985 -0.0867568 -0.141147 
-0.104352 -0.0892072 -0.139706 
-0.114175 -0.092308 -0.137683 
-0.123063 -0.0961637 -0.136048 
-0.137969 -0.104015 -0.133554 
-0.156265 -0.11164 -0.125992 
-0.174813 -0.114481 -0.118409 
-0.174813 -0.114481 -0.118409 
-0.195058 -0.117404 -0.110833 
-0.195479 -0.117459 -0.110634 
-0.196937 -0.117652 -0.109831 
-0.21386 -0.120069 -0.100713 
-0.219355 -0.120559 -0.0972521 
-0.229324 -0.121963 -0.0916548 
-0.240286 -0.123719 -0.0848069 
-0.243981 -0.124027 -0.0824706 
-0.261161 -0.128846 -0.071651 
