0.1828276474558806 0.00838906300938147 0.21236617063793575
-0.16523747978436681 0.11555130496728794 -0.2702370203768756
-0.19291466502349205 0.02936088182907204 -0.04080392524804108
0.05350054349496276 0.15867164024477765 -0.06221241228112244
0.06270417515243988 0.20346327725068547 -0.08288504708437351
0.26595073822644455 -0.2428533482445711 0.29849938436790907
-0.17870281885205624 -0.05562681187680846 0.1128075736174584
0.2592144968882757 -0.25545909325126837 -0.2921894508311848
0.24781123915768852 -0.26480057234003496 0.3033284032750971
0.047155808234154016 0.29641458112300134 -0.15910281093240697
0.008904629258206724 -0.0724592727191527 0.15712028614864915
0.18388453830148951 0.00817766062463715 0.2272457626008177
0.16590698120844685 -0.2714011456529426 0.29299420474044346
-0.19131673663135962 0.09678153378296112 -0.21340095649466828
-0.06424162502728721 -0.27028268658703447 0.2821766018409035
-0.17116031836153203 -0.055494534038702414 3.644862857345198e-05
0.26845663138558595 -0.06558161214537023 -0.27838448765741985
-0.19640649725421022 -0.1013489341786844 0.27656003034976956
-0.062453482920129956 0.007690321221088536 -0.008143709742395207
0.17244889217575968 -0.07689527207257207 0.1923392454096225
-0.1762183565188597 0.2532334646329448 -0.1823006508537724
-0.0006196777807110256 -0.08685273605961286 0.28871905765972333
0.25108113520785896 -0.26364161264543434 -0.0167269371504852
0.25252910835743364 -0.26409620041950227 0.08582307626099196
-0.1793680825421924 -0.12968781130362161 -0.2825151885497093
0.12052859966847763 -0.19132770984557892 0.2807093772714122
0.12338132108139918 0.24382987247237187 -0.2287026872974191
0.18304437727758296 0.012079826579237674 0.04070168301519218
0.26205365755257676 -0.19947051561878493 -0.2887939967781622
0.15966310401550296 -0.06999091377494304 0.04951822794642211
-0.1933360168556285 -0.22324959102008454 0.2825679868401509
-0.06327372659450019 -0.18759511378779084 0.2797149627319476
-0.07633066918811025 -0.06351002617642232 0.10398927305359457
0.04334281630954448 -0.06537111784647104 0.08916900936592725
0.2666833213472324 0.009775467938656912 -0.2305991337763712
-0.21251303427196422 0.015989802072106207 0.26743516000459266
0.2678461555414388 0.006535962494769898 0.13273890767580848
0.18397340963619876 0.2078885006520761 -0.11005140376608966
-0.17996009397415536 -0.16413707700226987 -0.2838884565037586
-0.17240730184405312 -0.17738641271693303 0.28656205108227767
-0.0657778641210077 -0.10629273513669579 0.28801408034862724
0.25483540424781725 -0.26575739212551147 -0.2088073134385358
-0.17942032774781505 -0.05858450801342613 0.13368101647059405
-0.25684160803591644 -0.12461270113240563 -0.2707900446565547
0.06882467374855993 0.2920225331244859 -0.1361764281396766
0.05273393742451105 -0.08374248150101476 0.27276441313433003
-0.1931212848227854 0.08663004212034603 -0.20916291985548546
0.1209736222716436 -0.07353105617262168 0.1576874765675121
0.01543455349236395 -0.036215145078093314 -0.016517411476487463
0.11365535844580808 0.28493655765783255 -0.1611307482417327
-0.26998645333933424 -0.06020852873884169 0.27425331068599157
0.04786889777879989 0.03761017580238257 -0.030428741772244326
0.2648534678302559 -0.1400919929874059 -0.2839004432369142
0.11864692471927285 -0.08798596665526831 0.2826556473937333
-0.1938021070504013 0.03397244444588149 -0.11153672951342698
-0.2542748731251519 -0.2626051840008688 0.029924035892837514
0.26577396418192756 -0.27300567280221627 0.30100249273045876
0.2636611511156111 -0.16545071398582287 -0.286020763146217
-0.26959960876931244 -0.26476200896114543 0.27792839464025526
0.13367550329981107 -0.19069671126133206 0.2815920972519268
-0.26863522160179326 0.01152371480768516 0.24838267142715129
0.26817839388264064 0.003790697906854379 0.29589838435125526
0.031252985140988995 -0.2729491898626497 0.28529732965624854
-0.06324000634011802 0.01791203818905973 -0.008746194431105261
0.1887228802233541 -0.02379900839585747 0.2928994611172691
-0.2694514091593886 -0.18938337697306074 0.2841870433629465
0.05661884974805423 -0.26134246036369896 -0.2807038599839733
-0.01918682474346302 -0.2718074837991064 0.28354417912365665
0.17071105802442219 -0.06736545597952726 0.10301731850403267
-0.06338875080154893 -0.04741844230558473 0.004008779349473672
-0.16958000683479496 0.2193651317189491 -0.10599141249160701
0.20680444341519136 0.04023363580893907 -0.1762175653944714
0.17976685330631348 -0.08281078542391995 -0.01643925555475066
-0.2465407059822506 -0.2647810182248367 -0.15714600701428247
-0.062120941883646405 -0.26079440028663986 -0.2828683128653489
-0.06742476860972035 0.1627426496275144 -0.05616468163072481
0.2601852406567107 -0.2645473374673587 0.22816450331985544
-0.192493918581919 0.025712616676767552 0.0252036845917824
-0.17621218153511287 -0.05385398615090564 0.04527534818273197
-0.07582698423934943 -0.06497289193385697 0.11433533724329109
-4.594914376315635e-05 0.20348603993587 -0.06816424906627519
-0.02676268225403138 0.29937475936092894 -0.15475798339783786
-0.18590841949404033 -0.08769356301313913 0.25246584916021275
-0.22116382326693126 -0.26688372126874405 0.2832633384412887
-0.18085794871875532 -0.18849000211863004 -0.28497513256508755
0.04432215662398003 -0.07081606111287692 0.14049989362066898
0.2005924703049394 0.019560213997955544 -0.21223642720688426
0.26745749479972675 -0.1386659955152832 0.29473791118024606
-0.19290824788351985 0.02164021489573492 0.11245584170011459
0.1838569324917978 0.012357398152563148 0.027874546679454253
-0.2694534674873042 -0.234936232073406 0.28864925612776166
0.25408096652769024 -0.2643056050153873 0.1207446071381598
-0.07145981779299032 -0.06718426258389731 0.06282604438951112
0.1804354466445484 0.010743790144838283 0.0982065823918598
0.0775647578516306 0.21348061436444798 -0.24427714654898813
0.10073826107234676 0.28797301510675033 -0.16104205852419248
0.17535325340374047 0.18318354092309042 -0.09211010956779551
0.17740510364032105 -0.07370601404544841 0.018314824292576755
-0.15109331627792075 0.11546352333559284 -0.2681432165742504
-0.18320783272970484 -0.0466819241461347 -0.2806688078703516
-0.23101249856972647 0.034271265227982906 -0.2566639217888984
-0.19595257540976208 -0.13589155110221116 0.2777808004208948
0.18968260588353503 0.0072528659999652745 0.2811588797647474
0.2699896619093204 0.005224141682907135 0.26946442917315794
-0.12580457842863452 -0.18155646399584444 0.283362501415576
0.07376048355113422 0.09311571230431764 -0.19928252208716735
-0.24809177714477476 -0.2639890462897779 -0.07992620070568542
0.018268326180650624 -0.27272241055759466 0.2848336610237294
-0.24738238048256572 -0.26520606293940996 -0.25419937680523813
0.12550866352123755 -0.27277580600528784 0.28963852484743724
-0.19712594339977194 0.045790334173351266 -0.2544059360654752
-0.2639502856486979 0.017842176118041675 0.02454641205708334
0.18991792119553422 -0.25656326509988 -0.28493287630376124
-0.19348203705952408 0.032434934031977836 -0.08910265032686522
-0.19461054560878494 0.08040523473014971 -0.27916029566443545
0.005412070558812453 0.25313859993165777 -0.2315369442981565
-0.05308118945168558 0.19350865859929278 -0.07651809398988747
-0.17291340835506758 0.2489682459574647 -0.12997202241146733
-0.2474184617601452 -0.26524232583415847 -0.2669278950181959
0.26735052228717143 0.00798163516020356 -0.12433486764117736
0.2663957002905542 -0.208780877632592 0.29680877068051786
0.19062217203795423 -0.16552033390061555 0.2914843001362315
-0.12297171382619297 0.07630153425698855 -0.021114142024493344
-0.2595035103432497 -0.034991408593207374 -0.26041576926660304
0.18030861732151307 0.00941483678003091 0.1529302569811451
0.2680147568133498 -0.08209769587927407 0.294490730213204
-0.17571739582763427 0.18052654227932075 -0.2321284108786124
-0.03534318540458601 0.0914961714690713 -0.20149776723681345
0.0470770469218538 0.07229112446964953 -0.041976142995980466
0.19002749688751222 0.014423656684553032 -0.05534377202673482
0.14667305707915018 0.11673254303462222 -0.27525413413211647
0.044466239578072664 -0.06643230696508023 0.0781081605380073
0.1364236132233746 -0.26385168317093916 -0.2814096848418582
-0.05411858672115257 -0.0721171665117672 0.16005170833481455
-0.26974865592602504 -0.07338757860909245 0.2749592566219891
0.2670169520867301 0.007288644582263026 -0.055965508135361455
0.13905470115103014 -0.27242225791625374 0.29061320365453447
0.19783425035896685 0.017902836252495835 -0.16271880876768147
-0.2501479256543556 -0.2634127750124637 -0.03755564164098454
-0.19658284752533284 -0.07632674979446957 0.27581394701941764
-0.03575606176883466 0.07469186128792582 -0.03303888318640571
0.05832229771538979 -0.06475719127611246 0.0536216862633579
0.19879524733933093 0.018436427495089336 -0.17926970245898166
-0.08935552608185934 0.07523053781125205 -0.03096608643633099
-0.03247139418891691 0.19893895141406404 -0.07207180299689007
0.18048048770246644 -0.04713711731076603 -0.018925715676806464
0.13332885666319996 0.2794405799669307 -0.16078767340944575
0.2699214949318799 0.005911683745776941 0.2356628102992504
0.022409137095349082 -0.19234736917153786 0.2783437531058139
0.14745637192915212 -0.2643749222348983 -0.2819065288772524
0.26916796529759796 0.00638540186164871 0.18803146777753435
-0.2576086984188189 -0.10168365462119627 -0.26812971636468624
0.03977918475800535 0.2527831145928209 -0.23129781502560778
0.2688857322169341 0.006461681072638947 0.17502882871746256
0.1851284948311935 0.10394693649153447 -0.20389438739925858
0.2683923389077513 0.006538262978910858 0.15445208777945632
0.1835614413577952 0.16711956286194452 -0.08529662039373496
-0.1927324424639043 0.022317707475252024 0.09722875555383277
-0.26199099962926337 0.021628409779748337 -0.13391045126081633
0.11269660141052863 0.24591326355730636 -0.22950246877074593
0.1286003931285951 -0.08897184518778878 0.2821149125424915
-0.22089835950487402 0.037903366452244236 -0.2576599103438278
-0.023207162936042004 -0.06784686255555439 0.15705012138234942
0.09042519066835633 0.1166944639681835 -0.27033049267986675
-0.16575036666969153 0.13096103744655196 -0.055937296935106344
-0.07935610852877394 0.07345214249216575 -0.03577676200944753
0.1957421416499192 0.016844431930478354 -0.13061918492375735
0.06778975858040293 -0.07508206679608947 0.16115715150360935
0.1816909055949573 0.011543450540052402 0.06507997399615945
0.1807512789014817 0.011009253906895555 0.08757259445020336
0.26770873188354377 -0.11780351023134533 0.2945073179146415
0.16313865124006527 -0.08434405810387974 0.16386385271263532
-0.07489462223263485 -0.051350272397792496 0.05590352437497962
0.2040285460647671 0.08383804138093492 -0.280845824071094
0.17733790528778207 -0.09344223072521002 0.2528812076257714
0.03777261773556818 0.07502313100422625 -0.03844054102752743
-0.17091374278505334 0.23161932642547156 -0.21852825133245057
-0.2634347955839505 0.01866169332373585 -0.0011191814179283813
0.06780864676598146 -0.06163022793796413 0.05251188428250654
0.20012789358657515 -0.06459228288663837 -0.28025798983401856
-0.2110053090737805 0.04115171059835704 -0.25869385688708335
-0.19509812716855893 0.04031324466802805 -0.19591661109363936
-0.09787458209022741 0.2912503574608508 -0.1511287275092246
-0.11271845600986788 0.28788069304582964 -0.15028844540720537
0.2673097795022536 0.007560828179574208 -0.09085337929720347
-0.06147335559796198 -0.002835362348773074 -0.008379872601183181
-0.04691129098559093 0.0922928049114684 -0.2021812531829084
-0.059745328773751785 0.2969452664908905 -0.15283659482767312
0.19117991836402798 0.014865591795845567 -0.06993380568313562
-0.19520213326735353 -0.16938133329690383 0.2793709192747592
0.20056540934675476 -0.05344474213003747 -0.2799167917124782
-0.07917866855463716 -0.06450734659059132 0.23088373611354412
-0.1824756128432551 -0.22468854385026432 -0.2866649592447463
-0.0040768816712018945 0.07875263957014095 -0.03141244089873646
-0.16554871107301816 0.12055473689579566 -0.05218048525478167
-0.04864301069223795 0.16839191220907268 -0.23890793764206542
0.268123484958539 0.006549462704334041 0.14372692801894968
-0.27122738291622117 -0.011412778007454272 0.2721885656304102
0.06059354149215176 0.09228372405301721 -0.19915308958470934
0.18001451858580633 0.044338365446058015 -0.03513668256674944
-0.12585900304028547 -0.038954900611881726 0.06060535072479425
-0.26884747153332633 -0.2560544343313301 0.2905314759284735
0.26706780489405685 0.008957100975033272 -0.18432162617161885
-0.25824351096361525 -0.26218849367607067 0.09456951696497849
-0.2626258121740598 0.019909403274932957 -0.047144241157736896
-0.055821853071319115 0.108399099772997 -0.2159810705368843
0.13189111461414701 -0.07558411719032909 0.15835025815633827
0.21393116166676257 -0.26806029782874 -0.2872089632050305
-0.0536127829054198 -0.2706770380000426 0.282471548123399
-0.11614103156013145 -0.2682140670318473 0.28118824120707303
-0.19525225960600423 0.01732922869366066 0.21046960308087098
0.182261062427581 0.11396276012888845 -0.060024954558337014
-0.07912103537300011 0.11549288477791841 -0.26236639820098073
0.061659331579042895 0.25176369742308735 -0.2311071775371886
-0.07370194228365205 -0.06487179170976681 0.07284301826893554
-0.26926936821696984 -0.12021453868919968 0.2780443874722055
-0.2651718427275555 0.01579062857674285 0.08168359720553302
0.18778821773249854 0.01363059504648012 -0.02669202905862501
0.1905886939397974 -0.13269551270077728 0.2901331289377468
-0.24957014090063284 -0.2635586741382465 -0.048211423642923884
0.16276173507528344 0.26939745321516684 -0.15920058150839841
0.1701830363750121 0.23179870364941124 -0.22334625213138445
0.1809938589002419 0.07957021952603216 -0.046633957451834865
0.09649350459791003 -0.03623136954519285 0.00137290883636718
0.02846728046343743 0.25306341042368174 -0.2313743363928234
0.00014656505540263704 -0.19165304673435785 0.2783525312689834
0.20746861740231334 0.020499840691431126 -0.1655998624589708
0.2374085104112564 -0.2695100871500049 -0.2900481844083879
-0.24903261461937715 -0.26370427056874773 -0.058799765136098865
0.2642466848685456 -0.15298741737869703 -0.28497628280715803
0.25947178787772684 -0.2645490325609362 0.21658404777135687
0.251362702358903 -0.26382783078274064 0.04526039503581564
0.20635469876563078 0.07220969943887029 -0.19155005003784364
-0.07057903506227864 -0.13888320964943632 0.2894037543869451
0.252041950571054 -0.26400230434311667 0.07202077680570604
0.053400896208224746 0.08857019779797659 -0.04369448357117602
-0.252795661822505 -0.2628524860460236 0.006502201463008745
-0.2624935343359537 0.022642862746861947 -0.18604850275375856
-0.1933283889345295 0.03166275836834276 -0.07744204106777058
0.02716478266625125 0.07722124360092775 -0.03536788122291742
-0.25234107404843714 -0.24988653365409474 -0.2843508538160946
0.019761158770974303 -0.09229864795092019 0.2856279939819855
0.191986480211665 0.00679767283533389 0.2927795332466567
-0.2636835505664575 0.0182705504807138 0.011466646239232558
0.1818727043811506 0.10273276517755048 -0.055444327399317955
-0.17658728152820446 -0.024628090772453537 -0.018318387863589095
0.09775804440677012 0.0754679719902232 -0.032512496091516845
-0.06389285952370415 -0.07499519325023951 0.16148242785333192
0.25165474276669414 -0.26391155629766083 0.058578079345088296
-0.1805231071981308 -0.05745085364437624 -0.012670154445988667
-0.03414983952598346 -0.06852399190073344 0.15783222545122452
0.05208126585809394 0.1304135222209999 -0.04885350087448124
-0.2648479587761288 0.016338264880407516 0.06678923371290378
0.17321979651921163 -0.07946442854559033 0.20389778581972548
-0.18195049706854938 -0.21330078411810058 -0.28612737242443426
-0.13216347982862714 -0.08270429722381534 0.2866191394124077
0.18068765235326686 0.009119285106971964 0.1676793872776112
0.11537424387251072 0.1956741406446263 -0.07872891978842067
-0.09968899814783684 -0.08384848538866868 0.2872081844306099
0.18983752532871276 -0.22902065818300177 0.2963886901685646
0.08069123687732815 -0.26185141221036146 -0.28050868206632845
-0.2674777148445448 -0.26377788606125896 0.24556542590124583
-0.17946633743063456 -0.1426665979754949 -0.28300137771118744
-0.06917882722815737 0.21930465320166403 -0.09042542870792579
-0.13766502711271228 0.11541043058318146 -0.2664679192681136
-0.2408366555547034 0.030379451452016815 -0.25579803166604664
0.19025476050501802 -0.20330288004142372 0.2941621242153826
-0.06760469068516713 0.17925425347124901 -0.06970563397978471
-0.254385538520144 -0.19226037454757522 -0.2785558131868662
-0.19551560450108954 0.04235335032767845 -0.22048971675791337
-0.12346310934651647 0.28497124653711614 -0.1495275905471061
0.15864041773672694 -0.2649386619275498 -0.2825318367902032
-0.16734974799917615 0.0660502742295227 -0.036094955289578165
0.17094068266512527 -0.07163927120100788 0.16094217731454089
-0.26197519893555826 0.02138613247626986 -0.12039468315919445
0.007158682873319467 0.11611686083162975 -0.2634813460016211
-0.07066082332739593 0.25462295705409366 -0.11112240021182614
-0.016278407398707343 -0.03354967096643591 -0.013667232703932258
0.19042087967561894 -0.1901677209870205 0.29313507912455
-0.125818139177255 0.1030574361367097 -0.2081774045573031
0.26030922464409806 -0.2352051465616747 -0.29134795794803875
-0.01510606857265527 -0.05219884835053057 0.05130709652225545
-0.07608070342447643 -0.07045894121951873 0.1760483064262525
0.1819443826238589 0.008612452127281456 0.19744607804636138
0.0405809034811351 -0.10029737077003353 0.2817959927936848
-0.19396477549479074 0.03473299661069906 -0.12229058478663947
0.17255259557927258 -0.06809731263163893 0.06835235214763986
0.057904517687577484 -0.07846014613994207 0.16259477247454965
0.19037359867261627 -0.11180596645865476 0.28990895281211443
0.2623028968475345 -0.2630184235994555 0.30543268033446935
-0.25865705325748367 -0.06749355662274575 -0.2641668902756316
0.2035740793688119 -0.26744249675877557 -0.2861454736022804
-0.0531960320415653 0.25008864227317584 -0.2323557955742309
-0.19673710104089084 -0.021652172379877155 0.2742208617517925
0.17414779971386962 -0.08254840915373612 0.21615561286962845
-0.24563927943332656 -0.26768077848453553 0.2849968137805696
0.0943239664358017 0.19425904020264506 -0.07611417740597735
0.09218391079413163 -0.26216863686559067 -0.2805104982380187
-0.2655033546000813 0.01523633297688054 0.09686388666126289
0.18403273791141336 0.19801221953958925 -0.10358565093165435
0.13628370746416954 0.19494918544493745 -0.08252883527686046
0.21979533789833292 -0.2677167992230587 0.29941509813412975
0.1709668960765211 0.06873881372164625 -0.03718350806165368
0.042523843955357424 -0.06513628684692258 0.11027383249239993
-0.19206953979696548 0.051343521272495585 -0.2798179314334726
0.25264728059541214 -0.264283568798879 -0.12120003422570469
0.20668173074798724 0.11268114830614012 -0.20678833590954865
-0.03741616377182975 0.29885830067128005 -0.15409241701242002
-0.1743195490167103 -0.054789375110437244 0.021350313116593123
0.06314810805259169 0.2327073948850964 -0.09333584384154073
0.17389214327893973 0.26500383120118653 -0.15834092690834992
0.25658080578119746 -0.264479836419538 0.16748529906298054
-0.19650523645510312 -0.08911054016586706 0.276187412457988
0.2682033965129097 -0.018911629838356314 0.29536872814732396
-0.13596200291877109 0.10528139891046895 -0.20928078939818226
-0.14629045024307225 -0.2609080320953927 -0.28444644498605776
0.046108422020390685 -0.06794003216326389 0.06781676311618712
0.2059282011137053 0.024083026358168558 -0.2797301498017775
0.07676830602640256 0.20197577209731987 -0.24410806096462645
-0.054515359696414405 0.11735403698702351 -0.2205850052325948
-0.07803169559319216 0.24719045602894185 -0.2329069431431634
0.1948658388093768 -0.16792367389831456 -0.2834276332068876
-0.06490035049933847 -0.05689407594320395 0.05637687925651338
0.13461858071949812 0.2413235555398361 -0.2276507001153738
-0.016283916452834415 0.29962309057004144 -0.15543250956359425
-0.25993382195572473 -0.2621716032793514 0.12280874680317769
-0.26169435825319026 -0.26228929120487915 0.15218320502589167
-0.26545825300310694 -0.2630595901577677 0.21371673644585704
-0.26907788318176185 0.01169873321956827 0.274841689774574
0.19820093542322698 -0.10705001819247095 -0.2816409440370825
0.0789994729478665 0.2353269198529907 -0.24267946031308105
0.18856711323138756 -0.013404815656369529 0.2936183624113238
0.15333229273765273 0.27283734293554407 -0.15982377055437724
0.06627228659414827 -0.094573947844457 0.28575040395390794
-0.07065676721062106 0.24609294347652788 -0.1054665388731267
0.1948535493809395 0.11598573323559414 -0.27937436176765884
-0.18071568193635293 -0.08212275904859945 -0.28119876676956457
-0.17148650279709973 0.238528709464777 -0.1212451963617354
0.04512357265182807 -0.14166843001453713 0.28393314256065044
0.1857056136552965 0.012952860310737668 0.0011574503348479792
0.20401153458993515 0.1185630624812185 -0.2583527798436556
0.06368430247460788 0.24220542797356193 -0.09737119572009241
0.052177825652958545 0.05798568491710987 -0.04227163412998306
-0.26952835429999855 -0.22369715626361686 0.28755701047324933
-0.1942863589620765 0.03622601081819177 -0.14282295059634745
0.11448777047050293 -0.26292779663211235 -0.2807620380171174
0.20651022360137195 0.10292412913464577 -0.20366639731307667
-0.2626744250363019 0.02289010425296034 -0.19798565442222094
0.2570235279002225 -0.2675451104592743 -0.28193800918655
0.20583920870088337 0.19776909468932202 -0.2209934017066742
-0.07101830645509215 0.0945941365992321 -0.2037555108040113
-0.17844704133901365 -0.054621439768146096 0.102546990575316
-0.0948266222206047 -0.18463856789324368 0.2813477616205327
-0.089887906543326 0.11544639078264829 -0.26280700145303376
-0.016356502781387807 0.11592016943757633 -0.26228188567832805
-0.17970352945338033 -0.10561923813489721 -0.28175100404151127
-0.17181056836569547 0.20220031145729034 -0.23320328182395478
0.27033745878800197 -0.029289537571688395 -0.27663472731198313
0.06278287592568375 0.22334424281415954 -0.08969375367298309
-0.19304288674482323 0.030123371243692465 -0.05328290147075937
0.24777521841916536 -0.27017692485560596 -0.2916663328453384
-0.15359527439839996 -0.08532267194963922 0.286410158589917
-0.18306925882973926 -0.23774560752198706 -0.2872850607988517
-0.05660631816339155 -0.06367808259682617 0.05401549282485899
0.18937373561808096 -0.2508264025037956 0.2985131872727549
0.18064466962326442 -0.07873596208063366 -0.006038282440952451
0.25524495096396715 -0.2644044652943929 0.14326374369888129
-0.18963593027109577 0.10646396883704273 -0.21714402580920344
0.2265571872573342 -0.268831202172192 -0.28864507069956225
-0.19318140010573245 0.030891430251496377 -0.06549889603273043
0.18909580081041738 -0.260775451562005 0.2996120316844085
-0.006988749742169032 -0.27214511011632264 0.2839540285350883
-0.19419415797926848 0.01883344262657649 0.17646015362654333
-0.1966661492668587 -0.055887795748696456 0.2752284132664832
0.1843476015434452 0.1163110095853167 -0.27841433341219624
-0.06850115303147125 0.2796773482162822 -0.1327251570767072
-0.19473180533863685 0.03835952824177696 -0.1710357854059818
0.07789457463057879 -0.07245491390709613 0.15976566129360126
-0.19903237882302038 0.04745406851972683 -0.26413214085729164
0.05474782967276554 0.1677434178375431 -0.06888430060240033
-0.06991274220818469 0.22816799482344585 -0.09503341952041117
-0.05930611791999461 0.064044857449156 -0.031194742452132627
0.1478892867210498 -0.18992205349638694 0.2826848272188898
0.011140094452670904 -0.19204019399966138 0.27833110044303855
0.2043295462528968 0.10075446989442483 -0.28146907365612917
-0.1736666958331242 0.24300884179026927 -0.19976150710094087
0.25801491548686994 -0.2645289335942309 0.1923052224599586
0.2710196734139137 -0.016787011656053286 -0.2762896546908369
0.1923390596757976 0.015332771693632508 -0.08473045913882978
-0.08018095317142611 -0.06446636164944813 0.22035405696596397
0.044425557332211214 -0.2731259033681104 0.2857732271781487
0.2005108031179348 0.23127879423355102 -0.2201638350176274
0.03656849590493685 0.29744737742418637 -0.1585690986117008
0.04853585656251359 -0.07568491471913757 0.25412243989794
-0.07624857822771125 -0.06289216456740154 0.09379056092703313
-0.17226927279559462 0.2373356662814562 -0.2091682472924435
-0.15773711447705624 -0.26092244039080204 -0.28465348855874545
0.20740934966615507 0.14282469470061576 -0.2143700657085821
-0.1704700520411269 0.21339967364611945 -0.23330159725145327
-0.18025449540514382 0.15825725040412042 -0.22990245031599385
0.20639162758999907 0.09303592182805959 -0.20013164289141244
0.17995083149853514 0.021171279365314044 -0.029164625736778627
-0.1678153538814982 0.18091320523217358 -0.07964814481990916
-0.19260561314086896 0.022991628250444984 0.08228995639384892
0.26814715572956854 -0.054818070623143145 0.29474747635114806
-0.15719389752450444 0.11071308412353603 -0.2119926969660536
0.04268191143146493 -0.06606634836949621 0.12029746566802191
0.19261766041308093 0.22473512763360426 -0.22055025581425483
-0.07381393953788373 -0.18665040181358256 0.2802006070419187
-0.07492670793249581 -0.06703800022377637 0.1250026216659353
-0.08900912160147359 -0.08538678281030476 0.28754375241991054
-0.1731565332053348 -0.05520152500600983 0.011214985382021174
-0.26956340641362025 -0.08594713231580114 0.2756963196329462
-0.19628348189172443 -0.11315187075923777 0.27694257664679117
0.20248340772976442 0.009612738955211086 -0.27919026249732454
-0.18354981785897767 -0.25047818185171966 -0.2878861530892659
-0.26886926559360924 0.011554710804531965 0.2619057647545905
-0.1926102141091509 0.02713086514967855 -0.001887300964788629
0.05549470001084995 -0.04926276465702678 -0.021425131156919342
0.19658974897775577 -0.13766728270281842 -0.28259970107236193
-0.04637824459450451 0.21202707162169 -0.24052693362580468
-0.23318736416879288 0.016802781059715444 0.26908484928989707
0.10835026039955095 -0.19182733867756488 0.28001329920159823
-0.2645346086205055 0.01686937402169103 0.052253443050984914
0.037498496888454115 -0.059724761139617166 0.05061707235807567
-0.1781921113727598 -0.05391809701157119 0.09212404178406584
-0.06701619051847195 0.15346945859430094 -0.050103571848875726
-0.17919439598954878 -0.04636463895184917 -0.014630045855986592
0.26609003859508623 -0.23120726835899838 0.2978559752771122
-0.1938117327603596 -0.21169988931220743 0.28186234359943496
-0.06886366090084381 -0.06998879490797105 0.053276795259380685
0.2660672759099018 0.005328087242645385 0.05024881327835066
0.1900569794079505 -0.21641267323121985 0.2952632691111772
0.0775583407116584 -0.05936164787968118 0.05134687068227178
0.2664991009987854 0.005922035924411317 0.0746002249183023
-0.005855276990288167 0.2996225457185345 -0.1561039482374772
0.04528805726790777 -0.0712193723062236 0.23393944498237854
-0.259249306845672 -0.045537675442225034 -0.26163024327586876
-0.01450461304790302 0.07790672733588194 -0.03145239667592181
0.04761348350009534 0.09158764598320324 -0.1991144656667635
0.2667473716688416 0.006134346395000767 0.08658356788675318
-0.2556548609144551 -0.15802596195988275 -0.2746586114348857
-0.2635331715505053 -0.262574369621191 0.1825376089536046
0.15932814141676574 0.11665832215154759 -0.2763072715562322
0.2511639526369341 -0.263651480511618 -0.027662349053665682
-0.017817370749963205 0.25252975864203187 -0.23177401524278962
-0.19687821758122276 0.06618685034062904 -0.19995553477651518
-0.11612989237376461 0.20004748207473222 -0.0749504956649821
0.2554022919713986 -0.2661965424402123 -0.22866109696571252
-0.10933492815094455 -0.032970251658191896 -0.004966922760877908
-0.26925508099967327 -0.24608116965058424 0.28969179921701765
-0.1911518887809419 0.04125940957958851 -0.2799537810759028
-0.24678818964457447 -0.2650305602150761 -0.2026095670065241
-0.1954882408476232 -0.1582075791289071 0.27878859409181084
-0.1324449864406149 0.23752721185572045 -0.23427621551949418
0.19155489727900685 -0.22408720940362478 -0.2844855532164543
0.10342238121335738 -0.26252751239158273 -0.28059168111257254
0.19681350132999376 0.017371303337817945 -0.14650106150342826
0.18960644775065746 -0.24065069521864396 0.2974886242832323
-0.1813520684966142 -0.06547058351604007 0.16812689198208716
0.18087344671717875 0.2285599246742004 -0.2219631768502078
-0.25076269977150295 -0.26326784451158225 -0.026794340063842053
-0.1432723361282259 -0.08373963616536678 0.2865176759539794
0.034896467707842486 0.09103952536708781 -0.19916991944237225
0.2608761123676793 -0.2645373485230623 0.23918249049588564
-0.25349010533779776 -0.2162899000249594 -0.2811786072638029
-0.2629923761602072 0.019343302559084175 -0.02493336947190605
0.17093553684533624 0.1165413606946959 -0.27727317220015996
-0.19492474331119702 0.03936132854611524 -0.1839069941747363
0.07793083752532731 0.2922953221123604 -0.16042970596929879
-0.15002092743388842 -0.04404139212568986 0.0633087828247778
-0.26953713246316807 -0.2132088252915179 0.2865251222579094
0.010315370888131404 -0.0893966477461367 0.28717410094188967
0.2573840379807358 -0.26786106379432034 -0.2932372608183425
0.20614783681011203 -0.26888259983102586 0.2976221129024652
0.05622625396767996 0.17603218327558823 -0.07589284661599302
0.1800952171479095 0.009744411402753728 0.13828822027534698
0.18260020222120577 0.2349865087391827 -0.12969057633853595
0.25357588918063356 -0.2642490615367644 0.11026317761848382
-0.06216077658271908 -0.044556216260817516 -0.006043609877910498
-0.06893763962769306 -0.12782151327472763 0.2891215818453376
0.06671730919731424 0.09833030446134428 -0.20961454121579265
-0.0663528035390824 0.14368156450407255 -0.04510552789638242
-0.24769506470856928 -0.2641256224008842 -0.09054027129780552
-0.25269819394179527 -0.23851663294355172 -0.2834002695534212
0.06786361622913949 0.10750088179405898 -0.21516476190117628
0.09873496315895201 -0.05623589532265977 0.04902652973081689
0.2679249773927954 -0.09464895573526405 0.29444689993641276
0.17991087572134978 -0.1878921789372583 0.28559312348553284
-0.07040589336114211 0.23719055416340573 -0.10007801800723105
0.04329214511938669 -0.06797217840218123 0.13071151521798985
0.19054534797545694 -0.17748164065255811 0.29223183640393563
0.17926528722452462 -0.27070894208273455 0.29440367505018494
-0.2685253432145335 -0.26423465324135514 0.26169230404193056
-0.033726066131593346 -0.26077672288218817 -0.28231547020283887
0.2662318210650379 -0.2204327692675735 0.29732583476073016
0.15813388745231804 -0.05531418818986128 -0.0017854742720223192
0.26565294660830097 0.0039387158996092575 0.013079043465830588
-0.04836882930606754 0.2980548868545728 -0.153447918218609
0.15852375897515694 0.2351365245207968 -0.2248494369003425
0.17629366710494848 -0.08978470309728531 0.24132569416848546
-0.26260347326226974 -0.2624088558411535 0.16724762272778404
0.20221340353848158 -0.0010660478881379665 -0.27914939863429405
-0.17049705246025515 0.030010708059841018 -0.028194547897963322
-0.08433980472491433 -0.18565949853938582 0.2807481222674707
0.17627278113051068 -0.06726514276316947 -0.005677590743270126
0.11719211065633162 -0.04034493788453769 0.0011105325661833598
-0.10588607865022881 0.2002512565383775 -0.07521614104420836
-0.1685629506882587 0.2020473898009718 -0.09330896450052513
-0.0703376658446453 0.2637667761239054 -0.11791790928615328
0.1812319590088328 0.008853821344914747 0.18253421876644949
0.12341927906972527 0.2823400980704043 -0.1610380024074176
0.05269301302242423 0.15009852285909664 -0.05696264693236138
0.04600944066327243 -0.19272688851574238 0.2784332298310866
0.016519837155397024 -0.26089531889356105 -0.2813484193168406
-0.10524957101185485 -0.18360365272508672 0.28198983885209006
-0.22269279767389077 0.01664386603681911 0.26824674659390607
-0.19447245602127008 -0.17637111220303067 0.2869214109207205
-0.041232727500763434 0.25113457554958696 -0.23213010597218997
0.17520081605987273 -0.08606936067055454 0.22885380101535913
0.20765592524263377 0.15372584149790702 -0.21650067725746291
0.04629645632938721 0.028257557527249177 -0.025541665910024883
0.20660127434210948 0.05040558967259762 -0.18131422746974493
0.2664607192370649 0.010159527712087002 -0.2540676438186392
-0.19669575286540963 -0.04499930161418059 0.2749143971812401
-0.1922156205399174 -0.2454188723742088 0.2837963848323751
-0.2602231986450368 0.011015368351586008 -0.25517962520551885
-0.1927986116524855 0.028606444108944917 -0.02807177469170287
-0.06545452502108805 0.13327284239106263 -0.041347444895874566
-0.14738935519378216 0.27716007371454865 -0.14732639045853116
-0.1489723909780546 -0.17935459797764974 0.28501031399013377
0.251029374314687 -0.26364415528580065 -0.006292001626079445
0.1782452646642276 -0.09678998000183558 0.26283037776209345
0.03401241586808838 -0.19257590410922681 0.2783808635473512
0.045060733111345654 0.01859546359609826 -0.021050333859109458
-0.012568331869878262 0.09056066143142699 -0.2003636890943692
0.15005773518014398 -0.06590380100321935 0.04840297745050002
-0.09106248531446272 0.24529419116715878 -0.2332341567426889
-0.06335297221925114 0.03813492834275023 -0.014144522624128207
0.18323913142183337 0.22643615403868622 -0.12315114747253311
0.07979029464085478 0.24778537333560924 -0.2408881701749941
-0.18611086209844616 0.12690861355411187 -0.22372661902237773
0.18395094964629607 0.1878613332675375 -0.09726155948905804
0.19090967201651976 -0.23569066979353306 -0.28464834273895645
-0.23392255046900334 -0.2672986559609083 0.2840756514992782
0.1397144557870392 0.09888671892817846 -0.20118060312064062
0.17060033209037367 -0.07022568423543513 0.148854404473901
0.052929781271775625 0.09925025596150888 -0.04396025002851497
0.26345277568368386 -0.2643807945233634 0.2779832430253006
0.27001236405544843 0.0057353334746542695 0.246952496760141
-0.19254162335831607 0.026414445956933874 0.011545891863983509
0.2657536230589968 0.004474970860681715 0.0255263577620823
0.2663650675280454 0.010280545285713538 -0.2650513053497238
0.26583323191808583 -0.25447702867929745 0.2992445596124159
0.2670110192592086 0.006296833222221132 0.09841041739456144
0.18959022328355798 -0.06742781120755892 0.2908264827500253
-0.1353039433763396 -0.2608935027218708 -0.28424612124862386
0.18058219331712005 0.06780578578531193 -0.042515606527039077
0.07321538988783587 0.15819398709024357 -0.23559245568246986
0.17915637746216637 -0.10067925113743537 0.2732326827351311
-0.17799360380701623 -0.03640820412876622 -0.016319146066969232
0.2609056554271739 -0.2232426895676616 -0.2905674278946285
0.26965282259983653 -0.04221656335038976 -0.27714767473636415
-0.1924718218263544 0.025022471434475058 0.03909624778007342
-0.0467317321444822 0.20061243254851058 -0.2409387202870392
-0.18663573571692646 -0.09582898302147153 0.28601205375541566
0.07193402022131286 -0.19272010814143214 0.27871152787308817
0.030499152811425335 -0.09619609185912603 0.283708239966342
-0.19377589363900544 0.01955573410778627 0.1599733102568524
0.26818559803034536 -0.03999817016981383 0.29496850444585065
0.26727872296635047 -0.1514818110474853 0.29496983630509016
0.04485423439016498 -0.07353747331259386 0.19277258397491456
-0.19526745490914596 0.04121739547448755 -0.2070468376801266
-0.031048302591498572 -0.27144594455463533 0.283158424256649
-0.2678081370140564 0.012008995883318163 0.20501812159638025
0.2673456791626641 0.00768021119867951 -0.10155565529441303
0.19545137256231127 -0.15784004651785818 -0.2831696762878167
-0.2681018725154251 0.011760846291374583 0.21986611217185195
0.20633641597061567 0.08285070991106236 -0.19611463434693222
0.20329729480321881 0.021655107503594895 -0.2556427489865309
0.1433954725688244 0.27623497639459504 -0.16037025661597148
-0.1433220386934822 0.0741685011458541 -0.019867098002915924
0.2597872569003221 -0.24526322646035495 -0.2918870582447593
0.18889323712789893 0.014011143554642391 -0.0409346896097386
0.08845700540763962 -0.07095923598112436 0.15853865569967285
-0.18802922371579384 0.11582239886158496 -0.2204035091416832
0.08650601323892389 -0.19248200803284124 0.279088262420701
0.067889769101479 0.29383071365929214 -0.16003856312627668
0.26808952254793145 -0.06883594965806095 0.29458959049220956
-0.052116681206053686 0.1367730895506123 -0.22935887012910403
-0.26233794896115614 0.020382394922128733 -0.06800024876264622
0.07338574679238069 0.19123680943196741 -0.07538104943368246
-0.06760335882592762 0.17140942093335565 -0.06287894729144174
-0.2692407937823767 -0.1306016483590957 0.27885609513963155
-0.2623219061112257 0.022387509007213646 -0.17351352790392444
-0.11837625459837027 0.24048872195288762 -0.23394403771734867
-0.04273016105936906 0.1965018911619829 -0.07402091845485922
0.1865126598153843 0.007760364909275619 0.2563559073035449
0.10898943175640394 0.07614146899202173 -0.03209949864915551
-0.24668315438182206 -0.26498013118114366 -0.19154345128070246
-0.16650728649112861 0.1510297346237407 -0.06414324494407646
-0.10278841621534977 -0.2687462658761449 0.2813515150420259
0.19602631198038598 -0.1477622308868106 -0.28289301280033624
0.07119580696828527 -0.2733036460375289 0.2868000906518122
0.19427073988554042 -0.17803611786958942 -0.2836646436124643
-0.060473189848144975 -0.013093221133380073 -0.009403466965804323
-0.177887357763137 -0.053506370889393085 0.08132889887442848
-0.24655057384843432 -0.26485608665470006 -0.16871096456435763
0.044395953733660246 -0.001968503601019911 -0.014615032170013913
-0.26651671786418074 0.013633682538353509 0.14339214703738148
-0.049753054829314663 0.15727675984761447 -0.23648449867766105
-0.07818183245291895 -0.26081353062844376 -0.283177183130803
-0.25742223812528725 -0.2622371065383128 0.08092407420467326
0.2558958668977504 -0.26444526861836704 0.15522850117703535
0.185117052949545 0.007971888372132585 0.24202383056621501
0.017361693272881153 -0.052452749152826494 0.050352153447525506
-0.04734360038692518 -0.2607816265457518 -0.28258141827734684
-0.1967514487972438 -0.009100730906718146 0.27383226154913676
0.25233005594018293 -0.2641104876367988 -0.10587469319098072
-0.2624718613537835 0.02015616046858071 -0.057726104971883345
-0.1682041962403793 0.0548983141218089 -0.033464109518148016
-0.2539196904815966 -0.2047153773039823 -0.2799331977967467
0.19767805959360593 -0.11733415092753013 -0.2819715478237631
-0.10106402173452007 0.11541000680978708 -0.26338073008998164
0.26559610043439635 0.0033226099232223083 0.0006027309615913235
-0.2644844217427984 -0.26278988866176656 0.19803379120532416
0.25463744153358076 -0.2643577291428973 0.13173341448903345
-0.12489140730278017 0.1153871230464899 -0.26515391905022256
-0.07535647469346372 -0.06335716505916023 0.0831505796187989
0.12677453518933712 0.09756127682863891 -0.20064525624541327
0.19265834265894236 -0.2698747138863495 0.29594899500235666
-0.18883669364927602 0.016214946822639964 -0.280179349599831
-0.27091820995548543 -0.021803943794125147 0.2725605781316284
-0.10370758070778192 -0.06478818727295926 0.1605645952201393
-0.17495872037356328 0.24818420463878665 -0.19102777959878603
0.19630921099066953 0.10516153157891289 -0.20493408515286657
-0.1806185167509249 -0.06285075585286404 0.15614251984967847
0.19366764980626694 -0.1881923921176555 -0.28387889133285665
0.11362139603520052 0.09630642326879346 -0.20018413025326046
0.006706940434899607 -0.050922442886627506 0.050426979721163535
-0.22241449963188914 -0.2609847350797774 -0.28579343898965487
0.10475793333530599 0.19516754982116113 -0.07724123301788602
0.061453014475031244 0.11653651757018857 -0.26773300392848076
-0.02946635651024029 0.25194095578005493 -0.2319364415309537
0.08325361297603613 0.19287469360128517 -0.07539376263551416
-0.07209087691629354 -0.1494249966082847 0.2894847556443299
0.26721824444906533 0.008547433180770725 -0.16040906215108633
0.2659588504599943 -0.11676381247773737 -0.28200690263266653
0.036201689762564035 -0.041413573307076845 -0.018618722122099
0.052540938912894526 0.10955908863155545 -0.04484890283655103
0.2009889405849195 -0.04176930080213914 -0.27960955600154536
-0.169249342509058 0.04291472899713261 -0.030832476738985422
0.06886323712744942 -0.2615758989649516 -0.2805763647313182
0.19228336374396346 -0.21151863537752114 -0.28429437087652804
-0.004921280429052362 0.11601521575603235 -0.26279241154045546
0.2696105057994539 0.006189860709665818 0.21209634806382194
-0.12981335366145227 -0.037223786295798145 -0.002577082972743047
0.1814373680269993 0.09124105988564846 -0.050962439441191804
0.18024244813293186 0.05603330035009829 -0.03866423284070907
0.05644243893787526 -0.0978361554344721 0.2865702238548838
0.269695986947008 0.004756295855500414 0.2798078901834317
-0.07994485085169448 -0.06639331981279634 0.19859698604646858
0.06139374673887298 0.1912693189052227 -0.07725430945405576
0.20714170649806954 0.13246549353569315 -0.2120708528877904
0.20688968240652011 0.18615788530020194 -0.22047984889172972
0.2510451144693358 -0.26369706642104307 0.01806195265423854
0.2618493987764807 -0.26450611036999017 0.2543431047583046
0.07635167624066072 -0.09187899121236126 0.28505033030637544
0.18981748690106373 -0.07892799196734873 0.29045216976466626
0.18367555747899883 -0.10388079859299626 0.2817516176653865
0.04655011497545787 -0.10953181680718843 0.2848749486601543
0.20147143686396085 0.020186066762413413 -0.2278918271767818
-0.1660856925027668 0.14108292551061608 -0.059892313485892905
0.025866219907727268 -0.03848408837071432 -0.017563707987236648
0.031174889758308538 0.20011431719293316 -0.07030478902039598
-0.07313499402101444 -0.07015727510176928 0.2614878636486655
0.267285200645379 0.006414642225861633 0.11005940315483852
0.269409273976175 0.006294411659967525 0.20040377418297903
0.02748194678242408 -0.08074725114946552 0.15904361196861685
-0.07375600366096496 -0.06945344803274367 0.1354184873875935
-0.16487109741538838 0.07058113828422907 -0.021875723353268713
0.0870374250754891 0.07430979930335496 -0.03328358205213782
0.18141963008349127 -0.2661680285446755 -0.2841611849525768
0.20140218018350622 -0.029315024514408206 -0.2793620118001652
-0.1349904721426036 0.28142735071794434 -0.1485549095288681
-0.262172495720175 0.02212973370531185 -0.16054091621579802
-0.052744168525032754 -0.18847747053396738 0.27930087558657213
-0.18036600834692476 -0.17602065160587005 -0.2844110901771543
0.0014058379663610234 -0.2608255779006557 -0.28163210533485666
0.18026623998207406 -0.0709365943740527 -0.0170085648405856
-0.2466775847886386 -0.2646013988446716 -0.13422234847908746
0.2587451981235168 -0.2645427970381331 0.20458345117184867
-0.04601386001438535 0.07249362761311168 -0.03474765859069932
-0.2620096456586165 0.021138769892058762 -0.10664045171464365
-0.06804723118702309 0.20972822203523622 -0.08581253423187675
0.25383469364649325 -0.2650332239335551 -0.17149043371910602
-0.011205476633519663 -0.08545149906153376 0.289853196341224
-0.1674194889920815 0.17083557121829507 -0.0739234505741495
0.17518005116354762 0.10282109166075265 -0.2031483040689066
-0.07734578808484359 -0.08757708586873825 0.28799016742137235
-0.18512056421481277 0.047751496903532364 -0.2613047247699208
0.1802416005861431 -0.006935188322328367 -0.023802136665109816
-0.1110487282969145 -0.08278850705118629 0.2869313393259605
-0.08931308820336399 -0.03250561440077132 -0.008819507228334751
-0.24735198987628232 -0.264256447301638 -0.1012389149516346
0.05778465035602142 0.18337478380207306 -0.0827430224581965
-0.24726154452610818 -0.26517173729446436 -0.24218945719105342
-0.19662897828626502 -0.06631486119577784 0.2755267497361338
0.2670967425629881 -0.16355033246820858 0.2952529169325428
-0.025542154339131515 0.07646662426363166 -0.03201413857971407
-0.042536012305682054 -0.27106697006193786 0.2827998514259386
0.19967282150005652 -0.07545165773505397 -0.28060851097023554
-0.08371001692179428 -0.07039997617864213 0.16088732892949553
0.13043672432460013 -0.059227009018377796 0.04752485843826736
-0.1801586620789553 0.11567867914183028 -0.27280660062328815
0.0441458063528574 -0.07086134432702029 0.2129719849747446
-0.0638362555060249 0.19195474210112062 -0.07636178214641386
-0.021249148236790666 -0.1906344165723567 0.27853517760196556
0.12037119812198989 -0.05700752613478782 0.04760640454715929
0.26694152042252867 -0.09631692781558354 -0.28044729546319824
-0.2601336613807078 7.148098051779073e-05 -0.2564113528458419
-0.06450823903141492 0.12300899023987788 -0.03888174967014388
-0.168299182019779 0.11398461472822774 -0.21364359703248478
0.2572903235215192 -0.26450786600262405 0.1798916889571454
0.16200935568307195 -0.09602288961893318 0.2810411313001633
-0.2715702155922828 -0.0006874366297785484 0.2718399212049399
0.048212578001650276 -0.08305487889908869 0.16006048649798407
0.17039141180693934 -0.06908791321055402 0.1370615173767003
-0.08053643851026308 -0.06509512028861042 0.2096925237536722
0.17247474235281748 -0.09950061624952378 0.28122401978937084
0.09230989257037818 0.24901437671839688 -0.2305042085360278
0.1524070138005301 -0.08079041549663696 0.1612609154461786
-0.046082390226163866 0.2237252150957163 -0.23954620091307327
-0.19412677800956046 0.03548501276857252 -0.13272261443634084
-0.25310489532229713 -0.22686867634723243 -0.28227309286339985
0.050541757655331004 -0.07915168378053039 0.2634096759922247
-0.2695080737161242 -0.20175410936304053 0.2853971585601556
-0.11116817185507619 0.10024678936794545 -0.20677822588713965
-0.18626705286380707 -0.011609166706225915 -0.28036096676885536
-0.17944878110429555 -0.1174360986984091 -0.2821017067948972
0.010493174096606227 0.20329146740878856 -0.06809844311203204
0.26680131196804185 0.009546145993235555 -0.2175690099847204
-0.1875036236286374 0.0018474547373503736 -0.2802720954341461
0.1903777153284475 -0.24599956300263595 -0.2847870377170347
0.25116104676222967 -0.2637550022979619 0.03183325611267764
0.10035056895553614 0.09513910918441776 -0.19980122072190082
0.15039378748189536 -0.09287594839219215 0.2811669314592408
-0.18207284650141545 -0.2609498645833247 -0.28508803790516435
0.20709454657317955 0.02960806279611411 -0.17066340967042556
-0.262799438187647 0.019639399083650144 -0.03622366132336007
0.05000937719386435 0.04832340936878998 -0.03649088071805121
-0.18012730284777045 -0.09394500758812574 -0.28145327296242406
-0.02728416568535658 0.11583178241531789 -0.26193917408037914
-0.11398287474061529 -0.06370157175068664 0.16074245896767045
0.040836257220783316 0.1976905755332471 -0.07215837384745834
0.17132395543082296 -0.07304916528414374 0.17095981712358505
-0.16572318463339422 0.09837685899567089 -0.044931175414119055
0.18311593444217855 0.14622523403437104 -0.0745220607632537
-0.1849581379266487 -0.0820252911678897 0.23247978779492992
-0.26932912026557887 -0.10933010067145871 0.2772438795302026
-0.17901035725827077 -0.056944383899023676 0.12311567981882884
-0.07167019101377683 0.2955104908555981 -0.15227049411182425
-0.2583256624630706 -0.07878287984929827 -0.2654742311973251
0.19870837379348097 -0.09665685461694073 -0.2813022280168521
0.20355246692569798 0.11788320887850401 -0.2689304664629146
-0.19269648226443747 0.02786229802839585 -0.015096317667928398
-0.26617860723451375 0.014147901282917763 0.12779086898385322
0.2279019413158467 0.023312606327167307 -0.2683388182652896
-0.2608047973593091 -0.2622116195955931 0.13736378888501313
-0.12716307485293651 0.19888470841958217 -0.07491889427757187
0.07217702399346741 0.14740913582018422 -0.23198808134601295
-0.2702821260905059 -0.04637959209876552 0.2735833854885171
-0.026120968256812066 -0.05440023005627448 0.05198138053178646
0.044339773489375386 -0.07192120158638998 0.20280033380636778
0.07510233173494235 0.1798850704383269 -0.24134723783923126
0.04619105783229676 -0.12021199604883337 0.28482003973605263
-0.17534035858473973 -0.054309905784213075 0.03291006430782292
-0.04224814909277848 -0.18928173189746347 0.2789676686204688
-0.25722978446517775 -0.11317475452253484 -0.2694630285415502
0.2630993486727625 -0.1773913163804967 -0.28701281666248424
-0.09717117879459618 0.09797082354478881 -0.2056224747625251
0.2530029475514181 -0.2644928523166514 -0.13723144227453896
-0.13318755850569905 0.0753951435054444 -0.020137768123818525
0.26589334720103286 0.004936399548116255 0.037923364102514276
0.26658070764673364 -0.1963402831715942 0.2963117450279546
-0.19573856984559507 -0.14704829379537596 0.2782582114192035
