0.07572858804790711 0.3688673900961975 0.054860305975916235
0.02714283474456718 0.44975299807972535 0.10207744651014801
0.02771243081032318 -0.22915112378820376 0.12423730456140879
0.07955160608647083 -0.08188680762087117 -0.07655223079199153
-0.030788842894640744 -0.3623970478927636 -0.09907698632287726
0.06832482807513772 -0.22526481729788936 0.08295741190703643
-0.062072126818583574 -0.37587551035153843 0.04405973613184152
-0.08216027695706862 0.22011777307684147 -0.06341592152549377
0.07912045350891941 0.17738817932455542 -0.08118514323655206
0.02838882613840843 -0.06487210292052789 0.12410973877584884
-0.07711104516583575 0.16085407130469373 0.024970356872546676
0.0690793450858527 0.08451039861633482 0.08068891646459848
-0.08226905398351508 0.27414336658456295 0.02625095913843907
-0.034050175923917285 -0.34915097271776085 -0.14160880366344247
0.06403209105873703 0.3226500093232145 -0.00875249908997263
0.06491615161912916 -0.24127284006257363 -0.1117633542527101
0.0 0.22274721047066995 -0.1397645386241457
0.07907595381628221 -0.23379689169952608 -0.013174779656050465
-0.025131448637366303 0.5551678255269296 -0.0017680251100513971
0.06815375147899919 0.20349565455376403 0.12681729785230705
0.08057608789918475 -0.23434275459587559 -0.07083055920090782
-0.022777909337888383 0.2666881847447461 0.1516926260364949
-0.033799988763090434 -0.2712349775562213 0.1393296225398256
-0.06259920095581958 -0.3758774881156557 0.021305559963359633
-0.07203709132313775 0.41183530442460714 0.047594000609292815
0.0 0.2636839610507067 -0.10077885234573503
-0.0 -0.359680588877778 -0.03696728198606672
0.07760350843102062 -0.17347211947849614 0.016948545613149672
0.028437281359280035 0.08943305350406637 0.12408897225261817
0.028393770548701448 0.009461172542688773 0.12410874989379025
-0.08193481184770687 -0.26816647652837255 -0.07846967310362502
-0.0 -0.3584593195354019 0.01965313804343207
-0.03467811603113093 -0.1117688456677719 -0.12257579068148808
0.0492186378208466 0.40152225343542425 0.01851394591192007
-0.0685097490200967 -0.23670519383388097 0.08247483746243761
-0.05218528399665911 -0.36071001510078493 -0.048296903731494666
-0.05568790424823507 0.18034098115154745 -0.13391629012956066
-0.07828089264116447 -0.2688230942152857 0.08504395305069122
-0.08098350730732966 -0.36071001510078493 -0.08535426999562723
-0.0057543046990176485 -0.36071298174696076 0.07068340779564151
0.01612767749377536 0.5583184037656425 0.0037074148484398757
-0.040955539339150186 0.21029520758872627 -0.13875587892436947
-0.051286390205387916 -0.35991297616154994 0.03112021439500599
-0.0838176432872892 0.25065445104653816 0.023627455036962217
0.0 0.5016317286382171 -0.050569354702167044
-0.04831677738339961 -0.36160396448176313 0.08191216357109184
-0.034464517506472434 0.10380744310793653 -0.11128374645428708
-0.06304815341042588 0.18494917154464285 0.10355483630570263
-0.011527398157148776 -0.3607683591422426 0.07081196246326006
-0.0347898597037532 -0.23010737273887397 -0.11518983058577355
0.08304532639951935 0.2266740611253871 -0.047408887642868124
-0.06837624994218514 -0.2023998863388438 0.08269832480768213
-0.07616962944604458 0.3634117277788783 0.05311394026042127
-0.0 -0.3589488161544109 0.03097682649650839
0.06896661253117183 0.043366971686049846 0.08101623642599645
-0.0 -0.36017206326090423 0.059287530952287094
-0.06892409060265184 -0.05435731999138976 0.08099942543100018
0.052113095606381006 -0.3602422738870651 -0.0257118263950341
0.0801152688598752 0.21263786918555955 -0.04930853007744673
-0.0 -0.36726926979550634 0.12532111929763895
0.04367100947207723 -0.37549874628721025 0.12410874989379025
-0.08586067362036541 -0.3721573138111868 0.005500258020689231
-0.02238532316062253 0.4172721779828129 0.12029067626551956
-0.033745600249867204 0.08209159310098903 -0.11365409674876129
0.035857852327045706 0.06577108360578586 -0.11496040994817738
-0.056988284155299544 0.4260959725917378 0.061060596483364364
0.07708335646819484 0.1319470709675767 0.025204721920435862
0.05229010549487115 -0.36057651602287333 -0.04266126487950951
-0.028392781666642847 -0.00187734914126661 0.12413149418113814
-0.08586067362036541 -0.3492093167592185 0.005956132649705752
-0.05524982949627342 0.32700504590930723 -0.014659091626015319
-0.02241301185826345 0.5424547577815144 -0.02357979667668351
0.0 0.28415184189969567 -0.08128502032447109
-0.02901083295327045 -0.26396076113312905 -0.14270052945614148
-0.016404564470184527 0.4977988217790674 -0.04674831442772054
0.07594218657256561 -0.21400738394273952 -0.10368715448008987
-0.03515179053720233 0.11488489992842041 -0.11000808859868771
-0.0689626570029374 0.026190090328095467 0.0810004143130588
-0.040636130434221034 -0.264198092827194 -0.14025205747903755
0.01729455832292828 -0.35987243199714725 -0.03704540366869645
-0.0 -0.1497152169025896 0.1271109958237125
-0.06439204412806894 -0.2884791028941608 0.13758721235256505
-0.05880881602518982 0.4146101074810504 0.041167256110424336
0.011344454976307004 0.16004022137046248 -0.14415023055405518
0.028457059000452117 0.25996477562829634 -0.10094498453158053
0.022424878442966697 0.2196549762734147 -0.14207456711304506
-0.06387584769347757 0.19913270691120244 0.13799067623247552
0.028123805746702514 0.33936013834950773 -0.02201241861379591
-0.07880500013222468 0.32051006854839514 0.016721102739670715
-0.06387288104730175 0.1855523896003914 0.09558246914923584
-0.016917794258600093 -0.3630566322258526 0.1205883297651594
-0.019192222993389678 0.46512121415249263 -0.03514378347000064
0.07950315086559923 -0.03621924527247214 -0.07646718693495158
-0.0 -0.3768792256410216 -0.13333680524321861
-0.0 -0.36212906085488195 0.10458426252870956
0.06996835005653784 -0.2419067134621389 -0.10976976802256411
-0.017238192045587842 -0.36036885079056646 -0.04854412424614571
0.08584485150742774 -0.3238771250639555 0.007212012864133044
-0.0 -0.24794383842991738 -0.12933084402381315
0.08266164016078094 -0.2851465703566647 0.08375939525656441
-0.07794071721300463 0.22604908766434925 0.011500794352299316
0.0 0.11785451275040873 0.1271109958237125
0.08490046914146077 -0.27348962864983883 0.050633824057442024
0.04382230842704367 -0.3626492128177077 0.10455459606695146
-0.029054343763849036 -0.2508392850975103 0.12693497481728094
-0.022750220640247468 0.2835377461413025 0.1502261139435849
-0.0689369460694137 -0.008828201131195312 0.0810004143130588
0.06056012615097779 0.24567444099940755 0.13936027788364233
-0.07716543367905898 -0.37786909658168444 -0.10154029153086022
-0.026835292424341285 0.5297654232055057 -0.04575547684088195
-0.06308474204659424 0.4331061575051828 0.07321000145537516
0.03522595669159764 -0.3616257198870524 -0.07314058768980715
0.07582450960759171 -0.20825406812578048 -0.10412325146793432
-0.03784748302895729 0.15064979734195733 0.12129043602676837
-0.07929746339740955 0.208712007412901 -0.08893698969395013
-0.043990418377006374 -0.24553096620692313 0.11839004494888235
-0.06893299054117928 -0.014608216763736664 0.08100634760541042
0.08215137701854118 -0.26258522618961067 -0.0770911715139308
-0.0285480361498437 0.25220106258619507 -0.10892229609834034
0.07712785616083201 0.09726005499791834 0.024524371064116198
-0.039379261337735144 -0.36068529304931984 0.1514819941580122
0.03452978372234031 -0.08217358341786637 -0.12242449172652164
-0.07990661474550972 0.06526576487383912 -0.06844438679349596
0.02794382921203655 -0.3778710743458016 0.15362786822518323
-0.04816547842843317 0.5050928158433318 -0.001249850911342814
0.06892804613088627 -0.03172774296229201 0.08101623642599645
-0.07939734048532858 0.222097514958167 -0.02250191523280497
0.016920760904775903 -0.36230310409719624 -0.09349474710205673
0.07716147815082455 -0.24488621510471323 -0.10230469736216126
0.07145859531885433 0.20811966705979712 0.07083174010443213
0.08585968473830681 -0.3664326755739272 0.005576401939201752
0.04298274755928873 0.43836404341078117 0.0823116719227679
0.037424241507874705 -0.36116292308362563 0.07465772478917165
0.034677127149072326 -0.1117688456677719 -0.12257579068148808
-0.03994094634702231 0.1772171027284169 -0.1404735670601649
0.0690091344596918 0.42501809114785927 0.05918963162848528
0.08302653764040588 -0.3607110039828435 0.07952401339956278
0.03062172182673664 0.12032572901486055 0.12346300990952173
0.07971576050819912 0.21871257167156494 -0.03326391867659412
0.08508143455818533 -0.37788096316638764 -0.034575176286303244
-0.0 -0.332087812796546 0.1557322092458929
-0.0 -0.2862946624267041 -0.14478509283567906
0.06777303188643659 -0.28783336290989225 0.13285541170214413
0.028091172638768577 -0.21238957289486307 0.12414336076584138
-0.028299826753134055 0.3105589483926614 -0.0497990155785144
0.08068090939739678 0.2132460316516011 -0.07926473427874277
-0.07958028366617036 -0.1494096523464809 -0.0750975852837848
0.01785228780398103 -0.3610986457498164 0.07721398491066343
0.058083965476232964 -0.3758161774280222 -0.08602868755959527
-0.07543587895856028 0.31369963781078825 0.0004094931829949789
-0.02402291184967103 -0.36749473490486806 -0.109650113293473
-0.035031146926052616 -0.23525549273596727 -0.11678193070012627
0.03439727352648735 -0.3146409666365926 -0.14165429223813827
0.04402404036699892 0.18325719434237114 0.15003525970627432
-0.06464717569918882 0.15461620327901865 -0.1255978142525824
-0.0 -0.21233716214575712 0.1271109958237125
-0.06045629353482437 0.3982648759343821 0.012837762895532151
-0.06899726787498855 0.06634265743565906 0.08096679232306624
-0.07713576721730085 0.09130797388717987 0.024400760806790676
-0.06896760141323043 0.043366971686049846 0.08101623642599645
0.08405991939164723 -0.2764839635232922 0.06763863993719928
-0.027253589535130848 0.38403980752136124 -0.011806166886942297
0.0 0.3414634904881588 -0.02670466398187268
-0.06887167985354582 -0.13458729917006304 0.08108051375980573
-0.05585601419819777 -0.37568366723216917 -0.09127371799843177
-0.0 -0.3435361003890063 -0.14478509283567906
-0.028399703841053076 0.055088190726685034 0.12414138300172418
-0.022806586917587905 0.31748013392083196 0.14701125837106277
0.0 0.3592663341892096 -0.012975025480212423
-0.0 -0.37215533604706963 0.1557322092458929
0.04634494655854289 0.17231719212803326 -0.13843844778355752
-0.06892409060265184 -0.08282624557654511 0.08099843654894158
0.07044202456260924 0.20479010116847687 0.07539641968694896
0.028237527183441993 0.16435174714597667 0.14223298026388742
-0.03689518960652148 0.3864764129137619 -0.007563862855530421
-0.08009054680841009 -0.229695008920436 -0.05856347726392312
0.02281647573817395 -0.24063896666300835 -0.12141780979086259
0.060153695624891486 -0.3758527660641906 0.07810200099928997
0.0 0.526464534893885 -0.051274427609951816
0.02838684837429122 -0.1899795276827755 0.12409391666291118
-0.03565513150503185 -0.24076356580239247 -0.12037355033697658
0.07765888582630245 -0.12129969094859885 0.016203917423020735
-0.031230873174836804 0.23677450247197004 -0.12435577838697556
0.017198636763243676 -0.35872730657328356 0.019672915684604154
0.085334588365188 -0.37788096316638764 0.028212901142709742
-0.07529842435241431 0.12737546921064966 0.045188050560708876
-0.022869875369338575 0.23232354432619268 0.15374257854398132
-0.05188565273290205 -0.36653255266184626 -0.07794853225874063
0.028391792784584244 -0.00187734914126661 0.12413149418113814
-0.0744183193202566 -0.3773084004544559 -0.08454140894345459
0.028233571655207575 -0.2067836005046361 0.12409095001673537
0.0 0.2434010011466766 0.15486495968049707
-0.07963961658968659 0.1293601555022682 -0.07349559634884605
0.07985519287846231 -0.21110995951102932 -0.06910496000864355
-0.022856031020518117 0.24381534272923175 0.15343503622375543
0.06522962723170667 0.19225997660390348 0.11286516088746086
0.07922329724301425 0.130160161087679 -0.016101870549518803
-0.07966730528732752 0.014656758878595064 -0.07399300402432395
-0.06119399955054307 -0.3758478216538975 0.0667654570794518
-0.08259241841667864 -0.25459802580226476 0.012941595511685588
-0.07855184632522202 0.22572077882089267 -0.0002866797862623553
0.07975531579054329 0.031289755104317155 -0.07216159445178902
0.028601435781008325 -0.36298543271763306 0.11269408429132234
0.0 0.4858580709214221 0.07314770188568309
-0.08528118873402336 -0.37787997428432907 -0.028871304572274405
-0.0786883120493094 0.32412739911876914 0.021106794669580195
0.0 0.294616191843845 0.1516955926826707
0.017163037009133925 -0.29181262431371535 0.1547611270643436
-0.08241837517436432 -0.2514612919123723 -0.07442217883775816
0.07161879421234821 -0.3768762589948459 0.07903748342672952
-0.06560935794221068 0.4034169514597099 0.021760445710317548
0.07594614210080003 -0.23838629333350805 0.03751828131417496
-0.03540395546214639 0.04759048695834824 -0.11690455207539317
-0.0 -0.007390366617984839 0.1271109958237125
0.07954863944029501 -0.013191148773756892 -0.0761171226862057
-0.0284056371334047 0.2676068561771894 -0.09316446049448295
-0.03414313083742608 -0.013556046253381832 -0.12145637619114816
0.07715455597641432 0.17856890450252877 0.024300883718871655
0.07758768631808295 0.014664669935063893 0.01771690697268511
-0.07509867017657626 0.033056887343042796 -0.1060179494922199
0.055961824578468426 0.46250759887160187 0.021240293747491756
0.06094776791795063 0.2300679043505166 -0.12437555602814768
-0.022291379365055135 -0.377875029874036 -0.14332945844541373
0.005768149047838106 -0.29196194550456467 0.15545136674124932
-0.06892804613088627 -0.03737623728103903 0.08101228089776204
0.07668681476269457 0.22723673501673286 0.11262585142927865
0.031230873174836804 0.23677450247197004 -0.12435577838697556
-0.034822492811687145 0.10934023822582685 -0.11064888417266322
-0.028062495059069055 0.36165448436073866 -0.007816027780474483
-0.0 -0.3616375864717556 -0.0822650024445478
-0.029177954021174554 0.10767792748531324 0.12388229590236989
-0.07948436210648575 0.3057074930131493 0.006664172203666335
0.08440503923010008 -0.275480248233809 0.06195454586434253
-0.006753075578207857 0.5380255550410263 -0.03125055480527603
0.06889145749471791 0.2071218850626655 0.13146207688157083
0.07958621695852197 -0.1437374248583274 -0.07556137096927017
-0.052121006662849835 0.4038095376369757 0.022476396320746966
0.005660360903450253 0.5599728034496871 0.006621650275146356
-0.07958226143028756 0.23833693612456464 0.09961216353804782
-0.0 -0.10018013682298965 -0.12516863943914822
0.03508949096751027 -0.20816902426874054 -0.11597005853001224
-0.020667635024827092 0.4473322148002623 -0.02832445279386631
0.06220364813237792 -0.375876499233597 0.038379597587219184
0.04000720144494879 0.21612170067802203 -0.13871039034967367
-0.05094621477722809 -0.36019579643031074 0.04246763601748881
-0.03940497227125885 -0.3664326755739272 0.15149583850683265
-0.0057226604731423145 0.12806669776961396 -0.11208474092175646
-0.044153583916676065 0.22298355328267636 -0.13656154963632683
-0.08230069820939041 -0.2570544088358375 -0.07570376998570916
-0.07716048926876595 0.18439045318153152 0.024201006630952634
-0.017437946221425884 -0.2636551965770203 -0.14404738681996035
-0.04106827189383106 0.5286618308281035 -0.015186165763251342
-0.05383276150629365 0.4778125264926185 0.013583379967719692
-0.07144771761620967 0.23806103803021406 0.12459231322044768
0.07533402410652405 0.37380784486098395 0.05585512132687203
0.08574200777333292 -0.26348807550911624 -0.006130972752612983
0.01721841440441576 -0.3585305190436213 0.008374938165051544
0.0231131403557552 0.20343335498407195 0.15421130863975968
-0.06894584600794114 0.014606325893606248 0.08098755884629694
0.017146226014137653 0.24933231573418438 0.153710934318106
0.07599064179343722 -0.2253162391649368 -0.10344487837573187
-0.035309022784520395 0.03602155575473809 -0.11810802154071445
-0.05300407834118336 -0.3757222336324548 0.1119484672191348
-0.057578646744286234 0.4376510594465275 0.08107952487774711
0.02261078826998428 0.17690362711583935 0.15450500661116515
-0.0 -0.25180740063288387 -0.1331944062267796
-0.06892705724882765 -0.06572649701916189 0.08099744766688297
0.03252037537925664 -0.26652789895726536 0.136490542149573
-0.0 -0.3606585932337375 -0.05961564777427797
-0.03427761879739624 -0.32033593841209396 -0.14172351398224056
0.05927062394655796 -0.37055730264036524 0.003778614356659376
-0.0773394769213733 -0.23686934825560926 0.020662786625266924
-0.022294346011230946 0.4059069564832751 -0.008228391598912421
0.018136096954800424 -0.3608336253581105 0.07101666104939112
0.023138851289278905 0.528030924074714 -0.048771567119624666
-0.0749414379292582 0.027334226869900474 -0.10661721201973402
0.07712488951465621 0.19596037326720028 0.024708303127016572
-0.029927526621596513 0.24102471755985075 -0.12025686225406132
-0.04480921272153062 0.15371038731333725 -0.13370269160490217
0.0 0.22059441422908868 0.1552308460421806
0.0 0.25549601760546414 -0.10857519849577028
0.07712587839671481 0.16672407520456806 0.024813124625228614
0.0 0.06092457263656683 0.1271109958237125
0.0 0.4745749266327485 -0.042115401983160015
-0.07399507779917401 -0.024244872424834266 -0.11025036470304574
-0.07599064179343722 -0.2253162391649368 -0.10344487837573187
0.061932694448320384 -0.37587155482330403 0.049736908030288046
0.017207536701771112 -0.3586046851980167 0.01403826571467761
0.07509768129451766 0.033056887343042796 -0.1060179494922199
0.028271149173434533 0.3481651441993193 -0.013810630819732946
-0.021076043315030612 0.44193489652440077 -0.026244833824621745
0.01142653218717115 -0.24051832305185863 -0.12161855284875925
-0.07944678458825878 0.2033275446038013 -0.07636335431879814
0.08535238824224287 -0.25948310317176937 -0.028875260100508827
0.07303783996644517 0.4013373324904653 0.05221306870503288
0.08569157478834409 -0.37787997428432907 -0.01173101185048838
0.07525985795212874 -0.24279670731488265 -0.10779200390535577
-0.07954962832235363 -0.013191148773756892 -0.0761171226862057
-0.03479480411404623 -0.22458842196980414 -0.11483581080879326
-0.06901012334175041 0.42501809114785927 0.05918963162848528
0.050732616252569585 0.17910487857829224 -0.1364448615534115
0.06872631419093102 -0.16226511910833505 0.08160264348674873
0.02838882613840843 0.020880782555449687 0.1240978721911456
-0.07981365983200094 0.04242061155596566 -0.07091065864765476
-0.07333549346608503 -0.28614731899997214 0.12299823534197776
-0.08189921209359713 0.24928484939537138 0.07977420056038961
0.02840761489752191 -0.2915347484552476 0.1536219349328316
-0.07076934452400722 0.4140088671894191 0.040115085600069496
-0.08585968473830681 -0.30631556858520415 0.0058196669256183765
0.07903442076982084 0.1829634963709657 -0.08244695674333097
-0.07161879421234821 -0.3768762589948459 0.07903748342672952
0.05413338165210931 0.43988098848867996 0.08493913155247919
-0.07710214522730831 0.15504834473862866 0.0250465007910592
-0.0773137659878496 0.34836588725721596 0.04476480903962629
0.04600378224832446 -0.35947094588135386 0.0024337347569577087
-0.07712785616083201 0.09726005499791834 0.024524371064116198
-0.0 0.03709943719861663 -0.12106972330623392
-0.054558600937309104 0.4061561547620435 0.026550590402196136
-0.08150860368044847 -0.291229183899139 -0.08195647124226331
-0.0 -0.2359239770075837 -0.11970506606536019
-0.017231269871177613 -0.3585443633924418 0.0026760108613157296
-0.07884455541456885 0.18849530260679742 -0.0838996244874205
0.0 0.3059517468816246 0.15044070135030202
-0.07398914450682238 0.12408941412990801 0.05530629178434671
0.0382074360982892 0.5381165321904179 -0.020651716901156573
0.01729060279469386 -0.3608603251736927 -0.05991527903803502
-0.04734965073008473 -0.37564015642159065 0.12074753977659468
-0.08017163513721565 0.21069867146863677 -0.05468310406596037
0.0654007038278452 0.18962757256389917 0.09186723925505998
0.0323680875422316 0.44853172873734926 0.09996123890473509
0.02683430354228268 0.5297654232055057 -0.04575547684088195
-0.08068189827945539 0.2132460316516011 -0.07926473427874277
0.08389675385197753 0.24650609081069366 0.007171468699730273
0.04018025580520452 -0.30260627198337986 0.15130102874128762
0.07731079934167379 0.05466791585177827 0.021956244357921175
0.0833894573559136 0.2308501100588725 -0.036698306066126396
-0.08074617561326466 -0.2492916846757948 -0.0859436437025553
0.04896845066001975 -0.36132806638741255 0.0763279465861541
0.07697062391351395 0.21316395444073696 0.026836377317132742
-0.06795993059551278 0.15317342435551518 -0.12130804388235752
0.02837695955370518 -0.09907061115323579 0.1240949055449698
0.028399703841053076 0.055088190726685034 0.12414138300172418
-0.02838882613840843 -0.06487210292052789 0.12410973877584884
0.005838359673999003 0.38138268142989185 -0.01638370193622099
0.06892409060265184 -0.05435731999138976 0.08099942543100018
0.016976138300057737 0.21929106767584838 -0.14270250722025868
0.009392401792622379 0.4471344383885415 0.09751276692763118
-0.07983541523729022 -0.2228934781213566 -0.06939569133387317
-0.07786556217655073 0.12540858279608597 -0.093891288807557
-0.03514289059867489 0.024418013679076797 -0.11930753547780129
0.022597932803222427 0.14401736537489918 0.12532408594381475
-0.023265428192780237 0.12677917332931132 -0.11065877299324926
0.07500769302718469 -0.37786810769962587 0.11860265459148224
0.06650924061554046 0.20304867986327493 0.13482427588082502
0.0 0.5071674904022833 -0.05200026704096727
-0.0 -0.35498339909940824 0.1557322092458929
0.07752143122015648 0.025949791987854645 0.01880764388332551
0.0251304597553077 0.5551678255269296 -0.0017680251100513971
0.022753187286423282 0.34562075066253073 0.14191060471278247
0.07997781425372923 0.21097555844504595 -0.08427539966969008
-0.06925239944610842 0.10387666485203884 0.08008767617296715
0.06017050661988776 0.17721116943606524 0.10258276524209473
-0.022036247793935263 -0.375649056360118 -0.1192106250360581
-0.07714170050965247 0.1725940791044424 0.024561948582343156
0.020239449093451486 0.4526227338137947 -0.030373416419294138
-0.04950442473578321 -0.3610828236368787 0.07072098531386847
-0.01419342418714561 0.5196175155201097 -0.052733028646392954
-0.08283568340309526 0.22452324264792303 -0.05278148386726456
-0.02905829929208345 0.2452333996012701 -0.11608872437704473
-0.0 -0.21450479161821742 -0.11920864727194089
-0.03947122736918533 -0.3491539393639367 0.15145430546037128
0.06699675947043232 -0.3766498050034255 -0.08370877025010989
0.017437946221425884 -0.2636551965770203 -0.14404738681996035
0.014690831862623505 0.514118342392212 -0.051257616614955544
0.07708335646819484 0.13769643125630135 0.025192855335732615
-0.0413135146443649 0.39687648552410193 0.010466423718999357
0.07715950038670735 0.18439045318153152 0.024201006630952634
-0.02275516505054049 0.27797132903341965 0.1507274771472972
-0.08585177368183798 -0.2891060541193158 0.007379133932037148
-0.05173039824970119 -0.3596884999342468 0.0026750219792571256
0.08146113734163549 -0.2971159987940095 -0.08236982394275984
0.0225208000026513 0.39062675091372356 -0.00035689041242325126
-0.07579978755612661 0.12877671508769176 0.04014277429771042
-0.05720188267995805 0.1918861791857511 0.1436065374432886
-0.011350388268658631 0.21902308063796666 -0.14315047079280638
-0.06852359336891715 -0.18522399386294805 0.08226420558395492
-0.07572463251967271 0.0559099517173851 -0.10362287714628061
0.005731560411669752 0.1752551607241462 0.15557102147034044
0.07237331122306317 -0.2524254519195114 -0.11473692260293285
-0.028380915081939597 -0.1217367768185019 0.12411863871437628
-0.0739654113374159 -0.052999584924926235 -0.11031958644714804
-0.0744875410643589 -0.1563634709825854 -0.10856432079312564
-0.02794382921203655 -0.3778710743458016 0.15362786822518323
-0.08153728126014799 -0.37787700763815324 0.0910870113108213
0.07954072838382618 -0.07610778087038841 -0.07653739756111248
-0.08003022500283524 -0.22917189031143445 -0.06426537121383476
-0.0725453767012603 0.4066070849807669 0.05002862823757628
-0.005181741987085836 0.5408784797800994 -0.026309111158431018
-0.06297200949191337 -0.3758933102285933 -0.0014229052715985435
0.02279076480465024 0.3231563169372199 0.1460985202309711
0.03430234084886134 -0.25094707324189813 -0.12904703487299374
-0.07902552083129341 0.1305201141570109 -0.010585886426624759
0.07606777459400835 0.19350497911568612 -0.10284561584821773
0.07394958922447822 -0.07595549303336338 -0.1103581528474336
-0.0770289679549716 0.20333150013203571 -0.09976623711772437
0.07715158933023852 0.19020211303994822 0.02434637229356745
0.017265880743228757 -0.36011470810150525 -0.04267115370009556
-0.07863689018226197 -0.23482335127635726 -0.0018768021364978559
0.023265428192780237 0.12677917332931132 -0.11065877299324926
0.07713477833524225 0.09130797388717987 0.024400760806790676
-0.07908089822657524 0.3069030514220018 -0.0013418169427930008
-0.07711895622230458 0.10743565138095523 -0.09825621421423579
-0.07079011104723791 0.41977800511931584 0.05010773880226461
0.07880401125016608 0.32051006854839514 0.016721102739670715
0.005719693826966503 0.1834628818105608 -0.14455468331602428
-0.01134544385836561 0.16004022137046248 -0.14415023055405518
0.022756153932599096 0.34007608895993713 0.142988486156661
0.0 0.23770009607882353 0.15497571447106073
-0.07709027864260505 0.14347051359649107 0.025149344525154032
0.0 0.16076408303736076 -0.14478509283567906
-0.05765182401662294 0.4371991403457455 0.03459217930276522
-0.06765139939322828 0.16272998056986582 0.08552751637734866
-0.0 -0.35796784515227564 0.0026671109227882923
0.01777911053164432 0.4514578307487589 0.10504903709625353
0.033982931943932204 0.07650045394164107 -0.11418611529629032
-0.0765068382280286 0.08446886556987344 -0.10062953115488579
-0.07690140216941166 0.21891232584740297 0.0277520821034002
0.0 0.5043570875917303 0.059366641516975426
0.07426306483705573 -0.24748697491884222 -0.11059054013120558
0.07525392465977712 0.038764714585306045 -0.10541967584676439
0.04503368894883377 0.24975357949114974 0.1476629316476829
-0.07426306483705573 -0.24748697491884222 -0.11059054013120558
0.03301679417267593 -0.37544238000986985 -0.11477351123910119
0.017317302610276173 -0.35962916701073055 -0.03141273146288712
-0.08346560127442612 0.2539889613481514 0.04616012162431677
0.02901083295327045 -0.26396076113312905 -0.14270052945614148
-0.07956050602499827 -0.0934043169574339 -0.07658288613580826
-0.03260047482600358 0.23368721268500786 -0.1273046246857332
-0.034925336545781976 0.441941818698811 0.08852086236874349
0.028448159061924678 0.17336540711015364 0.15012327020949007
0.08079759748031208 -0.24800119358931635 0.01387905570324234
0.0 0.35443564533292826 -0.0159120051942668
0.033799988763090434 -0.2712349775562213 0.1393296225398256
0.06147187540901084 0.2474109178943165 -0.10250049600976487
-0.0580206770244823 0.4119579257998741 0.036582798886735414
0.07744528730164395 0.037343691067091865 0.02003484651805328
-0.08303049316864028 -0.33766906313530787 0.0798187002530268
0.07194809193786339 0.3171261141438516 -0.002609563741923545
-0.017146226014137653 0.24933231573418438 0.153710934318106
0.0 0.5181292480219105 -0.054833414138868206
0.08090044121440691 -0.3435400559172408 -0.08540074745238163
-0.07898102113865622 0.22454994246350535 -0.011166360195025406
-0.03412631984242981 0.25006211069343426 0.1510785302781017
-0.07630213964189754 0.22369851501104715 0.03436968083957929
0.036894200724462874 0.3864764129137619 -0.007563862855530421
0.08427252903424713 -0.26073403897590364 0.01193095804779213
0.02840069272311168 0.07210388430908694 0.12414830517613441
-0.05891067087722605 -0.22471994328359848 -0.10932378221413362
-0.03994391299319812 -0.29688361151023757 0.15134256178774902
0.08274965066399671 -0.2908079201421736 0.08290796780410623
0.0 0.05523157862518264 0.1271109958237125
-0.039854913607923745 -0.3375464417600409 0.15135937278274528
0.07523216925448784 -0.1850924725491537 -0.10610002670308405
0.0725453767012603 0.4066070849807669 0.05002862823757628
-0.0626476561766912 -0.37600010949092255 -0.06386388509804146
-0.022791753686708844 0.30604569067719195 0.14829878281136538
0.01804017539511582 -0.3615960534252942 -0.07676187378841562
0.07975234914436748 -0.2317637501870359 -0.03563822449930272
0.0 0.30461972274868476 -0.06179217718526574
0.07775381850392846 0.23107755293235147 0.10845573578814488
0.06893397942323788 -0.09427255540488835 0.08099546990276577
0.03462570528202491 0.07105369156284931 -0.11463605663295522
0.08001143624372176 0.10211052149537178 -0.06552322919237925
0.0624815239908457 -0.24378064496319377 0.09796864155664768
-0.0 -0.002825687035468011 -0.12471177592807306
-0.021895826541613466 0.3830627920474603 -0.01352187725862053
0.0 0.08369654868210359 0.1271109958237125
0.056457254489829106 -0.3758171663100808 0.10089573245011603
0.0 0.4961740885567808 -0.04914239789160123
0.05734428169639705 0.227835997544247 -0.12818077418965648
-0.0 -0.3435351115069477 0.1557322092458929
0.06852754889715157 -0.2423823657323275 0.0821653173780945
0.03461186093320445 -0.04782970952254367 -0.1218934620610512
0.04658821154495952 -0.3621626828448744 0.0930796086589087
0.04034539910899142 -0.32561755748709886 0.1512733400436467
0.034841281570800624 -0.18591423353985373 -0.11758984734200587
0.07918374196067009 0.1717871513446214 -0.08006869539238795
0.028371026261353554 -0.01326135939991778 0.12410578324761444
0.043990418377006374 -0.24553096620692313 0.11839004494888235
-0.03468602708759977 -0.17457175632766395 -0.11842050827123338
0.0800915356904687 0.13052703633142113 -0.06253581649333607
-0.05416008146769163 0.39387819512241407 0.005239193157217731
-0.011355332678951651 -0.36300619924086375 0.12105804874299639
0.027348522212756847 0.3786148005478588 -0.00983928047237861
0.07846878023229927 -0.3778740409919774 -0.09675311348515746
-0.07457851821375047 0.21879168223625325 0.050700079155368505
-0.0 0.008586011920824074 -0.12372981604387914
-0.02838487061017401 -0.17861331730117921 0.12407908343203213
0.06305804223101193 -0.37602483154238764 -0.046932246490620916
-0.03394832107188105 -0.2913696051514607 0.15253713131454283
0.06890530184353837 -0.09997741600097582 0.08098162555394531
-0.022769009399360947 0.3621390365694548 0.13839512899444464
-0.07237331122306317 -0.2524254519195114 -0.11473692260293285
0.07990661474550972 0.06526576487383912 -0.06844438679349596
-0.07757779749749692 -0.20782489331234624 0.017148299788987714
-0.05805429901447484 0.17306182031816217 0.1058243206301992
-0.08353976742882144 -0.37787601875609467 0.07390914107080832
0.0283581707945917 0.27541309114781065 -0.08518912669184033
0.07770437440099824 -0.09597837695598055 0.015569055141396861
-0.04034539910899142 -0.32561755748709886 0.1512733400436467
0.023838979786770655 0.44513392998398527 0.09404673531222356
0.0780949828141469 0.19755049561743576 -0.09234072173966566
0.07794071721300463 0.22604908766434925 0.011500794352299316
-0.07759361961043457 -0.2135435982572542 0.016918879151391546
-0.018137085836859027 -0.3608336253581105 0.07101666104939112
0.04480822383947202 0.15371038731333725 -0.13370269160490217
-0.07720202231522733 0.11321171148526217 -0.09777759529787138
-0.06022983954340401 0.18186583728591507 -0.1303948811188712
-0.07985519287846231 -0.21110995951102932 -0.06910496000864355
-0.0403434213448742 -0.308326954692405 0.15126246234100207
-0.028380915081939597 -0.07634906809268782 0.12409688330908698
-0.0830334598148161 -0.343447101003732 0.07971585651893198
0.017200614527360884 -0.37567180064746597 -0.12038442803962124
-0.017320269256451987 -0.35916340356112797 -0.0200880541277522
-0.021224375623821238 0.5567866254568645 0.0010463332287360622
-0.040181244687263126 -0.30260627198337986 0.15130102874128762
-0.034877870206968975 -0.3763046851649726 0.13422699111742808
0.07984233741170046 -0.198974398887839 -0.06960731209441447
0.05194795230259411 -0.36000494219300017 -0.014341660485203384
-0.028389815020467033 0.020880782555449687 0.1240978721911456
0.08017163513721565 0.21069867146863677 -0.05468310406596037
-0.07714961156612131 0.08511065002590755 0.024226717564476346
0.07963664994351079 -0.17267606942131977 -0.07272130169695899
-0.0 -0.3149148869668259 -0.14478509283567906
0.0774344095989993 0.13255127790538385 0.020181201062726698
0.059355667803597925 0.4203327679541927 0.05110552079939621
0.039470238487126726 -0.3491539393639367 0.15145430546037128
0.0 0.5236531432012733 0.04297493251355275
-0.0830324709327575 -0.3549527437555915 0.0795803796769032
0.02837201514341216 -0.11605268274564515 0.12411270542202466
0.0749414379292582 0.027334226869900474 -0.10661721201973402
-0.0790482651186413 0.30039620747638635 -0.010687741278660987
-0.03406896468303077 -0.36068529304931984 -0.1418026245469289
-0.07544280113297051 -0.28525831402928703 0.11779572683166124
0.0529645230588392 0.16475323326176997 0.1119474783370762
0.07988090381198602 0.05951244905688008 -0.06905551590571335
0.07929647451535095 0.208712007412901 -0.08893698969395013
-0.03446056197823801 -0.004588863745959237 -0.12126057754354452
0.03494115865871964 -0.2190852933136719 -0.11521751928341448
0.03445957309617941 -0.004588863745959237 -0.12126057754354452
0.055385306338302194 0.42861762184117846 0.06542651077210175
0.07883268882986559 0.29097908363229885 -0.0249533538560847
-0.03916764057719385 0.333211269709107 -0.022320949816080408
-0.011389943551002797 0.18318302818797583 -0.1443697623710653
-0.0 -0.35870357340387704 0.02531547671099953
-0.0 -0.3587015956397599 -0.01431990507991409
-0.03449912837852358 -0.06492352478757529 -0.12216936015540175
-0.0 -0.376378851319368 -0.12761315588801772
0.033527057314915676 0.22089008996461132 -0.14000978137467954
-0.06073515827535073 -0.3758438661256631 0.07243867344966391
-0.07777359614510053 -0.22631402116206836 -0.09246235423287398
0.08155112560896845 -0.2854284017433669 -0.0814313748691445
0.07937657396209788 0.16001648820105602 -0.07734531420299208
-0.035488010437127744 0.05339621352441331 -0.1162924340811172
0.055884691777897295 -0.37117733169111 -0.07930428956108693
-0.0 -0.0870922827773635 0.1271109958237125
-0.07986211505287254 0.053789788583737765 -0.06966862278204793
0.022139091528030095 0.41101057678773134 -0.010818273710396734
-0.0745854403881607 0.19144217114143783 -0.10795121391679105
-0.0 -0.25567096283585034 -0.1370579684297461
-0.0 -0.29201831178190507 -0.14478509283567906
0.08586067362036541 -0.3721573138111868 0.005500258020689231
0.0775985640207276 -0.1791977465978142 0.01700491189049011
-0.07271744217945743 0.21531773956437683 0.1243114707158041
-0.04560130725047257 0.17808336341175413 -0.13875291227819364
0.0783817586111421 0.21400747083672633 -0.09098595331937796
-0.025789055206338077 -0.371299953066377 -0.11347609797821254
-0.0 -0.16679321005468353 0.1271109958237125
0.08003022500283524 -0.22917189031143445 -0.06426537121383476
0.0790482651186413 0.30039620747638635 -0.010687741278660987
-0.018707670784673634 0.47085178568210384 -0.03732921281951585
0.07629126193925288 0.13001281766094697 0.03518946406616214
0.028397726076935866 0.06074954051219389 0.12414039411966557
-0.051948941184652715 -0.36000494219300017 -0.014341660485203384
-0.07765097476983361 -0.22496123050589792 0.016077340519519402
0.07530139099859011 -0.23889556759368916 0.04312524258646058
-0.02812578351081972 -0.377870085463743 -0.14260955230674988
0.0 0.4006233596441531 0.13030508487300396
-0.05186191956349554 -0.36090779151250574 -0.053875187424080775
-0.07500769302718469 -0.37786810769962587 0.11860265459148224
-0.05917668015099057 0.41731469991133285 0.04586543477085273
0.03450703943499241 -0.07639257890326642 -0.1223414256335989
0.057650835134564336 -0.37581024413567055 0.09532733757811596
-0.07752242010221508 0.025949791987854645 0.01880764388332551
-0.009392401792622379 0.4471344383885415 0.09751276692763118
0.02650302805265028 -0.3625997687147775 -0.10195661087753259
-0.07336911545607758 0.24590386163700373 -0.09723964345799072
0.005699916185794419 0.3370293433373777 -0.030181573299924932
0.043897463463497585 0.5192061405837304 -0.009688970399470774
0.07810388275267433 -0.23584387756083672 0.009401397741882669
-0.0858082628712594 -0.3778789854022705 -0.00032425730448931364
0.0 0.5571198787106142 0.0018216167626817293
-0.027933940391450512 0.14579043090597646 0.12425114891022924
0.07324154967051764 0.12223130474179078 0.06027047971853963
0.04201957643420827 -0.362053905818428 -0.08683264867324045
-0.0345278059582231 -0.14619677453807595 -0.1204447498451961
0.017789988234288966 0.44625927776667684 0.09598197750091192
-0.06893892383353091 -0.0030115968624855882 0.08099448102070715
0.06769985461409989 -0.25847246570787585 -0.12231571470007518
-0.056712386060948985 0.45234980236561995 0.02657531245366124
-0.058084954358291564 -0.3758161774280222 -0.08602868755959527
0.03449912837852358 -0.06492352478757529 -0.12216936015540175
0.08463841539593066 -0.3778779965202119 -0.045909742442024205
0.010858913885532359 -0.3627827118956193 -0.10836258885317038
-0.06484890763914407 -0.22494837503913598 -0.10769410458155397
-0.028233571655207575 0.3145055766885506 -0.045862276103211204
-0.08364063339879906 -0.2534805890760421 -0.06298674671205957
0.06891716842824162 -0.07709864069310979 0.08099645878482437
0.0798522262322865 0.21673777420053242 -0.038631570490697535
-0.022595955039105216 -0.24623702799676658 0.12527266407676735
-0.055542538585620256 0.4675855082425343 0.018477357275751716
0.02175144976105726 0.44567682623415894 0.10650664925063606
-0.07703786789349903 0.20741854968024676 0.025976049926147115
-0.0 -0.3672583920928617 -0.11435026971801861
0.05926666841832355 -0.377855252232864 0.14171975047547186
-0.085856718092131 -0.2948030036589344 0.006738338358061648
0.03109638521486664 -0.2606697616420943 0.1329226556821292
0.06297102060985475 -0.3758933102285933 -0.0014229052715985435
0.07314958363906744 0.2140272484778984 0.06108334077071226
0.033533979489325905 0.33420608506006283 -0.024181036968314848
-0.034999502700177286 0.5370643616800631 -0.03311064195751047
0.028399703841053076 0.04941794100264874 0.12413940523760697
0.04043637625838299 -0.3140575262220161 0.15124367358188862
0.03427662991533764 -0.32033593841209396 -0.14172351398224056
-0.04202056531626688 -0.362053905818428 -0.08683264867324045
-0.042016609788032455 0.2034916990255296 -0.13885575601228847
-0.0788336777119242 0.29097908363229885 -0.0249533538560847
0.04096839480591204 -0.22444503407130648 -0.11365211898464407
-0.07159506104294171 0.11870989573110133 0.06984186916376936
-0.07406528842533491 -0.012738240790916192 -0.11004368835279747
0.07013843777061776 0.4222462547375918 0.054385642587786234
-0.06847612703010415 -0.19094962098226612 0.08241154901068694
0.07731871039814261 -0.2843099761350856 0.11249037458724988
0.08581815169184544 -0.26648537702874553 0.010937131578894942
0.07378741256686715 0.23793347224465414 -0.09981568122065457
0.07982453753464558 -0.22864283841008118 -0.06993660981992966
0.022561344167054073 0.19620858266390992 0.15424097510151782
0.07545862324590819 0.1402042361569215 -0.10417467333498173
-0.06884399115590491 -0.1451594372586002 0.08120610178124846
0.0 0.049538584613798446 0.1271109958237125
0.03964329284738245 0.5333797871297039 -0.017928335711760696
-0.0774344095989993 0.13255127790538385 0.020181201062726698
-0.059271612828616566 -0.37055730264036524 0.003778614356659376
0.06897155694146485 0.04904513246655497 0.08101326977982064
0.04515631032410069 -0.37786514105345004 0.14933216456260673
0.003485809256579689 0.44756855761226877 0.09826530617422895
-0.06746944509444511 0.42777707209136495 0.06397186526389503
0.011363243735420483 0.5593211301730671 0.00540038093277021
-0.08305818186628121 0.2628997775782336 0.027482117301401262
-0.028391792784584244 -0.041881583940039574 0.12410281660143863
0.05415909258563302 0.39387819512241407 0.005239193157217731
0.04320129049424024 -0.3612578557612516 0.07546465254899265
0.028485736580151636 0.24984653440465854 0.1521247674961049
-0.005749360288724627 -0.37579837755096734 -0.12167986353639271
0.07493253799073075 -0.17355419668936026 -0.10709088652580542
-0.07394662257830241 -0.08171770878884987 -0.11036804166801963
-0.07890982163043674 0.31703217034828424 0.012270144593893358
0.07994419226373668 0.12276233440726121 -0.06672274312946612
-0.022763076107009325 0.27239106757671633 0.1511981850071928
0.06386101446259851 0.1772685245954643 0.0956427909548107
-0.0 -0.1688372292698184 -0.12294662145346463
0.0283819039639982 -0.1446649962292981 0.12407216125762188
0.05986790870995488 -0.2441801533148699 0.10298029582965361
0.05993811933611578 -0.28928108624368865 0.1412302538564628
-0.0856925636704027 -0.37787997428432907 -0.01173101185048838
0.03407193132920658 -0.3664366311021616 -0.14194502356336788
0.08226905398351508 0.27414336658456295 0.02625095913843907
-0.07568112170909412 -0.20246119702647727 -0.10460879255870896
-0.0 -0.19525818011160448 0.1271109958237125
-0.011461143059222297 -0.2918907459963451 0.1551606354160197
-0.028166327675222494 0.3268577024825753 -0.03410347954434906
-0.017163037009133925 -0.29181262431371535 0.1547611270643436
-0.07402869978916655 -0.13344217374619943 -0.11015543202541975
-0.02831762663018893 0.294891101056137 -0.0656517838599978
0.07159506104294171 0.11870989573110133 0.06984186916376936
0.03452187266587147 -0.059178120027085085 -0.12207838300601018
0.03915676287454921 0.440237974911836 0.08555421619293098
0.05553264976503421 -0.3651807508877344 0.0031912184138485006
0.020667635024827092 0.4473322148002623 -0.02832445279386631
0.05186191956349554 -0.36090779151250574 -0.053875187424080775
-0.0763179617548352 0.13518071529921233 -0.10138899257589379
0.0 0.5473932347821836 -0.015025966869757466
-0.07397233351182611 -0.04148603111659793 -0.11029980880597594
-0.0 0.07131673419043802 -0.11787662313900107
0.08242430846671593 -0.3778779965202119 -0.07388818252611191
-0.07478618344605735 0.02162936627381304 -0.10721449678313094
0.043362478269792726 0.14992000238270745 -0.12961465317463255
-0.050245097397677733 -0.36136465502358084 -0.06578330517379215
0.02725260065307224 0.38403980752136124 -0.011806166886942297
0.07311596164907491 -0.3778661299355086 0.12320688945634324
0.04028211065724075 -0.3592840471722777 0.0023536353102107713
0.07464576219373555 0.12582292437864112 0.05023134905959013
-0.0792153861865454 0.22343745014757566 -0.017025486392255092
0.05513314141335813 -0.3778621744072742 0.14453707546043512
-0.031210106651606118 -0.376706171280766 -0.1286544486957279
-0.0 -0.2464951262140622 0.1271109958237125
0.0 0.4498973748602816 -0.03327479637923876
0.02831762663018893 0.294891101056137 -0.0656517838599978
0.0 0.5086033471513766 0.05590654319391944
-0.0283819039639982 -0.1675160828395232 0.1240731501396805
-0.07991848133021297 0.3012288461697311 0.010216236558172505
0.07040543592644088 -0.37786118552521564 0.12855377474721597
0.06894090159764811 0.002840607160333866 0.08099052549247275
-0.07974938249819166 -0.37787206322786027 -0.09108187487906257
-0.005831437499588774 -0.2634603868114753 -0.14463873829100563
0.035488010437127744 0.05339621352441331 -0.1162924340811172
0.0 0.4477119455107663 0.09852735991975906
0.0393940945686142 -0.35490923294501286 0.15147309421948474
-0.0056415721443367735 -0.3758577104744836 0.13263093547484098
-0.0389431643498907 -0.36225761552250046 -0.09103440854024956
-0.05179368670145185 -0.35977848820157976 -0.002998194390954982
-0.0 -0.035855336674905786 0.1271109958237125
0.058789038384017736 0.42232932083051455 0.043105464945288496
-0.07770536328305684 -0.09597837695598055 0.015569055141396861
0.0797839933702428 0.0368304612786763 -0.0715376098728098
-0.0795219396247127 -0.07041874238723866 -0.07652553097640921
0.08511901207641229 -0.27249085777064863 0.044970496507815955
-0.07720894448963755 0.19555295385905536 -0.09761937416849471
-0.052761802236825334 -0.36614787754104927 0.07690149818014452
0.07690041328735306 0.21891232584740297 0.0277520821034002
-0.05226538344340604 -0.3604726834067199 -0.037024637145465764
0.028392781666642847 0.03233005902996873 0.12413149418113814
-0.08304532639951935 0.2266740611253871 -0.047408887642868124
-0.05993811933611578 -0.28928108624368865 0.1412302538564628
0.0365925916965886 -0.3768426370048533 0.14010095054553684
0.0 0.3758034088552471 -0.0147490798933483
0.08585177368183798 -0.2891060541193158 0.007379133932037148
-0.08017460178339145 0.20885737307551583 -0.060088333398290755
0.07703687901144043 0.20741854968024676 0.025976049926147115
0.0 0.5193346952513489 0.046909694224738736
0.03405512033421031 0.5483395949122678 -0.013599010059191653
-0.0 -0.22372315016852543 0.1271109958237125
-0.05491459847840661 0.18618428523583946 -0.1342089992189075
0.01702261575681213 0.33623329328020135 -0.028808016120523746
0.07772909645246336 -0.07165880048872825 0.015240746297940276
-0.05346786402666871 -0.3756134566060083 -0.09557337718924268
-0.031673892337091475 0.5509680434240376 -0.009050152589612486
-0.041493491179030846 0.4457312147473822 0.0951018724687542
0.07834615885703235 0.33174574649825567 0.02955382521417699
-0.08531481072401592 -0.27149109800939975 0.039312113368482914
-0.0 -0.332087812796546 -0.14478509283567906
0.07948238434236854 -0.23277043212269496 -0.024492534816775158
-0.0 -0.3618848069864067 0.09892192386114211
0.07979783771906326 0.13749964372663911 -0.06990595447611293
-0.02838882613840843 -0.18428356702521545 0.12408699448850095
0.022806586917587905 0.31748013392083196 0.14701125837106277
0.034556483537922615 -0.12350687570340335 -0.12199235026691163
0.0 0.3172754353347009 0.1490849440479557
0.07904233182628968 0.31022569513891174 0.003205062762668959
-0.016352153721078507 -0.3626333907047701 -0.10678729973381394
-0.0 -0.3582120990207508 -0.0029952277447791694
-0.08076496437237814 0.29274324922484873 0.01774261790620882
0.07884455541456885 0.18849530260679742 -0.0838996244874205
0.02321796185396724 0.15928768212386474 -0.14329583645542118
0.03962351520621037 -0.3433897458443329 0.1514167279421443
0.08352592308000098 0.2329168735613552 -0.031321754313495535
0.0 0.5126280971298954 -0.053408435092419604
0.022984585688136657 -0.3587500508606315 0.002596900296627396
0.0 0.4667597917235998 0.0857974811793476
0.03474931553935043 -0.18025189487228624 -0.11800616668867822
0.07972564932878516 0.025737182345254753 -0.07278360126665105
0.04490513428121523 -0.3619520509663917 -0.08168551755820576
-0.07773700750893218 -0.03659502045474172 0.015228879713237026
-0.07765987470836107 -0.12129969094859885 0.016203917423020735
0.07395750028094705 -0.06446666127650016 -0.11033936408832011
-0.07712587839671481 0.19596037326720028 0.024708303127016572
-0.005658383139333044 0.17519582780062998 -0.14462884947041962
0.050888859617829046 -0.3754938018769173 0.11625900411259037
0.03464350515907979 -0.04213177110086644 -0.121801496029601
0.08576376317862221 -0.37787997428432907 -0.006030106782635357
0.07983838188346604 0.04809877233647078 -0.07028469630455832
0.0653769706584387 0.172922387947899 0.09219258145234074
0.0 0.5441823347378959 0.02316070270530105
0.03462471639996631 -0.11762401633676717 -0.12233747010536447
-0.03407193132920658 -0.3664366311021616 -0.14194502356336788
0.06993868359477971 -0.2419047356980217 0.0767333882301818
0.03468207155936535 -0.2753625712688351 -0.14168791422813082
0.0 0.5603090233496126 0.007344523059986003
0.034379473649432474 -0.019364739465622713 -0.12150384252996116
0.0785973348999178 0.281615359419376 -0.03921995531556702
-0.07978498225230142 0.0368304612786763 -0.0715376098728098
-0.017671322387256466 -0.3613379552079986 -0.07088395883207245
-0.08093900761469248 -0.35498636574558395 -0.08535624775974443
-0.07994221449961947 0.07713037181297192 -0.06722707297935424
0.006753075578207857 0.5380255550410263 -0.03125055480527603
0.04994645501597927 -0.36084252529663785 0.06508732422600053
0.08520207816933503 -0.37788096316638764 0.03390391738997672
-0.022754176168481886 0.34562075066253073 0.14191060471278247
0.06862149269271897 -0.3763748957911335 0.0045894976447147925
-0.0839798199449003 -0.3778779965202119 0.06815780301796646
0.0776460303595406 0.0034893137907782007 0.016759669139956277
-0.04994348836980346 0.185026304345214 -0.13653583870280311
-0.03456538347645006 -0.053504903656872965 -0.12198443921044277
0.0 0.12262883532934965 -0.11295990154362115
0.07483958307722197 0.3794830389953132 0.05632484030470901
