-0.0710091965233106 0.06172305212648799 0.16634183987280549
0.16776654511440486 -0.12540803193758523 -0.018171865676660712
-0.16852244120364362 -0.08619592230832618 -0.360296087225655
-0.11248016385849564 0.06407021545031572 0.16363085740322267
-0.04792699105997985 -0.1195674983695654 -0.43515011035240647
0.15158542369009362 0.04053500216714914 0.06334834854549169
0.1520728707009111 0.01163698870881107 -0.23182730818987374
0.17798350510563396 -0.05916380655625147 0.3811178806771913
0.17158752920101236 -0.11885575508927754 0.193619445242647
0.08640174877975952 -0.04073442410016238 0.4067441709922706
-0.15731380912337822 0.04351266760279516 -0.10430428232181999
0.1435010443711911 -0.05690053356943037 0.40996379382096737
0.15731380912337822 0.04351266760279516 -0.10430428232181999
0.16850566313624227 -0.12508571643224395 0.048962480333122387
0.15065468247740949 0.039954834257534835 0.07505060902982771
-0.041727053627100046 -0.10410076939407906 0.4405899482216421
-0.17962069126153188 -0.04645751119637289 0.3682252604635401
-0.07787495831516937 -0.06985938299650787 -0.40432085303055776
0.11410763639642436 0.1277297353956661 0.11538243389408055
-0.09831064440998556 0.05224785932563336 -0.30949298219061605
-0.10023658993642208 -0.10482929074176825 0.43393611991274744
0.12113941274993836 0.08228148303018756 0.1497748228982637
0.038677860640953625 -0.08925747808097884 0.4399188255255891
-0.10660960638038926 0.006468460893023362 -0.33614450072953433
0.17841973485806847 -0.021166782229320103 -0.25245991581261074
0.04269929848019799 0.12472734438700761 -0.25197511797033034
-0.15602807932672916 0.04329720189511496 -0.12256765021625385
-0.1704775275839877 -0.12502390249971274 -0.1413458398630547
0.06398889990012381 -0.1191400991789211 -0.4328903695903014
-0.06603759023544373 0.14960480306228033 0.11110226059438416
-0.15439707456408439 0.04268524396305604 0.01639007011389372
0.14922148229886453 0.04050409520088354 -0.19350531918906402
-0.08656423111669868 -0.024305163889547256 0.38266941038372454
-0.1598022614358487 -0.002774488132749735 -0.20560053967306272
0.1376605108031713 -0.016307324076188418 0.2208352366799573
0.0312142698159002 0.0665842763919777 -0.31817077526181814
0.16094758530003403 -0.08154751458197959 -0.3692025918472225
-0.17841002124009928 -0.02342210771053005 -0.2696026854158718
0.13227651727970338 0.12376039787098378 0.06341899303981306
-0.13916700464457463 0.0770025731920227 0.13068668053262777
-0.17975403274456345 -0.041055856549324636 -0.20705934848079913
0.0 -0.051823843596260445 0.43561922498995426
-0.14000679107081998 0.013891431133841997 -0.2723887276606711
0.12234390137811785 0.09114383484280425 0.1426414950841627
0.16826193963083352 -0.1036980957764472 -0.3695946687907061
-0.16561806943085602 -0.009766526958207972 0.32228249663781194
0.14361849084300038 -0.08198197822205608 0.18088665819739788
-0.14532808760557767 -0.03156918401814279 -0.3481196255731867
-0.14539873209989906 0.10630590943652968 -0.07005759758717468
-0.14836050252432276 -0.10874211267099348 0.12930911289336092
-0.15194747672349065 -0.107691275817963 0.09040872209529495
-0.15351136921653014 -0.1072585782902446 0.0709496961344718
-0.11292699028507835 -0.015393360930905608 0.4004241379190445
-0.013806583358934017 -0.09613471960316483 0.4435941053426587
-0.14230185408008572 -0.05334005105563299 0.19537761009507024
-0.0378345419899922 0.1734738115811154 -0.05621922420579605
-0.10733282939100436 -0.021849384655700403 -0.35513903914019446
-0.15022640023058612 -0.10818755339057068 0.10986156666286498
0.09784439074746447 -0.04706770301607378 0.4118579493249593
0.0 0.17276295135700656 -0.13125780607396217
0.0 -0.07367506874604121 0.44142355325463434
-0.0845588105341506 -0.06188891792469856 -0.3951167584766614
0.11247133329670549 0.0038139940188976406 0.3403983941503499
0.0 0.060683695003784725 0.2444614047495626
0.12930768240584753 0.09723780553420197 -0.22207836797352376
0.13757926963470168 0.12936427238302695 -0.02438946423312086
0.14826778162552595 0.08679301704878647 -0.04168147033063579
-0.16826193963083352 -0.1036980957764472 -0.3695946687907061
-0.15713631483139576 -0.10642762242578938 0.012517868768903272
0.04658209649933664 0.1512101991957336 0.11199944567226564
-0.1772055326119198 -0.10789967707621106 0.21107746590181714
-0.1621723842203309 -0.08961776500201785 0.40842109467622434
-0.0746535693741146 -0.048077036228690445 0.40784269287896807
-0.17206614565003966 -0.09856312409546214 -0.35991019167542443
0.17480626897353005 -0.1233275515798207 0.18327532516163944
-0.13647809857946724 0.12336390564660504 -0.11610809426674297
0.10553581006670433 -0.007652490465640781 0.37260963439236056
0.17338366546913334 -0.12370020128736595 0.16086600850671978
0.042604811469043144 0.061203815093225866 0.16598950045737762
-0.11791449158416754 0.13000890339370952 0.10569089232936674
0.15110239196017117 0.04067010976253877 -0.17616032972080808
0.14353460050599373 0.04278238014274793 0.13331288960902493
-0.016199665604070646 -0.11994544641418478 -0.43861522279886994
-0.17003335032594205 -0.12510602672436133 -0.13014162306368443
0.10291754849591832 -0.014861761111137253 0.38808254476110005
-0.11587463181063778 -0.007337239409731638 -0.33518461866294263
0.09065984567498048 0.06754680762710646 -0.3008460960856796
-0.038677860640953625 -0.08925747808097884 0.4399188255255891
0.15741889280868127 0.04316121124354631 -0.04992656587411944
0.06603759023544373 0.14960480306228033 0.11110226059438416
-0.1353610325130105 0.011169851990110967 -0.2863789867048407
0.1353610325130105 0.011169851990110967 -0.2863789867048407
0.15151654530813027 0.030059306715468026 -0.21374231764360135
0.07787495831516937 -0.06985938299650787 -0.40432085303055776
0.1482033185244577 0.09581520202980526 -0.0698889338569824
0.0 -0.08613940671286907 -0.4312116797939897
-0.14264006459664932 -0.012812187719638317 0.14456920672295726
0.0 0.13490103462546482 -0.24084684400235548
-0.08640174877975952 -0.04073442410016238 0.4067441709922706
-0.1242769113539865 0.09489064221037424 -0.2356235667034687
0.026397198359361343 -0.09599784589541716 -0.431637312872276
0.06722000245914776 -0.06138557590265876 0.41882526257740504
0.1485009084567865 0.03940292414564908 0.09805422249322591
0.07087497198409998 0.10912285864759455 -0.26299124380357
-0.1193653528862928 -0.06476238273122056 0.4169090306689377
0.0 -0.01319013576425768 -0.40342190184031823
0.05862168444405723 -0.07348874389226859 0.4282563025693088
0.14084922666560243 0.07200800744350139 -0.21691248932627313
-0.15827369118996992 0.04331839524341137 -0.08744850597673955
0.11906334767306892 0.09153856095482493 -0.24907781064697485
-0.15489776741758715 0.042974886389773675 0.004871485314793283
0.08023625053786138 -0.11849105288734343 -0.43045401759239293
0.0 0.1650909592737051 -0.16350171939459643
0.14386751268548323 -0.0956614014912116 0.16489804302011238
0.16840499473183432 -0.015932908256285124 -0.284857480908394
-0.1435010443711911 -0.05690053356943037 0.40996379382096737
0.12670796501482087 0.02283590717110728 0.23532883774616667
-0.13164866433642214 0.0038828724008609823 0.2457550820518228
0.10660960638038926 0.006468460893023362 -0.33614450072953433
-0.1347049217720007 0.11069293253388715 -0.17965811524589523
-0.018845301916406196 0.06773136636852106 -0.31928077687884276
0.1330898120205782 0.1255485866334936 0.04594507736942059
-0.13470933705289576 0.10496278098824449 -0.1944537215253285
-0.15857216417847775 -0.1063154742910542 -0.026483190433570655
-0.11874809661715978 0.1185274069541278 0.12118941132729771
0.0 0.02574910950568504 0.3733672965939573
-0.042604811469043144 0.061203815093225866 0.16598950045737762
-0.11693959756253253 0.054213542380125664 0.1817290937921803
-0.13900010702674037 0.1269605934637421 -0.07292488100044356
0.13537869363659083 0.1277959646090924 0.009699153445480349
0.0 0.15979262219960183 -0.17935346086413428
-0.13417243889605332 0.12678133305940165 0.027931614373648606
-0.1575902057074106 -0.012368893517771679 0.3540124712622582
0.1544544732157205 0.016775492614512194 -0.21712442280923724
-0.17896104829580603 -0.04051719228012415 -0.3012628986021757
0.0 -0.03141464918681478 0.42652021412136093
0.0 0.05771927541082397 0.27819768301273595
0.1732697512220401 -0.11002077801821039 -0.1598105445663045
0.12228650272648171 0.03999457178559061 0.20866407336456314
-0.15929185496437676 -0.10679409074008153 -0.08503776260802258
0.17975403274456345 -0.041055856549324636 -0.20705934848079913
-0.15899514808822696 -0.10639318323480773 -0.04599519976513484
0.17496875131046924 -0.0905334942596587 -0.3497894848077082
-0.056113804895648364 0.06411436825926659 -0.3146835864108792
-0.013456010055864187 -0.09827966306199762 -0.4333248332303779
0.16805265531640648 -0.12541068110612227 -0.051751842996148004
-0.00956173230639831 0.1511377885890542 0.11166918266131322
-0.15573931995619053 0.043267177985028375 -0.016789882756498783
-0.17496875131046924 -0.0905334942596587 -0.3497894848077082
-0.17871467562186022 -0.06344662902448492 0.23009319766077369
-0.13743533147752188 0.0862508205548699 0.12684803532243996
-0.14350016131501206 -0.08129231134624362 0.16157598567464962
0.1688244464168675 -0.12498504802783597 0.06014903600891236
-0.10884197240094476 0.0807599772337409 -0.2750228842426794
-0.0312142698159002 0.0665842763919777 -0.31817077526181814
0.17838794483562384 -0.07800292707940454 0.22305965519490165
-0.14329529228148008 -0.07249442263469522 0.18545117558673782
0.13215112330228293 0.11669241621413004 0.09391533818217228
0.13298914361617026 0.0546568365819923 0.1561593190725581
0.14257736760793907 0.05628695828845807 0.13290403459813996
-0.10122561285692135 -0.02259733323932798 0.40312187454594206
-0.019168500477926495 0.174940567894463 -0.056093830228375614
0.049157971373529834 -0.08277937795170862 0.4353401792373849
0.14646723007650989 -0.07128905095033672 0.41044417638235275
-0.17901491472272607 -0.023955473642656443 -0.23587347160213057
-0.15076859672450268 0.08524325345461126 -0.07001786005911892
0.13470933705289576 0.10496278098824449 -0.1944537215253285
-0.10353303865269331 -0.002071575414252038 0.3380627105568494
0.16965805144985974 -0.12517137288160862 -0.11894005543285116
-0.17338366546913334 -0.12370020128736595 0.16086600850671978
0.14283257084367507 -0.0027947984248671304 0.1419703723881096
-0.10889672188404383 -0.00520995707447919 -0.34244245739828505
0.15162957649904446 -0.025008076608044952 -0.33272265803584267
-0.06722000245914776 -0.06138557590265876 0.41882526257740504
0.1423371763272464 0.11669241621413004 -0.07094506904708699
-0.1552289134847186 0.06400928457396353 -0.07072077277761661
0.0 0.027938205773468696 -0.37186942150785446
0.0746535693741146 -0.048077036228690445 0.40784269287896807
-0.1516428223417297 -0.02309184469957761 0.3850986979322009
-0.14727787564884767 0.04129884576199903 -0.2109271345448945
-0.14726374674998338 0.039686385179113604 0.10905533637142227
-0.11175605779170154 -0.10454847887684077 0.4314017486789681
-0.11119620017420463 -0.01431250016778855 -0.34597909739524896
0.17841002124009928 -0.02342210771053005 -0.2696026854158718
0.13839256437557654 0.12615171400376235 -0.08476313213634822
-0.16806236893437565 -0.12524025126357197 0.026587602869184414
0.0 -0.02179993350967544 0.4207988931375085
-0.13204957184169597 0.008729967767486427 -0.29567226993281776
0.11973005508822691 0.04741754202640924 0.1950164401178522
-0.1732697512220401 -0.11002077801821039 -0.1598105445663045
0.10282924287801659 0.07474018326138063 -0.2867101327719721
-0.04269929848019799 0.12472734438700761 -0.25197511797033034
0.0 -0.03641539632858922 -0.41512327926847525
0.11941921931321285 0.009061996890796897 0.30642015849412585
-0.15741889280868127 0.04316121124354631 -0.04992656587411944
0.15452246854150484 -0.016852169738642033 0.3696920167768877
-0.14646723007650989 -0.07128905095033672 0.41044417638235275
0.17095172875211997 -0.12436072730927084 0.1160879957811153
0.14836050252432276 -0.10874211267099348 0.12930911289336092
0.11401933077852265 0.08667557057697717 -0.26230775832101066
-0.1520728707009111 0.01163698870881107 -0.23182730818987374
-0.17798350510563396 -0.05916380655625147 0.3811178806771913
0.1392429474759701 -0.02503721746195252 0.21358181322550995
-0.17092258789821238 -0.12494266133124315 -0.15255005666242502
0.0 0.0621089476767185 0.1654843923229798
-0.14826778162552595 0.08679301704878647 -0.04168147033063579
-0.15795490790934472 -0.10632607096520241 -0.006978245551438607
-0.1442110215391209 -0.11000929828788317 0.1681944917363836
0.15310957865507732 0.07462450290192937 -0.07024922077802143
-0.09755474832074683 -0.008032204622618179 0.3536309909929227
-0.1393038783523223 0.04803214912700522 0.14727135863074992
0.0 0.06197472313750788 0.2106385869808456
0.08883456855295191 0.08729459295846825 -0.28160871722578973
0.15563247015852946 0.006907339813994913 -0.2196985315710724
0.13559769156898707 0.12128960668209363 -0.13251881029759874
0.11119620017420463 -0.01431250016778855 -0.34597909739524896
0.14230185408008572 -0.05334005105563299 0.19537761009507024
0.0 0.16993805464033052 0.022564398917582024
-0.14253939619224135 -0.022818980340261294 0.1471945327431754
-0.16840499473183432 -0.015932908256285124 -0.284857480908394
0.1592318071442036 -0.10655478251556785 -0.06551427354613117
-0.1330076877959296 0.11084216902814106 0.10531117817238932
0.12305564465840571 -0.10357535096756382 0.42820685142328385
-0.15379129802527858 -0.09515099501973967 0.4145159484238011
0.0 0.17539445877047782 -0.05604791130706671
-0.16498933343139577 -0.11639379446217757 -0.14781422637435576
-0.009061922509074569 0.1314147288307049 -0.24846496965873693
-0.17045721729187033 -0.12450201629791358 0.10489879093678829
-0.15874700930192315 0.043032285041409796 -0.07381765079742995
0.0 -0.0038836066935953456 0.4072545774637426
0.019168500477926495 0.174940567894463 -0.056093830228375614
-0.1504348014888342 0.0759190632603686 -0.041922544667507486
0.134719933727044 0.11515766457499815 -0.16420728128163117
0.1772055326119198 -0.10789967707621106 0.21107746590181714
0.15022640023058612 -0.10818755339057068 0.10986156666286498
-0.16850566313624227 -0.12508571643224395 0.048962480333122387
0.0 0.01920389710680951 0.3825528469680943
0.12106611908707994 0.10922352705200253 0.12808961231013816
0.15194747672349065 -0.107691275817963 0.09040872209529495
-0.13581139116430924 0.09519971187303028 0.12129007973170566
0.0 0.16269257869149434 0.06462613083652959
0.15439707456408439 0.04268524396305604 0.01639007011389372
0.13916700464457463 0.0770025731920227 0.13068668053262777
-0.1639596899266617 -0.0769697513499544 -0.15949882573511143
-0.15162957649904446 -0.025008076608044952 -0.33272265803584267
-0.10553581006670433 -0.007652490465640781 0.37260963439236056
0.0 0.17484078254623406 -0.04128056282536197
0.11587463181063778 -0.007337239409731638 -0.33518461866294263
0.1598022614358487 -0.002774488132749735 -0.20560053967306272
0.1426303509786801 -0.042606503199678854 0.1522862346713886
0.0 0.01206085567473933 0.3912959861965436
0.15666652894415858 0.04329013744568282 -0.03862079761416216
0.10375998409070074 0.018177785826791516 -0.3301829884649892
0.15316874341907144 0.04176686553687814 0.03984492528476973
-0.12441643423027121 -0.11320419554356742 -0.41795788960312047
0.16996270583162068 -0.1246424222303773 0.09370958609246127
-0.16305808956788514 -0.015420735672455142 -0.1938673722224611
0.1409666731374117 0.0672871891104754 0.13254816295799604
0.07405044200384585 0.16555632988004715 -0.05619538168896259
-0.12459304546607466 -0.07230279944384849 -0.3909266569072248
-0.14589500967250674 0.04049791380763042 0.11941446840747313
-0.10375998409070074 0.018177785826791516 -0.3301829884649892
0.1504348014888342 0.0759190632603686 -0.041922544667507486
0.11320250381293172 -0.0657293292472444 -0.3893424541220679
-0.03887831439359053 -0.09247621785349655 -0.42880181948145174
0.11175605779170154 -0.10454847887684077 0.4314017486789681
-0.16820542403537644 -0.12539831831961604 -0.06294634617754914
0.17896104829580603 -0.04051719228012415 -0.3012628986021757
-0.09930143344284285 0.06441725652866948 0.16512233928958273
0.10675707676228513 -0.05817125141103612 0.41575840846767825
0.0 -0.04143027236922793 0.43147239317328945
0.0 -0.060859274419964506 -0.42428940240667384
-0.1612301632773195 -0.009959916261412741 0.33815366534328817
-0.16793962412549224 -0.125294117690492 0.015398398024857398
0.1393038783523223 0.04803214912700522 0.14727135863074992
-0.026248844921286454 0.129213269776415 -0.24950344372526118
0.08096300577319254 -0.035335418621651175 0.3957668996309078
0.14253939619224135 -0.022818980340261294 0.1471945327431754
-0.05347346692038692 -0.10387117478753458 0.43972631927856326
0.12338943989407421 0.13954061179002122 -0.055713233015219195
0.14726374674998338 0.039686385179113604 0.10905533637142227
-0.11320250381293172 -0.0657293292472444 -0.3893424541220679
-0.026763666673653486 -0.0937001337176144 0.44250353096157247
-0.15382397110390222 0.04228080423306616 0.02808791531733465
-0.10884285545712379 -0.0012635790104512943 0.35672080456330396
-0.14284669974253933 -0.08627628042061675 -0.3908772057611998
0.13723840994960104 0.08873485758644531 -0.21185081130814648
-0.049157971373529834 -0.08277937795170862 0.4353401792373849
0.014402646279770634 0.061912026148797664 0.16557093182852348
0.12587524303800765 0.01041660506940929 0.27196065722033747
0.1549057149231983 -0.10689917442538457 0.051481839611858475
0.1460062747510629 0.09764312832037086 -0.041362687050010574
0.12217965292882065 0.10008654476771148 0.135369527449956
0.15803438296545627 -0.10803213550306365 -0.38831281061733386
0.14539873209989906 0.10630590943652968 -0.07005759758717468
-0.14865191106339842 -0.030835364333379495 0.4002254502787656
0.0 0.04553839847746063 -0.3525110639514393
0.08860409089022843 -0.10463060310148939 0.43590975047285097
-0.1695529677645567 -0.12476428398308168 0.0825230304166713
0.0 0.053633374470511364 -0.3421077791064375
-0.14406884949429913 -0.10940617091761443 -0.40464316853589904
0.15533929550709577 0.043162977355904346 -0.0062753328329409105
-0.1365734686468011 0.12869138357461585 -0.008179201954902007
-0.17706512667945606 -0.08077307431298153 -0.1759263198333685
0.1612301632773195 -0.009959916261412741 0.33815366534328817
0.14253939619224135 -0.032757777635099954 0.14977923817915878
0.07691772541711472 -0.10423587698946868 0.437455098786131
-0.14922148229886453 0.04050409520088354 -0.19350531918906402
-0.1654723651613182 -0.061253117475806175 -0.1673862835260931
0.050578808765568514 -0.08800177219441638 -0.4247441763388677
0.1383899152070395 -0.03992731075254065 -0.36335587688594956
0.13397463431195344 -0.10178098081180084 0.4243196381232501
0.0 0.1684598185966557 0.03319639531294919
0.14153977659759387 -0.04374741178296908 0.20091172316897107
0.13747948428647275 0.1249622373306262 -0.09975389383134432
0.11882139028001822 -0.048649256632693594 -0.3764357050095524
0.16592713909351206 -0.045481734118558874 -0.17543534059783494
0.13191181507776928 0.12094609782845595 0.07973168983479792
-0.12670796501482087 0.02283590717110728 0.23532883774616667
-0.17636133090477937 -0.1229284101869049 0.2056970046030653
0.14053309255351426 -0.03425985619560822 0.20695447660198582
0.1678327743278312 -0.12541597944319638 -0.029364602745703797
0.15076859672450268 0.08524325345461126 -0.07001786005911892
0.15713631483139576 -0.10642762242578938 0.012517868768903272
-0.15310957865507732 0.07462450290192937 -0.07024922077802143
-0.12338943989407421 0.13954061179002122 -0.055713233015219195
-0.15711423842692032 0.05346206157178202 -0.07180075048455466
0.006418052309097054 -0.105073897303356 0.44208761150125536
-0.11401933077852265 0.08667557057697717 -0.26230775832101066
0.17962069126153188 -0.04645751119637289 0.3682252604635401
0.13164866433642214 0.0038828724008609823 0.2457550820518228
0.1405251450479031 -0.019579930275626184 0.398191771898489
0.1678998865974365 -0.12542392694880752 -0.040557339814746886
0.0 0.06215663271038543 0.1993575442939008
0.0845588105341506 -0.06188891792469856 -0.3951167584766614
-0.13757926963470168 0.12936427238302695 -0.02438946423312086
0.013806583358934017 -0.09613471960316483 0.4435941053426587
-0.14279371637179827 -0.052366923146356034 0.1547066916580748
-0.1691423466413137 -0.12488526267960703 0.07133559168470233
-0.13215112330228293 0.11669241621413004 0.09391533818217228
0.0 0.061276225699905276 -0.33126208311574823
0.13647809857946724 0.12336390564660504 -0.11610809426674297
0.0 0.05423650184078011 0.3004922023643834
-0.16897633207965845 -0.12528528712870182 -0.09653956933972169
0.17887627490262034 -0.05309544449404522 -0.3148990521185594
-0.17533257045622433 -0.09528345344659225 -0.1675761406045818
0.14360877722503118 0.10843319177178212 -0.0407939988707235
-0.032039044287102275 -0.11982093549294334 -0.4371643614967447
-0.17871555867803923 -0.03021722500806745 -0.2861281987499998
-0.1686699115855395 -0.1253347382747268 -0.08533976782124646
0.1431275116074668 -0.06687200394289267 0.15819123134047666
0.056113804895648364 0.06411436825926659 -0.3146835864108792
0.17706512667945606 -0.08077307431298153 -0.1759263198333685
0.14720811421070532 -0.06394202354091358 -0.37516410411176765
0.14329529228148008 -0.07249442263469522 0.18545117558673782
-0.09065984567498048 0.06754680762710646 -0.3008460960856796
0.006500176533745654 0.06838482794099379 -0.3199006823165128
0.032039044287102275 -0.11982093549294334 -0.4371643614967447
0.1695529677645567 -0.12476428398308168 0.0825230304166713
0.0 0.0316700011859954 0.3637861370516206
0.11693959756253253 0.054213542380125664 0.1817290937921803
-0.12106611908707994 0.10922352705200253 0.12808961231013816
-0.13820359035326688 0.12963978591088032 -0.037121368222190934
0.16806236893437565 -0.12524025126357197 0.026587602869184414
0.0 0.05992956502690404 0.25572478631292705
0.06520398520245148 -0.10392327510209659 0.4386966757738292
-0.13581139116430924 -0.00836070152121258 0.2286891383361363
0.16466701792605448 -0.11532971176646184 0.18328592183578762
0.13820359035326688 0.12963978591088032 -0.037121368222190934
0.0 0.14131643776602484 -0.22571920859961173
-0.1592318071442036 -0.10655478251556785 -0.06551427354613117
0.10353303865269331 -0.002071575414252038 0.3380627105568494
0.0 0.17437187971517593 -0.030992075283632507
0.1193653528862928 -0.06476238273122056 0.4169090306689377
0.10498125078628154 -0.06987881023244624 -0.39342217366912735
0.177882836701226 -0.09289831870706677 0.21682527857104014
0.13417243889605332 0.12678133305940165 0.027931614373648606
0.09930143344284285 0.06441725652866948 0.16512233928958273
-0.13397463431195344 -0.10178098081180084 0.4243196381232501
0.0 0.17309762964885408 -0.00971130442549686
-0.10498125078628154 -0.06987881023244624 -0.39342217366912735
0.026248844921286454 0.129213269776415 -0.24950344372526118
0.16304837594991595 -0.01711355436763113 -0.3011127790517428
-0.027413596021410146 0.15146893465618563 0.11214514994180348
0.11663494318077161 -0.057657312714848113 -0.3836140686887833
-0.14426488796604095 0.01496169522281085 -0.2584797097849711
0.0 0.0561659795919327 0.2893780572952728
0.0 0.14768238976055986 -0.2104308569722868
0.14727787564884767 0.04129884576199903 -0.2109271345448945
-0.17768061683623107 -0.019380359579168296 0.31915206248319594
0.041727053627100046 -0.10410076939407906 0.4405899482216421
0.15379129802527858 -0.09515099501973967 0.4145159484238011
0.013456010055864187 -0.09827966306199762 -0.4333248332303779
0.15611815105698892 -0.10662012867281515 0.03200515252745498
0.16498933343139577 -0.11639379446217757 -0.14781422637435576
-0.1727399175146298 -0.12387328029845332 0.1496688561567816
-0.07405044200384585 0.16555632988004715 -0.05619538168896259
-0.14506405380805154 0.052154255370657536 -0.21483465813704564
0.0 0.1694956434946429 -0.14743804444209443
-0.1249339051511753 0.0025106030986682443 -0.3139409361643257
0.1482916241423594 0.014436276796295612 -0.24481971375175388
-0.10560822067338375 0.13624769529846606 0.11153672423446062
0.13743533147752188 0.0862508205548699 0.12684803532243996
0.043641519423209346 0.06523584960661843 -0.3166722289260259
-0.13723840994960104 0.08873485758644531 -0.21185081130814648
-0.10143931245224352 0.029673411165237504 -0.3238241009198863
-0.11144168979197142 -0.1158710252041994 -0.4235211435309289
0.15602807932672916 0.04329720189511496 -0.12256765021625385
-0.07087497198409998 0.10912285864759455 -0.26299124380357
0.16305808956788514 -0.015420735672455142 -0.1938673722224611
-0.1438701618540203 -0.0913962401465585 0.17650669954947254
0.16781776237278787 -0.12534798411741205 0.004210076236709394
-0.14053309255351426 -0.03425985619560822 0.20695447660198582
-0.15452246854150484 -0.016852169738642033 0.3696920167768877
0.14258443205737123 -0.07119633005153991 -0.38204841008338575
0.0 0.03697893493424685 -0.3624454459653828
0.1516428223417297 -0.02309184469957761 0.3850986979322009
-0.15611815105698892 -0.10662012867281515 0.03200515252745498
0.17533257045622433 -0.09528345344659225 -0.1675761406045818
0.17968780353113717 -0.031033168917479342 -0.22063545417700967
0.11874809661715978 0.1185274069541278 0.12118941132729771
0.16793962412549224 -0.125294117690492 0.015398398024857398
0.0 0.16482780853235793 0.054210483205021635
0.14426488796604095 0.01496169522281085 -0.2584797097849711
0.0710091965233106 0.06172305212648799 0.16634183987280549
-0.08528291660094471 0.06308030947363744 0.16600804463713698
-0.15953292930124846 -0.07414220546474132 0.4042830934213497
0.14589500967250674 0.04049791380763042 0.11941446840747313
0.0 0.15786402750462825 0.08538501549286606
0.05619681217647598 0.17049349697693233 -0.05626690923946298
-0.08018856550419445 0.06479873679800491 -0.30738689320366
0.10733282939100436 -0.021849384655700403 -0.35513903914019446
-0.15918235599817862 -0.10710580957127461 -0.10456566695080907
-0.14084922666560243 0.07200800744350139 -0.21691248932627313
-0.14347013740492548 0.021476883711599795 0.1363700301007825
0.14000679107081998 0.013891431133841997 -0.2723887276606711
0.1351208412323178 -0.11072280768052908 -0.41153807118166535
0.0 0.17481340780468452 -0.11509434577323122
-0.15158542369009362 0.04053500216714914 0.06334834854549169
-0.1589094916388623 -0.10748905595296807 -0.12409798657449066
-0.13376976527842147 -0.0015249636394403876 0.23705079729525022
0.1546134233279436 0.0541640912341007 -0.040894667275131455
0.00956173230639831 0.1511377885890542 0.11166918266131322
0.0 0.1667546371149735 0.043740969146593645
-0.14257736760793907 0.05628695828845807 0.13290403459813996
-0.15254265658814825 0.06504157724723464 -0.04183865433050085
-0.1392429474759701 -0.02503721746195252 0.21358181322550995
0.11791449158416754 0.13000890339370952 0.10569089232936674
0.15711423842692032 0.05346206157178202 -0.07180075048455466
-0.1460062747510629 0.09764312832037086 -0.041362687050010574
0.14279371637179827 -0.052366923146356034 0.1547066916580748
-0.1528843993294279 0.041522258975290376 -0.15870849045489102
-0.1651394529818287 -0.02998233206444887 -0.18404778751178977
-0.1423371763272464 0.11669241621413004 -0.07094506904708699
0.0 0.00835643500376215 -0.3889680383021646
-0.028497989009243278 0.061570283407518 0.1657360633339997
-0.14360877722503118 0.10843319177178212 -0.0407939988707235
-0.1678327743278312 -0.12541597944319638 -0.029364602745703797
-0.1383899152070395 -0.03992731075254065 -0.36335587688594956
-0.10291754849591832 -0.014861761111137253 0.38808254476110005
0.0 -0.002182840492808206 -0.3965411280934162
0.10766574157049384 0.14976463623068245 -0.05587659840833738
-0.05779867608521319 0.11795430349394564 -0.25638068524744717
0.1691423466413137 -0.12488526267960703 0.07133559168470233
0.1639596899266617 -0.0769697513499544 -0.15949882573511143
-0.1325299544030813 -0.0644877522595462 0.4146934427157835
0.10143931245224352 0.029673411165237504 -0.3238241009198863
0.10884285545712379 -0.0012635790104512943 0.35672080456330396
-0.15847414494260684 -0.10794029766044586 -0.1436338384228883
0.1793089724303388 -0.05319346372991613 -0.1952943910077529
0.15953292930124846 -0.07414220546474132 0.4042830934213497
0.09633259856898702 -0.11749673162977006 -0.4275258033027719
0.0 -0.08511506154520912 0.44307133608468047
0.1347049217720007 0.11069293253388715 -0.17965811524589523
0.0 0.06221932969909565 0.1767813300211469
-0.15563247015852946 0.006907339813994913 -0.2196985315710724
0.12397843836547869 0.06065278803751913 0.16108324032675803
-0.1482916241423594 0.014436276796295612 -0.24481971375175388
0.0 -0.07340926883615703 -0.42801766559448445
-0.12125509310938962 -0.0011814547858026948 -0.3227352926511581
0.0 -0.09903820831977342 -0.4338802755669797
-0.07691772541711472 -0.10423587698946868 0.437455098786131
0.1249339051511753 0.0025106030986682443 -0.3139409361643257
0.15746922701088525 -0.020180408477357886 -0.3170766686560158
0.029968277547306927 -0.10448931411284662 0.44129286094013986
-0.14258443205737123 -0.07119633005153991 -0.38204841008338575
-0.12217965292882065 0.10008654476771148 0.135369527449956
0.026763666673653486 -0.0937001337176144 0.44250353096157247
0.0 0.17223841598667033 0.0010743437450192956
0.17840383984684613 -0.06663181266219997 -0.18505447155586938
-0.16357202826407316 -0.10658922170654955 -0.37908840577132014
-0.06398889990012381 -0.1191400991789211 -0.4328903695903014
0.11248016385849564 0.06407021545031572 0.16363085740322267
-0.1351208412323178 -0.11072280768052908 -0.41153807118166535
0.14635419888559567 -0.10935053837833633 0.1487531268991408
0.1242769113539865 0.09489064221037424 -0.2356235667034687
-0.15803438296545627 -0.10803213550306365 -0.38831281061733386
-0.11973005508822691 0.04741754202640924 0.1950164401178522
0.13499103197400228 0.11861306340349248 -0.14852243742992757
0.16916795527050518 -0.08183274172780217 0.40109614367127655
-0.15242344400398095 0.04116638733514644 0.0516063505330999
0.17206614565003966 -0.09856312409546214 -0.35991019167542443
0.15573931995619053 0.043267177985028375 -0.016789882756498783
0.11292699028507835 -0.015393360930905608 0.4004241379190445
-0.17450867904120124 -0.07146654524231918 0.39207837397115286
-0.14008979835164762 -0.09862228885945631 -0.4005766948315248
-0.1549057149231983 -0.10689917442538457 0.051481839611858475
0.1740954087494212 -0.12351387643359332 0.1720702253060901
-0.07021091373747904 -0.0767534025860952 -0.4125023685291522
0.15242344400398095 0.04116638733514644 0.0516063505330999
-0.17095172875211997 -0.12436072730927084 0.1160879957811153
0.0 0.1523811316891104 0.10616685960985699
0.12855973382221994 0.005825595994698836 -0.30488342893614623
0.11797012412344561 0.07331316447608882 0.15676156338664782
-0.12305564465840571 -0.10357535096756382 0.42820685142328385
-0.17841973485806847 -0.021166782229320103 -0.25245991581261074
0.10023658993642208 -0.10482929074176825 0.43393611991274744
-0.05619681217647598 0.17049349697693233 -0.05626690923946298
0.0 0.06168066542989516 0.22191609744307436
-0.11410763639642436 0.1277297353956661 0.11538243389408055
-0.1546134233279436 0.0541640912341007 -0.040894667275131455
-0.1495482130851009 -0.04450948926546093 0.40452593387057945
-0.12113941274993836 0.08228148303018756 0.1497748228982637
-0.11305326731867782 0.00493635842242851 0.3138731526450311
-0.1797557988569215 -0.034922148329871124 0.35346674254362553
-0.16592713909351206 -0.045481734118558874 -0.17543534059783494
0.09564999614260672 -0.03396756460035353 0.407020567576303
0.12264767270369976 0.009955649743962309 0.28907163680115383
-0.1278833127890928 0.015308736301164612 0.24888021786936473
0.15827369118996992 0.04331839524341137 -0.08744850597673955
-0.1740954087494212 -0.12351387643359332 0.1720702253060901
0.17871555867803923 -0.03021722500806745 -0.2861281987499998
0.0611198503744969 -0.08275465237869614 -0.4193398725232824
0.15874700930192315 0.043032285041409796 -0.07381765079742995
0.16357202826407316 -0.10658922170654955 -0.37908840577132014
0.09695338706283611 -0.04283786391858136 -0.3754431498643371
0.1746181780073994 -0.015187608841194598 0.29088631724903413
-0.13227651727970338 0.12376039787098378 0.06341899303981306
0.0 0.17578035432070835 -0.09897415522527213
-0.1544544732157205 0.016775492614512194 -0.21712442280923724
0.17701479247725208 -0.07957035179716007 -0.3389535024349881
0.14347013740492548 0.021476883711599795 0.1363700301007825
0.12459304546607466 -0.07230279944384849 -0.3909266569072248
0.1651394529818287 -0.02998233206444887 -0.18404778751178977
0.15857216417847775 -0.1063154742910542 -0.026483190433570655
0.0 0.171192877470714 0.011849395241387246
-0.13537869363659083 0.1277959646090924 0.009699153445480349
-0.15453483132801107 0.04255984998563559 -0.14087252175110151
-0.14353460050599373 0.04278238014274793 0.13331288960902493
-0.11882139028001822 -0.048649256632693594 -0.3764357050095524
-0.12861713247385606 0.008676984396745396 0.25897708222024746
-0.1688244464168675 -0.12498504802783597 0.06014903600891236
0.1442110215391209 -0.11000929828788317 0.1681944917363836
-0.08860409089022843 -0.10463060310148939 0.43590975047285097
-0.09695338706283611 -0.04283786391858136 -0.3754431498643371
-0.14386751268548323 -0.0956614014912116 0.16489804302011238
-0.14836580086139686 -0.05452158022315801 -0.36863037144321936
-0.09633259856898702 -0.11749673162977006 -0.4275258033027719
-0.006418052309097054 -0.105073897303356 0.44208761150125536
0.09831064440998556 0.05224785932563336 -0.30949298219061605
-0.1409666731374117 0.0672871891104754 0.13254816295799604
0.11605830749587336 0.007216409476650936 0.3236106131310538
0.13376976527842147 -0.0015249636394403876 0.23705079729525022
0.17884890016107083 -0.04970009348572407 0.23842306659744295
0.10889672188404383 -0.00520995707447919 -0.34244245739828505
0.12125509310938962 -0.0011814547858026948 -0.3227352926511581
-0.1787305706330825 -0.03745563650747149 0.24860823656622746
0.099770336273901 0.04096593358250954 -0.31693096438647794
-0.15843970575162517 0.04294133025497103 -0.060676008741295896
0.1555521120462389 -0.11237412273529127 0.17478385694420998
-0.16916795527050518 -0.08183274172780217 0.40109614367127655
0.16897633207965845 -0.12528528712870182 -0.09653956933972169
-0.10675707676228513 -0.05817125141103612 0.41575840846767825
0.03887831439359053 -0.09247621785349655 -0.42880181948145174
-0.13191181507776928 0.12094609782845595 0.07973168983479792
-0.12264767270369976 0.009955649743962309 0.28907163680115383
-0.17040246780877125 -0.011628892439755262 0.30652259301089185
-0.1782775628132467 -0.06660620403300849 -0.32735367646741803
0.17636133090477937 -0.1229284101869049 0.2056970046030653
-0.08883456855295191 0.08729459295846825 -0.28160871722578973
0.05676373424340503 0.061122573924756285 0.1662561834234408
0.05347346692038692 -0.10387117478753458 0.43972631927856326
0.06844745054798168 0.06377880691124005 -0.31180040798638803
0.10560822067338375 0.13624769529846606 0.11153672423446062
0.1797557988569215 -0.034922148329871124 0.35346674254362553
-0.026397198359361343 -0.09599784589541716 -0.431637312872276
0.1589094916388623 -0.10748905595296807 -0.12409798657449066
0.1771693273085801 -0.020249286859321227 0.2754557935768875
0.04792699105997985 -0.1195674983695654 -0.43515011035240647
0.0 -0.06257593563197394 0.4389386331668799
0.11144168979197142 -0.1158710252041994 -0.4235211435309289
0.027413596021410146 0.15146893465618563 0.11214514994180348
0.10122561285692135 -0.02259733323932798 0.40312187454594206
-0.08023625053786138 -0.11849105288734343 -0.43045401759239293
0.09122765079808855 0.15856252494223086 -0.0560470282508877
-0.16805265531640648 -0.12541068110612227 -0.051751842996148004
0.12523944258911526 -0.04167222976227865 -0.3693429977796862
0.0 0.06223610776649698 0.1880720863260609
0.14350016131501206 -0.08129231134624362 0.16157598567464962
0.15453483132801107 0.04255984998563559 -0.14087252175110151
0.1787305706330825 -0.03745563650747149 0.24860823656622746
-0.177882836701226 -0.09289831870706677 0.21682527857104014
-0.08430890563548873 0.14595778104293927 0.11017681771877413
-0.14153977659759387 -0.04374741178296908 0.20091172316897107
-0.12587524303800765 0.01041660506940929 0.27196065722033747
-0.12234390137811785 0.09114383484280425 0.1426414950841627
0.1428705422593728 -0.06293975477772903 0.19025500120059144
0.16779215374359638 -0.12537800802749863 -0.006980894719975659
0.16852244120364362 -0.08619592230832618 -0.360296087225655
-0.16779215374359638 -0.12537800802749863 -0.006980894719975659
0.0 0.051870794337193014 0.3115118604223391
-0.10282924287801659 0.07474018326138063 -0.2867101327719721
0.0 -0.01261261702318043 0.414357881367757
-0.1376605108031713 -0.016307324076188418 0.2208352366799573
0.1782775628132467 -0.06660620403300849 -0.32735367646741803
-0.134719933727044 0.11515766457499815 -0.16420728128163117
0.10884197240094476 0.0807599772337409 -0.2750228842426794
-0.14635419888559567 -0.10935053837833633 0.1487531268991408
0.1727399175146298 -0.12387328029845332 0.1496688561567816
-0.16094758530003403 -0.08154751458197959 -0.3692025918472225
-0.14309042324794807 0.007133402195823318 0.1395004642553985
-0.16466701792605448 -0.11532971176646184 0.18328592183578762
-0.043641519423209346 0.06523584960661843 -0.3166722289260259
0.1278833127890928 0.015308736301164612 0.24888021786936473
0.14836580086139686 -0.05452158022315801 -0.36863037144321936
0.17901491472272607 -0.023955473642656443 -0.23587347160213057
-0.1715239491561231 -0.12420354330940575 0.12727984979397938
0.15795490790934472 -0.10632607096520241 -0.006978245551438607
0.13581139116430924 -0.00836070152121258 0.2286891383361363
-0.12464337966827864 0.03163644505119276 0.22213068009457554
-0.12523944258911526 -0.04167222976227865 -0.3693429977796862
-0.04658209649933664 0.1512101991957336 0.11199944567226564
-0.17840383984684613 -0.06663181266219997 -0.18505447155586938
0.17768061683623107 -0.019380359579168296 0.31915206248319594
0.1715239491561231 -0.12420354330940575 0.12727984979397938
-0.14102142262051076 0.11911375625699525 -0.03951709963586462
-0.15316874341907144 0.04176686553687814 0.03984492528476973
0.0 0.1759622638935859 -0.08259876144157706
-0.15110239196017117 0.04067010976253877 -0.17616032972080808
-0.13747948428647275 0.1249622373306262 -0.09975389383134432
0.13900010702674037 0.1269605934637421 -0.07292488100044356
0.08132770797512665 0.09870367879137054 -0.27163194851525335
-0.17209616956012624 -0.12404547625336168 0.13847170380684345
-0.08096300577319254 -0.035335418621651175 0.3957668996309078
0.13581139116430924 0.09519971187303028 0.12129007973170566
-0.12397843836547869 0.06065278803751913 0.16108324032675803
-0.014402646279770634 0.061912026148797664 0.16557093182852348
-0.1746181780073994 -0.015187608841194598 0.29088631724903413
0.0 -0.04851326598112494 -0.4200030477137243
0.09260345232499735 -0.06827253104281394 -0.39590885986923985
0.1384411324654225 0.12812622762004483 -0.05556311346478627
-0.15228215501533818 -0.07656972690085961 -0.37647455948142916
-0.08132770797512665 0.09870367879137054 -0.27163194851525335
0.12733935018281817 -0.013954862415286581 0.3984893618308178
-0.17891159714978105 -0.025666836517591784 0.3369756684004792
-0.12733935018281817 -0.013954862415286581 0.3984893618308178
-0.12228650272648171 0.03999457178559061 0.20866407336456314
-0.1771693273085801 -0.020249286859321227 0.2754557935768875
0.17040246780877125 -0.011628892439755262 0.30652259301089185
-0.1482033185244577 0.09581520202980526 -0.0698889338569824
0.15489776741758715 0.042974886389773675 0.004871485314793283
0.0919641196513889 -0.015297107807392737 0.36857318459807287
0.0 0.004352658288098136 0.39954814618945944
-0.11663494318077161 -0.057657312714848113 -0.3836140686887833
-0.0919641196513889 -0.015297107807392737 0.36857318459807287
-0.029968277547306927 -0.10448931411284662 0.44129286094013986
-0.11941921931321285 0.009061996890796897 0.30642015849412585
0.13204957184169597 0.008729967767486427 -0.29567226993281776
0.0 -0.09689414791711964 0.4438872799940924
-0.0611198503744969 -0.08275465237869614 -0.4193398725232824
0.17822016416161057 -0.027460323617175736 0.2610019300387339
-0.14720811421070532 -0.06394202354091358 -0.37516410411176765
0.14532808760557767 -0.03156918401814279 -0.3481196255731867
-0.15746922701088525 -0.020180408477357886 -0.3170766686560158
0.12464337966827864 0.03163644505119276 0.22213068009457554
0.1528843993294279 0.041522258975290376 -0.15870849045489102
0.0 0.058956437117627075 0.2669740389774273
-0.1431275116074668 -0.06687200394289267 0.15819123134047666
0.09084617052875311 -0.052800503730253474 -0.3853589876985213
0.15254265658814825 0.06504157724723464 -0.04183865433050085
-0.17838794483562384 -0.07800292707940454 0.22305965519490165
0.14406884949429913 -0.10940617091761443 -0.40464316853589904
-0.16781776237278787 -0.12534798411741205 0.004210076236709394
0.17450867904120124 -0.07146654524231918 0.39207837397115286
-0.13499103197400228 0.11861306340349248 -0.14852243742992757
-0.12930768240584753 0.09723780553420197 -0.22207836797352376
0.0 0.15519984701253334 0.09576710698957136
0.15382397110390222 0.04228080423306616 0.02808791531733465
-0.1678998865974365 -0.12542392694880752 -0.040557339814746886
-0.11247133329670549 0.0038139940188976406 0.3403983941503499
0.14008979835164762 -0.09862228885945631 -0.4005766948315248
-0.050578808765568514 -0.08800177219441638 -0.4247441763388677
0.0378345419899922 0.1734738115811154 -0.05621922420579605
0.0 0.17379965931117275 -0.020433372551123777
0.11305326731867782 0.00493635842242851 0.3138731526450311
-0.1330898120205782 0.1255485866334936 0.04594507736942059
0.05779867608521319 0.11795430349394564 -0.25638068524744717
-0.1384411324654225 0.12812622762004483 -0.05556311346478627
0.1704775275839877 -0.12502390249971274 -0.1413458398630547
0.1342995989858318 0.10354989110181698 0.1142141505692408
0.08018856550419445 0.06479873679800491 -0.30738689320366
0.1325299544030813 -0.0644877522595462 0.4146934427157835
-0.15533929550709577 0.043162977355904346 -0.0062753328329409105
-0.17884890016107083 -0.04970009348572407 0.23842306659744295
-0.13559769156898707 0.12128960668209363 -0.13251881029759874
-0.06844745054798168 0.06377880691124005 -0.31180040798638803
-0.11605830749587336 0.007216409476650936 0.3236106131310538
0.07021091373747904 -0.0767534025860952 -0.4125023685291522
0.15899514808822696 -0.10639318323480773 -0.04599519976513484
0.0 -0.024620414945456397 -0.40960859343051276
-0.09260345232499735 -0.06827253104281394 -0.39590885986923985
-0.16158956714217954 -0.0925353826174907 -0.15159723904526548
0.17045721729187033 -0.12450201629791358 0.10489879093678829
0.17092258789821238 -0.12494266133124315 -0.15255005666242502
0.0 0.041586722076358634 0.34361448475433054
-0.006500176533745654 0.06838482794099379 -0.3199006823165128
0.0 -0.11999224839167269 -0.4391688990231138
-0.10766574157049384 0.14976463623068245 -0.05587659840833738
0.1692818695175984 -0.1252367190388559 -0.10773848780201789
0.1438701618540203 -0.0913962401465585 0.17650669954947254
0.17209616956012624 -0.12404547625336168 0.13847170380684345
0.08528291660094471 0.06308030947363744 0.16600804463713698
-0.11906334767306892 0.09153856095482493 -0.24907781064697485
0.1621723842203309 -0.08961776500201785 0.40842109467622434
-0.16996270583162068 -0.1246424222303773 0.09370958609246127
-0.06520398520245148 -0.10392327510209659 0.4386966757738292
0.16158956714217954 -0.0925353826174907 -0.15159723904526548
-0.13298914361617026 0.0546568365819923 0.1561593190725581
-0.1426303509786801 -0.042606503199678854 0.1522862346713886
0.16561806943085602 -0.009766526958207972 0.32228249663781194
-0.1443019763255597 -0.09904968805010064 0.41976041907098427
-0.09784439074746447 -0.04706770301607378 0.4118579493249593
-0.11797012412344561 0.07331316447608882 0.15676156338664782
0.14865191106339842 -0.030835364333379495 0.4002254502787656
-0.14962768814121247 0.039535382572501665 0.08665749944682986
-0.16843766781045796 -0.12536652829717143 -0.0741434985274873
-0.05676373424340503 0.061122573924756285 0.1662561834234408
0.08656423111669868 -0.024305163889547256 0.38266941038372454
-0.13839256437557654 0.12615171400376235 -0.08476313213634822
-0.09564999614260672 -0.03396756460035353 0.407020567576303
0.16828401603530896 -0.12516254231981844 0.0377750416011534
-0.15065468247740949 0.039954834257534835 0.07505060902982771
-0.1555521120462389 -0.11237412273529127 0.17478385694420998
-0.1428705422593728 -0.06293975477772903 0.19025500120059144
0.17871467562186022 -0.06344662902448492 0.23009319766077369
0.028497989009243278 0.061570283407518 0.1657360633339997
0.1365734686468011 0.12869138357461585 -0.008179201954902007
-0.16828401603530896 -0.12516254231981844 0.0377750416011534
0.0 0.160365725659784 0.07500998844559291
-0.10261201105797836 -0.032401022938776995 -0.3654381233560721
0.009061922509074569 0.1314147288307049 -0.24846496965873693
0.1552289134847186 0.06400928457396353 -0.07072077277761661
0.15918235599817862 -0.10710580957127461 -0.10456566695080907
-0.13313573094188713 0.1000927261609646 -0.20843161778299188
0.0 0.018400315983903855 -0.38072912415193405
0.09360925331289796 0.07548371656411312 -0.29183362472262997
-0.14283257084367507 -0.0027947984248671304 0.1419703723881096
0.1575902057074106 -0.012368893517771679 0.3540124712622582
0.1654723651613182 -0.061253117475806175 -0.1673862835260931
-0.14253939619224135 -0.032757777635099954 0.14977923817915878
0.018845301916406196 0.06773136636852106 -0.31928077687884276
-0.17822016416161057 -0.027460323617175736 0.2610019300387339
-0.17480626897353005 -0.1233275515798207 0.18327532516163944
-0.16776654511440486 -0.12540803193758523 -0.018171865676660712
0.15843970575162517 0.04294133025497103 -0.060676008741295896
-0.15160220175749492 -0.10875006017660466 -0.3969270236436467
0.15351136921653014 -0.1072585782902446 0.0709496961344718
-0.15666652894415858 0.04329013744568282 -0.03862079761416216
-0.1405251450479031 -0.019579930275626184 0.398191771898489
-0.15151654530813027 0.030059306715468026 -0.21374231764360135
-0.05862168444405723 -0.07348874389226859 0.4282563025693088
0.16843766781045796 -0.12536652829717143 -0.0741434985274873
-0.1793089724303388 -0.05319346372991613 -0.1952943910077529
0.12441643423027121 -0.11320419554356742 -0.41795788960312047
-0.17158752920101236 -0.11885575508927754 0.193619445242647
0.1495482130851009 -0.04450948926546093 0.40452593387057945
-0.17701479247725208 -0.07957035179716007 -0.3389535024349881
0.0 0.036949794080339285 0.3538535211500351
0.15160220175749492 -0.10875006017660466 -0.3969270236436467
0.12861713247385606 0.008676984396745396 0.25897708222024746
0.016199665604070646 -0.11994544641418478 -0.43861522279886994
-0.17887627490262034 -0.05309544449404522 -0.3148990521185594
0.15228215501533818 -0.07656972690085961 -0.37647455948142916
0.0 0.15390175442937806 -0.19498532134509688
-0.12855973382221994 0.005825595994698836 -0.30488342893614623
-0.14361849084300038 -0.08198197822205608 0.18088665819739788
0.14962768814121247 0.039535382572501665 0.08665749944682986
-0.1692818695175984 -0.1252367190388559 -0.10773848780201789
-0.17968780353113717 -0.031033168917479342 -0.22063545417700967
0.0 0.049008809260998244 0.3223990600534422
0.14102142262051076 0.11911375625699525 -0.03951709963586462
0.14264006459664932 -0.012812187719638317 0.14456920672295726
-0.099770336273901 0.04096593358250954 -0.31693096438647794
0.1443019763255597 -0.09904968805010064 0.41976041907098427
0.17003335032594205 -0.12510602672436133 -0.13014162306368443
0.0 0.04559579712909675 0.333114946785816
-0.16304837594991595 -0.01711355436763113 -0.3011127790517428
-0.1485009084567865 0.03940292414564908 0.09805422249322591
-0.16965805144985974 -0.12517137288160862 -0.11894005543285116
-0.09084617052875311 -0.052800503730253474 -0.3853589876985213
-0.09122765079808855 0.15856252494223086 -0.0560470282508877
0.15929185496437676 -0.10679409074008153 -0.08503776260802258
0.08430890563548873 0.14595778104293927 0.11017681771877413
-0.1342995989858318 0.10354989110181698 0.1142141505692408
