-0.1993410155946289 -0.007554922255781249 0.1697899174043321
0.19241716295360303 -0.11448489107303725 -0.09130428328853737
-0.2036527388029705 -0.05859019110979877 -0.037864321857219704
0.05397886207310233 0.036051786203675884 -0.07185039494084437
0.17790000236553885 -0.11472475936485257 0.06853617526622369
0.1888410013018908 -0.11481863438532111 -0.18924732492553004
-0.15356191896834676 0.01841136431099441 0.377046172169615
0.1337627860641403 0.0422765497022059 0.30586403909936843
-0.05465639933451933 -0.05284495696527364 -0.38742474617152567
0.0849208355691494 0.0317097038551607 -0.23257530953834213
-0.18599770722167305 0.010001675253280995 0.07336773399078014
0.05060858305458103 0.11354530475601946 0.13673803547362617
-0.1451092297632885 0.03584227705203419 0.14972594503840644
0.0 0.10902148202571418 0.133104367600766
-0.12467369467837805 0.05906598313671063 0.33854207878520626
-0.05782483669755197 0.10564032345184057 0.22231910463044172
-0.0003310493271490007 -0.08170168235212706 -0.4007501291818535
-0.0 -0.04488101883256648 -0.3906410535781085
-0.19204456408648948 -0.11459855652276572 -0.13423417979026767
0.06324689624070692 0.04095069455660383 -0.14218506245655205
0.1580217077442927 0.017692277509612858 -0.2863448696894285
0.0 -0.1027967257210135 0.44332804989436614
0.19985152577768467 -0.07232132972736144 -0.1444708052286669
-0.0 0.03509656124374269 -0.23186534084049396
0.03415206401385713 0.07982956271919656 0.2930414987759433
-0.13466361324731194 0.08560277286319909 0.06895312127324953
-0.03773568593209667 -0.11512025710561243 -0.40776329779158116
-0.0 0.05102899656092366 -0.05535191190090438
-0.18101880823320238 -0.09499805321484867 0.08714601734820285
-0.17783886962594014 -0.11502710738883404 0.3574028759439788
-0.1337627860641403 0.0422765497022059 0.30586403909936843
-0.18371548735319607 -0.08577685294266546 0.07567917323648904
-0.1447323826888469 0.061491709521025284 0.009198355071009821
0.042689510135850574 0.09780372792416192 0.06580240204321922
-0.12086636837913234 0.025144772925948328 0.4498295685580964
0.2070250901177494 -0.037644353071458345 -0.03842695029115367
-0.13119852667500617 0.03861646005206151 0.4014376171954398
0.1965353336914863 0.02453417083365131 -0.248491580944714
-0.20460547700739462 -0.021685288747367415 -0.14431859506854738
0.19268252048938664 -0.07958016905842571 -0.21530406722394918
0.12794274202471637 0.04341113190323298 -0.08901802244235812
-0.05855956933567828 0.10260316605672584 0.23439779421220713
-0.19201451579075451 -0.11445505000692804 -0.07287877195867029
0.1845357022119477 -0.020308765958267402 0.08703276635772589
0.19127667470824183 -0.11443805717761586 -0.05444165576976073
-0.047183180955608015 0.0422765497022059 0.35733666607854897
0.1454600695196974 0.0386534505402594 0.06437914897351071
-0.1893059209672797 -0.1144408547775636 -0.02369592872930687
-0.06981773321425341 0.11274342971914739 0.17625724317981228
0.1690152393907744 0.007682464896606178 0.4268628272093603
-0.192320283103561 -0.11447359705843342 -0.08516386224769104
0.20289552175044942 -0.012801043846667318 -0.2140018362556836
0.08630813429878882 0.09366814989771496 0.0686575082121052
-0.18164132602898053 -0.11513020412764882 -0.2500360633454911
-0.1580217077442927 0.017692277509612858 -0.2863448696894285
0.2041571357120664 0.020805384562568002 -0.07635453085670259
0.18649692339012497 -0.09972102361550773 0.2933610468588628
-0.2010063128672232 -0.014167515998918037 0.2936972769266557
0.14654491661054247 0.032453036522755996 0.22086041529472855
0.18371548735319607 -0.08577685294266546 0.07567917323648904
-0.11445841389143195 -0.11418140328611412 0.4148105594048792
-0.1949966537202304 -0.06122739532719981 0.13542596109813704
0.19558736176845462 -0.08957848042720282 -0.03700483698438685
-0.12941345067872356 0.04417549837784274 -0.14615071218987716
0.07975491184343178 0.01829272535024773 -0.32840129331858725
-0.05441394067238203 0.08140678740084353 0.2928657680533002
0.10125550358992738 0.0422765497022059 0.33759421047698746
0.06954823108595465 0.0422765497022059 0.35161712840761794
0.13828764494257437 0.07807660731490651 0.049023019245563765
0.1447323826888469 0.061491709521025284 0.009198355071009821
0.05855956933567828 0.10260316605672584 0.23439779421220713
0.11292108091274344 0.013533489765080925 -0.3325271315526236
-0.031515688714959106 0.04120113155933283 -0.2156734540318635
0.051817249846816744 0.1139975834142371 0.1489260386829791
0.07510281397478208 -0.06625219567777596 -0.3881268401435951
0.13816123487086177 0.040033185388558656 -0.04068906888593207
-0.12085735389041186 0.04312950684182737 -0.10829027402307392
0.07653559960727546 0.01576897935294938 -0.3377968773208462
-0.14682498744975495 0.03999588405592214 0.017011533650977753
0.1991768897310283 0.008155777361838285 0.35135715884210406
0.02185257126584618 0.09394065685558722 0.05319196124175783
-0.1286222479675781 -0.10097144717733375 0.4147190675251068
0.07695306368836571 -0.11461316621138169 0.42957090395877073
0.18472873660834163 -0.08715669140577759 0.05540040736346481
-0.14147981009775634 -0.11420772144858543 0.4002004563296624
0.11744158796903659 0.04281006237372084 -0.11796706862748693
-0.19727928804795888 0.012261721551801802 0.013391024859353222
-0.0008033256442523326 0.019827675188240024 -0.32275490770554893
0.14522289521301696 0.03823826598505248 0.07859800251529572
-0.04675400840066242 0.10859531430034206 0.10067334562883215
0.0861439048203753 0.0365515204461922 -0.06225825363855368
-0.14528268096004823 0.03526389916654257 0.1639544347577892
0.18475101379311065 -0.11508513168404638 0.27374531217345244
-0.0 0.014873022065983066 -0.3434499978967217
0.12799641449778779 0.04551036801216529 0.3806435748579674
0.08126882787440959 0.02374731994464674 0.4594215026307613
-0.11070413837638038 0.0422765497022059 0.33109030867256095
0.04087117378463373 0.0038827024787006503 0.46422798657060105
-0.2048629598173994 -0.011509174359689636 -0.14428087927665934
0.1941383086103392 0.026038243457405574 -0.21378994396334566
0.20365584724735686 -0.001539771523705824 -0.2136582495361762
0.1505478676765041 -0.11542695695173481 -0.3422801866593157
0.20321051078160213 0.028563854521335752 -0.16280150900474952
0.2043073771907412 0.018944773367696455 -0.06407700444902203
0.1266991570405404 0.08259949751189585 0.24214113640829452
-0.1430561022460874 0.043883511835149186 -0.07559700295974288
-0.19464063322317748 0.02209279861259189 -0.2604044868258727
-0.20467241217651458 0.008854141200643983 -0.1441978838115431
0.20225041592546358 0.028797091465126795 -0.18746546098844666
-0.12964212857074792 0.09103799148758968 0.1658381520559328
-0.19969900477312652 0.008095577155555478 0.337233527313355
0.18103621552176608 -0.0063831423369305335 -0.3173696314209661
-0.1852521986430073 -0.11507435574350694 0.2409617926081036
0.14147981009775634 -0.11420772144858543 0.4002004563296624
0.053580773962020496 -0.052889200490373045 -0.3875957106127764
0.12895402259841726 0.08940232805147885 0.18773880059495493
0.0 0.022628590809990162 0.45446239407155054
0.1485914127797193 0.028605196831674506 0.2777273330472124
0.09128568629469205 0.024178979255101457 0.45750680450356684
-0.0 -0.025581309326437693 -0.3824266784426724
0.1461695201434812 0.0394598846288981 0.035952632289731674
0.14551571067421354 0.03464086329670002 0.17818271724754622
-0.11138809975619589 0.038338875968358166 -0.22233795879625282
0.10344219060092973 0.034256763185356864 -0.25170550521060053
-0.0 0.039989252707897854 -0.15926824388556926
0.09738341803263217 -0.11526697568064935 -0.3912094844415638
-0.17973688576826108 -0.11519796821527181 -0.2621413819341665
0.09592825160055687 -0.05144325577664399 -0.3776914814940936
-0.16539659566578166 0.017721911346096297 -0.278479883703021
0.0809018242071915 0.02870684296310902 -0.25248551752195514
-0.1901505889218708 0.010678901670259339 0.053674080966084683
-0.15448896069917684 -0.012286492685909284 0.43143161876845526
0.1846596255281512 -0.11504948818841594 0.20350265461158148
-0.09339466219603501 -0.04974407646023822 0.44616699215244293
-0.1243588092620382 0.04333114126769025 -0.09864031565519665
0.15701716213342898 -0.11543120515906287 -0.33185239189115434
-0.10125550358992738 0.0422765497022059 0.33759421047698746
-0.15200023650863165 0.02184847488382277 0.34870327263982936
0.1457747477064115 0.039058998917868515 0.05016381833536361
-0.09583883201704214 -0.11435589063100267 0.42280796512214625
0.0 0.10909567023173564 0.14472000258377432
-0.18812875307815927 0.010333346269307264 0.06354774371496813
-0.03588087716674636 0.0422765497022059 0.35945610707599274
0.19142764149060681 -0.08811854771373508 -0.006009398244894132
-0.14741673164610797 0.040405473411233545 0.0028118488495754088
0.14441884426507445 -0.05096766378552853 0.4270485049540399
-0.19095640132163227 -0.114435363192481 -0.04829387807719997
0.0 0.04872677903356101 0.3395958414321876
0.1394289621064386 0.04450416456429551 -0.09582137105600552
-0.18817517251432914 0.009453345663524348 0.11401572146847211
0.06533763593498315 -0.06672758043926567 -0.39033279950979294
-0.19558736176845462 -0.08957848042720282 -0.03700483698438685
-0.06456228629020819 0.08168602932155294 0.29287115602356995
0.19249984757428062 -0.07923917270924032 0.29337752161411057
0.19636022465772046 -0.09237224662686432 -0.14451494513895344
-0.14935888769871544 0.043168362396657056 -0.03120789904823501
-0.05022251426179319 -0.11514108368300115 -0.4059616434252379
-0.1251509445064996 0.07640063771658565 0.2744555917157393
-0.19727182778143157 -0.05754730801816975 -0.21499902521483288
0.13231725580966275 -0.09012100758743824 0.41800365709337706
0.10879576075277153 0.037091975310170056 -0.2321590888350065
-0.19304973138623047 -0.087640054507859 -0.016339277014884628
-0.18311079130523314 -0.11501353384834687 0.17076514002315102
0.09037884945237341 0.10734126422006529 0.17648654276071393
-0.20289552175044942 -0.012801043846667318 -0.2140018362556836
-0.19322048859785534 0.00941189973837267 0.1447926365676026
0.084867992014581 0.08033033310984167 0.2930240914873796
0.16386361450923412 -0.11462642890743022 0.3810739907906676
0.1251509445064996 0.07640063771658565 0.2744555917157393
0.11802763335068128 0.04111202282025672 -0.19600518663632346
-0.13563728164393765 0.01642537919253903 -0.30966359055751524
-0.11087862572126893 0.04183359637714737 -0.13739785087190787
0.0 0.10772629686472432 0.1678737686697573
-0.06992300586413866 0.0103640162539195 -0.356444746039152
-0.19645099123380264 0.008037138401091604 0.3848614230458405
0.2038348936440121 0.02646420395315191 -0.12571051443838716
0.14748045475602867 0.0306787364670128 0.24930091997824627
-0.01262297819381977 -0.11509580400977294 -0.4099130979291986
0.19249860419652606 -0.11451141646513432 -0.10357994462958611
0.1849480891672069 -0.07209638196860071 0.0872158537320834
0.0 0.05684676107446421 0.3178437765348342
0.200503055721069 -0.02536962426372552 0.2936025729876841
-0.1849480891672069 -0.07209638196860071 0.0872158537320834
-0.1411838861921734 -0.0620653283189538 0.4249417049637674
0.14506063441604813 0.03780847174122964 0.09281975727184133
-0.18575224372996224 -0.0617870189315603 0.08720880792480762
-0.20392193008683063 0.025336460329774824 -0.1133478166545199
0.1842475494173307 -0.11508741120992973 0.28778988559997465
0.09205575158401016 0.027207225776308547 -0.2903744497623001
0.05091217445631705 0.02228427878679265 0.4634499429406913
-0.14335523821086962 -0.11541379787049916 -0.3521767482818454
0.1938934668075057 0.011423995789673569 0.03371538125004428
0.17213539225100533 -0.11485562487351898 0.3698040148234242
-0.07444144062417422 0.022013947739990825 -0.2924801099896309
0.09762939959840736 0.010792774349613565 -0.34749118282863567
-0.14732886628478642 0.052524469155208975 -0.01088488965011137
-0.05249831001187164 0.04000997567047371 -0.2156734540318635
-0.14002029184354012 0.0741133407222776 0.039080141801677036
0.0 0.04321074085512466 -0.14459783698925677
-0.09113585927526875 0.0422765497022059 0.34314723914362166
0.13074821669823325 0.0927369635743697 0.11095794472559443
-0.19472549375492557 0.009428374493620467 0.1552514121648148
0.1901505889218708 0.010678901670259339 0.053674080966084683
0.19835822909446985 0.00824509333054016 0.3666916330741592
0.18624804060958916 -0.08231487481474609 0.12009148686608184
-0.06297832664572407 0.039207686174350165 -0.2156734540318635
0.09339466219603501 -0.04974407646023822 0.44616699215244293
-0.1049881236090872 0.07678266553167121 0.29323795246116224
-0.13753446886775555 0.04465430242815746 -0.10591656227482465
0.0 0.09912346979580411 0.06377113725153566
0.021096701205892517 -0.05423795450962142 -0.39116296139058093
0.07084673192095661 0.03862733960741385 -0.0932721358147389
0.17870923405412528 -0.11492276727226469 0.11946586062591731
-0.02167197064699776 0.002746980514731878 0.46534112050536214
0.08602029234861043 0.022985025766294576 -0.3094738718351334
0.06512108097606566 0.09386615780512705 0.061686096371967786
-0.1495035339774948 -0.03233502644471595 0.4297442515407176
0.15691116417985357 0.010057523637422877 0.4336269058089265
0.20067339847344237 0.019130969186440333 0.2816807562326178
0.1918951515263177 0.007879747500328133 0.4009217190421144
0.19749698276981803 0.009522456743714741 0.17656622255181803
-0.1899342411925791 -0.08840359206396572 0.004289396081232605
0.12052547564475984 0.014666724973540629 -0.32495972730880507
0.18449446351642182 -0.08336096996557435 0.10881933498776802
0.20790571241240957 -0.02712568811240197 -0.03869707410832972
-0.05920115225702621 0.09915341447672621 0.2463759774254797
0.0 0.10180553922718188 0.07521207766002966
0.11411430909786016 0.04237674522626006 -0.1276697669351197
0.09563129154684513 0.0072795068893189985 0.45652598668485245
-0.044629697507013344 0.11509299921599583 0.1761669946777945
-0.02712811946358996 -0.11559419125972183 0.43959138889750404
-0.1718448563156921 -0.11537556400454674 -0.29809074849222594
0.19727928804795888 0.012261721551801802 0.013390921244540343
-0.1455562240660493 0.03878949678956975 0.05964032550648113
0.20010496760998714 0.010649578678214533 0.3268070795377611
-0.08284812485231415 0.030240134964095194 -0.24252243518955693
0.1512566966114106 0.02339969224743707 0.3345204770529264
0.13546331237311351 -0.11539328213754908 -0.3614712042267342
0.18411430076796806 -0.11503591464792877 0.1894659559108381
0.0 -0.047139407294081226 0.45554496163651237
-0.18498425073690172 -0.11499933861898241 -0.22577009585806299
0.04673597942322144 0.0361698034755453 -0.24279680721406102
0.12856184053166952 0.08836110279685591 0.19866550068712954
-0.010933124210573117 0.09392915561135762 0.052351023420430354
0.14580541769102373 0.03396798870186257 0.19241017081880019
0.03274559654383505 0.09394645928510842 0.05457128163080556
-0.2070250901177494 -0.037644353071458345 -0.03842695029115367
0.14801531442011104 0.029681961967115034 0.2635161470015805
0.18523862510252012 -0.11507642803976453 0.24564549299468144
0.1505414435581056 0.024845844190791888 0.320331050117999
-0.1951389168583135 -0.06860166155981151 -0.21516574144875553
0.14985706771903856 0.02619221506934402 0.3061353026794861
-0.07346404209428485 0.03835897724205675 -0.2156734540318635
-0.19985152577768467 -0.07232132972736144 -0.1444708052286669
-0.1269638928874467 0.0422765497022059 0.31506534532747876
-0.17818877684903314 -0.11491209494653815 0.114814280831332
0.14002029184354012 0.0741133407222776 0.039080141801677036
0.11109611321350235 0.024889155182575395 0.4527263278817598
0.18642377133223226 -0.11493665165719051 -0.2136114156407548
-0.20005212405541875 0.021312889916050265 0.24984489774586202
-0.11109611321350235 0.024889155182575395 0.4527263278817598
0.18994978341451096 0.009427027501053037 0.12419100693764686
0.20419060329662633 0.009728442991718572 -0.21327238797301412
-0.0476432307247916 -0.1151462644236451 0.43690538210323693
-0.09496608444816075 0.07880346522725398 0.2931330942705286
0.06129375701793426 0.041088191413294506 -0.15442041763539077
0.1466469772012285 0.03986118479917916 0.02174590168105354
-0.19155975037702777 -0.1144423053849439 -0.060588500929005584
0.10773743905402351 0.04118455318927214 -0.14715028428972265
0.19064534965336896 -0.11471201474286843 -0.16482707498172475
0.18347271784662014 -0.08509973014049999 0.08573488721160119
-0.14748045475602867 0.0306787364670128 0.24930091997824627
-0.18284346508800484 -0.10971923136947195 0.29335959625148245
0.13280020445249263 0.0891542741894461 0.07896386641957212
-0.14325659690900863 0.06581524481803508 0.019179569995661852
-0.14168123729399348 0.07002428574681341 0.029136228209661514
-0.12813919570993532 0.0871647661673528 0.20957230673523136
0.19304973138623047 -0.087640054507859 -0.016339277014884628
0.06265898579243041 -0.1151671946158467 -0.4037168285042103
0.040618975330085794 0.03080483569428677 -0.2790005481377389
-0.1924830619745942 -0.11452644061300181 -0.10971497770016275
0.2028009214262907 0.028803619198338182 -0.1751442091297311
0.06981773321425341 0.11274342971914739 0.17625724317981228
0.12041533309866927 0.04194643290837283 -0.186080959858755
0.18170701782034593 -0.11508875820249716 0.3298746996878623
0.12768712428134343 0.08580886272601579 0.2204559030652482
-0.18051948844993757 -0.11508824012843276 0.3438790705669874
0.15478509183438555 -0.011027883553865817 0.43149451295987284
0.13160635457849865 0.04336543777075327 -0.07942422330306138
-0.042689510135850574 0.09780372792416192 0.06580240204321922
0.11767772612758827 -0.11533598314602689 -0.37796999811111276
-0.2055847406039158 -0.04813701071248204 -0.03814853728894731
0.17518042437189887 -0.11532924818318975 -0.2862470573060706
-0.06518065949347118 0.0406308356292458 -0.12994908558883603
-0.1383482596081087 0.028583852180221414 0.43224230106442196
-0.0890666714620714 0.02515471994798474 -0.29994493556869906
0.045538399415963805 -0.06749039269168225 -0.39356993349376457
-0.043597486741110886 0.0939401387815228 0.05646349534360527
0.19834973267981373 -0.04172201041750585 0.14425145639993464
0.0 0.07056805628480337 0.2851885321078298
0.12813919570993532 0.0871647661673528 0.20957230673523136
-0.1982179346378314 -0.0823660605323084 -0.14449401494675182
-0.04877097434816866 0.037504155035803455 -0.23066713914435907
-0.20153485202771992 0.02853453152929092 -0.199758633232872
0.14495059548477046 0.03688474568441169 0.12127010536258259
-0.19900582167496475 -0.0006086888151734526 0.1776302430652744
0.18508164866100815 -0.11508150516559561 0.2596964905396022
-0.12523570142343476 -0.11055177639095622 0.4115481434065651
0.0 0.05263761653087301 0.3287164933094987
-0.12993577295044753 0.09164175500223667 0.15487052411267094
-0.084867992014581 0.08033033310984167 0.2930240914873796
0.12993577295044753 0.09164175500223667 0.15487052411267094
0.20815832532620904 -0.01659438214617434 -0.038956007525714806
0.09104384932143203 0.03528648719575023 -0.2061331201360124
-0.1404137172880424 0.0077732314726883245 0.4427431442756631
0.03773568593209667 -0.11512025710561243 -0.40776329779158116
-0.1449976366098176 0.03638086684938019 0.13549766254864942
0.07548225141954566 0.03626761585890323 -0.06578581994302558
0.19915564869438804 -0.03242392795416629 0.14969838349818057
-0.18067791549882986 0.00773831328074806 0.4167406961391926
-0.20419060329662633 0.009728442991718572 -0.21327238797301412
-0.1460943994041438 0.05705958590011806 -0.0008192286529628071
0.10638205368675088 0.007685780570618306 0.45398182856941693
0.051878071741976825 0.004615155590943609 0.46327079292922313
-0.20117396163446172 -0.0028310193218062385 0.2938138435911448
0.09617827414403435 0.03760776984868264 -0.18638838500856753
-0.09738352164744504 -0.11526697568064935 -0.3912094844415638
0.02520202370697876 -0.11510512934293207 -0.4090915360778794
-0.19197866506549832 -0.11224981594442032 -0.14454965610126796
0.12425415830103023 0.06540524100347214 0.31728114810090025
0.044057018436230076 0.10208581729602004 0.07725805575514208
-0.09696439972934874 -0.05141994244374619 -0.37735659841886804
-0.0 -0.1004250862690218 -0.4099887367426004
0.18432484606773858 0.009530745928745088 0.09383456074918008
-0.0006261443142289237 -0.06849690698399066 -0.3968227133144808
0.2012970560321622 -0.06899042433773422 -0.03757720521073146
0.018941720327631195 0.002609483658041173 0.4654482582218792
-0.02185257126584618 0.09394065685558722 0.05319196124175783
-0.18706639040170897 -0.11447359705843342 0.0009077194332945959
0.19562766793066463 0.011829751396908478 0.023605165883357662
0.18357187722254553 -0.11508865458768427 0.30182772406365965
-0.04541395802569591 0.10567586333265813 0.08888881850083075
0.1274921212035048 0.007915494610771456 0.4476834985537427
0.13119863028981907 0.03861646005206151 0.4014376171954398
-0.05060858305458103 0.11354530475601946 0.13673803547362617
0.20055413782381842 0.020295496068389512 0.2710196209058525
0.1492062630793444 0.02744367477929885 0.2919338564262648
-0.1480944761371507 0.042158946889588045 -0.045197142164679724
0.0 0.03455973289821562 0.39979946700381985
-0.18083478832552893 -0.11463109157400979 0.050102271136513374
0.021419668577636938 0.03649536121761168 -0.07808707414285547
-0.18539176779595556 -0.03066765687586409 0.08709182680106703
0.20117396163446172 -0.0028310193218062385 0.2938138435911448
0.01262297819381977 -0.11509580400977294 -0.4099130979291986
-0.20067339847344237 0.019130969186440333 0.2816807562326178
-0.013097223192367804 0.0422765497022059 0.3620531087459966
-0.19951229088031822 0.027202873954167622 -0.22423473156081916
0.19180573194280295 -0.11444790058483939 -0.06673420632530878
-0.18170701782034593 -0.11508875820249716 0.3298746996878623
0.17783886962594014 -0.11502710738883404 0.3574028759439788
-0.1746415237301142 -0.11483873565901967 0.0869575420035756
-0.12274759892176686 0.04266956068745664 -0.17613196914090837
-0.14495059548477046 0.03688474568441169 0.12127010536258259
0.04201041865224038 0.04067590807284824 -0.2156734540318635
-0.1256277798753696 0.07868130336286944 0.26370286089438877
-0.13816123487086177 0.040033185388558656 -0.04068906888593207
-0.0 0.037564251627273365 -0.20578922257206642
0.0 0.0324196725530089 0.41075590454729083
-0.18432484606773858 0.009530745928745088 0.09383456074918008
0.05932341773622365 0.04103824907348674 -0.1666518354513401
0.18770921670081145 -0.11487634783609482 -0.2014367787422633
0.09891132206334866 0.03864112037752676 -0.1765462211627994
0.07908493846335497 0.027113557985465775 -0.2624636240022208
0.1899342411925791 -0.08840359206396572 0.004289396081232605
0.19885485489259977 0.012723014698739932 0.0030602135560468154
0.0 0.027729029973968117 0.43262671202020375
0.15348969944376997 -0.11439267388957478 0.3912077267198778
-0.02520202370697876 -0.11510512934293207 -0.4090915360778794
-0.06533763593498315 -0.06672758043926567 -0.39033279950979294
-0.0 0.04588928738286449 -0.06578250426901346
0.147179142880176 -0.041050793659674484 0.428616197072902
-0.07325836669071968 0.013126283550465745 -0.34714521296843215
-0.13358291074898201 0.04463171439894981 -0.12606591324656277
0.05610151512974535 0.11039147708160277 0.19794558496724496
0.043597486741110886 0.0939401387815228 0.05646349534360527
-0.04673597942322144 0.0361698034755453 -0.24279680721406102
-0.020342281753319157 0.020810876147650592 0.46523014904076854
0.0 0.08446850150661064 0.25231818332928824
-0.1308550435703117 0.09270380683424836 0.09998523965650147
-0.0 0.03374034695796699 -0.24342523105417327
-0.07695306368836571 -0.11461316621138169 0.42957090395877073
0.14143194005420617 0.025402462965578854 0.4423959310377049
0.13041664929701985 0.09244414811317311 0.13291630671539026
-0.054394150243122115 0.09391547845605755 0.05884352759544018
-0.20488575507623283 -0.0013276720017421362 -0.14424057311444935
-0.010524571003390484 0.036817706900478836 -0.07930102529054803
-0.055474231052574756 -0.06713841317233164 -0.3921316562761885
-0.2040589088694569 0.022497310842072238 -0.0886632453230598
0.07325836669071968 0.013126283550465745 -0.34714521296843215
0.0 0.10867022781005373 0.15631460375976813
0.2042212732812386 0.019031706195702075 -0.1441526041383149
0.18340588629231305 -0.009995880017589123 0.08696976855149534
0.20411496448322455 -0.031851559727821666 -0.14435392771973918
-0.13562723100708837 0.03186015256346128 0.4220295070329849
-0.12768702066653057 0.08580886272601579 0.2204559030652482
0.1982179346378314 -0.0823660605323084 -0.1444941185615647
-0.18649692339012497 -0.09972102361550773 0.2933610468588628
0.08017548436890841 0.11032112262365781 0.17634396877819217
0.1949966537202304 -0.06122739532719981 0.13542585748332417
-0.08635569349790036 -0.11523164302945756 -0.396429805944043
0.12616564436902547 0.08073691763557961 0.25293645291773836
0.13053093643562558 0.025318638581959624 0.4465746128263096
-0.09037884945237341 0.10734126422006529 0.17648654276071393
0.18981953959472184 -0.11476371853449514 -0.1770437794942452
0.06050441937342062 0.08654473512708377 0.28149673632494443
0.1993410155946289 -0.007554922255781249 0.1697899174043321
-0.1844974683459953 -0.1150452399810879 0.198822891587893
-0.08654551583509502 -0.051688304809103275 -0.3805027585971317
-0.08630813429878882 0.09366814989771496 0.0686575082121052
-0.12428928372259627 0.06839463196984955 0.3066084079150925
0.028505160326754344 0.013494841439877003 -0.35026785258417215
-0.08602029234861043 0.022985025766294576 -0.3094738718351334
0.18880110959893232 -0.1144463463626462 -0.01754524982198548
-0.13041664929701985 0.09244414811317311 0.13291630671539026
-0.14313930494082938 0.01703722466259064 -0.3019386917981203
-0.1996512383443892 -0.03643382121259081 0.2935273486335338
0.18599770722167305 0.010001675253280995 0.07336773399078014
-0.11483381035849324 0.047009985198965765 -0.2156735576466764
-0.13019429190858112 0.09210895419350895 0.14389543590288173
-0.0004428497102456429 -0.05498936913262127 -0.392050629492517
0.05920125587183908 0.09915341447672621 0.2463759774254797
-0.16768969508961096 -0.11540695929284914 -0.3096866966607873
0.1833912766036971 -0.11501964712230674 0.17543847892844094
-0.20790571241240957 -0.02712568811240197 -0.038696970493516836
-0.17820007086363698 -0.10499180553185908 0.08706851346816921
0.1051682061538712 -0.11425807824764471 0.4189493494905254
0.0 0.03839327374511975 0.3778342664363741
0.03788074667012753 0.11495643489262108 0.17615404282618463
-0.14580541769102373 0.03396798870186257 0.19241017081880019
0.12562788349018247 0.07868130336286944 0.26370286089438877
-0.2041571357120664 0.020805384562568002 -0.07635453085670259
-0.12799641449778779 0.04551036801216529 0.3806435748579674
0.20650743051260498 0.004452376719910417 -0.03942963083538557
0.18498425073690172 -0.11499933861898241 -0.22577009585806299
0.1985858708383654 -0.079324344085427 -0.037289777719804615
-0.1512566966114106 0.02339969224743707 0.3345204770529264
-0.0 0.008749075780384502 -0.36594207978765825
-0.0 0.0561195923176781 -0.04489044231855732
0.04718328457042089 0.0422765497022059 0.35733666607854897
0.15200023650863165 0.02184847488382277 0.34870327263982936
0.19727182778143157 -0.05754730801816975 -0.21499902521483288
0.13358291074898201 0.04463171439894981 -0.12606591324656277
0.12428938733740916 0.06839463196984955 0.3066084079150925
0.08549683031394478 -0.051719182023341276 -0.3807929836880063
-0.013888943977577667 0.0782543067189943 0.29328623696396394
0.15708741297656106 -0.0009370441571875943 0.4318124032057862
-0.15008543476662428 -0.0005102547429382265 -0.3313037514569591
0.025553174307826325 -0.06804038011844496 -0.3955498053382599
0.11931566908958245 0.0422765497022059 0.3235817576424578
0.016495478210366482 -0.11584452464763793 0.4401884174493139
0.20034587204993126 0.02103934681004921 0.2603985845116715
0.1447890599914918 0.04341392950318074 -0.06547072729705998
-0.1985858708383654 -0.079324344085427 -0.037289777719804615
-0.07317247001084283 0.020220686173490765 -0.30251043833558766
-0.1991768897310283 0.008155777361838285 0.35135715884210406
-0.04265811484754818 0.03282522093061804 -0.266966930999576
-0.1842415397581837 -0.11453628402022532 0.02550960614407711
0.1770560597146379 0.00771386018490855 0.42027893476939104
-0.0 0.03946506536954206 -0.09808462941372559
0.10123198302740379 0.024563390210883218 0.45528022578960603
-0.0 0.03222301163816421 -0.25496419107565105
-0.1266991570405404 0.08259949751189585 0.24214113640829452
0.19472549375492557 0.009428374493620467 0.1552514121648148
0.17973688576826108 -0.11519796821527181 -0.2621413819341665
0.1506016437643884 0.017461734550956676 -0.29416509407667224
0.2031916528856581 0.014313812920874108 -0.028757097879203608
-0.0305001599339302 0.017022511359161774 -0.338518243648111
0.1864149640731375 -0.11448644529523044 0.007058709185054621
-0.13053093643562558 0.025318638581959624 0.4465746128263096
-0.003761217707514468 0.07769561564794972 0.2933532757478968
-0.13546331237311351 -0.11539328213754908 -0.3614712042267342
0.010509443240710124 0.041812873414571544 -0.2156734540318635
0.20100641648203607 -0.014167515998918037 0.2936972769266557
0.19163010483497275 0.009412314197624172 0.13444462520535827
0.05297721767699924 0.11388681917926924 0.16116201555069512
0.05974347218763587 0.0953128278225463 0.2582327240780579
-0.05974347218763587 0.0953128278225463 0.2582327240780579
0.03250717885940004 0.02028637796485616 -0.32671268271309517
-0.1309211498209286 0.09255708825921144 0.08902082377243883
-0.11558429244817718 0.04016581234904401 -0.20590330248104638
-0.06562868994436079 0.0055432334699024866 0.4616974019956527
0.1449708003732819 0.0373589906829597 0.10704399878389605
-0.20383499725882498 0.02646420395315191 -0.12571051443838716
0.20069836964334625 0.01732050756100234 0.29407743967510946
-0.10494501984692943 0.04271515120512348 -0.2156735576466764
-0.06324689624070692 0.04095069455660383 -0.14218506245655205
0.13562723100708837 0.03186015256346128 0.4220295070329849
-0.11720586426973646 0.09302822481337311 0.08195149593413059
-0.18321026152559716 -0.11194570646861991 -0.21557232597449344
0.026524355948942938 0.009698394695983603 -0.36195819384726635
-0.15348969944376997 -0.11439267388957478 0.3912077267198778
0.1078321429929951 -0.11530220471702828 -0.3850326946013968
0.05249831001187164 0.04000997567047371 -0.2156734540318635
-0.10123198302740379 0.024563390210883218 0.45528022578960603
0.09423466748404657 -0.06508528565513057 -0.3823077286374871
-0.05932341773622365 0.04103824907348674 -0.1666518354513401
0.04428403849124838 0.08066407642212553 0.2929288694743436
0.18140985053700842 -0.11497799396752931 0.1474202046074059
0.18768124070133407 -0.11446271750308111 -0.005243270318465429
0.12689612879982373 -0.11536686036026489 -0.3700925783471598
0.07119311624041173 0.02328001713856162 0.46103986239312134
0.09786263654219841 0.03096315912836617 -0.2711144247295041
0.20370340644646842 0.02738451072114484 -0.13807808211845973
-0.19869311216969537 0.018812353636836865 0.21885847349508977
-0.1847454185932152 0.002932865489037151 -0.3049411382309205
-0.0809018242071915 0.02870684296310902 -0.25248551752195514
0.16768969508961096 -0.11540695929284914 -0.3096866966607873
0.08474375785393885 -0.06570666368796704 -0.38546725512661206
0.1070435306521716 0.09329575826022715 0.07717557836409025
-0.10614715890595376 0.035731409202253456 -0.2419487199706449
0.1258712746856357 0.05238054818011978 0.3596705897386526
0.1824901385760868 -0.11500037476711121 0.1614225031902734
0.18857906305493222 -0.0885017152917623 0.014559385489378927
0.03452466288097068 0.023291621997604095 -0.3148547962975753
-0.055125670822049166 0.11206226593927965 0.1856929261146554
-0.0 0.08893450717132931 0.029981414238317038
0.20125954746989994 -0.06224271687860297 -0.14444521236988575
0.054394150243122115 0.09391547845605755 0.05884352759544018
0.1460943994041438 0.05705958590011806 -0.0008192286529628071
0.1863209854378561 -0.08816362015733753 0.035023000188579616
0.12085735389041186 0.04312950684182737 -0.10829027402307392
-0.13279440202297144 -0.11413778144989198 0.4055592072221481
-0.11025424285885896 0.09979541185732566 0.17687831036821014
0.12931449853242394 0.09029310459780121 0.17679531490309391
0.05841026039031938 0.0422765497022059 0.3547171799941503
-0.0 0.07107193511983484 -0.013313413634373744
-0.13960593620683626 0.0422765497022059 0.29605441030484436
0.10175078239548989 0.039584326019166005 -0.16672529835367145
-0.057580616583595735 -0.11494949989398753 0.43487297754861165
-0.18517635259997972 -0.11506679186216677 0.22691162398168593
0.061070363481366734 0.022788468466262757 0.46237752962739165
0.20277522495269665 0.020737413245319275 -0.21306298243618527
-0.19163010483497275 0.009412314197624172 0.13444462520535827
-0.021419668577636938 0.03649536121761168 -0.07808707414285547
0.1309211498209286 0.09255708825921144 0.08902082377243883
0.19967641674391884 0.02106618304658492 0.23938550045977255
0.00026597922466087157 -0.0918480592885085 0.44611363052381015
-0.12052547564475984 0.014666724973540629 -0.32495972730880507
0.19218610192088245 -0.11446365003639702 -0.07902209421427726
-0.18572696171561973 -0.11450105498384641 0.013209388092376005
0.05533828841807726 0.04035646360474168 -0.19108918183927046
0.17820007086363698 -0.10499180553185908 0.08706851346816921
0.12502463804959985 0.043281717001946884 -0.16615966509016397
-0.18375092361920076 0.00968078017779414 0.08314658918587911
0.16273918655986916 -0.11542498827029012 -0.3209642365093708
-0.1258712746856357 0.05238054818011978 0.3596705897386526
0.0 0.10292913825804373 0.19649881133501287
-0.09891132206334866 0.03864112037752676 -0.1765462211627994
0.0670931817095952 0.04013358814223858 -0.11771611355069353
-0.18835950326644121 0.007819961753296856 0.40716834526616186
-0.015555691857552262 -0.06824947481083517 -0.396184446067145
0.19900582167496475 -0.0006086888151734526 0.1776302430652744
0.05547412743776187 -0.06713841317233164 -0.3921316562761885
0.04315660571230995 0.036104940602682906 -0.07433621791662894
0.04073036125393092 0.02177894934438085 0.46427233371051335
0.04877087073335579 0.037504155035803455 -0.23066713914435907
0.07472358375964425 0.08130918224711137 0.29293042369653677
-0.0 0.04015213519374394 -0.12139309241533722
-0.11765140796511696 0.038197959822842464 -0.05000062127494592
-0.12796232522435058 0.039036721733099494 -0.045441776737887477
-0.20125954746989994 -0.06224271687860297 -0.14444521236988575
-0.19249984757428062 -0.07923917270924032 0.29337752161411057
-0.1937500639064809 0.007922851262485875 0.39654565103497474
0.13060170535282206 0.0926518958129959 0.12193603776495711
0.013888943977577667 0.0782543067189943 0.29328623696396394
0.18951273613378658 0.013294554006581527 -0.2860980592051503
-0.1315255350244529 0.0444580559725643 -0.13611706816990826
0.14732886628478642 0.052524469155208975 -0.01088488965011137
-0.021014949118530836 0.04158150153741233 -0.2156734540318635
-0.1469894241577942 0.03160080468682469 0.23508217005127416
0.11025424285885896 0.09979541185732566 0.17687831036821014
0.13152543140964001 0.0444580559725643 -0.13611706816990826
0.18502839064718826 -0.1150606785882069 0.21754639911960066
0.07268402978293034 0.03762818196681983 -0.08106817592420255
0.20398855441151195 0.024010916028611412 -0.10099651650006936
-0.185436840239558 -0.08774045726153892 0.04522128814621354
-0.18272472251244531 -0.11508906904693579 0.3158567552682501
-0.07975491184343178 0.01829272535024773 -0.32840129331858725
-0.010509443240710124 0.041812873414571544 -0.2156734540318635
-0.1873714324108253 -0.08841954874514911 0.024803160349866817
0.0 0.06128458351007976 0.30696981638241505
0.1480014300351852 0.007719973458868434 0.4393101782953499
-0.0840580350223044 0.038470777625153385 -0.2156734540318635
-0.0 0.08488596558770084 0.018943742681548824
0.15605209376627224 0.012343473639163494 0.4194962284729017
-0.0949877399440525 0.029143268554956137 -0.280763761408504
0.18402332696226015 0.0012028089583933643 -0.307495657827644
-0.19249331984106924 0.018747905223226002 -0.2720742087412039
-0.1492061594645315 0.02744367477929885 0.2919338564262648
0.10494501984692943 0.04271515120512348 -0.2156735576466764
-0.13558588869674956 0.0446969917310637 -0.11599859441240815
0.08051140359226272 0.0422765497022059 0.3478034816047866
0.048657412513253076 0.11504378217987826 0.17617663085539229
0.1990977280139886 -0.04642860967773002 -0.21480163899629806
-0.11490447566087686 0.07432202095541629 0.29331949731889817
-0.19967641674391884 0.02106618304658492 0.23938550045977255
-0.04073025763911804 0.02177894934438085 0.46427233371051335
0.0 0.09290689186749157 0.23018367615759774
0.18364005576942005 -0.08427309116334983 0.09735487401675044
-0.2012970560321622 -0.06899042433773422 -0.03757720521073146
0.19479118554629096 -0.08696137748350032 -0.02670272698424797
-0.14684011521243528 -0.042293031651283036 0.42843621814293087
-0.18752478233388647 0.009203944808924142 -0.2944108684128217
-0.19614947212832423 0.009464328833689528 0.1658372195226169
0.18553879721543112 0.007784214642853532 0.4111223901404445
0.10469385754051029 0.04043344941071095 -0.1569264454996868
-0.20034587204993126 0.02103934681004921 0.2603985845116715
-0.035556148343182985 -0.06778921781202582 -0.394693843369065
-0.16273918655986916 -0.11542498827029012 -0.3209642365093708
0.09461907843982836 0.03989579214668082 -0.2156734540318635
-0.1484216917162232 0.04789216171581917 -0.021010543623916987
0.19685021910782613 -0.05813387147387883 0.293426842265041
-0.028505160326754344 0.013494841439877003 -0.35026785258417215
-0.061070363481366734 0.022788468466262757 0.46237752962739165
-0.044057018436230076 0.10208581729602004 0.07725805575514208
0.045414061640508784 0.10567586333265813 0.08888881850083075
0.07204793844666502 0.01838732567440643 -0.31255174985170964
-0.054082062426730006 0.11323456393219478 0.17342472504013398
-0.0 0.011897101025279938 -0.3547166581899529
-0.1465448129957296 0.032453036522755996 0.22086041529472855
-0.15701726574824185 -0.11543120515906287 -0.33185239189115434
0.20452942373474128 0.01492337886504233 -0.0396798606084888
0.19322048859785534 0.00941189973837267 0.1447926365676026
0.015555691857552262 -0.06824947481083517 -0.396184446067145
0.14155006094088843 -0.060835420490077854 0.4251933853442509
-0.03858242618294538 0.02854582554389476 -0.2909953097210721
-0.18389297952765812 -0.11503073390728481 0.18478899048709738
0.0476432307247916 -0.1151462644236451 0.43690538210323693
-0.1412694720276116 0.04424709621354225 -0.08571436774851815
0.18673451215605694 -0.10126374456446594 -0.21550497634612195
0.0 0.10846621024349459 0.12148199765492051
0.06297832664572407 0.039207686174350165 -0.2156734540318635
-0.13191274358018243 -0.09133029606855123 0.41765385348509687
0.060180001394295884 0.0911027507456392 0.26994668951848855
-0.19206994971564487 0.011041449900523637 0.04373410473695857
0.1922107622463477 -0.11457886970831868 -0.12810774674916003
0.19969900477312652 0.008095577155555478 0.337233527313355
-0.14646844887863766 0.04283897090651412 -0.05533688775303691
-0.045538399415963805 -0.06749039269168225 -0.39356993349376457
0.19828683848839607 0.012865277836823064 0.1994272767914173
0.1412694720276116 0.04424709621354225 -0.08571436774851815
-0.08291640701400152 0.020697936001612294 -0.31895980795422296
0.15520587158948793 0.0144944135397225 0.40535550050002767
3.087721423799756e-05 0.0019059390785915176 0.4658906934728734
0.1922411213865213 -0.0712336850365686 0.13211142684894475
-0.1568060987595941 -0.002200419570623502 0.43179095493952024
-0.1051682061538712 -0.11425807824764471 0.4189493494905254
-0.07653559960727546 0.01576897935294938 -0.3377968773208462
-0.2031916528856581 0.014313812920874108 -0.028757097879203608
0.05733753623258116 0.040796101255788086 -0.17887589661557501
0.1860565604353884 -0.05143009669540834 0.08718342229565222
0.11483381035849324 0.047009985198965765 -0.2156735576466764
-0.02218372420780806 -0.05419464351783791 -0.39108918764381095
0.1269639965022596 0.0422765497022059 0.31506534532747876
0.03151558510014623 0.04120113155933283 -0.2156734540318635
-0.09128558267987917 0.024178979255101457 0.45750680450356684
0.2035033262427987 0.028087640841342992 -0.15044399196152622
-0.10175078239548989 0.039584326019166005 -0.16672529835367145
0.09355485069674624 0.0364883154103359 -0.19625096097247288
0.026999429865994008 0.1142548589946161 0.17614036567088456
-0.0 0.08054222540217959 0.008042635448155377
0.13558588869674956 0.0446969917310637 -0.11599859441240815
0.010223569971976449 -0.05465293183520256 -0.3917480742389098
-0.09762939959840736 0.010792774349613565 -0.34749118282863567
-0.17891439138362608 -0.1146912917802926 0.062392853010616714
-0.1590029400222586 0.007923680180988907 0.4318140610427923
-0.18472873660834163 -0.08715669140577759 0.05540040736346481
0.0 0.04518387773678301 0.35048917755461506
0.06992300586413866 0.0103640162539195 -0.356444746039152
-0.15048341926289324 0.007707125222071398 0.4380870054293111
-0.10905148211095736 0.007760486850704185 0.4532851225676172
0.010933124210573117 0.09392915561135762 0.052351023420430354
-0.20010496760998714 0.010649578678214533 0.3268070795377611
0.05441394067238203 0.08140678740084353 0.2928657680533002
0.03750162006980259 -0.11536126516036942 0.4384876839107149
0.10614715890595376 0.035731409202253456 -0.2419487199706449
-0.19142764149060681 -0.08811854771373508 -0.006009398244894132
-0.20365595086216975 -0.001539771523705824 -0.2136582495361762
0.03555604472837011 -0.06778921781202582 -0.394693843369065
-0.0 0.03840404968565919 -0.19417524542606415
-0.18347271784662014 -0.08509973014049999 0.08573488721160119
-0.0849208355691494 0.0317097038551607 -0.23257530953834213
0.14335523821086962 -0.11541379787049916 -0.3521767482818454
-0.18591761297131745 -0.04104923943748129 0.0871432197482551
-0.20055413782381842 0.020295496068389512 0.2710196209058525
0.020342385368132036 0.020810876147650592 0.46523014904076854
-0.15205401259651594 -0.022332052409359288 0.4307459995516336
0.185436840239558 -0.08774045726153892 0.04522118453140066
-0.06475739298285971 0.036103593610115475 -0.0689917658683205
-0.05533828841807726 0.04035646360474168 -0.19108918183927046
0.07740067968000379 0.025464321008867752 -0.27245592571185084
-0.13828764494257437 0.07807660731490651 0.04902312286037665
-0.20180445777083156 0.013745900131483274 -0.018001258613466783
0.14313930494082938 0.01703722466259064 -0.3019386917981203
-0.20370340644646842 0.02738451072114484 -0.13807808211845973
-0.04387382744705967 -0.05329464525316931 -0.3889753418462627
0.12796232522435058 0.039036721733099494 -0.04544188035270036
-0.1294535496113078 0.042056264610024735 0.3910644274336659
-0.08051129997744985 0.0422765497022059 0.3478034816047866
-0.17767660882897132 -0.1152667684510236 -0.2742271173232077
-0.0 0.06115858789761869 -0.034397370218282125
-0.12041533309866927 0.04194643290837283 -0.186080959858755
0.19059924106163773 -0.11443432704435222 -0.04214537508094904
0.2055847406039158 -0.04813701071248204 -0.03814853728894731
0.024019778692027243 0.07899587793477064 0.29317153536610674
0.18375092361920076 0.00968078017779414 0.08314658918587911
0.2048628562025865 -0.011509174359689636 -0.14428087927665934
0.12086636837913234 0.025144772925948328 0.4498295685580964
0.0 0.1074482983217695 0.10986719159041523
-0.07119311624041173 0.02328001713856162 0.46103986239312134
0.20392193008683063 0.025336460329774824 -0.1133478166545199
0.03655033247275878 0.026043009738798 -0.3029479000755636
-0.01131090381833063 -0.05461314374705695 -0.3917017584175527
0.06475728936804682 0.036103593610115475 -0.0689917658683205
0.19206994971564487 0.011041449900523637 0.04373410473695857
-0.20411496448322455 -0.031851559727821666 -0.14435392771973918
0.08644304078515752 -0.11447442597693645 0.42635780861138717
0.06430573601351933 -0.05245805925398275 -0.38572048972928885
-0.19749698276981803 0.009522456743714741 0.17656622255181803
0.14646844887863766 0.04283897090651412 -0.05533688775303691
0.14325659690900863 0.06581524481803508 0.019179569995661852
-0.10773743905402351 0.04118455318927214 -0.14715028428972265
0.055125670822049166 0.11206226593927965 0.1856929261146554
0.12437600932097616 0.06228892189131771 0.3279267412057336
-0.1505414435581056 0.024845844190791888 0.320331050117999
0.12964212857074792 0.09103799148758968 0.1658381520559328
0.0 0.1000325861640061 0.20780163319793893
-0.20650743051260498 0.004452376719910417 -0.03942963083538557
-0.1447890599914918 0.04341392950318074 -0.06547072729705998
-0.12856184053166952 0.08836110279685591 0.19866550068712954
-0.06734144280125373 -0.11477169687508684 0.4324186534759423
0.013097223192367804 0.0422765497022059 0.3620531087459966
0.15356191896834676 0.01841136431099441 0.377046172169615
0.010524571003390484 0.036817706900478836 -0.07930102529054803
-0.13280020445249263 0.0891542741894461 0.07896386641957212
-0.010777701991254336 0.0022477643462799624 0.4657004566764271
0.13784821452115376 0.007796337575960377 0.4438089262409385
0.19699807744580475 -0.05135663379307699 0.13948330994086022
0.14943556266024602 0.041570414752434254 -0.03502392899176256
-0.0 0.06614360016004922 -0.023871970296388594
-0.12794274202471637 0.04341113190323298 -0.08901802244235812
-0.09423477109885946 -0.06508528565513057 -0.3823077286374871
-0.200503055721069 -0.02536962426372552 0.2936025729876841
0.021014949118530836 0.04158150153741233 -0.2156734540318635
0.08478168087545264 0.006730555610685085 0.4587011724516252
-0.18515324649670767 -0.1150800545582153 0.2550129973826501
0.0 0.10409936395470129 0.08671788094138605
-0.1922411213865213 -0.0712336850365686 0.13211153046375762
0.19236950013967863 -0.09973946705220023 -0.03672497337480017
0.04279271048947824 -0.05334013215602326 -0.38911149171038595
-0.17684976262219543 -0.114760402860483 0.07467825414407608
-0.07576387648095129 0.09378585632514569 0.06496581604403268
-0.19685021910782613 -0.05813387147387883 0.293426842265041
0.2046723085617017 0.008854141200643983 -0.1441978838115431
-0.04935764141869062 0.11250853493835031 0.12461914334446364
0.0 -0.06898493275265163 0.45106579689055804
-0.08474386146875174 -0.06570666368796704 -0.38546725512661206
-0.10879576075277153 0.037091975310170056 -0.2321590888350065
0.20105542628852793 0.007195889735325506 0.29393559099627786
-0.011902855244309422 0.11257743878891496 0.1761321801006671
0.1898864747638418 -0.09047132926978277 -0.21541638568111024
-0.14985706771903856 0.02619221506934402 0.3061353026794861
-0.07107095437602717 0.0165176999908144 -0.3226032156194938
-0.18357177360773266 -0.11508865458768427 0.30182772406365965
-0.07585184545708572 0.02376317301101727 -0.2824616973471553
-0.06537421196392951 -0.05241671694364396 -0.38551222395540163
-3.781940670090305e-05 -0.03601884388700967 -0.38509973338532966
-0.07204793844666502 0.01838732567440643 -0.31255174985170964
-0.08017548436890841 0.11032112262365781 0.17634396877819217
-0.20059786327485346 0.015231632933357914 0.30567421676217377
-0.07740067968000379 0.025464321008867752 -0.27245592571185084
0.1308550435703117 0.09270380683424836 0.09998513604168859
-0.09832911042978051 0.007395969938995189 0.4559255388442176
0.18817517251432914 0.009453345663524348 0.11401572146847211
-0.06512108097606566 0.09386615780512705 0.061686096371967786
0.0 0.08881690435871142 0.24127812863182374
0.19242990757558717 -0.11454281175343672 -0.1158480420892947
-0.032627890116404296 0.0033647320291175786 0.46478698848608424
-0.1938934668075057 0.011423995789673569 0.03371538125004428
-0.207714957541899 -0.006063905098449743 -0.039201056558174074
0.07576387648095129 0.09378585632514569 0.06496581604403268
-0.14007821252393957 0.025399250906379622 0.44294571123484194
0.09673945197058803 0.09350692524887491 0.07273578724702998
0.0010780085131950558 -0.026683770935472237 0.4608851654774927
-0.07908504207816786 0.027113557985465775 -0.2624636240022208
0.20244044549228402 -0.05213498826742545 -0.14441723637040838
0.0 0.030135898462338745 0.4216972143280814
0.11138809975619589 0.038338875968358166 -0.22233795879625282
0.14614931525496977 0.033240405485824936 0.20663617378267385
-0.03415206401385713 0.07982956271919656 0.2930414987759433
