ply
format ascii 1.0
element vertex 813
property float x
property float y
property float z
property float nx
property float ny
property float nz
end_header
0.110933 -0.310528 0.238858 -0.170201 -0.981975 -0.0821959 
-0.00192304 0.308357 0.146098 0.431757 -0.901255 -0.0360262 
-0.461487 -0.0554136 0.00787985 -0.796825 0.593325 0.113945 
-0.315447 -0.0619871 0.238393 -0.245798 0.803475 0.542193 
0.0315764 -0.299812 -0.395054 0.195673 -0.337885 0.920615 
-0.123535 -0.206685 0.0647628 0.67668 0.714645 -0.177079 
-0.0208525 -0.259643 0.249878 -0.677811 -0.714428 -0.173636 
-0.19102 -0.0204778 0.288639 0.996532 -0.015517 -0.0814144 
0.445679 0.113729 0.373768 0.808713 0.537176 -0.239648 
-0.190263 -0.032027 0.00488906 0.977558 0.0806131 0.19458 
0.0657892 0.0736743 -0.32989 0.0629886 0.0455305 -0.996968 
-0.115544 0.112724 -0.32989 0.190297 0.296115 -0.935969 
0.144509 0.279186 -0.362472 0.198644 0.0631868 0.978016 
0.0731492 -0.336161 0.037973 0.130672 0.991422 0.00131925 
0.427752 0.211552 0.148933 -0.842384 -0.527858 0.108427 
0.497042 -0.0451243 -0.318556 -0.97379 0.211204 -0.0843159 
0.441151 -0.137045 -0.395054 -0.0540729 -0.187154 0.980827 
-0.149935 -0.165076 -0.0500117 0.175915 0.98398 -0.0276819 
0.278712 0.28732 -0.079533 0.403336 0.878944 0.254473 
0.256941 -0.29546 0.300802 0.322617 -0.943695 -0.0730886 
0.262456 0.327922 -0.122909 -0.3716 -0.926909 0.0525334 
-0.0795433 0.208505 0.267177 -0.690351 0.723474 0.0014421 
-0.0212679 -0.181502 -0.362472 0.161669 -0.131172 0.978053 
-0.357541 -0.0236413 -0.288753 0.689386 0.596711 0.410657 
0.331716 -0.29659 0.314466 -0.56589 0.702349 -0.431741 
0.328723 0.259488 0.351523 0.657722 0.749002 0.0799591 
0.219267 0.339189 0.229482 -0.24467 -0.967594 0.0624569 
0.0124926 -0.200339 -0.362472 -0.0381982 -0.0232631 0.998998 
-0.0808608 -0.252463 -0.390507 0.683651 0.639045 0.352399 
0.368518 0.271173 0.355144 -0.571982 -0.818991 0.045654 
0.474614 0.0692694 -0.395054 0.217203 0.0247049 0.975807 
-0.0382863 0.287096 -0.340471 0.668621 -0.742691 -0.0363966 
-0.171537 -0.116199 0.347609 0.845022 0.53195 0.0544601 
0.350926 -0.243357 -0.236072 0.581082 -0.813794 -0.00522968 
0.463735 0.0459626 0.103421 0.975892 0.218227 0.00198134 
0.202806 0.309314 -0.226976 0.277878 0.960015 0.0340377 
0.0885012 -0.339215 -0.113602 0.247077 0.968953 0.00853931 
0.396956 0.197358 0.356287 0.51406 0.812578 -0.274624 
0.432159 0.20521 -0.0550848 -0.953743 -0.188275 -0.234348 
0.231878 -0.303532 -0.193374 0.270471 -0.860657 0.431388 
0.242727 0.334522 0.124034 -0.276981 -0.954695 -0.108808 
0.416788 -0.169695 0.145302 0.824816 -0.396733 -0.402791 
0.482756 -0.105649 0.170428 -0.924867 0.380063 0.012146 
-0.156702 -0.151353 0.230683 0.867793 0.476014 0.14262 
0.00231241 -0.274195 -0.184358 -0.316318 -0.941166 0.118841 
-0.0954885 -0.19014 0.191174 -0.827237 -0.549255 -0.118291 
-0.070644 0.218652 -0.101829 -0.771873 0.635305 0.0244074 
0.280099 0.321933 -0.103107 -0.410237 -0.907768 0.0872061 
0.470778 0.138299 0.30156 -0.926786 -0.372965 0.0442686 
-0.38791 -0.0385464 -0.265991 0.718415 0.290726 0.631887 
0.499983 0.000258038 -0.261265 -0.993622 -0.0942539 -0.0617992 
-0.356121 -0.0209367 -0.289858 0.362069 0.300555 0.882347 
-0.183483 0.0119364 0.392834 0.593239 -0.0762576 -0.801379 
0.328046 -0.299042 -0.383312 -0.422405 0.835545 0.351324 
-0.0999266 -0.234571 -0.340025 0.793063 0.599292 -0.109077 
-0.174529 -0.107383 -0.025487 0.958292 0.208024 -0.195963 
0.120816 0.275538 -0.32989 -0.0426612 0.0394321 -0.998296 
-0.189808 -0.0389586 -0.234682 0.990378 0.133839 0.0350921 
0.281122 0.321586 0.0539566 -0.444799 -0.8951 -0.0307353 
-0.179685 0.0921929 -0.330075 0.962893 -0.140618 0.230274 
0.237513 0.285053 -0.379953 0.492934 0.770258 0.404613 
-0.175172 0.10549 -0.0173633 0.930063 -0.367388 0.00254916 
-0.160649 0.143312 -0.387037 0.833191 -0.351785 0.426633 
0.494258 0.059162 0.10807 -0.966362 -0.254419 -0.037491 
-0.128786 -0.134452 0.298623 -0.850398 -0.521863 -0.0667871 
-0.116161 -0.159201 -0.299927 -0.820756 -0.570327 0.0328426 
-0.29149 0.0634734 0.267086 0.0358145 -0.402778 -0.914589 
-0.184496 -0.0698393 -0.185484 0.980961 0.184611 -0.059909 
0.192745 -0.203122 -0.362472 -0.039972 0.239713 0.969987 
-0.000627109 0.272745 -0.144348 -0.415802 0.908079 -0.0497471 
0.397563 0.196666 -0.0241982 0.750319 0.657414 0.0694043 
0.123625 -0.344202 0.0613031 0.0010786 0.999311 0.0367183 
0.124521 -0.0905158 -0.32989 -0.0829185 -0.0538378 -0.995052 
0.00378204 -0.31117 -0.310503 0.639789 0.768411 0.0139893 
-0.141718 -0.102895 0.00757728 -0.909902 -0.381813 -0.162162 
-0.178862 0.0946191 0.0276584 0.91604 -0.391489 -0.0871492 
-0.0529791 -0.277279 -0.156773 0.589519 0.804441 -0.0730799 
0.12641 -0.311803 0.338042 0.0739644 -0.996517 -0.0383021 
0.47994 -0.113944 0.04427 -0.990141 0.135348 0.0348653 
0.197421 0.310385 -0.176244 0.110094 0.993882 0.00581804 
-0.149644 0.0784013 -0.046969 -0.967047 0.252431 -0.0329895 
0.395935 0.247129 0.25791 -0.611264 -0.776871 0.15104 
0.39889 0.195153 -0.00181494 0.793139 0.574537 -0.202049 
0.0400479 0.326179 0.233513 0.350575 -0.936199 0.0249601 
0.362068 0.2248 -0.393503 0.419799 -0.237251 0.876033 
-0.288122 -0.0557072 -0.303293 0.127562 0.0863066 0.988066 
0.244793 0.0596482 -0.32989 0.106316 -0.22734 -0.96799 
0.456724 0.166798 0.292811 -0.745038 -0.636447 -0.199637 
0.488992 0.0856396 0.155113 -0.997063 -0.0658878 -0.039003 
0.320985 0.302723 0.373143 -0.182724 -0.956643 -0.226785 
0.229475 0.304009 0.326614 0.148077 0.987053 -0.0616978 
0.219757 -0.339091 -0.324872 -0.206152 0.978065 0.0298 
0.121738 -0.344078 0.0343141 0.143779 0.98469 -0.0985066 
-0.134908 -0.189336 -0.388299 0.758746 0.501942 0.415153 
0.25968 -0.328865 0.124722 -0.233693 0.970195 -0.0638177 
0.17148 0.111474 -0.362472 0.120335 -0.0458371 0.991669 
0.0273421 -0.226442 -0.362472 -0.0516249 -0.0443433 0.99768 
0.23344 0.33637 -0.162288 -0.169547 -0.915771 0.364133 
0.452795 0.174326 0.251735 -0.794241 -0.601536 -0.0856018 
-0.190079 -0.0348372 0.143836 0.993079 0.107656 0.0468288 
-0.163025 -0.138532 0.04994 0.928656 0.370753 -0.0115182 
0.391335 -0.203768 -0.186591 0.693972 -0.719223 -0.0335429 
-0.0681716 -0.0327031 -0.362472 -0.00463421 -0.21958 0.975572 
0.357159 -0.279589 0.203002 -0.581231 0.812642 -0.0421413 
0.143299 0.345491 -0.243374 -0.0632306 -0.973175 0.221198 
-0.143593 -0.00540757 -0.382241 -0.796216 -0.453542 -0.400224 
0.128581 -0.344527 -0.209407 0.211883 0.955455 -0.205366 
-0.154834 -0.0523129 -0.179028 -0.987769 -0.155812 -0.00432811 
0.499427 0.0087446 -0.0245312 -0.974876 -0.217738 0.0466783 
-0.136484 0.187305 0.189071 0.798478 -0.601999 -0.00210975 
0.103436 0.309036 -0.00545611 -0.102082 0.992498 -0.0672724 
0.273827 -0.324062 0.0227315 -0.627938 0.773658 -0.0843121 
0.0506945 0.32652 0.388112 0.372102 -0.773505 -0.513046 
0.355085 -0.280975 -0.193611 -0.509875 0.85621 -0.0832596 
-0.397352 0.0447136 0.169186 -0.786034 -0.345652 0.512511 
0.486939 -0.0933258 -0.367134 -0.953126 0.297705 0.0541218 
0.00689075 -0.297914 0.394659 0.325605 0.118778 -0.938011 
0.0578348 0.332217 -0.078787 0.379191 -0.916109 0.130104 
0.00845867 -0.277226 0.0432565 -0.340099 -0.928681 0.147926 
0.126134 0.0994803 -0.32989 -0.12459 0.243792 -0.961785 
0.0272785 0.321845 0.371903 0.393877 -0.91511 0.0862275 
-0.190586 -0.0270925 0.349993 0.998869 -0.0233818 0.0411904 
0.498583 -0.021626 0.137036 -0.997791 -0.066369 -0.000854373 
0.454455 0.171399 0.351717 -0.728567 -0.668233 -0.150389 
0.104111 -0.309171 -0.168859 -0.018614 -0.998619 -0.0488794 
-0.038203 -0.287152 -0.092648 0.6725 0.73184 0.110096 
0.212152 -0.162255 -0.32989 0.01117 0.0105745 -0.999882 
0.42135 -0.218852 -0.104968 -0.795928 0.604393 -0.0346224 
-0.126995 0.201507 -0.169273 0.833611 -0.549857 0.0523267 
0.285306 -0.320166 -0.305562 -0.409244 0.911157 -0.0480087 
0.459543 -0.161081 0.152077 -0.979324 -0.00982212 0.20187 
0.499097 0.0137813 0.0207317 -0.956354 0.120769 -0.266099 
0.139577 -0.345247 0.110318 0.0736969 0.997158 0.0149621 
-0.189751 0.0398308 0.08934 0.977993 -0.196252 0.0705737 
0.118048 -0.343836 0.15435 0.134305 0.983584 -0.120512 
0.44524 -0.0308564 -0.368425 0.72182 0.102226 0.684484 
0.208084 0.341283 0.379733 0.0490309 -0.934039 -0.35377 
0.466279 -0.0173797 -0.0629101 0.970499 -0.084286 0.225803 
0.0361286 0.324849 -0.132033 0.110877 -0.993731 -0.0141351 
-0.142933 -0.0311551 -0.385226 -0.720081 0.430173 0.544388 
0.0682841 -0.335193 0.352714 0.0958807 0.99437 -0.0450106 
-0.0328515 -0.290728 -0.070327 0.671278 0.737362 -0.0753571 
0.210912 0.307702 -0.129147 0.311241 0.925348 -0.216425 
-0.0583016 0.273434 0.00591911 0.614153 -0.789186 0.00104131 
-0.0980952 -0.186239 -0.123682 -0.764912 -0.640739 -0.0659136 
0.124308 0.344247 0.065999 0.0845694 -0.989843 -0.114062 
0.415757 -0.22523 -0.379945 -0.45967 0.843094 0.278933 
0.264051 0.0273362 -0.32989 0.00979277 -0.0220341 -0.999697 
0.0136689 0.316046 0.260851 0.0614475 -0.996176 -0.0620301 
-0.174248 0.108211 -0.0633016 0.960189 -0.26657 0.0834435 
-0.495223 0.039864 0.000289375 0.999131 0.0217988 0.0354535 
-0.159309 -0.00718131 -0.255721 -0.99961 0.0268864 0.00717309 
0.353181 -0.282248 0.0283479 -0.680144 0.731446 -0.048713 
-0.125929 -0.203102 0.308323 0.947224 0.121217 -0.296511 
0.293703 0.279927 -0.311256 0.413915 0.908865 -0.0511698 
0.456641 -0.081436 -0.205042 0.9601 -0.279573 0.00617585 
-0.380811 -0.063018 -0.261975 0.577768 0.521909 0.62753 
-0.147067 0.111378 0.392612 -0.626901 0.326386 -0.707367 
0.119788 0.34395 -0.310589 0.131425 -0.982282 0.133594 
-0.0235585 0.296937 0.195689 0.368044 -0.922773 0.114089 
-0.149975 -0.164994 0.201885 0.892859 0.449056 0.033822 
-0.0114268 0.30367 -0.019966 0.444567 -0.895219 0.0306456 
0.220817 -0.259013 -0.32989 0.030795 -0.23006 -0.972663 
0.141785 -0.345392 0.0948444 0.0692595 0.982652 -0.171954 
0.179832 0.311894 0.260915 0.00927909 0.999848 0.0144729 
-0.106041 -0.227599 -0.0869375 0.699395 0.389297 0.599412 
0.232506 0.00145046 -0.362472 -0.0410719 0.0963054 0.994501 
-0.189598 0.0421655 0.00805567 0.975527 -0.218521 -0.0242671 
0.299209 -0.284445 0.391609 0.335126 -0.419568 -0.843569 
0.340841 -0.290493 0.104382 -0.566629 0.801817 -0.189647 
-0.190822 -0.023499 -0.0606711 0.993884 -0.0740837 -0.081825 
0.273606 0.289803 0.0293604 0.259499 0.96346 -0.0662317 
-0.383826 0.0118534 0.240608 0.593153 -0.195442 -0.781001 
-0.106886 -0.173083 0.160102 -0.833448 -0.552587 -0.000234682 
-0.0568349 -0.274702 0.149725 0.730809 0.673499 0.110794 
-0.0435696 0.243111 -0.00360958 -0.625517 0.771437 0.116663 
-0.0243199 -0.237713 -0.378365 -0.505428 -0.823938 0.256241 
-0.272671 -0.0650104 0.247196 -0.0583532 0.616856 0.784901 
0.0245383 -0.320915 0.00445156 0.392168 0.911747 0.122179 
0.00245127 -0.274264 -0.0242579 -0.557569 -0.815708 -0.154016 
-0.0256215 -0.295559 0.0169433 0.673331 0.739241 -0.0113956 
0.324325 0.262427 -0.100861 0.541046 0.828589 0.143778 
0.0304134 0.288053 -0.122402 -0.385296 0.922696 0.0129895 
-0.403715 -0.0137884 0.223038 0.625305 0.0988055 -0.774098 
-0.284027 -0.0535021 0.24138 0.00680446 0.258082 0.966086 
0.327902 -0.299138 -0.0610353 -0.578883 0.815399 -0.00183739 
-0.377953 0.0568856 -0.230695 -0.727798 -0.392146 -0.562617 
0.436928 0.13343 0.262569 0.931258 0.362896 -0.0325038 
0.419551 0.220903 -0.306249 -0.730868 -0.682342 -0.014809 
0.25328 -0.331037 -0.171774 -0.257033 0.963818 0.069407 
-0.0892462 -0.198448 0.383245 -0.718235 -0.637207 -0.279467 
-0.0900305 -0.245609 0.348324 0.733883 0.673068 -0.0916098 
-0.189939 0.0369683 -0.177079 0.992498 -0.117164 -0.0347846 
0.375874 0.221398 -0.0967647 0.803981 0.585616 -0.103144 
-0.463919 0.0631379 0.0189063 -0.862772 -0.494089 0.107085 
0.203513 0.32087 0.394259 0.11165 0.202873 -0.972813 
-0.0804678 -0.253995 0.271411 0.722905 0.690311 -0.0293907 
0.338885 0.2918 -0.202383 -0.532259 -0.843507 -0.0720342 
0.284894 -0.320306 0.338374 0.0128541 0.867253 -0.497685 
0.0551481 0.296971 -0.214602 -0.336053 0.940305 0.0537172 
0.333789 0.0236856 -0.32989 -0.0373682 -0.0733102 -0.996615 
0.349683 0.244448 0.22464 0.452144 0.846128 0.282168 
0.100567 0.308466 0.280265 -0.0187481 0.985816 0.166736 
-0.149392 -0.166176 0.167161 0.982622 0.159495 0.0948258 
-0.137119 0.116443 -0.250002 -0.906614 0.406661 -0.112576 
-0.160642 -0.143364 0.0832194 0.862143 0.504823 -0.0431121 
0.0963169 -0.283146 -0.32989 -0.0833014 -0.192284 -0.977792 
-0.0326311 0.251773 0.0392063 -0.68115 0.721451 -0.124665 
0.494415 0.0583724 -0.196234 -0.992805 -0.0547414 -0.106498 
0.0604391 -0.305246 -0.395054 0.134215 -0.0942822 0.986453 
0.371183 -0.225593 -0.0139651 0.701136 -0.707165 -0.0912568 
0.478811 0.117269 -0.202726 -0.828276 -0.263511 -0.494453 
0.447758 0.181864 0.377663 -0.748456 -0.650626 -0.128376 
-0.474464 -0.000457753 0.113775 0.930215 0.0118075 -0.366818 
-0.1571 0.0408962 -0.0250985 -0.953887 -0.229749 -0.193058 
0.336243 0.293565 -0.080479 -0.430236 -0.870609 0.238574 
-0.156959 -0.150833 0.222914 0.815102 0.577433 -0.0466636 
-0.407635 -0.00445989 0.146015 -0.613746 0.129142 0.778854 
0.40831 0.182383 -0.244139 0.849687 0.497598 0.174416 
0.166879 0.312743 0.257045 0.075769 0.997115 -0.00360737 
0.278485 0.287431 0.151623 0.537054 0.842889 -0.0325816 
0.247051 0.333152 -0.342121 -0.316995 -0.9462 0.0649119 
0.278696 -0.32241 0.332953 -0.0723727 0.947223 -0.312275 
0.42882 -0.210207 -0.343392 -0.640278 0.754459 0.144185 
0.33519 -0.294268 -0.217545 -0.4617 0.878866 0.119995 
0.335746 -0.172647 -0.362472 -0.0271149 0.144312 0.989161 
-0.0737933 -0.215061 0.337784 -0.655631 -0.754723 -0.0230649 
0.12796 -0.344486 -0.171044 0.141637 0.98064 -0.135197 
0.112381 0.310816 0.334383 -0.151052 0.984519 0.0886845 
0.286951 0.319507 -0.17919 -0.350172 -0.935861 -0.0387073 
0.298339 -0.277641 -0.213196 0.301139 -0.953406 -0.0169894 
0.430545 0.146375 -0.0829285 0.901603 0.380549 0.205605 
0.324085 0.301195 -0.362516 -0.794127 -0.605768 -0.0489813 
-0.100122 -0.178154 -0.322566 -0.74872 -0.361209 -0.55579 
0.0263036 0.321514 0.157207 0.223066 -0.970142 -0.0951914 
-0.192305 0.000868879 0.0812571 0.9886 0.0647553 0.135927 
-0.128276 -0.19959 0.0863539 0.878302 0.475394 0.0507888 
0.451516 0.138282 0.394918 0.180309 -0.116663 -0.97665 
0.299911 0.313115 -0.0244742 -0.427422 -0.900202 -0.083302 
0.406616 -0.235653 0.202669 -0.88063 0.463436 -0.0983882 
-0.134268 0.123337 -0.171241 -0.855826 0.489814 -0.166255 
-0.0079204 0.268284 -0.0112483 -0.541026 0.840965 -0.00761681 
-0.133291 -0.192084 -0.0894571 0.942646 0.32406 0.0800085 
-0.121738 -0.148744 0.0859681 -0.911334 -0.411621 -0.0048688 
0.31269 -0.272033 0.385325 0.788546 -0.3046 -0.534193 
0.113241 -0.31094 0.27874 0.172498 -0.954381 -0.243696 
0.49931 0.0105272 -0.0947539 -0.988891 0.0382444 -0.143398 
-0.189905 -0.0374849 0.313642 0.976546 0.175302 0.124723 
-0.455324 -0.0477804 0.0372709 -0.914049 0.242474 0.325122 
0.136595 0.345052 0.227502 -0.0284957 -0.982399 0.184552 
0.198526 -0.310166 -0.276661 0.309768 -0.949579 0.0482603 
0.414612 -0.172952 -0.109561 0.822045 -0.550567 -0.145308 
0.466446 -0.0148344 -0.177079 0.985654 -0.164766 -0.0364789 
0.00519127 -0.311865 0.120111 0.281343 0.956166 0.08105 
0.459152 0.0690036 -0.177113 0.92668 0.362712 -0.0984053 
-0.17104 0.117662 -0.163516 0.933208 -0.301476 -0.195533 
0.310768 -0.271485 0.0898859 0.310703 -0.943166 -0.117855 
0.131781 -0.344737 -0.237854 0.0554248 0.992416 0.109685 
-0.00241387 0.308115 -0.124272 0.382379 -0.911054 0.154117 
-0.329169 0.0105182 -0.254668 -0.331729 -0.00790885 -0.943336 
-0.176529 0.10149 -0.244951 0.931209 -0.359833 0.058029 
0.425401 0.214233 -0.351955 -0.763606 -0.645382 0.0196736 
0.173481 -0.31231 -0.154701 0.186724 -0.982342 -0.0105923 
-0.497905 -0.0026769 -0.0492897 0.993897 0.00512875 0.110162 
0.191898 -0.343685 0.135047 -0.213398 0.949981 -0.227976 
0.23211 -0.292987 -0.391203 0.28825 -0.593606 0.751355 
0.394792 0.199827 -0.00202699 0.798789 0.598225 -0.0637356 
0.451603 0.096276 0.309395 0.9806 0.137361 -0.139666 
0.218734 -0.200361 -0.32989 0.0172451 0.0114971 -0.99978 
0.206836 0.308513 -0.281595 0.188127 0.931276 -0.311939 
0.0075865 0.276796 0.315613 -0.522431 0.849986 0.0676667 
0.0989571 -0.143475 -0.32989 -0.249832 0.0313251 -0.967776 
0.0931647 -0.340142 0.0778818 0.210127 0.963416 -0.166253 
0.445562 -0.185151 -0.0449601 -0.719594 0.667451 0.19152 
0.0137227 -0.279822 0.329032 -0.539027 -0.841137 -0.0439637 
-0.143267 0.152898 0.394215 0.0522881 -0.351215 -0.934823 
0.37093 -0.225815 0.0865075 0.612241 -0.787237 0.0735663 
0.465327 -0.0319115 -0.21595 0.969578 -0.231088 0.0800723 
0.305855 0.273934 0.361191 0.528638 0.844102 0.089171 
0.473652 0.132467 0.195821 -0.912648 -0.408562 -0.0121696 
-0.176137 -0.102647 0.0462862 0.975586 0.188675 -0.112329 
-0.383916 -0.0110478 -0.211752 -0.809132 0.334583 -0.48302 
0.126721 0.344405 -0.00232562 0.353693 -0.935349 -0.00235651 
0.454257 -0.1718 0.183451 -0.903512 0.424505 -0.0587959 
-0.152468 -0.159938 0.346616 0.75464 0.654186 0.0503957 
0.16655 -0.312765 -0.211859 -0.113 -0.993585 -0.000225023 
0.40721 -0.184029 -0.278371 0.860249 -0.426875 -0.278812 
0.329674 0.258853 0.0373601 0.627659 0.778317 -0.0162448 
-0.234006 -0.0664702 0.244915 0.227442 0.621522 0.749648 
0.187217 -0.31141 0.272597 -0.0760353 -0.994527 0.071592 
-0.366394 0.0712067 -0.264476 -0.0117004 -0.976448 0.215366 
0.495944 -0.0506872 -0.343303 -0.950167 0.0109503 0.31151 
-0.361481 0.0340874 -0.237401 -0.602581 -0.234034 -0.762969 
-0.0785926 -0.209589 0.0543612 -0.897696 -0.431416 -0.0893851 
0.399236 -0.244068 -0.19172 -0.757863 0.652178 -0.0173332 
0.315527 -0.305415 -0.274214 -0.504214 0.8618 0.055369 
0.119246 0.311333 0.273157 -0.408882 0.910727 -0.0581444 
0.0759438 -0.275979 -0.36375 -0.589589 -0.134807 0.796227 
-0.0334977 0.27433 0.39466 0.0420564 -0.257515 -0.96535 
-0.0526829 0.235119 0.220679 -0.723086 0.688799 -0.0519026 
0.261355 0.293962 -0.124965 0.0933661 0.87351 0.477697 
0.484075 0.101763 0.353966 -0.902222 -0.282361 0.325829 
0.320508 -0.302958 -0.20101 -0.349476 0.930473 -0.109882 
0.151132 0.346005 0.354131 0.215238 -0.967756 0.130818 
-0.0138874 0.264297 0.334931 -0.595363 0.765652 0.243487 
0.496199 -0.0494059 -0.109503 -0.994925 0.0813924 0.0590749 
0.492802 0.0664808 0.210515 -0.966577 -0.246866 0.069136 
-0.180785 -0.088497 -0.233601 0.791927 0.533592 -0.296817 
-0.0722551 0.216815 0.0648264 -0.803088 0.593733 -0.0501513 
-0.129736 -0.132527 0.153299 -0.884356 -0.462276 -0.0649357 
0.325351 0.261741 -0.129026 0.538576 0.839039 -0.0771265 
-0.117924 0.156478 0.248867 -0.80347 0.572358 -0.163713 
0.00195728 0.226122 -0.32989 -0.248857 -0.147351 -0.957271 
0.302381 0.311898 0.0685472 -0.491496 -0.86949 -0.049207 
-0.277018 -0.0684148 0.249571 -0.211572 0.830262 0.515643 
0.166343 -0.34536 0.248186 -0.171766 0.979618 0.102925 
-0.0917008 0.194642 0.27289 -0.798831 0.601458 0.00998168 
0.328376 0.298821 -0.100357 -0.543876 -0.838708 0.0273545 
-0.082737 0.252005 0.204236 0.617981 -0.778228 0.111455 
0.448078 0.10666 -0.274295 0.949462 0.302642 0.0833068 
0.119114 0.311325 -0.0521042 -0.0692086 0.997599 -0.00142071 
0.472667 -0.134467 -0.147123 -0.911576 0.410425 -0.0240445 
-0.188964 -0.0473798 0.0924771 0.964656 0.261006 -0.0360481 
-0.184737 -0.0686305 0.0413252 0.986087 0.158932 0.048236 
0.0652701 -0.334594 0.354576 -0.190735 0.974772 0.11589 
-0.126624 -0.202062 0.0212571 0.78652 0.6127 0.0773742 
0.464347 0.0428863 -0.180419 0.954355 0.296269 0.0377587 
-0.0740279 0.214794 -0.177264 -0.836909 0.546353 0.0326616 
0.177328 -0.0731287 -0.32989 -0.209211 -0.0782243 -0.974732 
-0.0287763 0.254349 0.0916888 -0.631328 0.763249 0.137373 
0.34729 0.286184 0.244243 -0.341291 -0.939788 0.0170389 
0.169829 -0.345132 -0.244876 -0.0776694 0.996943 0.00767615 
0.118391 0.311277 -0.271692 -0.123455 0.991446 0.0421828 
-0.120989 0.150263 -0.174999 -0.892034 0.449374 -0.0483225 
0.387294 -0.213944 0.388858 0.622891 -0.459056 -0.633448 
0.184903 -0.195991 -0.362472 0.0643705 0.0637209 0.995877 
0.462864 0.0503422 0.0265706 0.976334 0.214046 -0.0306721 
-0.0499272 0.279318 0.146454 0.704476 -0.708089 0.0480186 
-0.146228 0.172593 0.212618 0.932575 -0.356916 -0.0537176 
0.255713 -0.189546 -0.32989 -0.234221 -0.102125 -0.966792 
0.398745 0.244628 0.296345 -0.659967 -0.748149 0.0687866 
0.446029 -0.112698 0.21423 0.921219 -0.260866 0.288508 
0.0937423 0.321145 0.394725 0.108978 -0.0599626 -0.99223 
-0.189296 0.0246449 -0.391449 0.882166 -0.363844 0.29864 
0.128431 0.344517 0.341073 0.046977 -0.998871 0.00573779 
0.17524 -0.312195 -0.159156 0.150068 -0.988228 0.0295542 
-0.131857 -0.0609623 -0.32989 0.435439 -0.1773 -0.882553 
-0.129475 -0.0842498 -0.372666 -0.955185 -0.113691 0.273252 
0.0408348 0.326447 -0.0523991 0.30827 -0.947947 -0.0792945 
0.389062 -0.253157 -0.33326 -0.576017 0.808089 -0.12322 
0.154579 0.036521 -0.362472 0.133523 -0.0406025 0.990194 
0.407986 0.182867 0.106726 0.928083 0.178373 -0.326842 
0.0177626 -0.230502 -0.362472 -0.0703477 -0.855039 0.513698 
-0.210938 0.066712 0.238521 0.403857 -0.642353 0.651362 
-0.0561277 0.275175 0.0289988 0.578666 -0.814714 -0.0371863 
0.178131 -0.344587 0.280675 -0.0116886 0.999541 -0.0276465 
-0.016425 0.301205 0.068203 0.566107 -0.820407 0.0803339 
0.213621 -0.307163 0.0656755 0.162111 -0.984694 0.0638468 
0.480619 0.111943 -0.10612 -0.869275 -0.442838 -0.219589 
0.281249 0.321543 -0.320449 -0.215919 -0.968701 0.122192 
-0.159892 -0.144884 0.151606 0.784516 0.593903 0.178289 
0.461182 -0.0587981 -0.296983 0.988267 0.0658839 -0.137786 
-0.130422 -0.196379 -0.339187 0.842324 0.538818 -0.0127838 
0.302168 -0.202187 -0.32989 -0.0170412 -0.61001 -0.792181 
0.345787 -0.287188 -0.0456012 -0.59295 0.802564 0.0655535 
0.167878 -0.345259 0.253774 -0.209081 0.964847 0.159159 
0.49007 -0.0802181 -0.176235 -0.923968 0.372897 -0.0849155 
0.0368088 -0.32508 0.29807 0.287672 0.957347 0.0268397 
-0.0708645 0.227544 0.39146 -0.26607 0.34529 -0.899969 
0.394075 0.24876 0.238586 -0.670212 -0.724299 -0.161888 
0.0141852 0.3163 -0.106535 0.321458 -0.945581 -0.0501879 
-0.183425 0.0752277 -0.331353 0.907295 -0.417264 0.0519728 
0.406782 0.235464 -0.165774 -0.711331 -0.701284 -0.0469516 
0.15786 -0.299002 -0.386367 0.114846 -0.730004 0.673706 
0.0722926 0.302791 0.251648 -0.294643 0.955054 0.0324955 
0.132269 0.344768 -0.355071 0.480247 -0.874515 -0.067518 
-0.0511704 -0.236445 -0.0418748 -0.618372 -0.759773 0.20074 
0.429325 -0.148848 -0.232044 0.854429 -0.509756 0.100256 
0.31073 -0.1374 -0.32989 0.0434777 -0.131163 -0.990404 
0.0608305 0.333234 -0.186991 0.185277 -0.981992 0.0370225 
-0.306752 -0.00675097 0.229911 -0.248535 -0.0318873 0.968095 
-0.159682 -0.00149513 -0.0478284 -0.957745 -0.0602298 0.28122 
0.147016 -0.319925 -0.395054 -0.0952519 -0.17581 0.979802 
0.407156 0.229425 -0.393683 -0.394586 -0.428531 0.812794 
0.466006 0.147974 -0.0252059 -0.883873 -0.435838 0.169739 
0.486685 -0.0874731 -0.392045 0.0651719 0.214531 0.974481 
0.467254 -0.00250184 0.35303 0.998579 0.0505665 -0.0166477 
-0.0249027 -0.296039 0.201519 0.615963 0.786716 0.0408267 
-0.101421 0.1791 -0.31938 -0.804538 0.468268 -0.365193 
-0.43369 0.0694154 0.132693 -0.205677 -0.863559 0.460316 
-0.341193 -0.0724659 -0.271126 -0.0023415 0.979502 -0.201214 
-0.48066 0.0327745 0.0883414 0.985683 -0.151699 -0.0735478 
0.225583 -0.264465 -0.362472 0.0319605 -0.181876 0.982799 
-0.435784 0.07093 0.131559 2.77561e-05 -0.998411 -0.0560665 
-0.356789 0.0149911 -0.238551 -0.531058 -0.393653 -0.750339 
-0.00487127 -0.270322 0.35592 -0.637159 -0.700851 -0.320653 
0.385278 -0.210675 0.365275 0.87326 -0.48469 -0.0498552 
0.428432 -0.102299 -0.368564 0.74961 -0.452359 0.483156 
-0.132944 -0.126022 0.098631 -0.838454 -0.543695 0.0370979 
-0.192219 -0.00218266 -0.0386952 0.998384 0.0332568 0.0460178 
-0.494137 -0.0453096 -0.00300955 0.996214 0.00506573 0.0867543 
-0.0518043 0.235889 0.1178 -0.573592 0.780266 0.249315 
0.0831416 -0.305 0.0104379 -0.250505 -0.967085 0.0442564 
0.493168 -0.0646425 -0.359723 -0.996586 0.0679319 0.0468833 
-0.456746 0.0325882 -0.00530677 -0.912179 -0.33196 0.240266 
-0.162367 0.139866 -0.189815 0.911324 -0.400549 0.0947126 
-0.0100925 -0.266833 0.231396 -0.640398 -0.764372 0.0749369 
-0.0301607 -0.253424 0.136026 -0.475624 -0.870029 -0.129598 
-0.446888 0.0281134 -0.0928802 -0.987766 0.0478695 -0.148399 
0.0877763 0.104468 -0.362472 -0.134773 -0.0588851 0.98912 
0.133313 -0.344837 0.300008 0.0303121 0.999344 -0.0193207 
0.37527 -0.265252 0.274773 -0.656706 0.739681 0.146842 
-0.288156 0.0115183 0.27846 0.0996813 0.144975 -0.98439 
-0.186812 -0.0581962 0.357495 0.974171 0.224569 -0.0232316 
0.311245 -0.307025 0.382184 -0.268794 0.878253 -0.395498 
-0.30298 -0.0688894 -0.278935 -0.133284 0.673032 -0.727502 
0.357565 0.279318 -0.331082 -0.548085 -0.835259 -0.0440977 
0.468361 -0.143199 -0.0158218 -0.951222 0.259381 0.166968 
-0.129261 0.154064 -0.395054 0.182326 -0.206164 0.961343 
-0.191514 -0.0129295 -0.359369 0.990018 0.121567 -0.0712979 
-0.0946978 -0.240534 0.102061 0.637392 0.769366 0.0421894 
0.310325 0.27173 -0.0625023 0.34785 0.931534 -0.105905 
0.262786 -0.293476 -0.0583566 0.271738 -0.961996 0.0261108 
0.228451 0.115352 -0.32989 -0.0792818 -0.00713413 -0.996829 
-0.033491 0.251198 0.0331117 -0.782081 0.622799 -0.0211646 
0.0349817 -0.32446 0.128129 0.958744 0.274737 0.072321 
-0.169113 -0.123336 -0.247895 0.89752 0.437142 0.0578839 
0.431845 -0.143739 0.028264 0.943972 -0.319109 -0.0840639 
0.489925 0.080945 -0.365532 -0.962182 -0.211262 -0.171967 
-0.0348857 -0.0688548 -0.32989 0.169681 -0.289343 -0.942077 
0.333117 0.295654 -0.378891 -0.514591 -0.855745 -0.0532723 
0.385876 -0.255951 0.0174747 -0.629211 0.776806 -0.0256683 
0.117301 -0.311206 0.0183975 -0.166874 -0.985473 -0.0314999 
0.443218 -0.120677 0.0511159 0.82996 -0.479935 0.284272 
0.073263 0.303035 -0.23214 -0.246122 0.964412 -0.0965587 
0.486184 -0.0955485 0.291906 -0.942351 0.319613 0.0990864 
0.250637 0.2976 0.232734 0.45182 0.887102 -0.0942599 
0.053409 0.296381 0.132964 -0.261348 0.965224 0.000296687 
0.24467 -0.299626 -0.141076 0.426393 -0.904228 -0.0228303 
0.0645846 -0.300175 0.15984 -0.18074 -0.98195 -0.0557077 
0.101972 0.341894 -0.263505 -0.120845 -0.924097 -0.362488 
0.127091 -0.344429 0.182055 0.0666445 0.997735 -0.0070322 
0.313585 -0.269603 0.283811 0.523533 -0.851149 0.0381636 
-0.0601207 0.271839 -0.146558 0.666819 -0.745212 -0.00169323 
-0.0442485 -0.283112 -0.193911 0.599774 0.794203 0.0972465 
0.480893 -0.111137 0.312862 -0.941983 0.323234 -0.0904051 
0.349679 0.284587 0.324986 -0.363645 -0.91651 -0.166595 
0.252436 0.279273 -0.374802 -0.158703 0.967296 0.197792 
0.298739 -0.277443 -0.0554317 0.452274 -0.887454 -0.0884511 
-0.188853 0.0479363 -0.379712 0.964727 -0.0229728 0.262245 
-0.187042 0.0570395 0.303939 0.856826 -0.166072 -0.488018 
0.0556506 -0.331476 -0.102949 0.347495 0.925976 -0.147682 
0.120478 -0.20788 -0.362472 0.0136392 0.306822 0.951667 
-0.109683 0.223446 -0.323211 0.559267 -0.822627 0.102421 
0.418944 -0.221595 0.313156 -0.858004 0.5081 0.0752963 
0.220704 0.305754 0.271501 0.209117 0.977188 -0.0370091 
0.410838 0.0363283 -0.362472 -0.0429595 0.311597 0.949205 
0.431426 0.206307 0.0670536 -0.895338 -0.445198 -0.0123436 
0.256103 0.295745 0.241348 0.447562 0.887926 -0.106158 
0.0446299 0.327735 0.179905 0.230474 -0.970816 0.0662911 
0.419224 0.21906 -0.391467 -0.698446 -0.625741 0.347253 
0.401374 0.24163 0.073399 -0.72174 -0.691968 0.0162468 
0.0295547 0.156302 -0.32989 -0.0852527 0.254992 -0.963169 
0.459013 -0.0697007 0.239955 0.962967 -0.26012 -0.0708386 
0.34104 -0.085147 -0.32989 -0.066669 -0.120266 -0.990499 
0.1988 -0.343233 0.359284 -0.358553 0.914627 0.186652 
-0.280736 -0.0169178 0.278885 0.079098 0.0188565 -0.996674 
0.396941 -0.197375 -0.0644092 0.749155 -0.644339 -0.153584 
-0.10206 -0.182737 -0.395054 0.00679416 -0.0906063 0.995864 
-0.0382129 0.287145 -0.138271 0.579317 -0.810961 0.0819999 
0.0429313 0.292824 0.227458 -0.409917 0.911451 0.0349025 
0.489836 0.0813941 0.0100036 -0.994717 0.0960868 0.0359536 
0.422442 0.161233 0.213201 0.822358 0.559591 -0.102872 
0.30634 0.309945 -0.0251652 -0.411784 -0.910055 -0.04707 
0.499231 -0.0117315 -0.193873 -0.998109 0.0612392 -0.00417458 
0.218119 0.306268 -0.0912776 0.223041 0.974698 0.0145301 
-0.18211 -0.0818384 -0.0147288 0.945938 0.32266 0.033089 
-0.0908172 0.244919 0.233122 0.890791 -0.216652 -0.399412 
0.106505 0.334899 0.392577 0.089761 -0.50024 -0.861213 
0.474948 0.128649 0.355035 -0.852941 -0.119161 0.50821 
0.438349 0.13055 0.360163 0.916206 0.4002 -0.020056 
-0.149319 0.0800362 0.217958 -0.899816 0.435965 0.0141332 
0.385691 -0.20822 -0.394881 0.0877583 0.343376 0.935058 
-0.189559 -0.0611453 -0.284923 0.330342 0.506885 0.796186 
-0.438947 0.0704996 -0.155832 -0.94267 -0.312326 -0.117404 
0.161487 0.226874 -0.362472 -0.0887694 0.0728832 0.993357 
0.424408 0.15829 -0.218996 0.856033 0.514041 -0.0542577 
-0.132238 0.0794391 -0.376774 -0.935566 0.272483 0.224587 
0.107705 -0.309886 0.377997 0.0415762 -0.997217 0.0614906 
0.392473 0.202471 -0.159215 0.782795 0.621384 0.0332715 
0.453185 -0.173743 0.266626 -0.755934 0.633091 -0.166578 
0.354033 0.0214519 -0.32989 0.252542 -0.111443 -0.961124 
-0.102426 -0.231721 -0.238726 0.818423 0.573498 0.035729 
-0.185827 -0.0631492 -0.285641 0.665746 0.364216 0.651227 
0.238582 0.335347 0.122894 -0.210758 -0.977524 -0.00512897 
0.021333 -0.319825 -0.214289 0.310196 0.943903 -0.113167 
0.464027 -0.044492 0.334908 0.992529 -0.0971835 -0.0736424 
-0.155599 0.0696777 -0.395054 0.0448811 -0.220691 0.974298 
0.150714 -0.313396 0.347975 0.000103761 -0.994893 -0.100922 
0.476679 0.12355 -0.233887 -0.92853 -0.370275 -0.0267287 
-0.387603 -0.0154596 0.237326 0.438336 0.121904 -0.890484 
0.211067 0.307671 0.00418161 -0.0111963 0.982113 -0.187951 
-0.47431 0.0725317 0.0372996 0.17631 -0.983127 -0.048531 
0.348797 0.285177 -0.0018992 -0.540779 -0.840826 -0.0235539 
0.262385 -0.327947 0.235437 -0.248304 0.947247 -0.202615 
-0.399093 -0.0288836 -0.25823 0.488163 -0.0775635 0.86927 
0.251155 -0.297424 0.182466 0.457726 -0.887896 -0.0460482 
0.325151 0.300669 -0.190641 -0.608521 -0.783432 -0.126203 
0.479117 -0.116369 0.354389 -0.931296 0.356725 0.0733369 
-0.250694 0.0396155 -0.270363 0.126947 -0.308316 -0.942769 
0.491517 0.0729451 -0.323669 -0.916128 -0.39895 -0.0391918 
-0.0653209 0.267279 0.170027 0.597355 -0.76569 0.238496 
-0.0431227 0.243503 0.277106 -0.693914 0.711522 0.110469 
-0.112239 0.213328 0.390267 0.640119 -0.329031 -0.694253 
0.206951 -0.30849 0.135998 0.201242 -0.969462 -0.140053 
0.334336 0.0962789 -0.362472 -0.286144 0.00812008 0.958151 
-0.0698863 0.0416338 -0.362472 -0.552502 0.502767 0.664731 
0.354862 -0.169261 -0.362472 -0.0670475 0.231347 0.970558 
0.0670149 -0.334941 -0.166947 0.104537 0.994501 0.00634639 
0.382624 -0.258802 0.193021 -0.489342 0.867726 -0.0871205 
0.382966 -0.213312 0.0850492 0.870972 -0.485393 -0.0760965 
-0.185549 -0.0645466 0.116051 0.982858 0.165175 0.0817959 
-0.181244 0.086191 0.0254584 0.98463 -0.171087 0.0348306 
-0.112772 0.219924 0.233593 0.736255 -0.676436 -0.0188494 
0.465048 0.036165 0.140561 0.985367 0.158138 0.0635407 
0.291233 -0.317395 -0.364148 -0.351366 0.936119 0.0150144 
0.132313 -0.279419 -0.32989 -0.0564992 0.270185 -0.961092 
-0.169596 0.121914 0.0430421 0.932586 -0.356508 -0.0562862 
-0.164977 0.134573 0.317202 0.898168 -0.43705 0.0477916 
-0.125181 0.141764 0.15904 -0.697243 0.621923 -0.356432 
-0.0303123 -0.292424 0.303788 0.536817 0.843307 0.0255259 
0.0307925 0.0606206 -0.362472 0.0384432 0.0949966 0.994719 
0.270058 -0.325342 -0.0154294 -0.239038 0.969682 0.050673 
-0.254841 0.069635 0.263651 -0.225519 -0.771398 -0.595036 
0.127335 -0.183647 -0.362472 -0.220737 0.0456656 0.974261 
-0.485937 -0.0411403 -0.0986743 0.921204 0.375315 0.10256 
0.299642 0.313249 -0.053028 -0.362574 -0.928818 0.0763956 
0.00246123 -0.274269 0.330476 -0.537189 -0.841778 0.0531583 
0.113887 0.290985 -0.32989 -0.0595582 0.20068 -0.977826 
0.415511 -0.22551 0.207322 -0.738485 0.6342 0.22896 
0.258406 -0.329297 -0.204108 -0.202001 0.947491 -0.247863 
-0.00355135 0.266184 -0.324352 -0.934352 0.184393 0.304896 
-0.0636117 0.268778 0.195838 0.324166 -0.942794 -0.0777472 
0.407329 0.212691 -0.395054 0.057506 0.0581068 0.996644 
0.358862 -0.236398 0.198101 0.750669 -0.655989 -0.0784567 
0.243805 0.299919 -0.275155 0.433065 0.87068 0.233182 
0.177095 0.312074 0.11807 -0.0903676 0.995815 -0.0132538 
0.46534 -0.0317149 -0.171673 0.987918 -0.152545 -0.0272083 
0.466872 -0.00833657 -0.276956 0.98863 -0.12955 -0.0761548 
-0.041009 0.262756 0.394728 0.23226 0.124391 -0.964653 
-0.000999652 -0.308812 -0.237756 0.548002 0.835215 -0.0457684 
0.432275 -0.205036 0.0349971 -0.834775 0.541882 -0.0975568 
0.421667 0.162392 -0.171709 0.474329 0.875595 0.091082 
-0.389857 -0.0688489 0.195428 -0.498708 0.80276 0.326867 
-0.367633 0.0229151 0.197944 -0.680023 -0.0477616 0.731635 
0.15829 0.0855927 -0.32989 0.0709657 -0.0606883 -0.995628 
0.428675 0.210424 -0.255815 -0.827919 -0.560788 0.00716167 
0.340449 0.251653 0.0893987 0.642922 0.742967 0.18611 
-0.121354 -0.149523 0.0473198 -0.858284 -0.51245 0.0265116 
0.0567062 -0.2975 0.356637 -0.290001 -0.923644 -0.250551 
-0.0613068 -0.0728125 -0.362472 -0.0378416 -0.0297113 0.998838 
0.321621 0.159704 -0.362472 0.180241 -0.468422 0.86493 
0.41986 -0.220551 -0.27877 -0.751362 0.544769 0.372352 
0.0994953 0.286453 -0.32989 0.0188093 0.141057 -0.989811 
-0.14995 -0.165046 -0.220159 -0.0988828 0.957284 0.271429 
-0.0519486 0.139866 -0.362472 -0.0713408 0.226819 0.971305 
-0.128642 0.134745 -0.0116755 -0.925407 0.229319 0.301604 
0.0823905 -0.30485 -0.172317 -0.191947 -0.958065 0.212757 
0.44684 -0.110309 0.312207 0.900491 -0.433047 0.0396319 
0.0248702 0.16665 -0.362472 -0.234406 0.04309 0.971173 
0.0493143 -0.310172 0.394805 0.0627973 0.367655 -0.927842 
0.0434745 0.0566195 -0.362472 0.337124 0.294706 0.894121 
0.0781996 0.337166 0.162676 0.113953 -0.974194 -0.194806 
-0.159118 -0.0100956 -0.214078 -0.906262 0.300224 -0.297511 
0.170602 -0.312499 -0.0598489 0.0303574 -0.992394 0.119255 
0.22708 0.337635 0.194981 -0.190732 -0.980576 -0.045576 
0.370491 0.2262 0.243395 0.722359 0.633617 -0.276983 
0.329811 0.297863 -0.0387438 -0.378181 -0.925502 0.0205017 
0.42332 0.0717471 -0.32989 0.139608 -0.189014 -0.971995 
0.439222 0.19464 0.305567 -0.88369 -0.442868 -0.151438 
0.475568 -0.126823 0.194454 -0.886611 0.428094 0.175019 
0.162617 -0.345604 -0.0265546 -0.154821 0.984312 -0.0844487 
0.466169 0.0190605 0.341411 0.998611 0.0456224 0.0261641 
0.499753 0.0037753 -0.135208 -0.887683 0.0746206 0.454342 
0.171941 0.0902123 -0.32989 0.188014 -0.170916 -0.967167 
-0.274319 0.0558206 -0.275522 0.0731515 -0.363097 -0.928873 
0.482987 0.104967 -0.232727 -0.92982 -0.366762 -0.0297506 
0.477719 0.120485 0.131976 -0.904898 -0.420897 0.0632717 
-0.0830915 -0.251694 -0.298798 0.685854 0.723011 0.0828152 
-0.0715885 0.217575 -0.304587 -0.747946 0.647322 -0.146713 
-0.0164247 0.262602 -0.254167 -0.493742 0.869599 -0.00319094 
-0.168691 0.053994 0.394745 0.141935 0.0467562 -0.98876 
-0.169574 0.12198 -0.378253 0.799236 -0.307357 -0.516403 
-0.184086 0.0719018 0.184668 0.950226 -0.284662 -0.126458 
-0.012335 0.0383848 -0.32989 -0.0957524 -0.0919626 -0.991135 
-0.157638 0.0326824 -0.136394 -0.996011 0.0834354 -0.0313332 
0.330138 0.163372 -0.362472 0.2054 -0.283516 0.936727 
0.490901 0.0760397 0.0370642 -0.978041 -0.205051 -0.037246 
0.419313 -0.221175 0.0650464 -0.734785 0.673245 0.082618 
-0.132059 0.193149 0.382062 0.925363 -0.23056 -0.300881 
0.376561 0.26412 -0.0475077 -0.52166 -0.835716 -0.171598 
-0.0587905 -0.229763 -0.212414 -0.732985 -0.529872 0.426569 
0.344441 0.248986 -0.179396 0.52291 0.850397 0.0550141 
0.456187 -0.167885 -0.256965 -0.880011 0.467424 0.0841307 
0.136409 -0.312458 -0.0148554 -0.0646718 -0.997534 -0.0272035 
0.39984 -0.23659 0.389911 -0.423985 0.295821 -0.855973 
-0.456144 0.0234797 -0.014586 -0.997111 -0.0214173 0.0726206 
-0.070164 -0.263031 -0.0690764 0.612505 0.766035 0.195006 
0.0748836 -0.336506 0.26529 0.126611 0.991796 -0.0167753 
0.0452507 0.327946 -0.102663 0.476593 -0.87194 0.112078 
-0.163442 -0.137686 0.0311564 0.916336 0.399162 -0.0313581 
-0.178711 0.0950641 0.266894 0.842545 -0.462209 0.276498 
0.0233561 0.273727 -0.328371 -0.36521 0.385436 -0.847378 
0.259382 0.129642 -0.32989 -0.119111 -0.0771903 -0.989849 
0.00603123 -0.0136864 -0.362472 -0.00903232 0.0803731 0.996722 
0.466558 0.0131256 0.0758308 0.993929 -0.103988 0.035718 
-0.171922 -0.115063 -0.318929 0.898902 0.436197 0.0414378 
-0.191133 -0.0187498 0.0877093 0.994167 0.102956 0.0314296 
0.379119 -0.261876 -0.380787 -0.761293 0.611212 0.216405 
0.108656 0.310075 0.0583547 -0.161346 0.975379 -0.150264 
0.216829 -0.339674 -0.0300825 -0.0765465 0.993138 -0.0883023 
0.125748 0.195632 -0.32989 0.209924 -0.0222899 -0.97746 
0.351714 0.242667 0.274048 0.5947 0.79748 -0.10171 
0.0853175 0.161168 -0.32989 -0.0658016 0.196023 -0.978366 
0.275406 -0.257318 -0.363018 0.150104 -0.363375 0.919414 
-0.44077 -0.0707121 -0.152146 -0.290555 0.934189 -0.206999 
-0.151154 0.0708103 -0.0304066 -0.923344 0.348498 -0.160687 
0.166991 0.204388 -0.362472 -0.192053 -0.10252 0.976008 
-0.151429 -0.0694308 0.228645 -0.993967 -0.072343 0.0823014 
-0.152235 -0.160411 -0.131944 0.887951 0.45887 0.0312466 
0.271513 0.324848 -0.115625 -0.340067 -0.933731 0.111796 
0.0298295 0.00420486 -0.362472 0.229566 -0.0628906 0.971243 
0.206849 -0.30851 -0.114929 0.18239 -0.979124 -0.0896734 
-0.143953 0.0963127 -0.173163 -0.958842 0.278655 -0.0543404 
0.442503 0.122126 0.243656 0.815076 0.521624 -0.252064 
-0.185874 0.0202322 0.390581 0.310217 -0.552212 -0.773808 
0.0452201 -0.202076 -0.362472 0.260432 -0.110802 0.959075 
0.459406 0.0677268 -0.0772303 0.981891 0.189284 -0.00549533 
-0.184001 -0.0723285 -0.284469 0.949822 0.239314 0.201372 
-0.168293 0.125755 -0.313476 0.933276 -0.342861 -0.106947 
0.117017 -0.311187 0.35015 0.0509501 -0.991299 0.12132 
0.122551 0.31154 -0.313672 -0.0122026 0.990354 -0.137989 
-0.192207 -0.00235846 -0.0571374 0.991427 0.126558 0.0323337 
0.324225 -0.179685 -0.362472 -0.220939 0.259176 0.940223 
0.222092 0.338627 0.209503 -0.0847149 -0.995518 -0.0421293 
0.426118 0.213415 0.108329 -0.712631 -0.701373 -0.0152348 
0.453108 -0.173858 0.175932 -0.86775 0.495318 0.0408354 
0.16303 0.345577 0.104938 0.0204762 -0.998076 -0.0585108 
0.444496 -0.117214 0.00761517 0.925584 -0.352581 -0.13774 
0.416115 -0.0629382 -0.32989 -0.100763 -0.000370598 -0.994885 
0.134674 0.25819 -0.32989 -0.15346 0.104409 -0.982612 
-0.342466 0.0100092 -0.247836 -0.65014 0.168165 -0.74094 
-0.100987 0.18191 0.165142 -0.66207 0.747165 -0.0580629 
0.0915527 -0.306741 0.363518 -0.156339 -0.963704 -0.21639 
-0.132236 0.124523 -0.139622 -0.948532 0.310027 0.0646023 
0.447818 0.183887 0.337469 -0.811281 -0.571547 -0.122965 
-0.0861085 0.253548 0.224453 0.769789 -0.638178 -0.0123598 
0.38729 -0.252102 0.0510988 -0.495357 0.859507 0.125887 
0.276738 0.322821 0.329385 -0.438203 -0.898867 0.00317776 
0.292257 0.284517 -0.149101 0.268039 0.927686 -0.25981 
0.438933 -0.1146 0.166798 0.894619 -0.442094 0.0646811 
0.390185 0.202888 0.157392 0.727048 0.523614 -0.444104 
0.488808 -0.0901905 0.128709 -0.987788 0.127196 -0.0897588 
-0.142611 -0.178028 -0.32274 0.820347 0.569837 -0.048075 
-0.286332 0.0275912 -0.26413 0.01532 -0.565653 -0.824458 
-0.154148 0.0561016 -0.153964 -0.975804 0.207691 -0.0683197 
-0.15851 -0.0352093 -0.268968 -0.995331 -0.0950409 0.0165762 
-0.154427 -0.150582 0.174523 0.850504 0.523316 0.0525698 
-0.157571 -0.149646 -0.013622 0.904477 0.393339 -0.164924 
-0.422277 0.0128367 0.201169 0.802679 -0.0567807 -0.593698 
0.240479 -0.33689 -0.155203 -0.392069 0.91365 -0.107164 
0.103041 -0.343355 -0.12345 0.142783 0.989033 0.0377526 
0.49785 -0.0512751 0.0594437 -0.996544 0.0641458 -0.0524786 
-0.192185 0.00162526 0.0904888 0.99718 0.0387942 0.0640727 
0.378396 -0.26316 0.184555 -0.538757 0.839076 -0.0754138 
-0.139177 0.11486 -0.114147 -0.928836 0.359915 -0.0877977 
-0.147896 0.0282189 -0.177026 -0.761743 0.51512 -0.392724 
0.28446 0.282307 0.0299056 0.420605 0.90545 -0.0570356 
-0.15843 0.02181 -0.28464 -0.989224 0.108982 -0.0977143 
0.338404 0.291262 0.220595 -0.349232 -0.927732 0.131636 
0.0374772 0.29154 0.106346 -0.575133 0.816415 -0.0516821 
-0.183356 -0.0638201 0.345115 0.898096 0.41401 0.14831 
0.439082 -0.122449 -0.00520551 0.907845 -0.384337 -0.167637 
0.287052 -0.319276 0.182442 -0.39195 0.917277 0.0705867 
-0.117628 0.149576 0.302041 -0.788359 0.591892 0.167775 
0.440451 0.126385 -0.314758 0.85554 0.500766 -0.131384 
-0.0219788 0.29825 0.139258 0.564912 -0.825102 -0.00884854 
0.435492 0.190678 -0.0573055 -0.660818 -0.7123 -0.236324 
0.354479 -0.236094 0.268281 0.679792 -0.733242 0.0159056 
0.136677 0.312721 -8.04353e-05 -0.165612 0.985613 -0.0334814 
0.444142 0.119372 0.356572 0.850749 0.517787 -0.0900131 
0.139056 -0.16921 -0.361464 -0.194367 -0.270581 0.942838 
0.292578 0.280654 0.0513738 0.379018 0.920624 0.0937557 
-0.000356019 -0.304663 0.162744 0.580528 0.799968 0.151517 
0.404738 0.237076 -0.328892 -0.798601 -0.574649 -0.178858 
0.102624 -0.308887 -0.140025 -0.159439 -0.986228 -0.0437587 
-0.145672 -0.0923572 -0.0970769 -0.96792 -0.25008 -0.0245906 
0.27174 -0.088372 -0.332722 -0.081084 0.131306 -0.987994 
-0.0454639 -0.282045 -0.138498 0.467711 0.880118 0.0812932 
0.421144 0.217479 0.0849933 -0.758127 -0.64668 -0.0839043 
-0.132868 -0.126354 -0.0948813 -0.918299 -0.394618 0.0317001 
-0.183205 -0.0652213 0.0164479 0.920927 0.330463 0.206575 
0.0604931 0.335067 -0.364835 0.540517 -0.720635 -0.434167 
0.128099 -0.320564 0.059437 0.899795 -0.429989 0.0724981 
-0.0456977 0.236754 0.0169269 -0.285421 0.897016 0.337422 
-0.155472 0.0400376 -0.272044 -0.997983 0.0443644 0.0453546 
0.267204 -0.282561 -0.391003 0.464386 -0.564145 0.682669 
-0.157755 0.0282188 0.349734 -0.994237 -0.106169 -0.0151183 
0.493591 -0.0609203 -0.225922 -0.914309 0.350964 0.201989 
-0.0882632 -0.180626 -0.373594 -0.963942 -0.261185 0.0500841 
-0.154378 -0.154167 -0.0167429 0.923484 0.368164 -0.10772 
-0.394381 -0.0430671 0.167621 -0.86811 -0.237869 0.43566 
0.447976 0.179024 -0.0322084 -0.867636 -0.497176 -0.00196397 
-0.494961 0.0342826 -0.0455549 0.989498 -0.116659 0.0852845 
0.249471 -0.296458 0.153635 0.154031 -0.974253 -0.16463 
0.0295333 -0.0477775 -0.361831 0.0550242 0.0907653 0.994323 
0.0210997 0.2835 0.298408 -0.494703 0.854794 0.156794 
0.232545 -0.295154 -0.257211 0.504809 -0.862322 -0.038826 
0.131369 0.124321 -0.360329 -0.111748 0.0505365 0.992441 
0.0366029 -0.290659 0.138777 -0.546797 -0.829662 0.112541 
-0.165785 0.13253 -0.183171 0.920484 -0.376982 -0.102711 
-0.130647 0.1306 -0.299416 -0.981684 0.150598 0.116696 
0.226576 0.304545 0.316768 0.0370418 0.998337 0.0441394 
0.453843 0.0912603 -0.291198 0.960982 0.276403 0.00859937 
0.176779 -0.350222 -0.146644 0.108296 0.982879 -0.149022 
0.240059 0.334261 -0.218092 -0.125293 -0.990875 -0.0495878 
0.0315723 -0.320685 0.163821 0.0994009 0.994978 0.00909061 
-0.484385 0.0726393 0.00193778 0.461826 -0.884784 -0.0620359 
-0.0386195 0.286941 0.249134 0.691005 -0.722197 -0.0306088 
0.04633 0.299888 0.377455 -0.396876 0.821118 -0.410047 
0.183907 -0.298711 -0.383805 -0.207745 -0.935797 0.284789 
0.0696351 -0.295085 0.0585728 -0.666201 -0.745329 0.0249568 
-0.169704 0.0162922 -0.396937 -0.00862781 0.0379642 0.999244 
0.067199 0.163379 -0.32922 0.261137 0.506948 -0.821417 
-0.0732569 0.262921 0.0239272 0.648807 -0.760922 -0.00706173 
-0.169963 -0.126494 -0.193203 0.952106 0.161344 0.259717 
0.268844 0.284311 -0.322552 0.0672367 0.709493 -0.701487 
0.501469 -0.0621141 -0.156812 -0.89411 0.366048 -0.25792 
0.499139 -0.0880014 0.0261046 -0.648189 0.761355 0.00830648 
0.444319 -0.1179 -0.173831 0.941674 -0.336408 0.00890909 
0.247786 0.301185 0.262284 0.183417 0.975871 -0.118343 
0.15793 -0.31473 0.188004 0.0481748 -0.998049 -0.0389344 
-0.093655 -0.192976 0.271546 -0.879134 -0.459809 0.125197 
-0.152392 0.158864 -0.275409 0.938375 -0.322213 -0.124962 
0.0521015 -0.295389 -0.0971724 -0.599737 -0.800179 -0.00410259 
0.287548 0.323185 -0.356976 -0.549855 -0.835249 -0.00367796 
-0.158096 0.0210062 -0.269453 -0.99165 0.114165 -0.0599676 
-0.0192108 0.293287 -0.0759937 0.704331 -0.709222 -0.0291672 
-0.3412 -0.052614 -0.290281 0.330535 0.362106 0.871536 
0.497744 -0.0685542 0.178497 -0.96727 0.21736 0.130888 
-0.126166 0.203156 0.383228 0.555291 -0.672339 -0.489475 
-0.232069 -0.0154236 0.224391 0.543174 0.835369 0.0838622 
0.394541 0.248047 0.0385216 -0.710414 -0.698986 -0.0819518 
-0.430224 0.0534524 -0.209925 0.744902 -0.519445 0.418669 
0.233336 -0.244462 -0.370482 0.280846 -0.190174 0.940619 
0.216457 0.306331 -0.0517355 0.306692 0.939683 -0.151262 
-0.0174656 -0.298532 0.0571456 0.495919 0.855752 0.147415 
0.458034 -0.0711801 0.239342 0.982412 -0.186727 -0.00142655 
-0.215355 -0.00208992 0.232137 -0.0383911 0.197358 0.979539 
0.0532209 -0.33451 0.332014 0.227233 0.96678 0.117045 
0.190154 -0.00798968 -0.329465 0.0477658 0.0571812 -0.997216 
0.0120176 -0.0397058 -0.363305 0.199468 0.102873 0.974489 
0.278219 -0.284922 0.369171 0.198445 -0.979756 0.0258201 
-0.294246 -0.0441225 0.26956 0.131651 0.57132 -0.810041 
0.0309086 -0.286523 -0.152332 -0.428517 -0.90353 -0.00108061 
0.319825 0.265244 0.198707 0.747445 0.663937 -0.0218116 
0.441216 0.191542 0.0124727 -0.690975 -0.708555 0.143099 
0.334597 0.253317 0.242901 0.668639 0.743346 0.0185369 
0.168925 -0.312295 0.287326 0.0859821 -0.996261 0.00768738 
0.112713 0.309667 0.195167 -0.247761 0.960705 0.125152 
0.422146 -0.215851 0.189475 -0.811857 0.581441 -0.052894 
0.495913 -0.0404583 -0.202072 -0.833805 0.502962 0.227529 
0.111627 0.307195 0.227127 -0.1114 0.99284 0.0431581 
0.474324 0.130267 -0.12817 -0.903346 -0.428897 -0.00175079 
0.487283 -0.022454 0.393401 -0.466214 -0.0883518 -0.880242 
-0.0963327 0.233301 0.100874 0.741709 -0.67068 -0.00387003 
-0.469096 -0.0640884 -0.129787 0.860041 0.473547 0.189918 
0.0718582 -0.330289 0.364052 0.201286 0.886694 -0.416115 
-0.0948638 -0.23985 0.235858 0.764692 0.644374 0.0044043 
-0.157117 0.0313743 -0.147271 -0.995242 0.0878348 0.0421179 
0.219906 -0.305807 -0.1157 0.310719 -0.945875 0.0936098 
-0.158939 0.0161426 -0.234719 -0.962466 0.2547 0.0934049 
0.0116981 0.319942 -0.0247825 0.237025 -0.953359 0.186859 
0.122686 0.324292 -0.392982 0.195449 -0.155832 0.968224 
-0.158674 0.0469678 -0.0980403 -0.975314 0.161324 0.150631 
0.461289 0.0261536 0.00996637 0.983642 0.108601 0.143677 
0.184763 -0.0443382 -0.330773 0.596083 -0.283722 -0.751067 
-0.122786 0.152932 -0.276872 -0.848855 0.52859 0.00114253 
0.257868 0.0558487 -0.362048 -0.0741965 -0.0216134 0.997012 
-0.152478 0.0726459 0.0855547 -0.976209 0.188925 -0.106287 
0.341804 -0.250905 -0.316105 0.587398 -0.785376 -0.195191 
0.43103 -0.146104 0.227431 0.889224 -0.457339 -0.0106686 
0.0610566 -0.329563 0.0807378 0.456433 0.884244 -0.0987106 
0.339303 0.0670451 -0.370203 0.165625 -0.0981477 0.981275 
0.152783 0.238091 -0.36514 0.160434 0.211645 0.964085 
0.057186 -0.331451 -0.0312194 0.326551 0.944935 -0.0209859 
0.387809 0.19145 0.3377 -0.0252034 0.970148 -0.24079 
-0.159326 -0.0130743 0.204668 -0.984507 0.0484379 0.168439 
0.246521 0.337472 -0.0170405 -0.314105 -0.947665 -0.0570097 
0.437288 -0.211864 0.215209 -0.670431 0.668335 0.32218 
-0.153914 -0.163831 -0.170491 0.879419 0.475996 -0.00707013 
0.180466 0.344491 0.359135 -0.0706043 -0.994429 -0.0781725 
-0.144466 0.0948461 0.239117 -0.928408 0.371221 0.0155827 
-0.362301 -0.010033 -0.288018 0.456172 -0.0273251 0.88946 
0.31365 -0.270017 0.198121 0.591443 -0.805847 -0.0281139 
0.0272076 0.319817 -0.230847 0.329708 -0.943859 0.0199727 
-0.190198 -0.0407292 0.122482 0.998675 0.0467399 -0.0214905 
0.422342 -0.198979 -0.279082 0.179736 0.588963 -0.787776 
-0.0860597 0.243036 0.271161 0.84843 -0.513132 0.129557 
0.467342 -0.152049 0.168479 -0.810561 0.564597 -0.155488 
0.262072 0.327966 -0.141952 -0.303383 -0.952825 0.00870518 
0.169681 0.345908 -0.225243 -0.0197714 -0.94608 -0.323312 
-0.15033 0.163553 0.377709 0.895277 -0.388475 -0.218086 
