ply
format ascii 1.0
element vertex 824
property float x
property float y
property float z
property float nx
property float ny
property float nz
end_header
-1.07041 -0.208059 -0.232729 -0.352331 -0.0820113 -0.932275 
-0.776787 -0.519244 0.241162 0.215795 0.15787 0.963592 
-1.1487 -0.458074 -0.078623 -0.876728 -0.356618 -0.322756 
-1.07884 0.47571 -0.17414 -0.654175 0.28285 -0.701464 
-0.288829 0.710554 -0.089863 0.348873 -0.864591 -0.361621 
-0.136221 -1.16251 0.182258 -0.0771306 -0.685054 0.724397 
-0.445384 -0.756959 -0.218147 0.247907 0.424163 -0.870993 
-0.18719 0.744725 0.092335 0.22265 -0.90057 0.373365 
-0.136274 0.829295 0.191907 0.104084 -0.649747 0.752991 
-0.157043 1.10934 -0.21874 -0.068544 0.481813 -0.873589 
-0.551787 1.11941 -0.028927 -0.429901 0.895361 -0.116253 
-1.17739 -0.240374 -0.147099 -0.804112 -0.157482 -0.573239 
-0.409777 -0.666699 -0.123231 0.462623 0.734377 -0.496659 
-0.281494 0.862409 0.231951 0.115396 -0.355407 0.927561 
-0.764233 -0.243551 0.15276 0.752194 0.237914 0.614492 
-1.16015 0.114109 -0.18645 -0.663235 0.0486275 -0.746829 
-0.906908 0.779484 0.154991 -0.594493 0.507764 0.623501 
-0.343674 -1.20007 -0.024386 -0.273551 -0.956441 -0.101935 
-0.823242 -0.444034 -0.241501 0.22941 0.12722 -0.96498 
-1.0517 0.255382 -0.235497 -0.3215 0.0734912 -0.944054 
-0.633497 -1.07663 0.01124 -0.513937 -0.857026 0.0370815 
-0.518387 0.689914 -0.208497 0.321257 -0.438327 -0.839442 
-0.821284 0.464204 0.243095 0.20129 -0.110692 0.973257 
-0.653653 0.369627 -0.014196 0.869654 -0.490011 -0.0599189 
-1.09065 0.538397 0.125189 -0.770595 0.388931 0.504892 
-0.003948 0.916588 -0.235148 0.0172398 -0.334394 -0.942276 
-1.2223 0.137011 -0.097552 -0.915327 0.0850687 -0.393625 
-0.22594 -1.17439 0.154863 -0.136473 -0.766198 0.627945 
-0.604392 -0.445187 0.01037 0.804304 0.59254 0.0446269 
-0.060468 -0.755918 -0.063988 0.0787677 0.962965 -0.257863 
-0.972951 -0.430554 0.241628 -0.238411 -0.106186 0.965342 
-0.026203 -0.773821 -0.106397 0.0349497 0.905165 -0.423621 
-0.051871 -1.16213 -0.188565 -0.0184911 -0.650545 -0.759243 
-1.11248 -0.4263 0.16011 -0.709759 -0.271809 0.649894 
-0.335291 1.18824 -0.084685 -0.253209 0.907284 -0.335741 
-0.333508 -0.899972 -0.246366 0.0595176 0.152937 -0.986442 
-0.760857 0.933685 0.142996 -0.517224 0.63536 0.573408 
-0.056162 0.769338 -0.100462 0.0588699 -0.914316 -0.400701 
-0.713097 0.233842 -0.007282 0.949408 -0.312804 -0.027901 
-0.670122 -0.424123 0.13932 0.714456 0.449153 0.536483 
-0.638542 0.435824 -0.10403 0.75009 -0.516207 -0.413395 
-0.678964 -0.336544 -0.061285 0.868863 0.433354 -0.239336 
-1.0611 -0.620385 0.09918 -0.786503 -0.464874 0.406578 
-0.87745 -0.378059 0.245501 0.164127 0.0637338 0.984378 
-0.87071 -0.562634 -0.247043 -0.125742 -0.0817892 -0.988686 
-1.02845 0.325661 -0.236677 -0.2988 0.0949685 -0.949579 
-1.17592 -0.06004 -0.175983 -0.690194 -0.0387147 -0.722588 
-0.678483 0.519202 0.202748 0.463339 -0.354041 0.812387 
-0.988436 0.014016 -0.249253 0.0405919 -0.00603599 -0.999158 
-0.590612 -1.09638 0.045114 -0.45741 -0.870264 0.1828 
-0.120212 0.757375 0.089429 0.15061 -0.923221 0.353524 
-0.030849 1.22056 0.115972 -0.0208069 0.886011 0.463197 
-0.959006 0.799117 0.024552 -0.765691 0.636384 0.0934481 
-0.303265 -1.16773 -0.139899 -0.20306 -0.803066 -0.560225 
-0.815381 0.284022 0.208816 0.52234 -0.181155 0.833273 
-0.323949 1.08433 -0.212005 -0.149514 0.497367 -0.854559 
-0.946691 -0.449871 -0.244771 -0.172747 -0.0801158 -0.981703 
-0.775344 -0.331748 0.19447 0.569424 0.249177 0.783369 
-0.862842 0.041785 -0.209063 0.542968 -0.0210047 -0.839491 
-0.504822 -0.582807 -0.099791 0.597674 0.694651 -0.400307 
-0.096269 -1.18561 0.162166 -0.062675 -0.753535 0.654413 
-0.487076 1.12285 -0.109747 -0.363665 0.821801 -0.438623 
-0.389299 -0.647384 0.049193 0.506035 0.840023 0.195678 
-1.11627 0.418641 0.159107 -0.72339 0.271436 0.634846 
-0.373326 -1.15222 -0.132855 -0.264564 -0.805803 -0.5298 
-1.09303 -0.601902 0.032174 -0.878137 -0.467094 0.103432 
-0.950827 -0.472689 0.242041 -0.223822 -0.110413 0.968356 
-1.19358 0.251847 -0.11802 -0.859916 0.188553 -0.474333 
-0.017979 -1.17219 0.18061 -0.00728623 -0.691945 0.721913 
-1.05899 -0.386948 -0.214811 -0.477705 -0.172297 -0.861459 
-0.369985 0.654944 0.033111 0.496127 -0.856008 0.145289 
-0.980831 0.012465 0.248754 0.079746 -0.0112014 0.996752 
-0.721201 -0.52963 0.226283 0.343909 0.248417 0.905547 
-0.88938 -0.51398 0.248212 -0.099537 -0.0538019 0.993578 
-0.345941 0.912179 0.248402 0.02993 -0.0881062 0.995661 
-0.668266 -0.723738 -0.249026 0.0309722 0.0363423 -0.998859 
-0.392179 1.18486 -0.029218 -0.302072 0.946655 -0.112237 
-0.825634 0.586582 0.249159 -0.0399362 0.0218463 0.998963 
-0.391526 1.02294 0.231082 -0.130135 0.352001 0.926909 
-0.748923 -0.046766 -0.006674 0.998071 0.0544577 -0.0298027 
-0.269785 1.18565 -0.125766 -0.200041 0.840973 -0.502741 
-0.790193 0.915685 0.135485 -0.547706 0.63349 0.546542 
-0.802763 -0.614046 0.249295 -0.0370048 -0.0238239 0.999031 
-0.383708 0.704607 -0.15299 0.378919 -0.693785 -0.612441 
-0.363436 1.01208 0.237861 -0.0913452 0.282475 0.954916 
-0.749869 0.140956 0.078078 0.931801 -0.191521 0.308328 
-1.13753 -0.285604 -0.180224 -0.675896 -0.159605 -0.719507 
-1.09105 -0.381338 0.195131 -0.589723 -0.212894 0.77904 
-0.969771 0.117841 0.248488 0.0883476 -0.0105899 0.996033 
-0.31185 0.694843 0.073929 0.374814 -0.876653 0.301653 
-0.639347 -0.679959 0.240833 0.193621 0.196109 0.961276 
-0.758168 0.089645 0.079342 0.938177 -0.106991 0.329206 
-0.384488 -1.11843 -0.169954 -0.246573 -0.691569 -0.678921 
-0.740259 1.0037 0.036008 -0.590521 0.79644 0.130261 
-0.431446 -0.654435 -0.125609 0.4729 0.720757 -0.506829 
-0.728451 0.322916 0.144939 0.740287 -0.330132 0.585652 
-1.0092 0.591238 0.182962 -0.591278 0.342259 0.730239 
-0.561472 -0.50038 0.032583 0.735754 0.664351 0.131542 
-0.374328 -1.11045 -0.181043 -0.228354 -0.648539 -0.726121 
-0.976852 0.757762 -0.079846 -0.744131 0.579048 -0.333124 
-0.589946 -0.702653 0.235455 0.209867 0.253426 0.944315 
-0.426056 -1.17001 -0.045819 -0.33728 -0.92333 -0.183584 
-0.943014 -0.820068 0.003568 -0.754187 -0.65663 0.00625933 
-0.949398 0.800196 0.063438 -0.744925 0.618021 0.251268 
-0.806284 -0.938716 -0.076495 -0.623423 -0.719008 -0.307198 
-0.915636 -0.145852 -0.23875 0.293353 0.0428968 -0.955041 
-1.00803 -0.468829 0.223023 -0.411984 -0.184047 0.89241 
-0.625781 0.526007 -0.170306 0.557274 -0.473065 -0.682389 
-0.284759 1.07723 0.221776 -0.120821 0.43794 0.890849 
-1.21871 -0.154749 0.100603 -0.906085 -0.121509 0.405273 
-0.930222 -0.832896 -0.020127 -0.739091 -0.66776 -0.0885526 
-0.720357 0.404268 -0.179279 0.604039 -0.337768 -0.721837 
-0.721446 -0.94452 0.163276 -0.461798 -0.595259 0.657579 
-0.206287 1.11573 -0.210008 -0.085713 0.540371 -0.83705 
-0.401978 -0.67549 -0.128864 0.445602 0.730005 -0.518201 
-0.857192 -0.028853 -0.204972 0.568292 0.0218064 -0.822538 
-0.576489 0.73244 -0.24041 0.169424 -0.216209 -0.961535 
-0.508695 -0.91264 -0.245421 -0.0814349 -0.163211 -0.983225 
-0.996069 0.75206 0.027724 -0.792166 0.599801 0.112748 
-0.956524 0.788911 0.069303 -0.746957 0.604511 0.276804 
-0.234589 -0.925404 0.245342 0.046532 0.176181 0.983257 
-0.64415 0.913556 0.220045 -0.273703 0.395637 0.876674 
-0.594032 1.08329 -0.082141 -0.453877 0.826487 -0.333038 
-0.631493 -0.40513 0.004836 0.842612 0.538059 0.0223174 
-0.746462 0.391208 -0.193962 0.575236 -0.278219 -0.769219 
-1.11261 -0.251068 0.206082 -0.550027 -0.127475 0.825361 
-1.07347 0.125295 0.236011 -0.323483 0.0392581 0.945419 
-0.142649 -1.21529 -0.11042 -0.100088 -0.892251 -0.440308 
-0.479225 -1.1371 -0.086669 -0.365647 -0.865471 -0.342435 
-1.1243 -0.184777 -0.206844 -0.553586 -0.0809612 -0.828848 
-0.291701 -0.716514 0.105059 0.339741 0.841435 0.420195 
-1.06491 0.559994 0.144844 -0.716937 0.383152 0.582406 
-0.011509 0.868053 0.211959 0.000188535 -0.539837 0.84177 
-0.924337 -0.209247 0.243958 0.201169 0.0430344 0.978611 
-1.2496 0.008418 -0.004561 -0.999725 -1.22431e-16 -0.0234418 
-0.477962 0.605824 -0.101098 0.556237 -0.713999 -0.425212 
-0.501448 0.566133 0.053728 0.648978 -0.729338 0.216549 
-0.046083 -0.801417 -0.153483 0.0465886 0.786372 -0.615994 
-0.474064 -0.600969 0.085211 0.582439 0.737168 0.34256 
-0.81938 0.770103 0.216734 -0.366087 0.343468 0.864876 
-0.151346 -1.23736 -0.038979 -0.116124 -0.981051 -0.155093 
-1.04313 0.019212 0.245726 -0.165824 -0.00380896 0.986148 
-0.386852 1.18038 -0.061165 -0.293313 0.92395 -0.245529 
-0.787445 -0.852585 0.190899 -0.438358 -0.475147 0.76294 
-0.651609 -0.547134 -0.200414 0.455942 0.382405 -0.803669 
-1.0024 0.314957 -0.244248 -0.196033 0.0614499 -0.97867 
-0.399597 0.677233 0.129323 0.413073 -0.733337 0.539989 
-0.515981 -0.603218 -0.140465 0.535278 0.624297 -0.568974 
-0.645944 0.726071 -0.248157 0.0753901 -0.0827278 -0.993716 
-0.051568 1.05888 -0.24239 -0.00387003 0.236449 -0.971636 
-1.13605 -0.313822 0.174691 -0.687702 -0.182727 0.702621 
-0.109392 1.19173 0.153926 -0.0722124 0.783501 0.61718 
-0.729263 -0.283089 -0.122579 0.809683 0.31715 -0.493791 
-0.590552 0.490843 -0.092485 0.717415 -0.589401 -0.37138 
-0.181085 0.883265 -0.229667 0.0805035 -0.380554 -0.921248 
-0.402803 0.67736 0.131904 0.411438 -0.727415 0.549168 
-0.101241 1.2371 -0.065193 -0.0823051 0.962718 -0.25768 
-0.439649 0.789468 0.230654 0.176173 -0.352155 0.919212 
-1.06781 -0.580486 -0.126558 -0.755907 -0.407154 -0.51267 
-0.057036 -0.935363 -0.241855 0.0208409 0.25775 -0.965987 
-0.883015 0.870058 0.069887 -0.686004 0.667609 0.289305 
-0.323932 -0.939681 -0.249608 0.0131987 0.0311307 -0.999428 
-0.708474 -0.695415 -0.249529 0.0193744 0.0216511 -0.999578 
-0.689471 0.295402 0.002211 0.920157 -0.391191 0.0167398 
-0.187428 1.2339 -0.028976 -0.141755 0.983434 -0.112974 
-0.315399 -0.709889 0.111444 0.3613 0.817667 0.448199 
-1.17533 -0.052279 0.176982 -0.723526 -0.0411694 0.689068 
-0.955575 0.4687 -0.24154 -0.240347 0.105517 -0.964935 
-0.696108 -0.436116 -0.174788 0.593181 0.379588 -0.709964 
-0.226367 0.777976 -0.162041 0.214341 -0.731336 -0.64746 
-0.647744 -0.720321 -0.247953 0.0672564 0.0843858 -0.994161 
-0.206846 -0.775993 0.153882 0.203037 0.750925 0.6284 
-0.35999 -0.663238 0.045412 0.466117 0.865893 0.181561 
-0.19178 -0.730696 -0.049534 0.255128 0.946699 -0.196648 
-1.19927 0.14848 0.137079 -0.831648 0.115443 0.54317 
-0.986158 0.344888 0.245442 -0.167564 0.0484668 0.984669 
-0.158168 -0.758335 -0.107186 0.187979 0.884549 -0.426892 
-0.378803 -1.04143 0.224772 -0.15418 -0.403732 0.901792 
-0.976979 0.256197 0.249339 -0.041398 0.0114421 0.999077 
-0.741641 0.112046 0.001213 0.989092 -0.147027 0.00891964 
-1.15452 0.352703 0.138894 -0.797566 0.242082 0.552526 
-0.692948 -0.293369 0.034648 0.91258 0.385462 0.136444 
-0.342457 1.02894 0.234774 -0.105673 0.319154 0.941793 
-1.1894 0.318373 -0.094521 -0.898477 0.240339 -0.367391 
-0.586997 0.468412 0.015845 0.783046 -0.618745 0.0631896 
-0.584921 0.501741 0.098971 0.699252 -0.595459 0.395569 
-0.131673 -0.740446 0.031963 0.175649 0.975997 0.128754 
-0.155998 0.867874 -0.219875 0.0912524 -0.46249 -0.881916 
-0.713492 -0.971369 -0.141762 -0.485281 -0.667833 -0.56436 
-0.567734 0.562602 -0.148675 0.571645 -0.560876 -0.598866 
-0.715113 0.872549 0.214394 -0.332667 0.401251 0.853423 
-0.158995 0.899692 -0.234139 0.0643377 -0.336017 -0.939656 
-1.17541 -0.328365 0.117006 -0.855352 -0.220106 0.468963 
-1.07885 0.572262 0.115335 -0.778827 0.422843 0.463283 
-1.01664 0.439268 -0.225108 -0.38914 0.189505 -0.901476 
-0.786723 -0.050475 0.132339 0.843858 0.0506946 0.534167 
-0.448568 -1.16466 0.029506 -0.353414 -0.927509 0.121759 
-0.954213 -0.558684 -0.225967 -0.367306 -0.210767 -0.905905 
-0.12933 -1.23617 0.057157 -0.0967128 -0.969662 0.224505 
-1.16844 -0.26116 -0.153393 -0.774882 -0.163361 -0.610632 
-0.879284 0.526855 -0.248358 -0.0804496 0.0511989 -0.995443 
-0.722414 -0.960731 -0.146553 -0.478901 -0.654687 -0.584841 
-0.480796 -1.15103 0.034704 -0.382187 -0.910482 0.157975 
-1.04342 -0.352494 -0.228135 -0.381529 -0.128318 -0.915407 
-0.101624 -1.14844 -0.197617 -0.0551579 -0.606083 -0.793486 
-0.963529 0.046169 -0.24732 0.144022 0.00883349 -0.989535 
-0.783523 -0.292787 -0.188421 0.615319 0.227928 -0.754607 
-0.006214 0.78974 0.134462 0.00980047 -0.842264 0.538975 
-1.05001 0.508819 0.185456 -0.606216 0.296222 0.738075 
-0.021274 0.974281 0.248331 -0.00594079 -0.0900855 0.995916 
-0.676208 0.389242 0.118487 0.765096 -0.437304 0.472645 
-0.823507 -0.818763 -0.190348 -0.461091 -0.452971 -0.763028 
-0.930027 -0.802606 0.100743 -0.689982 -0.597657 0.408326 
-0.958641 0.713139 0.156196 -0.623637 0.462642 0.630111 
-1.24855 0.054545 -0.003043 -0.998899 0.0460789 -0.00876734 
-0.100363 1.10508 -0.224054 -0.0389786 0.439637 -0.897329 
-0.122123 -0.760065 0.097377 0.14564 0.910323 0.387429 
-0.981863 0.45077 -0.236129 -0.304989 0.135413 -0.94268 
-0.676275 0.782128 0.247594 -0.0758199 0.103788 0.991705 
-0.182161 1.15448 -0.183729 -0.106996 0.663624 -0.740375 
-0.777588 -0.04912 -0.116285 0.882578 0.0567772 -0.466725 
-0.513935 -0.955902 0.23448 -0.149989 -0.278451 0.948667 
-0.71821 -0.773119 -0.243348 -0.15433 -0.159612 -0.975042 
-0.609336 -0.652966 0.225472 0.288394 0.311367 0.905472 
-1.16166 0.324486 0.140477 -0.797434 0.226653 0.559221 
-0.987606 0.634211 0.179409 -0.587525 0.376649 0.716205 
-0.65697 -0.976828 -0.176249 -0.395737 -0.588205 -0.705271 
-0.449997 -1.12411 0.133348 -0.312684 -0.784493 0.535537 
-0.608674 0.44788 -0.050677 0.787758 -0.582379 -0.200679 
-0.82026 -0.344584 -0.223777 0.404951 0.170079 -0.898381 
-1.18287 0.397861 -0.029787 -0.938209 0.322293 -0.126058 
-0.835791 -0.303102 0.223456 0.420993 0.168618 0.891254 
-0.739174 -1.00584 0.026147 -0.587266 -0.802919 0.102178 
-0.404339 -1.10218 0.179139 -0.237196 -0.658384 0.714331 
-1.11682 0.557556 -0.02584 -0.887929 0.44898 -0.0999976 
-0.097962 -0.851133 0.204352 0.0641358 0.570977 0.818457 
-0.910605 0.602664 -0.232209 -0.303636 0.198041 -0.931979 
-0.402836 -1.17528 0.059601 -0.306496 -0.922206 0.235789 
-0.857517 -0.042658 0.205537 0.571897 0.025772 0.81992 
-0.572962 -0.902672 0.239965 -0.141041 -0.239019 0.960717 
-0.87215 0.884164 0.062067 -0.676333 0.690025 0.257756 
-0.759391 -0.991832 -0.011433 -0.606534 -0.793489 -0.0499155 
-0.949297 -0.779816 0.100611 -0.710901 -0.577418 0.401507 
-0.754136 0.795241 -0.230815 -0.265186 0.274112 -0.924413 
-0.675701 -0.58002 -0.224163 0.330892 0.285203 -0.899539 
-1.14362 0.468628 0.080969 -0.876318 0.352635 0.328201 
-0.531838 0.674485 -0.205805 0.347792 -0.433135 -0.831526 
-0.525049 -0.606936 0.153191 0.519264 0.600948 0.60764 
-0.312011 0.700181 -0.088424 0.379834 -0.853626 -0.356439 
-0.806254 0.672992 -0.244348 -0.15468 0.115713 -0.981165 
-0.75111 -0.978936 -0.086827 -0.567372 -0.749359 -0.341394 
-0.750588 -0.689566 0.248734 -0.0563775 -0.0448498 0.997402 
-0.160542 1.22675 0.077057 -0.119296 0.944998 0.304545 
-0.342854 1.19548 0.053248 -0.276748 0.93721 0.212245 
-0.658289 0.925142 0.209492 -0.315924 0.439652 0.840772 
-0.982657 0.758799 -0.064163 -0.759809 0.586078 -0.28143 
-0.072869 1.23674 0.0721 -0.0576521 0.956143 0.287172 
-0.83194 -0.863286 -0.151233 -0.550324 -0.573798 -0.606547 
-1.15587 -0.319167 0.151005 -0.779589 -0.194841 0.595213 
-0.221331 1.03124 0.243451 -0.047024 0.215319 0.975411 
-0.842528 -0.257697 -0.219504 0.452032 0.142442 -0.880555 
-0.213413 -0.785798 0.166603 0.189784 0.707329 0.680931 
-0.254116 0.754355 0.143792 0.260875 -0.775359 0.57512 
-0.14191 1.23661 -0.04795 -0.114819 0.975175 -0.189342 
-1.16994 0.13225 -0.175975 -0.706129 0.0701699 -0.704598 
-0.620011 0.919543 0.224353 -0.242656 0.375556 0.89447 
-0.054703 -0.776155 0.114077 0.0602676 0.886074 0.45961 
-0.957995 0.356666 0.248538 -0.0802387 0.0225138 0.996521 
-1.01332 0.419529 -0.230447 -0.350038 0.167811 -0.921582 
-0.835725 0.890692 0.114962 -0.605293 0.649882 0.459645 
-0.71631 -0.636013 -0.245996 0.124264 0.11034 -0.986095 
-0.642447 -0.630931 -0.229088 0.296709 0.284008 -0.911758 
-0.060588 1.16754 -0.183467 -0.0352672 0.672858 -0.73893 
-1.17232 -0.084269 -0.178008 -0.669281 -0.0377296 -0.742051 
-0.118705 -1.23747 -0.056166 -0.0911803 -0.970113 -0.22487 
-0.86762 0.858416 -0.116757 -0.630695 0.621058 -0.465308 
-0.136797 0.828267 0.191089 0.105613 -0.652255 0.750606 
-0.940283 0.223617 -0.247704 0.134113 -0.0308258 -0.990487 
-0.062206 -0.950364 0.244896 0.0151675 0.191129 0.981448 
-0.970851 0.606732 -0.203203 -0.496579 0.305687 -0.812382 
-0.796707 -0.95771 -0.042757 -0.630811 -0.756414 -0.172961 
-0.872804 0.144552 0.221315 0.440524 -0.0792367 0.894237 
-1.05271 -0.230922 0.237041 -0.305138 -0.0693691 0.949778 
-1.04979 0.427903 -0.210687 -0.512417 0.214239 -0.831583 
-0.907544 0.578461 0.23756 -0.26358 0.167172 0.950042 
-0.715563 1.02062 -0.039457 -0.562597 0.811655 -0.157167 
-0.927069 -0.026485 0.23883 0.285896 0.0116704 0.958189 
-0.807183 -0.90776 0.127527 -0.571453 -0.641834 0.511361 
-0.742648 -0.107956 0.007287 0.988852 0.14497 0.0339895 
-0.764324 -0.489923 -0.232186 0.313387 0.20025 -0.928272 
-0.869118 -0.511273 -0.249448 -0.0292397 -0.0131245 -0.999486 
-1.18616 -0.223563 -0.139026 -0.819293 -0.147635 -0.554043 
-1.01565 0.501163 -0.2114 -0.485267 0.234925 -0.842215 
-0.817827 0.921008 0.093242 -0.62232 0.687369 0.374488 
-0.130574 -0.82466 0.187099 0.103637 0.655261 0.74826 
-0.839258 0.265274 0.219095 0.466514 -0.150017 0.871699 
-0.754433 -0.089435 0.068337 0.956423 0.108467 0.271091 
-0.531588 -0.783821 -0.243837 0.119318 0.178247 -0.976725 
-0.730532 0.170717 0.004058 0.974384 -0.221359 0.0397104 
-1.05061 -0.242453 -0.236873 -0.307563 -0.0675715 -0.949126 
-0.973296 -0.531855 -0.224293 -0.38012 -0.209 -0.901015 
-0.816653 -0.054063 -0.171383 0.73074 0.0471264 -0.681027 
-0.386873 -0.898165 -0.248559 0.0370415 0.0859522 -0.99561 
-0.659617 -0.766601 0.249257 -0.0294267 -0.0327034 0.999032 
-0.819837 0.889918 0.134626 -0.569581 0.621021 0.538434 
-1.0596 -0.060121 -0.242144 -0.244134 -0.0142456 -0.969637 
-0.701848 -0.341857 -0.119407 0.789104 0.382687 -0.480484 
-0.773338 0.921361 -0.145235 -0.51642 0.626847 -0.583414 
-0.745779 1.00186 0.015452 -0.594058 0.802281 0.0586534 
-1.22648 0.240657 -0.001434 -0.981722 0.190074 0.00969148 
-0.773207 0.056839 0.108375 0.896929 -0.0644545 0.437452 
-0.61192 -0.745731 -0.247322 0.0868715 0.0922694 -0.991937 
-0.209115 -1.16776 0.165813 -0.122426 -0.733031 0.669087 
-0.692903 -0.611272 0.237669 0.236601 0.209027 0.948856 
-0.829732 -0.775132 0.209459 -0.393068 -0.374625 0.839734 
-0.7784 -0.51443 0.240728 0.220218 0.1606 0.962139 
-0.461058 0.824804 0.243406 0.100909 -0.186836 0.977195 
-0.834734 -0.019472 0.18708 0.657921 0.0118348 0.752994 
-0.571595 0.789646 -0.248354 0.0619418 -0.0814558 -0.99475 
-0.227546 1.16123 0.169284 -0.130641 0.723976 0.677341 
-0.214134 0.745968 0.110108 0.244149 -0.863137 0.442025 
-0.09699 0.898498 0.2307 0.0328502 -0.378201 0.92514 
-0.702267 -0.977102 -0.14465 -0.483918 -0.662007 -0.572337 
-0.921561 -0.817505 -0.092648 -0.697107 -0.617602 -0.364156 
-0.989115 -0.409143 -0.239548 -0.258573 -0.108121 -0.959922 
-1.10882 0.512392 -0.114731 -0.808139 0.366123 -0.461374 
-0.039392 -0.986969 0.249202 0.00192453 0.0513715 0.998678 
-0.079715 0.84772 -0.200803 0.0563745 -0.589235 -0.805993 
-1.11277 -0.3493 -0.185884 -0.630724 -0.201288 -0.749447 
-0.8105 -0.945324 -0.045759 -0.639342 -0.746254 -0.185329 
-0.78586 0.514962 -0.242342 0.203749 -0.135003 -0.96967 
-0.916208 0.799892 0.125282 -0.649317 0.570518 0.502889 
-0.755475 0.991696 0.038115 -0.604359 0.783715 0.143324 
-1.0357 -0.645866 0.116587 -0.747787 -0.466676 0.472257 
-1.13431 -0.107186 -0.206881 -0.555614 -0.0506316 -0.829897 
-0.550054 -0.903351 -0.242874 -0.122096 -0.198976 -0.972369 
-0.571805 -0.487202 -0.019202 0.752887 0.653341 -0.0794096 
-0.293122 0.918079 0.247153 0.0413639 -0.13484 0.990004 
-0.520638 0.546492 -0.046003 0.678762 -0.711851 -0.18042 
-0.641553 1.06921 -0.037338 -0.512763 0.845483 -0.149109 
-0.887195 0.163258 0.229899 0.402307 -0.0752254 0.912409 
-0.756563 0.430808 -0.213595 0.456736 -0.252198 -0.853105 
-0.416258 -1.12919 0.144376 -0.284508 -0.764546 0.578381 
-0.661089 0.612714 -0.229541 0.298115 -0.269913 -0.915573 
-0.20203 0.980144 -0.249947 -0.00566828 0.00839988 -0.999949 
-0.513062 -1.03038 -0.199066 -0.273311 -0.542355 -0.794451 
-0.884742 0.069789 -0.222688 0.451318 -0.0326471 -0.891766 
-0.747044 -0.775188 -0.237435 -0.209341 -0.215828 -0.953727 
-1.13513 -0.49219 0.076935 -0.871534 -0.37538 0.315465 
-0.629915 0.503229 0.157486 0.610762 -0.476737 0.632211 
-0.615165 -1.0857 0.032513 -0.489282 -0.862769 0.12741 
-0.112317 -0.743297 -0.02681 0.14825 0.983252 -0.106005 
-0.58262 -0.562121 -0.161279 0.553402 0.519373 -0.651151 
-0.523092 -0.830037 0.248764 0.032701 0.06174 0.997556 
-0.082453 0.891897 -0.226739 0.0374063 -0.414166 -0.909432 
-0.086423 0.992108 -0.249734 0.0112699 -0.0299424 -0.999488 
-0.750255 -0.796971 0.23133 -0.271461 -0.271957 0.923227 
-1.1507 -0.269874 -0.170815 -0.704124 -0.167725 -0.689984 
-0.076362 -1.16281 0.186763 -0.0454545 -0.664227 0.746148 
-0.318017 1.20662 0.031729 -0.269305 0.956121 0.115355 
-1.23452 0.192508 0.007373 -0.986938 0.157353 0.0345311 
-0.843593 -0.920648 0.01891 -0.675399 -0.733002 0.0808935 
-0.307298 -0.697361 0.075209 0.381103 0.87217 0.306726 
-1.07015 0.210517 -0.232661 -0.351296 0.0726844 -0.933439 
-0.350503 0.70247 0.127386 0.373216 -0.763468 0.527093 
-1.05358 -0.66718 -0.036658 -0.836616 -0.528057 -0.145703 
-0.981812 -0.771711 0.017672 -0.782326 -0.618694 0.071995 
-0.243104 -0.737001 -0.109936 0.277848 0.851626 -0.444447 
-0.910692 -0.752785 0.171291 -0.560267 -0.466401 0.684522 
-1.19489 -0.297465 -0.094456 -0.907205 -0.24757 -0.340131 
-0.688407 -1.042 -0.016369 -0.548149 -0.833926 -0.0640305 
-0.30757 -0.684662 -0.009314 0.409225 0.911889 -0.0315114 
-1.10825 0.576003 -0.013785 -0.883482 0.465722 -0.0506318 
-0.12669 0.914849 0.237527 0.0388427 -0.302469 0.952367 
-0.840246 0.555531 -0.249519 -0.027765 0.0153933 -0.999496 
-0.983201 0.063402 -0.249037 0.0579308 0.00882126 -0.998282 
-1.03242 -0.536475 0.188356 -0.586313 -0.3042 0.750799 
-0.254093 1.16939 0.153997 -0.164378 0.770025 0.616475 
-0.97516 0.443002 0.239296 -0.257877 0.124566 0.958114 
-0.663419 -0.45995 -0.158639 0.639317 0.442474 -0.62888 
-1.15261 -0.478465 -0.030779 -0.917704 -0.380241 -0.115048 
-0.317416 -1.18598 -0.102098 -0.231119 -0.883171 -0.408158 
-0.397056 -0.885697 0.248077 0.0564673 0.112977 0.991992 
-0.4203 0.629234 -0.055545 0.543341 -0.809084 -0.22397 
-0.772992 0.970958 0.065628 -0.603085 0.755191 0.256855 
-1.02513 0.597079 0.16577 -0.64618 0.376051 0.664107 
-0.993051 0.027353 0.249571 0.0251793 -0.00667827 0.999661 
-0.769205 -0.459914 -0.226973 0.364561 0.221524 -0.904446 
-0.430703 1.09844 0.173192 -0.263033 0.670664 0.693558 
-0.025869 1.2343 -0.084912 -0.00982517 0.940801 -0.338818 
-0.453702 1.16295 0.024971 -0.35969 0.926681 0.109016 
-0.147546 -0.954892 -0.247644 0.0194247 0.141063 -0.98981 
-0.83881 -0.849761 0.157029 -0.54546 -0.551422 0.631195 
-0.828511 0.814495 0.189821 -0.465065 0.459156 0.756895 
-0.376862 0.769369 0.204328 0.256665 -0.523557 0.81241 
-1.06185 0.280871 -0.229598 -0.374606 0.0925713 -0.922551 
-1.11291 0.55226 -0.059735 -0.871675 0.428388 -0.238046 
-1.14817 -0.488894 0.030377 -0.914546 -0.386461 0.119392 
-0.022695 1.18665 0.165203 -0.0106931 0.745955 0.66591 
-1.24148 -0.102051 0.043211 -0.980838 -0.0722526 0.18093 
-0.911049 -0.016726 0.233321 0.351562 0.0114766 0.936094 
-0.004162 -1.24896 0.015111 0.00428089 -0.997932 0.0641317 
-0.919789 -0.728096 0.179949 -0.542719 -0.434225 0.718961 
-0.834247 -0.51084 0.248577 0.081871 0.0517912 0.995296 
-0.11263 -1.23966 0.047771 -0.0862678 -0.978242 0.188681 
-0.904725 -0.81339 -0.124696 -0.644514 -0.57849 -0.49995 
-0.87081 0.638113 -0.236411 -0.23574 0.181883 -0.954644 
-0.493589 0.69399 -0.200909 0.33664 -0.479922 -0.810154 
-0.730347 0.175393 0.017791 0.970518 -0.22707 0.0808324 
-0.547371 0.928584 -0.236977 -0.167258 0.271303 -0.94785 
-0.667808 0.565737 -0.216649 0.387019 -0.3241 -0.863236 
-1.2078 -0.146364 0.124677 -0.858459 -0.104627 0.502098 
-1.03249 0.67996 -0.079815 -0.790504 0.521712 -0.32081 
-0.680261 -0.320215 0.028611 0.901153 0.418576 0.112774 
-0.218555 1.10197 -0.217277 -0.0863964 0.493441 -0.865478 
-1.16527 0.293085 -0.147347 -0.777477 0.191324 -0.599103 
-0.771495 0.174022 0.136065 0.810537 -0.18928 0.554259 
-1.0135 0.56646 -0.190505 -0.5574 0.314143 -0.768518 
-0.228757 -0.718897 -0.044358 0.295808 0.939198 -0.174367 
-0.487112 0.928927 -0.244612 -0.0815708 0.170137 -0.982038 
-0.680985 -0.692019 -0.248096 0.0849119 0.0885607 -0.992445 
-0.97441 0.624865 -0.19358 -0.543749 0.336931 -0.768644 
-0.865725 -0.038357 -0.210904 0.535878 0.0263637 -0.843884 
-0.513802 -1.13263 -0.053005 -0.400227 -0.8901 -0.218036 
-0.337248 -0.997735 0.243759 -0.072585 -0.200554 0.97699 
-0.271543 -0.700043 -0.013421 0.365099 0.929483 -0.052574 
-1.19381 0.370125 -0.000875 -0.954614 0.297792 -0.00568927 
-1.20392 0.153944 -0.129077 -0.834301 0.0851094 -0.5447 
-0.03799 0.792691 -0.140143 0.0410958 -0.8261 -0.562023 
-0.828669 -0.179432 0.198417 0.615893 0.133134 0.776499 
-0.749007 -0.37936 0.191158 0.574472 0.287773 0.76627 
-0.453549 -0.643281 0.130396 0.490681 0.699528 0.519512 
-0.116556 -1.14294 0.200531 -0.0562215 -0.599926 0.798078 
-0.778785 0.028172 -0.116604 0.882728 -0.0352724 -0.468558 
-0.669098 1.04378 0.069392 -0.526941 0.803795 0.276128 
-0.90043 -0.38153 0.248557 0.0851431 0.0320825 0.995852 
-0.80193 0.958106 0.007423 -0.6404 0.767251 0.0348235 
-0.063358 0.76104 0.080048 0.080248 -0.944409 0.318828 
-0.408973 1.18092 -0.002627 -0.318979 0.947754 0.00378159 
-0.790677 0.860294 0.184016 -0.457405 0.499075 0.736006 
-0.396667 0.906171 -0.249294 0.0204348 -0.039621 -0.999006 
-0.517772 0.924501 -0.242483 -0.116087 0.210753 -0.970622 
-0.322762 1.20659 0.013728 -0.270778 0.961848 0.0390847 
-0.041388 0.876513 0.217744 0.0297971 -0.503455 0.863508 
-0.111476 -1.22887 -0.086772 -0.0856507 -0.932254 -0.35152 
-1.12079 -0.383671 0.167703 -0.699349 -0.246377 0.670977 
-0.066203 1.08859 0.232661 -0.0188113 0.365296 0.930702 
-0.584773 -0.476193 0.042815 0.759114 0.628695 0.168785 
-0.581814 0.673795 0.224019 0.290832 -0.331313 0.897579 
-0.107001 1.00435 0.249338 0.0056191 0.0365295 0.999317 
-0.83273 0.320124 -0.224966 0.390385 -0.150915 -0.908198 
-0.65644 -0.606756 0.225861 0.309101 0.290758 0.905492 
-0.118083 -1.1626 0.183929 -0.065322 -0.678059 0.732099 
-0.227363 0.82909 0.206298 0.144282 -0.542719 0.827429 
-1.17692 -0.405685 0.047151 -0.928264 -0.320188 0.189223 
-0.483275 -0.683304 -0.188817 0.371788 0.54052 -0.754726 
-0.707524 -0.434881 -0.183203 0.567484 0.358387 -0.741296 
-0.263952 -1.00971 -0.245656 -0.0386292 -0.167625 -0.985094 
-0.337931 1.03201 -0.234267 -0.102912 0.33607 -0.936198 
-0.799902 -0.327894 0.209511 0.515006 0.209618 0.831162 
-0.998381 -0.67328 -0.143357 -0.681081 -0.458306 -0.571038 
-0.85689 0.864716 0.123132 -0.612468 0.62186 0.48803 
-0.662272 -1.01755 0.128479 -0.468536 -0.72822 0.50017 
-0.662492 0.943128 0.198003 -0.345879 0.48339 0.804178 
-0.734493 0.168348 -0.039839 0.953294 -0.238823 -0.184917 
-0.796357 -0.947145 0.076325 -0.615358 -0.728526 0.300971 
-0.985482 0.668962 0.160375 -0.631562 0.433502 0.64281 
-0.654427 0.824553 -0.243857 -0.128826 0.161985 -0.978348 
-0.606527 -1.07573 -0.083889 -0.465962 -0.816674 -0.340475 
-0.94955 0.793865 -0.075629 -0.729989 0.612458 -0.303335 
-0.378432 -1.09623 -0.191666 -0.216068 -0.601756 -0.768898 
-0.393963 0.679127 -0.127527 0.428217 -0.747625 -0.507629 
-0.954394 0.555905 0.22658 -0.361737 0.214821 0.907193 
-0.951931 0.569602 0.224228 -0.37417 0.227207 0.899096 
-0.709196 -0.590484 0.237272 0.245728 0.206927 0.946995 
-0.120076 -0.830651 -0.190891 0.101554 0.652382 -0.751055 
-1.11462 -0.195764 -0.212025 -0.523242 -0.0829464 -0.848138 
-1.18949 -0.211609 0.1374 -0.822279 -0.146374 0.549938 
-0.849988 -0.909348 -0.04785 -0.672479 -0.713705 -0.195951 
-0.917359 0.386001 -0.249693 0.0269453 -0.00677365 -0.999614 
-0.732946 -0.203585 0.071141 0.922489 0.257214 0.287846 
-1.13636 -0.42362 -0.130476 -0.799034 -0.30007 -0.521059 
-0.468715 1.06228 -0.190509 -0.261092 0.585126 -0.767762 
-1.00323 0.524014 -0.211885 -0.477272 0.240189 -0.845293 
-0.703266 -0.871882 -0.218855 -0.296843 -0.365678 -0.882136 
-1.08515 -0.223829 -0.22486 -0.423313 -0.0965745 -0.900822 
-0.753141 -0.290305 0.158457 0.710893 0.281342 0.644576 
-0.396912 1.04165 -0.221558 -0.169409 0.424974 -0.889212 
-0.170758 -0.804597 -0.176042 0.138359 0.671371 -0.728092 
-0.445808 0.909552 -0.249148 -0.0342722 0.069854 -0.996968 
-0.66059 0.429543 0.131778 0.714218 -0.466573 0.52173 
-0.634382 0.676311 0.238779 0.203167 -0.206835 0.957049 
-0.879946 0.852894 0.106686 -0.656129 0.627257 0.419574 
-1.23519 -0.037542 -0.08137 -0.947748 -0.0265937 -0.317909 
-1.20004 0.189897 0.127163 -0.853981 0.122146 0.505764 
-0.884239 0.646853 -0.230979 -0.283991 0.215173 -0.934371 
-0.369105 0.660244 0.054324 0.483124 -0.846907 0.222123 
-1.09876 0.451301 -0.16413 -0.698662 0.274103 -0.660862 
-0.189167 -0.740585 0.082026 0.241646 0.919723 0.30938 
-0.482488 -1.14637 0.052873 -0.37939 -0.897603 0.224439 
-0.001524 1.12851 -0.214152 0.00327057 0.509544 -0.860438 
-1.13066 0.092661 0.21014 -0.537208 0.0472972 0.842122 
-0.68014 -0.42395 0.15195 0.68267 0.432454 0.589021 
-0.80189 0.62141 -0.249048 -0.0472835 0.046607 -0.997794 
-0.957002 0.368029 0.248339 -0.0907758 0.0286186 0.99546 
-0.298739 0.696888 0.063492 0.363222 -0.892508 0.267395 
-1.24695 0.048276 -0.030895 -0.990515 0.038721 -0.131837 
-0.909109 -0.542246 -0.242702 -0.203596 -0.121568 -0.971478 
-0.376014 0.764917 -0.201406 0.262915 -0.528246 -0.807361 
-1.17405 0.409408 -0.05472 -0.919348 0.323969 -0.223258 
-0.003181 1.23965 0.06998 -0.00613229 0.958101 0.286365 
-0.792895 -0.522116 -0.244291 0.169833 0.105266 -0.979834 
-0.242196 -0.916239 0.243965 0.0549676 0.203621 0.977506 
-0.619144 -1.08514 -0.009302 -0.498034 -0.866562 -0.0321384 
-0.569479 -1.08819 -0.101129 -0.425612 -0.808254 -0.406914 
-0.982257 0.627111 -0.186737 -0.568005 0.355459 -0.742307 
-0.628292 -0.6254 -0.222187 0.33308 0.321395 -0.886433 
-0.877124 -0.266475 0.235174 0.320007 0.0964539 0.942493 
-0.802989 -0.317225 0.20878 0.518607 0.206023 0.82982 
-0.767236 -0.652493 0.249526 -0.021021 -0.0204617 0.99957 
-1.1733 -0.217645 -0.157812 -0.768453 -0.130961 -0.626362 
-0.656315 -0.848401 0.238776 -0.175175 -0.232778 0.956623 
-0.33695 -1.0361 0.233043 -0.113713 -0.338506 0.934068 
-0.866561 -0.349401 0.241183 0.237773 0.0920635 0.966948 
-0.991827 -0.681743 0.14428 -0.672106 -0.45536 0.583885 
-1.09145 0.530618 -0.129218 -0.773295 0.36657 -0.517341 
-0.24421 0.709377 0.004472 0.331886 -0.943318 0.00188981 
-0.668455 0.686108 0.245992 0.119868 -0.110225 0.986652 
-1.09929 0.278923 0.210388 -0.519537 0.12967 0.844551 
-0.213753 0.87265 -0.228092 0.0917131 -0.392785 -0.915046 
-0.851735 0.140926 -0.208736 0.540198 -0.0990475 -0.835689 
-0.618307 -0.840881 0.245644 -0.105334 -0.141916 0.984258 
-0.162837 -0.868729 -0.220908 0.0830553 0.443402 -0.892467 
-0.758588 0.992899 0.005904 -0.604892 0.795709 0.0308728 
-1.07124 0.588325 0.113339 -0.779062 0.428651 0.457516 
-0.657614 0.787656 0.248286 -0.0565199 0.0820804 0.995022 
-0.307901 1.09389 0.208856 -0.154912 0.522536 0.838426 
-0.701643 -0.412388 0.166163 0.634093 0.39247 0.666254 
-0.425407 -0.618695 -0.013606 0.567854 0.821399 -0.0533414 
-1.03963 0.424772 -0.217438 -0.469612 0.203929 -0.858998 
-0.722638 0.202351 -0.007007 0.964814 -0.262202 -0.0196049 
-0.699871 1.01631 0.086541 -0.520676 0.776989 0.353814 
-0.565244 -0.623783 -0.193058 0.428673 0.469327 -0.771992 
-0.506824 -0.723388 -0.220595 0.266064 0.383696 -0.8843 
-0.369384 -0.689723 0.122814 0.416431 0.765423 0.490625 
-0.485595 0.641095 0.155199 0.479593 -0.623829 0.617113 
-0.615502 -0.643142 -0.22402 0.307745 0.327449 -0.893348 
-0.141531 1.22883 0.077815 -0.110145 0.944619 0.309133 
-1.17491 -0.250524 -0.147597 -0.799933 -0.174896 -0.574036 
-0.024648 1.06814 0.240212 -0.00876658 0.271869 0.962294 
-0.95159 -0.289395 0.249648 0.0294473 0.00836781 0.999531 
-0.671034 0.346808 -0.049088 0.871799 -0.447897 -0.198382 
-1.06553 -0.084011 -0.240059 -0.276315 -0.0238881 -0.96077 
-0.869049 0.45922 0.248883 0.057468 -0.0315735 0.997848 
-0.445206 1.10903 0.155833 -0.293977 0.722752 0.625465 
-0.71137 -0.266108 -0.067799 0.904398 0.3359 -0.263127 
-0.326294 1.15972 -0.142521 -0.21907 0.79364 -0.567578 
-1.13852 -0.355816 -0.158389 -0.737298 -0.236808 -0.632704 
-1.22657 0.157271 0.078872 -0.935412 0.130699 0.328514 
-1.02713 -0.358497 -0.233585 -0.330403 -0.117694 -0.936473 
-0.52371 -0.542426 0.042165 0.689152 0.704554 0.16933 
-0.578621 0.597232 -0.184136 0.466165 -0.468634 -0.750381 
-0.204098 -0.755604 0.123446 0.230636 0.839844 0.491395 
-0.049314 -1.16389 -0.187101 -0.0175657 -0.657223 -0.753491 
-1.2202 -0.040141 0.115993 -0.881479 -0.0183769 0.471865 
-0.8937 0.719302 0.20161 -0.466673 0.370223 0.803213 
-0.823545 0.846129 -0.172151 -0.512476 0.516336 -0.686123 
-0.284208 -1.06784 -0.226323 -0.11105 -0.411074 -0.904813 
-0.150379 -1.00609 -0.248867 -0.0110682 -0.0734652 -0.997236 
-0.048647 -0.868327 0.212993 0.0294238 0.522585 0.852079 
-0.889049 0.16293 -0.230768 0.379739 -0.0732996 -0.922185 
-0.033718 -1.13207 0.211407 -0.0130294 -0.529424 0.848257 
-0.069053 0.986216 -0.249257 0.0136519 -0.0509576 -0.998608 
-0.236715 1.02795 0.243431 -0.0482841 0.216526 0.975082 
-0.392878 0.99917 -0.238428 -0.121402 0.280548 -0.952132 
-0.66532 0.892392 -0.222355 -0.273938 0.363111 -0.890567 
-1.04463 -0.470334 -0.202682 -0.529791 -0.241364 -0.813059 
-0.634075 -1.06062 -0.081662 -0.481491 -0.812119 -0.329589 
-0.847624 0.36807 -0.237698 0.291971 -0.134038 -0.946988 
-0.220787 1.19181 0.131482 -0.150318 0.832801 0.532773 
-0.399991 1.1834 0.011495 -0.310992 0.94859 0.0588297 
-0.341924 1.14707 0.153707 -0.21925 0.753631 0.619653 
-0.604818 0.60733 -0.204573 0.408062 -0.404666 -0.818371 
-0.738071 0.872734 0.204434 -0.376359 0.441265 0.81464 
-0.174789 0.73039 -0.016308 0.241872 -0.969407 -0.0417967 
-0.628334 -0.899573 0.230152 -0.219762 -0.31084 0.924707 
-0.807376 -0.208004 -0.186043 0.64017 0.169048 -0.749403 
-1.04853 0.64465 -0.095731 -0.781261 0.497942 -0.376411 
-0.325549 0.788501 0.201856 0.223162 -0.54551 0.807847 
-0.700801 -0.28102 -0.047532 0.913238 0.363756 -0.183514 
-0.277361 0.782769 -0.183143 0.228883 -0.643227 -0.730665 
-1.08745 -0.178492 -0.227808 -0.408438 -0.062849 -0.91062 
-0.607545 0.568723 -0.184698 0.488593 -0.459007 -0.742017 
-0.872776 0.194068 0.225932 0.421508 -0.0858567 0.902751 
-0.483366 1.14697 -0.048373 -0.388389 0.901054 -0.193016 
-0.126126 -0.835881 -0.196195 0.104832 0.629565 -0.769843 
-0.664655 -1.02593 0.112831 -0.484206 -0.751263 0.448496 
-0.969256 0.166723 0.248919 0.0615779 -0.009463 0.998057 
-0.310034 0.95122 -0.249966 -0.00125142 -0.000547678 -0.999999 
-0.388414 -0.778998 -0.213497 0.236148 0.464781 -0.853354 
-0.967592 -0.515592 0.230608 -0.340771 -0.179065 0.922936 
-0.788952 0.024019 0.133781 0.846662 -0.0178113 0.531832 
-0.979654 -0.310715 -0.248176 -0.108402 -0.0343769 -0.993513 
-0.857516 -0.124266 -0.210829 0.523752 0.0756214 -0.848508 
-0.681186 -0.877251 -0.223559 -0.266043 -0.352714 -0.897114 
-0.685606 -0.388142 0.131526 0.740567 0.383216 0.552001 
-0.381435 0.860032 0.242581 0.0958268 -0.214374 0.97204 
-0.858881 0.375957 -0.241941 0.244373 -0.112841 -0.963093 
-0.408256 -0.748255 0.201434 0.285614 0.522187 0.803583 
-0.700585 -0.747266 0.248402 -0.0609871 -0.0716072 0.995567 
-0.866256 0.145298 0.218185 0.447527 -0.0833741 0.890375 
-0.953013 -0.202092 0.248314 0.114241 0.0196026 0.99326 
-0.714563 0.317764 -0.122058 0.801234 -0.352055 -0.483819 
-0.604174 -0.694996 0.236605 0.210349 0.238768 0.948021 
-0.317611 -0.79063 0.201207 0.222843 0.548193 0.806117 
-0.770119 -0.146557 -0.125747 0.844141 0.16082 -0.511433 
-1.13366 0.518983 -0.037452 -0.898925 0.411596 -0.150074 
-0.881693 0.865733 -0.081573 -0.674787 0.658655 -0.332921 
-0.725248 -0.378669 -0.171063 0.645205 0.335174 -0.686563 
-1.14996 -0.424792 0.10574 -0.85046 -0.317866 0.419141 
-0.621324 0.690782 -0.23939 0.19414 -0.216275 -0.956836 
-0.885818 -0.077783 -0.223554 0.436344 0.0323372 -0.899199 
-0.77943 0.249852 -0.171452 0.691167 -0.230042 -0.685105 
-1.18309 -0.402308 0.004503 -0.946933 -0.320381 0.0259451 
-0.050522 -1.22541 -0.104667 -0.031808 -0.90791 -0.417957 
-0.441122 0.702357 0.182216 0.367727 -0.58632 0.721807 
-0.669164 -1.0298 -0.101278 -0.498919 -0.766233 -0.404928 
-0.628325 0.418937 -0.047977 0.815602 -0.543771 -0.197753 
-0.006694 -0.781168 0.120451 0.0220414 0.887409 0.460455 
-1.10049 0.525981 -0.11837 -0.798052 0.370998 -0.474841 
-1.12081 -0.54094 -0.049008 -0.893273 -0.409449 -0.185511 
-0.750573 -0.210389 0.116961 0.850092 0.244348 0.466517 
-0.918402 -0.576436 -0.234809 -0.285068 -0.182608 -0.940952 
-0.046081 -0.753711 0.047894 0.0645232 0.979981 0.188347 
-0.808031 -0.047497 -0.16111 0.767806 0.0415811 -0.639331 
-1.03585 -0.390526 0.225336 -0.403126 -0.158581 0.9013 
-0.617665 -0.447741 0.077715 0.770796 0.555869 0.311261 
-0.098161 -0.980693 0.249057 0.00631504 0.0560997 0.998405 
-1.19584 -0.136059 0.144253 -0.809037 -0.0856247 0.581488 
-1.22084 0.108595 0.106254 -0.906267 0.074862 0.416023 
-0.77209 -0.426372 -0.219989 0.419061 0.223827 -0.879937 
-0.811772 0.331927 -0.217518 0.44146 -0.181662 -0.878699 
-0.651117 -0.373801 0.012612 0.864686 0.499477 0.0532906 
-0.762335 -0.012143 0.076386 0.953022 0.03292 0.301107 
-0.91937 -0.259838 -0.245487 0.174668 0.0616715 -0.982694 
-1.05569 0.659441 -0.048038 -0.832956 0.518231 -0.193962 
-0.611856 -0.928669 -0.22283 -0.246818 -0.374424 -0.893805 
-1.20647 0.301021 -0.054686 -0.944816 0.233755 -0.229525 
-0.127979 1.22726 -0.086794 -0.105743 0.931742 -0.347384 
-0.300975 1.16673 0.142217 -0.205466 0.794744 0.571109 
-0.392925 -0.714091 0.167533 0.356184 0.648698 0.672551 
-1.08109 0.00582 0.235896 -0.322708 -0.00425015 0.946489 
-1.10369 0.178871 -0.219874 -0.473484 0.0736142 -0.877721 
-0.084319 -0.750833 0.050075 0.114205 0.973408 0.19858 
-0.866254 0.551642 -0.248229 -0.0895662 0.0549606 -0.994463 
-0.80382 0.352388 0.217841 0.454019 -0.199119 0.868458 
-0.691053 0.302534 -0.044047 0.90102 -0.394316 -0.180769 
-1.05057 -0.316471 0.230204 -0.378267 -0.113112 0.91876 
-0.583474 -0.657121 0.218401 0.312763 0.357486 0.87999 
-0.784997 -0.128237 0.142909 0.805447 0.128239 0.578627 
-0.551958 1.09053 0.113272 -0.392514 0.792908 0.466079 
-0.175328 -0.86971 -0.222538 0.0831054 0.426302 -0.900755 
-0.942971 -0.644236 -0.205071 -0.464142 -0.317692 -0.826828 
-0.805904 -0.444317 0.236405 0.283408 0.155655 0.946283 
-1.01398 0.229461 -0.246468 -0.161361 0.0348957 -0.986278 
-0.561219 1.09512 0.09636 -0.413481 0.818297 0.399278 
-1.23812 -0.078817 0.066974 -0.966918 -0.0704844 0.245155 
-0.725683 -0.367263 0.165512 0.671167 0.337403 0.660071 
-0.509297 0.569873 0.081844 0.629943 -0.702652 0.330837 
-0.711291 -0.609051 0.241712 0.211051 0.180007 0.960757 
-0.963391 -0.770359 0.08788 -0.735076 -0.582127 0.34755 
-1.21823 0.273916 0.020643 -0.972733 0.212017 0.0940188 
-0.681616 -0.380931 0.119701 0.793265 0.420032 0.440799 
-0.876877 0.037921 0.21786 0.469267 -0.0196955 0.882837 
-0.667057 -0.8305 -0.24128 -0.166083 -0.203751 -0.964833 
-0.120406 0.9698 0.248509 0.0134254 -0.0902012 0.995833 
-1.23313 0.144175 0.064102 -0.955328 0.121913 0.269232 
-0.218744 -1.22402 0.054713 -0.167151 -0.959821 0.225399 
-0.9048 0.852126 -0.057288 -0.711876 0.663105 -0.231355 
-0.462832 1.14299 0.089025 -0.354109 0.865731 0.353718 
-0.417691 -0.846346 0.243186 0.0979622 0.203398 0.974183 
-0.967037 -0.668241 -0.17786 -0.578505 -0.39671 -0.712708 
-1.05977 0.035834 0.242327 -0.237122 0.00259606 0.971476 
-0.158858 0.800552 0.168729 0.155796 -0.722356 0.673743 
-0.521612 -1.08466 -0.144265 -0.356097 -0.737528 -0.573801 
-1.0726 -0.410297 -0.200849 -0.560132 -0.213012 -0.800549 
-0.291882 1.11147 0.20031 -0.1579 0.571623 0.80518 
-0.106584 0.782272 -0.134078 0.107067 -0.838522 -0.534245 
-0.232193 -0.714342 0.017798 0.308476 0.948651 0.0700283 
-0.237632 -1.17532 0.150985 -0.150569 -0.777195 0.610981 
-1.19158 -0.374867 0.01143 -0.953711 -0.295011 0.0583359 
-0.812634 -0.637181 -0.247852 -0.0910667 -0.0826324 -0.992411 
-1.04597 0.680917 -0.027928 -0.834219 0.539788 -0.112725 
-0.476069 -0.585669 0.045944 0.619286 0.763669 0.182471 
-0.848133 0.899547 0.079703 -0.647568 0.69079 0.321659 
-0.584758 -0.576034 -0.174104 0.520977 0.514416 -0.681145 
-0.61309 1.07724 0.070496 -0.473975 0.835331 0.278513 
-0.363572 0.70103 0.13438 0.383801 -0.740611 0.551536 
-0.179614 1.21567 0.099924 -0.128792 0.908079 0.398504 
-0.579256 0.52687 -0.124083 0.643021 -0.592385 -0.48539 
-0.610675 -0.436702 0.012232 0.812791 0.580186 0.0524806 
-1.20631 0.056226 0.138253 -0.833521 0.0326716 0.551521 
-0.732192 0.273945 0.121603 0.814556 -0.306771 0.492332 
-0.166843 0.741111 0.068079 0.21635 -0.937491 0.272586 
-0.704157 -1.02558 0.051318 -0.556933 -0.805952 0.200666 
-0.958649 -0.732617 -0.139786 -0.662783 -0.506909 -0.551146 
-1.19858 -0.070625 0.148584 -0.796253 -0.0478559 0.603068 
-0.530477 -0.890132 -0.247143 -0.0761965 -0.131744 -0.988351 
-1.0258 0.496947 -0.206543 -0.509719 0.242108 -0.825573 
-0.653329 -0.471786 0.157054 0.638276 0.450805 0.624002 
-0.342297 -0.93093 0.249471 0.0102838 0.0283146 0.999546 
-0.153627 -1.17769 0.164273 -0.0979106 -0.749748 0.65444 
-0.183361 0.903627 -0.236995 0.0584773 -0.295801 -0.953458 
-0.767883 -0.450143 -0.223983 0.387963 0.225102 -0.893764 
-0.556819 0.967779 0.220649 -0.22833 0.403646 0.885966 
-0.733025 0.855426 -0.215455 -0.32301 0.390063 -0.862273 
-1.02424 -0.211556 -0.245218 -0.183328 -0.0410597 -0.982194 
-0.498613 1.08192 0.160135 -0.324349 0.696128 0.640471 
-0.449731 1.01217 0.225087 -0.183644 0.391965 0.901464 
-1.15462 0.445767 -0.075894 -0.888614 0.33941 -0.308491 
-0.05443 1.10968 0.223401 -0.0200363 0.448346 0.893636 
-0.87691 0.879897 -0.06071 -0.685207 0.682735 -0.2537 
-0.76231 -0.989811 0.009009 -0.611082 -0.790813 0.0345424 
-1.17626 0.42129 0.008614 -0.939712 0.34036 0.0331114 
-1.17625 -0.385345 -0.075552 -0.905619 -0.291592 -0.307942 
-1.24255 0.001775 0.059235 -0.97059 0.00213025 0.24073 
-1.04846 -0.4102 -0.215902 -0.463595 -0.179556 -0.867663 
-1.12935 0.065536 0.212276 -0.525184 0.0326191 0.850364 
-0.745756 0.602135 0.246109 0.127567 -0.107051 0.986036 
-0.774063 0.017807 -0.106321 0.905351 -0.0263562 -0.423845 
-1.20831 -0.280665 -0.06744 -0.93761 -0.23957 -0.251978 
-0.812953 -0.253613 -0.200904 0.565356 0.178184 -0.805371 
-0.680258 1.03188 -0.080838 -0.522848 0.790071 -0.320029 
-1.03521 0.145721 -0.245305 -0.180014 0.0233457 -0.983387 
-0.41437 -0.911277 0.249926 0.0121273 -0.0216867 0.999691 
-1.14045 0.243803 -0.185963 -0.651829 0.145135 -0.744349 
-0.630549 -0.48486 -0.142913 0.648798 0.498282 -0.575132 
-1.18258 0.355516 -0.08411 -0.902592 0.274138 -0.331928 
-0.494483 -1.13037 0.087166 -0.370761 -0.86263 0.344102 
-0.605717 -0.782015 -0.249292 0.017558 0.0383168 -0.999111 
-0.201194 0.773313 0.148376 0.202709 -0.77906 0.593274 
-0.385843 -0.669115 -0.10259 0.457505 0.789303 -0.409499 
-0.209982 -0.802237 -0.182127 0.174455 0.65995 -0.730775 
-0.142914 1.19468 -0.144848 -0.0930272 0.807536 -0.582435 
-0.832392 -0.817147 0.18576 -0.475226 -0.466767 0.745848 
-0.037944 -1.07731 0.23695 -0.00849187 -0.30981 0.950761 
-0.832883 0.879417 0.132851 -0.57497 0.621911 0.531635 
-1.15014 0.169318 -0.189251 -0.641198 0.0936709 -0.761637 
-0.321439 1.20013 0.059494 -0.264526 0.932319 0.246592 
-0.825655 0.615945 0.248025 -0.090169 0.0598641 0.994126 
-0.790182 -0.932868 -0.11257 -0.581735 -0.677162 -0.450594 
-0.741751 0.158329 -0.064694 0.95019 -0.205676 -0.23417 
-0.604288 -0.51756 -0.143212 0.617238 0.536386 -0.575593 
-0.015139 1.08418 -0.234808 0.00347055 0.333809 -0.942634 
-1.23678 -0.136933 -0.049899 -0.970474 -0.110067 -0.214628 
-0.578524 0.592798 -0.181294 0.475325 -0.473533 -0.741507 
-0.257327 0.966998 -0.249953 -0.000390777 0.0043923 -0.99999 
-0.404936 -1.18176 0.010548 -0.323188 -0.945495 0.0398615 
-0.937121 0.792978 -0.102319 -0.697884 0.592674 -0.402114 
-0.483796 1.15237 0.002051 -0.392606 0.919692 0.00516557 
-1.21014 0.302227 -0.035338 -0.958884 0.237777 -0.15493 
-1.01489 -0.028128 -0.248996 -0.0558768 -6.84294e-18 -0.998438 
-0.894577 0.408057 -0.248907 0.0656839 -0.0219111 -0.9976 
-1.11379 -0.5476 -0.065504 -0.878368 -0.402825 -0.257298 
-0.510639 -0.549534 0.003299 0.684395 0.728887 0.0180771 
-0.419995 -0.800627 -0.230887 0.183829 0.346714 -0.91978 
-1.13506 0.230399 -0.193023 -0.625991 0.135816 -0.767912 
-0.531287 1.0281 0.193813 -0.286142 0.561258 0.776603 
-0.387148 0.696092 0.144558 0.396276 -0.709311 0.582961 
-0.323173 -0.866373 0.237903 0.109722 0.285905 0.951956 
-0.445314 1.06 0.19994 -0.237508 0.550547 0.800305 
-0.560412 0.631963 -0.195625 0.400114 -0.473487 -0.784677 
-0.521807 -0.964475 0.230493 -0.170105 -0.314166 0.934004 
-0.744675 -0.962658 -0.123757 -0.525781 -0.69222 -0.494354 
-0.895581 -0.785617 0.160093 -0.575736 -0.506896 0.641548 
-0.384166 1.09373 0.192105 -0.206962 0.604247 0.769449 
-0.890051 0.337693 -0.244806 0.189753 -0.0807059 -0.978509 
-1.18079 -0.071226 0.16965 -0.747826 -0.0384877 0.662779 
-0.967183 -0.730277 0.13174 -0.669455 -0.517743 0.532702 
-0.933867 -0.094176 -0.242144 0.243826 0.027282 -0.969435 
-0.997167 0.355588 -0.242679 -0.225596 0.0683908 -0.971818 
-0.22176 0.721056 -0.044086 0.285613 -0.942613 -0.172935 
-0.138178 0.876189 -0.222464 0.0747879 -0.446411 -0.891697 
-0.681974 1.03129 0.079557 -0.527902 0.786007 0.321732 
-0.383414 -1.16203 -0.110498 -0.283147 -0.849412 -0.445339 
-1.24648 -0.092766 0.000934 -0.998283 -0.0584022 0.00458561 
-0.923015 0.355517 0.249287 0.0379918 -0.017805 0.999119 
-0.286382 -0.759457 0.16365 0.269197 0.707459 0.653479 
-1.01021 0.097652 0.249021 -0.0592917 -0.00107972 0.99824 
-0.737019 -0.256271 -0.118639 0.828088 0.293378 -0.477703 
-0.016732 0.752562 -0.035791 0.0231696 -0.989869 -0.140083 
-0.808104 0.681417 -0.242988 -0.17229 0.13073 -0.976333 
-1.00373 -0.59243 0.18658 -0.571716 -0.334796 0.749034 
-1.00564 0.053968 0.249532 -0.0328832 -4.02702e-18 0.999459 
-0.806754 0.597325 -0.249749 -0.0163021 0.0195102 -0.999677 
-0.162979 0.930093 -0.243269 0.0392374 -0.225539 -0.973444 
-0.770493 -0.790075 0.227031 -0.300708 -0.293584 0.907405 
-0.730717 -0.576313 -0.239916 0.216929 0.168749 -0.961491 
-0.5026 -0.833621 0.248259 0.0509639 0.0911706 0.99453 
-0.723903 -0.235309 0.072672 0.908053 0.291119 0.301147 
-0.623951 1.01255 -0.162327 -0.39792 0.644622 -0.65278 
-0.792306 0.017323 -0.138508 0.833887 -0.0096724 -0.551851 
-1.02874 0.595218 0.163286 -0.653421 0.379442 0.655031 
-0.450611 -1.06755 0.192519 -0.243594 -0.586283 0.772615 
-0.90407 0.004208 -0.230867 0.389074 -0.000419331 -0.921206 
-0.660737 -0.395192 0.097457 0.782733 0.471516 0.406203 
-0.97225 0.749026 0.102934 -0.722037 0.556884 0.41054 
-0.064998 0.951763 0.245208 0.0121631 -0.175339 0.984433 
-0.815118 -0.94648 0.013609 -0.650193 -0.757435 0.0595152 
-0.732204 0.172017 -0.032904 0.954116 -0.246423 -0.170112 
-1.14811 0.004317 0.20103 -0.592226 0.00641452 0.805746 
-0.914887 0.817831 -0.103291 -0.681057 0.609055 -0.406465 
-0.16678 0.735042 -0.040702 0.245963 -0.953141 -0.176137 
-0.833755 0.92484 0.045921 -0.660089 0.728809 0.181987 
-0.975802 -0.729249 0.121486 -0.689414 -0.52767 0.496258 
-0.319452 -0.781412 -0.195197 0.237065 0.576851 -0.781692 
-0.685202 -1.03498 0.065252 -0.543301 -0.799575 0.255937 
-0.171088 1.12042 0.210858 -0.0777597 0.530905 0.843856 
-0.806091 0.222601 -0.188216 0.634989 -0.175866 -0.752237 
-0.318505 0.681058 -0.028794 0.423173 -0.89914 -0.111675 
-0.678941 0.410407 -0.139789 0.711587 -0.425217 -0.559315 
-0.481526 0.755288 -0.226743 0.227569 -0.354771 -0.906835 
-0.618889 -1.07156 0.076355 -0.481127 -0.821213 0.3068 
-0.65587 -0.418907 -0.114398 0.743986 0.47572 -0.469229 
