0.76264 -0.0633837 0.344644 0.43314032 -0.41489591 0.80015676
0.193611 -0.418401 -0.570888 0.017136307 -0.50770351 -0.86136142
0.666441 -0.674568 0.614904 -0.057389308 0.66447264 -0.74510575
-0.364309 0.690313 -0.0111298 -0.84461828 0.48040256 0.2362908
0.514075 0.216212 -0.420796 0.80000216 -0.2372464 0.55109952
0.522644 -0.758745 0.111938 0.26266833 -0.92965464 -0.25835556
0.347873 0.563412 0.324381 0.67323079 -0.16614939 0.72052389
0.65031 -0.760222 0.516915 0.31281366 -0.83078377 0.46037587
0.414446 0.938973 -0.021483 -0.25130701 0.47695717 -0.84223313
0.203983 1.09759 0.15885 0.0059094399 -0.96610726 0.25807331
-0.0460029 0.498241 0.407583 0.05471136 -0.88818913 -0.45620909
-0.671127 0.1539 0.0627905 -0.3927339 0.79568217 0.46113986
0.874364 -0.474038 0.504465 -0.064123979 0.87321052 0.48310611
-0.785317 -0.0271119 -0.407732 -0.74815182 0.33821185 -0.5708604
0.299366 -0.600514 0.656304 0.063142301 -0.87450816 -0.48088307
-0.956294 -0.43608 0.191083 -0.55342306 0.22720983 0.80131056
0.336933 -0.630459 -0.190635 -0.90386969 -0.23182397 0.35955144
0.562332 -0.80803 0.262096 -0.90954703 0.053838575 0.41209902
-0.305241 0.0662001 -0.630154 0.062971416 -0.87175916 -0.48587094
0.667981 -0.582024 0.680113 0.39765617 -0.40112169 0.82520965
-0.0997102 0.714544 -0.400161 0.61789085 0.41012031 -0.6708295
-0.348106 0.488602 0.135033 0.93789609 -0.24783427 -0.24275317
-0.445264 -0.381725 0.292205 -0.34022487 0.3265236 -0.88183296
0.482644 -0.0219216 0.517242 -0.089016393 -0.78036363 -0.61895774
-0.41178 0.0351692 -0.588286 0.063204617 -0.87198536 -0.48543455
-0.177787 0.522105 0.34474 0.58838441 -0.04904522 -0.80709253
-0.826948 -0.462706 0.256524 0.064870427 -0.87276778 -0.48380598
0.485334 0.550752 -0.244511 -0.41124741 0.39695495 -0.82055002
0.482416 -0.141188 -0.578477 0.74826929 -0.09334579 -0.65679497
-0.72039 -0.641467 -0.229748 -0.42038255 -0.089740555 -0.90289819
-0.397271 -0.585281 -0.361339 -0.39195195 0.24162998 -0.88768723
-0.828043 0.0284058 0.147871 -0.37264195 0.34626354 -0.86095269
0.293089 -0.78416 0.222505 -0.26550365 -0.95456287 -0.1353423
-0.860579 0.00498684 0.152514 -0.43608713 0.67522318 0.59489635
0.38306 0.128355 -0.65053 0.62470716 0.1556133 -0.76519636
-0.265067 0.811375 0.25067 0.81571953 -0.14341495 -0.56038719
0.335716 0.210015 0.366746 0.90355556 0.23785251 -0.35638957
0.413662 0.821683 -0.180721 -0.82649214 -0.30663736 0.47210621
0.501414 0.0665696 -0.522982 0.77745106 -0.13492342 -0.61430084
0.108092 0.888686 -0.349601 -0.017198944 -0.58154944 0.81332924
0.177016 -0.478571 -0.494569 -0.60801968 -0.78507427 -0.11819669
-0.638271 -0.549855 -0.394946 0.6032349 0.72667996 0.32870031
-0.089933 0.492081 -0.523733 0.90344916 0.23782954 -0.35667452
-0.435475 -0.594192 -0.346879 0.40577603 -0.46201619 0.78859803
0.412435 -0.698202 -0.044492 -0.90431077 -0.22562634 0.36237381
-0.617046 -0.630574 -0.275264 0.073238525 -0.98323854 -0.16696734
-0.685177 0.115326 0.119779 0.34772706 -0.78866499 -0.50704381
0.0282216 0.497047 0.418663 -0.05808412 0.16761038 0.98414074
0.34295 -0.789287 0.192947 0.098541545 -0.96602968 0.23890629
-0.244217 0.549533 0.282486 -0.63352456 0.33084674 0.6994191
0.112697 -0.404331 -0.608047 0.61245043 -0.40462061 -0.67910723
0.298543 0.323334 0.348115 0.88612438 0.23383605 -0.40013034
0.851782 -0.259777 0.194286 0.84483464 0.33785689 -0.41485799
0.126405 0.990749 0.35699 -0.74026193 -0.60791888 -0.28713569
-0.0231572 1.13079 0.0713952 -0.24434736 0.9628069 0.11531367
-0.0928183 1.02884 -0.173109 0.50469231 0.59499131 -0.6255166
0.165308 0.905774 0.398905 0.26137845 0.3727744 0.89034856
0.340884 -0.0736988 0.566734 0.018633285 0.43135441 0.90199012
0.307059 -0.092532 0.575166 0.058512063 0.26856344 0.96148324
0.128078 -0.657099 0.377673 0.19193778 0.65151192 -0.73395648
0.810828 -0.124758 0.286691 0.90337174 0.41401987 0.11183485
0.436107 0.87402 -0.0636166 0.89165463 -0.027602409 0.45187401
0.657516 -0.0747489 -0.246565 -0.063636679 0.87353109 0.48259073
-0.236803 -0.54665 -0.421491 0.40457717 -0.40016756 0.82230362
-0.868412 -0.629357 -0.151121 0.4037986 -0.40056082 0.82249482
-1.002 -0.168025 -0.299757 -0.063163124 0.8727412 0.48407977
-0.799107 -0.640553 -0.190613 -0.23077344 -0.92669557 -0.29661244
0.472047 -0.614018 0.703812 -0.061340509 -0.091658702 0.9938994
-0.105894 0.118962 -0.698918 0.33115243 -0.61089238 0.71913042
-0.376289 0.0454936 -0.602213 0.060688025 -0.86956771 -0.49007036
0.252954 -0.553496 -0.352111 -0.90333836 -0.24065612 0.35505554
0.668999 -0.620086 0.657717 0.37064293 -0.50467078 0.77969945
-0.00841481 -0.16264 -0.753763 0.9035804 0.2378097 -0.35635517
-0.103059 0.841298 -0.324116 0.532214 -0.4568505 0.71276636
0.843967 -0.213171 0.222771 0.97673609 0.21409031 0.012326451
-0.763682 0.159033 -0.199424 -0.91723345 -0.24269655 0.3158816
-0.958549 -0.584655 -0.0851461 0.40517892 -0.39813409 0.8229941
-0.0838549 0.359383 -0.596817 0.99352641 0.086418208 -0.073737179
0.503229 -0.069228 -0.553825 0.049837915 0.34777763 -0.93625152
-0.252077 0.806519 -0.228695 0.63627874 -0.66010262 0.39926671
0.266036 -0.591531 0.635601 0.065430207 -0.8726762 -0.4838958
0.452451 0.801418 -0.106938 -0.9263011 -0.30791402 0.21715257
-0.787838 -0.465073 0.266032 0.063744359 -0.87537616 -0.47922148
-1.0229 -0.499713 -0.0123431 0.12939872 0.62752718 -0.76776664
0.619686 -0.00850537 0.45032 -0.4768381 -0.38312882 -0.79109907
-0.899751 -0.0265485 0.156481 -0.40558376 0.40026685 -0.82175925
0.582904 -0.000876692 -0.390124 -0.3232111 -0.90274692 -0.28387072
-0.0509378 1.12371 -0.0037259 -0.90384224 -0.2366937 0.35643414
0.0841029 0.50046 0.418436 0.047935026 0.18199605 0.98213017
0.0925155 -0.377008 -0.640962 0.72158371 -0.22172875 -0.65586074
0.178755 0.513715 0.403218 0.23707597 0.00015591597 0.9714911
0.792553 -0.219283 0.0328537 -0.27303212 -0.89940973 -0.34134382
-1.01955 -0.173164 0.1443 0.79833995 -0.27012426 -0.53822505
0.12321 -0.448244 -0.550751 0.23620138 -0.9073567 -0.34772507
0.296691 0.870523 -0.291414 -0.52483038 -0.63625942 0.5654441
-0.523332 0.21698 0.0895014 0.44494633 -0.45384887 0.77203884
0.120836 -0.313658 0.560439 0.48552928 0.11549773 -0.86655732
-0.963548 -0.147257 -0.332167 0.58314661 0.074438007 0.80894933
0.607565 -0.813314 0.373196 -0.45511064 0.88766024 0.070239688
0.109402 -0.350275 0.547536 0.29579107 0.27322053 -0.91534594
0.379861 0.84017 -0.221391 -0.60746668 -0.76280099 0.22162778
-0.103197 0.875054 -0.301953 0.30505789 -0.54188878 0.78313232
-0.208379 0.915305 0.273183 -0.40673363 0.40034731 -0.8211515
-0.777718 0.0611243 0.138994 0.54799789 -0.7761796 0.31183899
-0.0915395 0.526684 -0.504728 0.90263691 0.23863055 -0.35819279
0.637686 -0.394557 0.728764 0.054801829 0.066366718 -0.99628922
0.309527 1.06432 0.0908464 0.40563246 -0.39725559 0.82319518
0.813711 -0.474616 0.102932 0.78174735 -0.20828002 -0.58778441
-0.0794292 -0.448132 0.330108 0.54633065 0.46771256 -0.69481493
-0.24977 0.84727 0.260553 -0.40435385 0.39885697 -0.82304987
-0.786497 0.0179429 -0.375772 -0.89302684 0.27572126 -0.35564147
0.466946 -0.176405 -0.587943 -0.40485174 0.39902092 -0.82272558
-0.55279 -0.00533118 0.278252 0.11713351 -0.5204192 -0.84583899
0.444411 0.840404 -0.08399 0.97155723 0.10218553 0.21362272
-0.0966868 1.00071 -0.201674 -0.95646571 -0.13645877 0.25797743
-0.655481 0.139941 0.096854 -0.33716053 0.79172831 0.50940069
-0.306285 0.591456 0.191964 0.87370678 0.00094269721 -0.48645203
0.0332845 1.10543 0.197501 -0.17360513 0.88982686 0.42198272
0.512941 -0.779516 0.155963 -0.43731468 0.77210581 0.46109488
-0.277508 0.774852 0.239084 0.65234096 -0.41357967 0.63514025
0.511891 0.25131 -0.402712 0.64445398 -0.31686267 0.69590022
0.316902 0.145251 -0.689929 0.066103554 -0.87166404 -0.4856255
-0.087797 0.445857 -0.549137 0.90140113 0.23983407 -0.36049357
0.437967 -0.224955 -0.597231 -0.40834138 0.40113237 -0.81996959
-0.110479 -0.516112 -0.46878 0.4044414 -0.39748811 0.82366884
0.749175 -0.17178 -0.0588482 -0.00509934 -0.88912601 -0.45763407
-0.053932 0.0352396 -0.737142 0.2080541 0.26544168 -0.94141075
0.270862 0.535091 0.371582 -0.44616534 0.094924804 -0.88990211
-0.468943 -0.627609 0.0311351 -0.91510275 -0.24837034 0.31764625
0.517668 0.11022 -0.473939 0.96954746 -0.10231741 0.22250591
-0.0743695 -0.507341 -0.482278 0.40473228 -0.4030002 0.82084263
0.0936513 -0.46363 0.496996 0.89147053 0.16036795 -0.42374806
0.23536 -0.145058 0.58648 0.43269954 -0.41814031 0.79870507
-0.37186 0.4249 0.115831 -0.24396317 0.35516044 -0.90240957
-0.388041 0.389063 0.106413 -0.87577332 0.34858419 0.33393135
0.253247 -0.386688 -0.584829 0.085287233 -0.45726827 -0.88522981
0.322048 0.246577 0.356489 0.90385259 0.23813524 -0.35544634
-0.727973 -0.46554 0.274883 0.064699052 -0.8723803 -0.48452725
0.793437 -0.0974313 0.310301 -0.86677286 -0.45643418 -0.20092949
0.476179 0.764157 -0.0591631 -0.84531576 -0.53420936 -0.0078495168
-0.070975 0.16524 -0.693647 -0.62659831 0.24696954 -0.73917562
0.584794 -0.602955 0.698876 0.21812959 -0.58569888 0.78062559
0.726418 -0.0379851 0.377404 0.4319296 -0.41607022 0.80020147
0.7033 -0.122994 -0.153203 -0.065231086 0.8730998 0.483158
-0.988783 -0.122048 0.153952 -0.73461934 0.45217982 0.5058338
-0.524023 -0.659376 -0.152242 -0.48669313 0.84785546 0.21040655
-1.09555 -0.300753 -0.0722438 -0.44861301 0.76956439 0.45444143
0.0338321 -0.478375 -0.521424 0.38238834 -0.84420996 0.37561776
-0.323033 0.607038 0.15906 0.90152451 -0.036996067 -0.43114365
-0.32591 0.567341 0.162289 0.86218683 -0.04605734 -0.50449242
0.18483 0.849906 0.411118 0.89742366 0.23331196 -0.37442796
0.439658 0.00789139 0.495341 0.17207994 0.71057986 0.68224978
0.515138 0.020925 -0.51598 0.53411013 0.31520512 -0.78445656
0.138668 0.507093 0.411669 0.15778317 0.057941002 0.98577244
-0.489676 -0.164981 0.334534 0.91514323 0.24976555 -0.31643332
-0.783175 -0.06436 -0.430789 -0.44227987 0.4186487 -0.79317198
-0.0101745 -0.490892 -0.505859 0.40586626 -0.67292637 0.6184195
0.422856 0.0352428 0.471006 -0.24873777 -0.69573205 -0.67385936
-0.182683 -0.533514 -0.441723 0.40444386 -0.3975877 0.82361956
0.113779 0.152015 -0.729315 -0.036258692 0.43405518 0.90015632
0.663572 -0.536003 0.700031 -0.52103441 0.24474814 -0.81769279
0.225468 0.694165 0.410234 -0.72222629 -0.091496842 -0.68557824
0.515849 0.181005 -0.438732 0.77513268 -0.25835232 0.57656172
0.42959 0.616197 0.22916 -0.054616139 0.89226001 0.44820659
-0.471559 -0.602345 -0.333096 0.13895529 -0.97232206 -0.18783301
-0.51893 -0.0800979 0.316988 0.91488159 0.24989169 -0.31708962
0.445874 -0.727058 0.0209996 0.85109229 0.47232095 -0.22924842
0.0688372 1.09504 0.224042 0.021730923 -0.91129382 -0.41118285
-0.741016 0.179301 -0.118319 -0.91592998 -0.2450361 0.31785151
0.47524 0.084143 -0.558261 0.61454735 -0.39709394 -0.68165091
-0.00420597 0.877941 -0.341438 0.22809102 -0.65057557 0.72437968
0.437431 0.805088 -0.144978 -0.87804586 -0.22949671 0.41996038
0.234976 -0.580931 0.612285 -0.1917024 0.7792549 0.59666741
-0.0201637 -0.12155 -0.756134 0.96578212 0.25932655 -0.0038263485
0.706861 -0.630814 0.079209 -0.43114166 0.41634516 -0.80048334
-0.451349 0.287839 0.088467 -0.76021938 0.5962357 0.25801064
0.400007 0.96945 0.000385937 0.7372855 0.61035891 -0.28960678
0.484413 0.694036 0.0810376 -0.98988165 0.091990861 -0.10803706
-0.726551 0.0915628 0.128596 0.23326359 -0.6669025 -0.70769284
-0.742768 -0.303292 -0.502065 0.50820207 0.11762973 0.85316698
0.596488 -0.722177 0.0911577 0.24556857 -0.65283721 -0.7165889
0.431883 -0.614764 0.699789 0.13333064 -0.35732388 -0.92441472
0.653979 -0.0127152 0.429634 0.50621292 0.57525787 0.64251604
-0.491282 -0.651066 -0.0515362 0.2953698 -0.95039187 0.097529322
0.140212 -0.267692 0.57393 0.64035118 -0.13210792 -0.75663589
0.0414476 -0.490204 0.422345 -0.68489975 -0.49431427 0.53531834
0.53237 -0.609647 0.703968 0.057479033 -0.12096416 0.99099134
-0.0376383 1.12946 0.0338122 -0.2967384 0.9548305 0.01565363
0.786917 -0.524851 0.0912211 -0.78324874 0.36890747 0.50042851
0.274592 0.431204 0.359357 -0.64213001 -0.020272536 -0.76632766
-0.215187 0.822362 -0.255832 0.3688897 -0.9294455 0.007173054
0.272322 -0.115451 0.581965 -0.11831406 0.38202802 0.91654589
0.549762 -0.164031 0.659696 -0.044618647 -0.61884783 -0.78424265
0.00829322 1.12163 0.144976 -0.086100594 0.96363155 0.25298405
-1.04872 -0.426241 0.035961 0.7107811 0.47674789 -0.51720564
-0.849758 -0.09902 -0.404185 0.37132838 0.28816327 0.88265348
-0.347166 -0.42904 0.259784 0.024882335 -0.3258193 0.94510457
-1.07165 -0.22291 -0.209817 -0.063557139 0.87313099 0.4833247
0.499203 -0.0827676 0.585766 -0.1284588 -0.73445448 -0.66638949
-0.093795 0.575653 -0.477782 0.90218796 0.23906561 -0.35903275
0.902438 -0.391538 0.359031 -0.98476657 0.11108906 0.13376852
-1.05069 -0.264342 0.115405 0.29481212 0.28551698 -0.91190233
-0.760541 -0.226596 -0.493003 -0.88309428 -0.082993083 -0.46179719
0.233602 0.654997 0.404723 -0.81318758 -0.076802625 -0.57691189
-0.708323 0.177335 -0.0258158 -0.75515033 0.53861987 0.37367982
-0.361406 0.667605 0.0343009 -0.77187246 0.52287358 0.36168511
-0.782804 0.0917774 -0.307211 -0.5479552 0.65681876 -0.51800986
0.147679 -0.541648 0.529577 -0.7448223 -0.18301591 0.64167353
-0.251739 0.0815683 -0.650793 0.067746429 -0.87645555 -0.47669287
-0.54122 -0.654517 -0.1979 -0.20616951 0.94686941 0.24684498
-0.815703 -0.0869362 -0.42148 0.43008288 0.067664033 0.90025013
0.476527 0.633989 -0.199832 -0.29741968 0.42766011 -0.85360902
0.47725 0.675793 0.116419 0.93024343 0.17484403 0.32260925
0.357998 0.157983 0.38851 -0.24092788 -0.51821954 -0.82061091
-0.60635 -0.595553 -0.338982 0.12164039 -0.7870715 -0.6047496
0.5087 0.295049 -0.37994 -0.39858885 0.40048634 -0.82506825
-0.123007 1.0002 0.272369 -0.26524223 0.47049376 0.84159502
0.505112 0.338699 -0.357017 -0.38694868 0.40365563 -0.8290554
0.267608 0.469241 0.367025 -0.21261856 0.13691144 -0.96749605
-0.900939 -0.618665 -0.129947 0.40368164 -0.40041968 0.82262094
0.869365 -0.315796 0.217649 0.92388533 -0.10945579 -0.36668152
-0.933017 -0.132811 -0.354212 0.17534127 -0.91974933 -0.35116464
0.205806 -0.569143 0.587063 -0.13917517 0.82785369 0.54340459
-0.359513 -0.576311 -0.375548 0.40453676 -0.39928745 0.82275121
-0.33762 0.623191 0.125278 0.93345469 -0.032247018 -0.35724287
0.069689 -0.467084 -0.533574 0.36009582 -0.9147465 0.18322076
-0.509357 -0.610483 -0.318463 -0.25829547 -0.40834521 -0.87552136
0.841738 -0.398637 0.127383 0.87747408 -0.05110739 -0.47689336
-1.05365 -0.204435 -0.240816 -0.060289906 0.87231242 0.48521765
0.0179804 0.141821 -0.723692 0.12331167 0.00059140738 0.99236782
-0.295786 -0.425693 0.260602 -0.087955057 -0.11110346 0.98990905
-0.101641 0.773302 -0.365866 -0.99974575 -0.019281231 -0.011690472
0.520422 -0.115401 0.617778 -0.67298423 -0.67781429 -0.29607433
-0.102717 0.90792 -0.278828 -0.10125199 0.59404364 -0.79803521
-0.677599 -0.0428117 -0.48281 0.27420397 -0.96049142 -0.047627972
0.566392 -0.008604 0.479012 -0.35175277 -0.54168393 -0.76344516
-0.884943 -0.11245 -0.384599 0.39281247 0.3074495 0.86670247
0.830261 -0.434776 0.114755 0.76937694 -0.072655726 -0.63464972
-1.09096 -0.319839 -0.0371202 -0.90976446 -0.41016559 -0.063975122
-0.097244 0.653293 -0.434755 -0.90656574 -0.23468504 0.35080121
-0.763324 -0.642199 -0.209001 -0.084786619 -0.98644015 -0.1405242
-0.639645 0.123958 0.129864 -0.33335144 0.75102655 0.5699438
-1.03922 -0.390409 0.0974113 0.86865432 0.13908949 -0.4754932
-0.213255 0.535118 0.31474 -0.55799266 0.35838163 0.74846964
-0.482879 0.0145267 -0.560464 0.062910836 -0.8717127 -0.48596214
0.151538 -0.697641 0.343907 0.52514107 0.74429912 -0.41260839
-0.722138 0.181095 -0.0626078 -0.77777095 0.54681669 0.30994169
-1.09641 -0.281305 -0.107527 -0.99787965 -0.029005445 -0.058265677
0.216345 0.521401 0.392368 0.34506799 -0.37285127 0.86134198
-0.11388 -0.439883 0.310583 0.064881276 -0.87298437 -0.4834136
0.453228 0.640143 0.184383 -0.054120921 0.89207365 0.44863741
-0.450244 -0.345099 0.306622 -0.19637314 0.29092295 -0.93637675
0.390557 -0.61337 0.69174 0.064913858 -0.87258668 -0.48412672
0.238933 -0.768033 0.260112 0.40306806 -0.46331433 0.78922492
0.53791 -0.795615 0.208495 -0.68471659 0.56360053 0.46207969
0.466715 0.657764 0.15098 -0.05519143 0.8921125 0.44842969
0.421934 0.112938 -0.617457 -0.50788168 0.43779461 0.74188414
0.0761482 1.06419 0.278614 0.41881214 -0.62332975 -0.66034567
0.269783 -0.569201 -0.319937 -0.90380838 -0.23255854 0.35923103
-0.272951 -0.555437 -0.40798 0.4046957 -0.40245271 0.82112923
0.671501 -0.665413 0.0802626 0.06339634 -0.14539128 -0.98734101
-0.589073 0.171049 0.0995504 0.42803942 -0.77048477 -0.47237218
0.00364274 -0.199694 -0.747919 0.90425656 0.23854533 -0.35414149
-0.230927 0.882208 0.268226 -0.4044834 0.39888298 -0.8229736
-0.187557 -0.428268 0.279732 0.31124382 0.29417237 -0.90365364
0.470869 -0.747771 0.070521 0.3617452 0.91366059 0.18537729
-0.359226 0.716354 -0.0622364 -0.049264441 0.89176408 0.44981089
-0.712671 -0.398804 -0.490439 0.91506565 0.25011422 -0.31638228
0.578138 -0.813301 0.298638 0.51360661 0.84786235 -0.13167262
0.320165 -0.615248 -0.222982 -0.90398435 -0.22968872 0.36063192
-0.447317 -0.576076 0.133784 -0.21300349 0.82822892 -0.51833037
-0.622272 -0.573892 -0.367787 -0.080302871 0.74697296 0.659987
-0.0782347 0.254691 -0.652388 -0.99453404 -0.013480095 -0.10353907
0.720529 -0.141265 -0.117858 -0.062623238 0.87379531 0.48224484
0.210789 -0.512916 -0.431889 0.69406695 0.7198515 0.0092133321
0.012481 -0.478262 0.396881 -0.58430889 0.1729047 0.7928979
-0.946889 -0.0713541 0.157933 -0.40625697 0.40051815 -0.82130414
-0.545617 -0.617818 -0.304194 -0.11656324 -0.74576779 -0.65592943
-1.05511 -0.391694 0.0558541 0.85538166 0.33247893 -0.39721527
-0.149984 -0.433151 0.293582 0.066064541 -0.87153496 -0.48586241
-0.533449 -0.0457457 0.302174 0.91501436 0.2505232 -0.31620696
-0.587152 -0.456436 0.277243 0.099416848 -0.86192046 0.49720157
0.150853 0.941 0.385762 0.24150532 0.48182177 0.84233186
-0.308972 0.774023 -0.170851 -0.053323647 0.89204772 0.44878442
-0.53617 -0.000975965 -0.539552 0.062113002 -0.87094948 -0.487431
-0.647481 -0.461742 0.278774 -0.055721062 0.73416377 0.67668214
-0.171359 0.838019 -0.281775 0.4360571 -0.84920226 0.29784179
0.395652 -0.683381 -0.0771402 0.88660135 0.35833656 -0.29246018
0.0321669 1.08548 0.237435 0.13832671 -0.89738054 -0.41901538
0.623292 -0.804636 0.418832 -0.9037957 -0.23689362 0.35641933
-0.133966 0.849506 -0.300198 0.46851384 -0.30125978 0.83050426
-0.677362 -0.480293 -0.45281 0.33276946 0.62088892 0.70976154
-0.752291 -0.26488 -0.499315 -0.97426306 -0.22327218 -0.031000403
0.596379 -0.261364 0.712913 0.90348176 0.23773698 -0.35665367
0.066682 0.147912 -0.728191 0.053222267 0.052544066 0.99719933
-0.684354 -0.639003 -0.246266 0.1222978 -0.98806128 0.093691811
0.490679 0.495148 -0.274089 -0.40364088 0.39914821 -0.82325862
0.703594 -0.574286 0.662917 0.50500266 -0.57664312 0.64222662
0.241144 0.615986 0.397822 -0.69050132 0.0093360972 -0.72327088
-0.0259039 -0.464334 0.366561 -0.20253914 0.75663335 0.62167827
-0.505139 -0.65783 -0.0967034 0.24370979 -0.969759 0.013153767
0.0851853 -0.510431 0.464768 0.72945285 0.40578569 -0.55066915
-0.296607 0.701002 0.212674 0.57306081 0.15557883 -0.80460956
-0.100899 0.95086 -0.245589 0.43562834 0.55650557 -0.70748109
0.739332 -0.593064 0.0813578 -0.43402371 0.41850053 -0.79779743
0.763223 -0.549599 0.626245 0.6442392 -0.53568576 0.54589067
0.17806 -0.556539 0.560563 -0.067264202 -0.92637007 -0.37055906
0.616884 -0.0334928 -0.326601 -0.14065679 -0.90824807 -0.39408263
-0.0854337 0.393969 -0.577753 0.90306306 0.23820647 -0.35740003
-0.478737 -0.6402 -0.00691902 -0.91507764 -0.24834894 0.31773529
-0.785279 0.0645028 -0.335731 -0.98237769 0.15767093 -0.10036911
-0.0903941 1.02347 0.26762 0.53474336 -0.83149736 -0.150538
0.593282 -0.815258 0.335706 -0.35067531 0.92539453 0.14377687
0.517092 0.145654 -0.45648 0.873286 -0.19802016 0.44515119
-0.441438 -0.417527 0.275114 0.25834007 -0.41795021 0.87096385
0.823465 -0.516343 0.574164 0.73185073 -0.022104245 0.68110638
0.501856 0.375286 -0.337683 -0.40548363 0.39863362 -0.82260213
-1.08297 -0.338473 -0.00235529 -0.97014903 -0.069144864 0.23244323
-0.215856 0.0915308 -0.664016 0.23131705 -0.96876083 -0.089414072
0.646464 -0.433802 0.724838 -0.087460188 0.12037999 -0.98886772
-0.931224 -0.603799 -0.107857 0.40186995 -0.40268615 0.82240161
-0.00776025 1.12809 0.108607 0.085025996 0.99331564 0.078068042
0.299828 -0.356924 -0.593299 -0.17319869 0.024623885 -0.98457904
0.660061 -0.721639 0.567349 -0.93572575 0.3312159 -0.1212986
-1.00081 -0.537981 -0.0417482 -0.78259155 -0.61761939 0.078081735
0.205636 -0.750285 0.287315 0.43641919 -0.41020411 0.8007939
0.560137 0.0196508 -0.430287 -0.48893349 -0.85853742 -0.15445887
-0.0800242 1.08129 -0.105714 -0.90259051 -0.23972859 0.35757596
0.35265 0.852106 -0.248278 -0.335298 -0.9411528 -0.042504724
-1.05849 -0.338073 0.0835034 0.8584705 0.21244692 -0.46679194
-0.661943 -0.509813 -0.431623 0.22081723 0.67701187 0.70206458
0.488539 0.718423 0.0330981 -0.82014773 0.51516684 0.24891932
0.184548 0.154983 -0.725222 0.095422384 -0.64102907 -0.76156175
-0.0434314 0.871378 -0.333006 0.29737243 -0.76595471 0.56998511
0.853601 -0.329797 0.156837 0.99630026 -0.028458029 -0.081092118
0.642109 -0.779933 0.482989 0.18772321 -0.89526101 0.40406402
0.654006 -0.472794 0.717947 -0.16965903 0.18265906 -0.96842732
-0.440319 -0.536552 0.184927 -0.28746701 0.72727241 -0.62324758
-0.256442 -0.424889 0.26441 -0.0073114481 -0.99919749 0.03938172
0.429158 -0.712757 -0.0118247 0.86017311 0.44937326 -0.24117606
-0.0565867 1.04444 0.261171 0.27310829 -0.7182693 -0.63992271
0.486814 -0.770456 0.125292 -0.066579358 0.88035088 0.469627
0.56181 -0.741594 0.0997458 0.34622117 -0.88085065 -0.32285141
0.451619 0.0980765 -0.586614 -0.407364 0.6249094 0.6659901
-0.723148 -0.0568464 -0.463522 0.38080904 -0.89738796 0.22288859
-0.0679946 0.12623 -0.708559 -0.2678918 0.31669803 -0.90991007
0.351148 0.137827 -0.671925 0.069106093 -0.86957795 -0.48893613
-0.577443 -0.628267 -0.282263 0.057517101 0.91518598 0.39890652
-0.0471494 -0.00280452 -0.745333 0.19579757 0.21631212 -0.95648961
0.633338 -0.0499434 -0.294655 -0.13602389 0.85078748 0.5076004
0.11391 -0.620961 0.404135 0.23466139 0.60324656 -0.76225168
0.263154 1.08457 0.123453 0.42442914 0.88602659 0.18659256
0.115367 -0.52539 0.495853 -0.74403663 -0.20173175 0.63695666
0.158628 -0.434122 -0.561316 0.069325359 -0.66777704 -0.74112605
-0.179586 0.101151 -0.676559 0.29178393 -0.94598919 0.14130317
-0.559397 -0.644088 -0.242001 0.018156659 0.95549509 0.29444774
-0.0301864 0.134215 -0.716377 -0.20307281 0.127554 -0.97081997
0.0489569 0.884485 -0.348192 0.10644801 -0.98907369 0.10199052
0.581671 -0.226615 0.698819 0.90348668 0.23773156 -0.35664482
-0.583411 -0.0147952 -0.520882 0.10770234 -0.90959084 -0.40130376
-0.277403 0.569362 0.239222 -0.83358434 -0.10733856 0.54186307
0.0675883 -0.338768 -0.678628 0.71201659 -0.15677973 -0.6844359
0.480354 0.599317 -0.218521 -0.31632748 0.42249978 -0.84937086
0.474482 -0.0456179 0.547902 -0.097404495 -0.73289792 -0.67332979
-0.447349 0.0248415 -0.574365 0.0630219 -0.87181524 -0.48576376
-0.0685109 1.10538 -0.0604736 -0.9027784 -0.23962803 0.35716881
0.103659 -0.582823 0.429527 0.74056148 0.47901025 -0.47129383
0.227662 -0.529395 -0.400125 0.81282899 0.56512113 -0.14123434
0.200764 0.795913 0.415486 0.90241106 0.23740565 -0.35957313
-1.05638 -0.301348 0.100265 0.52070314 0.28945685 -0.80317057
0.303388 -0.600011 -0.255329 -0.90402679 -0.22883054 0.36107083
0.223608 0.154589 -0.719288 0.064342517 -0.87384491 -0.48192854
0.381654 0.109503 0.41612 0.83358807 0.079227802 -0.5466753
0.0450967 -0.298204 -0.708565 0.16429578 -0.46085184 -0.87213673
0.412743 -0.257569 -0.600641 -0.40803857 0.40169266 -0.81984604
0.465707 0.720043 -0.152802 0.29409628 0.49667043 -0.81659406
-0.555573 0.192959 0.0937061 0.55739378 -0.66866822 0.49213309
0.68756 -0.10632 -0.185456 -0.06532291 0.87307457 0.48319117
0.316563 0.550233 0.346877 -0.59478148 0.19979028 -0.77866478
0.531595 0.0436516 -0.477505 0.78978101 0.57826382 -0.20458962
0.309607 0.284464 0.350235 0.68845996 0.28045417 0.66885599
-0.918465 -0.447908 0.217526 -0.54397575 -0.36159832 0.75719023
0.566014 -0.194188 0.680764 0.1343782 -0.48599114 -0.86357114
0.375598 -0.0573654 0.556515 -0.043555415 0.6333461 0.77264199
-0.0957389 0.61882 -0.453924 0.90231496 0.23894665 -0.35879271
0.341727 -0.325702 -0.598758 0.44301585 -0.62530467 -0.64244146
0.611574 -0.303165 0.723541 0.90376997 0.23801855 -0.35573447
0.224059 0.884357 -0.327399 0.051557611 -0.89328941 -0.44651523
0.375771 0.578009 0.298674 0.72258312 -0.051037775 0.6893974
0.096163 -0.422142 0.517251 0.89663274 0.076396715 -0.43613446
0.216633 0.733404 0.414007 -0.97256373 -0.22581725 -0.055913854
0.494339 -0.105431 -0.567003 0.4109662 0.18833733 -0.89198421
-0.834291 -0.636434 -0.171322 0.40551508 -0.39596992 0.82387217
0.438619 -0.0341101 0.534638 0.029744363 0.71908965 0.69428046
-0.336144 0.527909 0.148206 0.93589241 -0.17553229 -0.30544036
0.286569 -0.584662 -0.287712 -0.90401402 -0.22889007 0.36106509
-0.115248 0.506689 0.382681 0.055778179 -0.88898148 -0.45453353
-0.280031 0.792171 -0.203489 0.75001964 -0.3997925 0.52691223
-0.074389 0.203092 -0.677051 -0.86113607 0.14971929 -0.48582795
-0.437953 -0.502319 0.218594 -0.20315756 0.65212171 -0.73038639
-0.456322 -0.307814 0.318391 0.37411024 0.31190094 -0.87336094
0.261901 0.152376 -0.710168 0.065072791 -0.87240319 -0.48443598
-0.778426 -0.115355 -0.457155 -0.71336193 0.21914482 -0.66565029
-0.454068 -0.597752 0.0973498 0.11586905 -0.88204479 0.45669613
0.623546 -0.341346 0.728415 0.91360669 0.24305141 -0.32595833
0.484348 0.74652 -0.0231822 -0.98494115 -0.14446552 0.094977092
-1.09177 -0.258077 -0.148914 0.96654659 0.090266795 0.24008248
-0.731976 -0.341432 -0.500951 0.91513042 0.24979627 -0.31644609
0.352102 -0.609782 0.680114 0.064572283 -0.87326932 -0.48294008
0.260169 0.878718 -0.311967 0.051394054 -0.89306715 -0.44697842
0.819517 -0.250239 0.0924316 -0.78013442 -0.62548584 0.01255997
0.472441 0.668498 -0.181099 0.088977913 0.48627068 -0.86926622
0.497186 0.42572 -0.310942 -0.4019826 0.3996068 -0.82384731
0.511531 -0.0169885 -0.532584 0.26712033 0.35092038 -0.89749742
-0.142916 0.110319 -0.688238 0.34587321 -0.78572465 0.51284354
-0.308972 -0.56416 -0.394504 0.40460442 -0.40056836 0.82209504
0.46057 0.754632 -0.133511 0.58738591 0.46890788 -0.65962352
-0.47682 -0.21181 0.334765 0.91566557 0.24961038 -0.31504161
-0.087749 1.05487 -0.142907 -0.90406684 -0.23673833 0.35583438
0.20593 -0.173586 0.587496 0.43286992 -0.41792322 0.79872637
0.889918 -0.453157 0.468783 -0.065967588 0.87340164 0.48251202
-0.146596 -0.524803 -0.45524 0.40479118 -0.40449099 0.82007996
0.105565 1.10012 0.208453 -0.16019179 -0.81319383 -0.55951263
0.447303 -0.77999 0.141508 -0.098858809 -0.80351797 -0.58701431
-0.3321 0.754807 -0.135407 -0.053449467 0.8920156 0.44883329
0.0975959 -0.547281 0.451304 0.88672971 0.33404888 -0.31956497
0.600087 -0.0171223 -0.358452 -0.24676483 -0.90934679 -0.33495601
0.893867 -0.361021 0.302701 -0.3978439 0.77110026 0.4971163
0.250215 0.566468 0.387787 -0.57238498 0.062528755 -0.81759745
0.382522 0.997852 0.0227449 -0.43962534 0.37028388 -0.81830276
-0.352397 0.645362 0.0795228 -0.84136095 0.36811312 0.39573284
0.400445 0.59351 0.270786 -0.81676664 0.23033164 -0.52899867
0.141893 1.10169 0.191356 -0.19168507 -0.88857009 -0.41677335
-0.583786 0.0494197 0.232052 -0.4771544 0.46021285 0.74868405
0.174268 -0.72431 0.317758 0.43729497 -0.4108123 0.80000398
0.840608 -0.275992 0.141825 -0.91045982 -0.37737082 0.16927546
0.426269 0.907007 -0.0427916 0.77206619 -0.13644651 0.62072228
-0.467486 -0.251472 0.330496 0.20218646 0.19216608 -0.96030872
-0.427472 0.320151 0.0923899 -0.40424253 0.39875353 -0.82315467
-0.618788 -0.0252136 -0.506769 0.15104118 -0.93670514 -0.31586395
-0.406471 0.354029 0.0984905 -0.40383054 0.39861508 -0.8234239
-0.308504 0.645572 0.191654 0.64977042 0.13103546 -0.74875103
-0.864963 -0.458421 0.243695 -0.37586083 -0.5313772 0.75918832
-0.623694 0.105688 0.161411 -0.32455064 0.70747521 0.62781024
-0.102477 0.807151 -0.345415 0.6889645 -0.37313865 0.62136581
0.901594 -0.423916 0.417469 -0.067842144 0.87325189 0.48252315
-0.599686 0.0736424 0.205321 -0.4356999 0.5535713 0.70973545
0.172299 -0.214512 0.58432 -0.43540299 0.41901967 -0.79677271
-0.478029 -0.443914 0.269189 0.1311994 -0.56154154 0.81698092
0.102023 1.03049 0.321715 0.52293015 0.75501351 0.39559911
-0.527018 -0.449772 0.273237 0.13000228 -0.66441518 0.73597003
-0.686419 0.165499 0.0279103 -0.62933843 0.63514707 0.44779609
-0.503717 -0.121094 0.328584 0.91512964 0.25001896 -0.31627245
0.62306 -0.596181 0.691742 0.30519558 -0.71209921 0.63227397
0.829561 -0.165409 0.255415 0.91017737 0.046340673 0.41161839
0.356218 -0.647937 -0.153425 -0.90382205 -0.23272108 0.35909136
0.159163 -0.459427 -0.527042 -0.27020639 -0.88152277 -0.38717712
-0.0217994 1.06311 0.25312 0.30886476 -0.86903788 -0.38649156
0.371579 -0.300093 -0.601019 0.40345598 -0.39770517 0.82404725
-0.287794 0.738012 0.226281 -0.284134 0.38630405 -0.87751755
-0.486125 0.249865 0.0871509 -0.16722713 0.19751822 0.96593045
0.767206 -0.191251 -0.0212268 -0.020263697 -0.89169888 -0.45217529
0.193906 -0.496011 -0.463397 0.79837791 0.59276717 -0.10592353
-0.347144 0.737716 -0.103236 -0.050002717 0.89159332 0.45006787
0.0169319 -0.235561 -0.738164 0.90414129 0.2387994 -0.35426454
-1.0413 -0.227454 0.128673 0.95696964 -0.25270312 -0.14265429
0.633175 -0.697108 0.0844249 0.3254796 -0.58111526 -0.74590085
-0.080748 0.296833 -0.630652 -0.97884029 -0.13544042 0.15338705
-0.403562 -0.43499 0.26301 0.089851719 -0.42092891 0.90263255
0.762932 -0.561655 0.0849871 -0.42921935 0.4153667 -0.80202322
-0.752659 0.172462 -0.157178 -0.91653846 -0.24374935 0.31708596
-0.698124 -0.435086 -0.477061 0.91487172 0.24999594 -0.3170359
-0.0598403 0.0729155 -0.72699 0.13292053 0.30246202 -0.9438479
-0.778842 0.116368 -0.27652 -0.91638036 -0.2460912 0.31573114
-0.168567 0.960589 0.275565 -0.40543483 0.39983721 -0.82204185
0.282918 0.389451 0.352613 -0.9740211 -0.21694255 -0.064952524
0.792534 -0.534676 0.603177 0.65945021 -0.66465952 0.35121667
-0.438075 -0.468368 0.24489 0.043144346 -0.57242027 0.81882453
0.390886 -0.787998 0.167763 0.16361582 -0.97278437 0.1640745
0.167236 0.888763 -0.342815 -0.15241144 -0.73658995 0.6589431
-1.03149 -0.186912 -0.269545 -0.061166236 0.87225165 0.48521722
-1.07171 -0.356573 0.0318812 -0.9447415 -0.094563585 0.3138809
0.530814 -0.0125077 0.496167 -0.21919841 -0.70711987 -0.67226003
0.855731 -0.492298 0.534993 0.84808554 -0.11505237 0.51721743
-0.340768 0.05585 -0.616191 0.060493762 -0.86938271 -0.49042248
-1.03931 -0.459488 0.0152225 0.77164348 0.51034241 -0.37962741
-1.0061 -0.41298 0.142654 -0.7766149 -0.10539405 0.62109693
0.378842 -0.668359 -0.109711 -0.90409895 -0.2280572 0.36137931
-0.770753 -0.170163 -0.478096 -0.77093284 0.084044898 -0.63134698
-0.771515 0.142061 -0.235271 -0.91759489 -0.24266525 0.31485423
0.883937 -0.340081 0.263508 -0.53073427 0.6784815 0.50792124
-0.687735 -0.464182 0.277807 0.026716792 0.28622742 -0.95778916
0.697084 -0.0243148 0.400342 0.43162074 -0.41648821 0.80015068
0.856839 -0.297657 0.18318 0.94992109 0.11493122 -0.29058687
0.493939 0.460463 -0.292503 -0.41275135 0.39655122 -0.81998991
0.346044 1.0384 0.0603307 0.4035611 -0.39994114 0.82291283
-0.0317466 -0.0753208 -0.754657 0.35361882 0.14777741 -0.92364256
0.405412 0.0653835 0.446899 0.75793404 -0.057613147 -0.64978205
