0.63860065 0.53526437 0.52795255 0.00000957 -0.00003569 0.00005326
0.86482924 0.24669430 0.38859028 -0.00003550 -0.00001351 -0.00000554
0.17596985 0.62137961 0.40819365 -0.00003487 0.00002466 0.00003340
0.42925483 0.90276599 0.59355998 -0.00000134 0.00000263 -0.00008284
0.20526077 0.78236639 0.56971872 -0.00003940 0.00001843 0.00001804
0.84237170 0.36788911 0.38187969 0.00001400 0.00002067 -0.00009157
0.42935237 0.83486503 0.59299612 -0.00002215 -0.00001761 -0.00005187
0.38638663 0.71451497 0.41811535 -0.00000337 0.00000726 0.00002301
0.55968946 0.40206897 0.38861963 0.00001217 0.00002009 -0.00006015
0.24103114 0.74080008 0.43300250 -0.00001899 0.00001240 -0.00001853
0.50981247 0.56462348 0.38861090 -0.00000328 -0.00001110 -0.00003774
0.59313619 0.40684018 0.40820542 -0.00000038 -0.00002895 0.00003905
0.70967478 0.25454697 0.40845388 0.00001651 -0.00002202 0.00005887
0.62482971 0.53947830 0.46641514 -0.00001325 -0.00004055 0.00003195
0.37284568 0.44248101 0.38303477 -0.00002344 -0.00005336 -0.00010934
0.45477563 0.63748258 0.61354953 -0.00001140 -0.00002350 0.00001837
0.51642579 0.73562717 0.61687165 0.00003793 -0.00000912 -0.00000583
0.75267243 0.09736364 0.38360709 0.00005696 -0.00007398 -0.00011976
0.87663913 0.25536266 0.41286007 0.00002379 -0.00003146 -0.00000374
0.31750116 0.54295790 0.40826768 -0.00001011 -0.00002260 0.00003878
0.23753324 0.75194943 0.50183535 0.00001943 0.00001010 0.00000110
0.74598569 0.29061309 0.38858256 -0.00001194 -0.00001796 -0.00005140
0.48136848 0.49143702 0.40812811 0.00000477 0.00000642 0.00004577
0.64834046 0.53000349 0.52186012 0.00002863 -0.00001912 0.00004756
0.34937975 0.50049603 0.38858840 0.00000426 -0.00001131 -0.00003692
0.21390247 0.58928293 0.40865228 -0.00001104 -0.00000890 0.00004099
0.47738904 0.50442255 0.40793586 0.00000138 0.00000659 0.00003959
0.35705790 0.64051384 0.45919222 0.00000568 -0.00000884 -0.00000982
0.31649518 0.64818472 0.61669314 0.00000556 0.00003747 -0.00002304
0.90047592 0.27284485 0.38665688 0.00007162 -0.00004772 0.00004271
0.28787574 0.61879480 0.43202236 -0.00000430 -0.00001416 -0.00002443
0.43442312 0.87408960 0.61292553 -0.00001466 -0.00002154 0.00003226
0.70628959 0.15528126 0.40760270 -0.00003866 -0.00000019 0.00004176
0.52007240 0.67703199 0.53257060 0.00002066 0.00000537 -0.00001582
0.34075743 0.63538939 0.59901309 -0.00000582 -0.00002234 -0.00003861
0.28106782 0.86823684 0.41111618 -0.00004568 0.00005849 -0.00001592
0.31324092 0.73758703 0.59319502 -0.00001254 0.00000568 -0.00002118
0.38809803 0.82926673 0.61543882 0.00001175 -0.00003191 0.00002976
0.45150778 0.62809426 0.42304188 -0.00001173 0.00000043 -0.00000115
0.52370721 0.67320567 0.52787548 0.00001862 0.00000747 -0.00001529
0.49552095 0.40005067 0.41516736 -0.00000215 -0.00000988 0.00010516
0.28238165 0.84362429 0.41823673 0.00002977 -0.00000938 0.00004293
0.38188264 0.64836532 0.56547713 0.00000738 -0.00000671 0.00000984
0.27794203 0.68889403 0.50590008 -0.00002049 -0.00000865 0.00000038
0.26997057 0.85526210 0.61460286 -0.00003640 0.00005316 -0.00002475
0.69098902 0.18422432 0.40824673 0.00000427 -0.00002383 0.00004708
0.41796985 0.66231567 0.52867121 0.00000261 -0.00001093 -0.00000524
0.31092960 0.58694154 0.38858086 -0.00000557 -0.00001125 -0.00002062
0.10199176 0.59256351 0.41690940 -0.00002559 -0.00006866 0.00002838
0.51060784 0.65843719 0.58747017 -0.00004389 -0.00000439 -0.00003856
0.57276940 0.55413371 0.40823629 0.00001022 -0.00000111 0.00002404
0.12566009 0.63738924 0.41458401 -0.00000320 -0.00002593 0.00007451
0.28482267 0.66771519 0.53419560 -0.00000035 -0.00000307 0.00000031
0.78570598 0.15196031 0.41500643 -0.00002006 -0.00000691 0.00012387
0.26541215 0.61593378 0.38265952 -0.00000771 -0.00002790 -0.00003077
0.27738571 0.77223504 0.41828689 0.00000249 0.00002572 0.00002437
0.70216995 0.48767835 0.47575533 0.00007559 0.00003467 0.00004782
0.75175738 0.42517671 0.43589282 0.00004699 -0.00003734 -0.00000153
0.47151351 0.86003625 0.38860142 -0.00005634 -0.00003662 -0.00006531
0.20797206 0.55653846 0.40823993 -0.00000575 0.00000455 0.00004086
0.93080062 0.29419824 0.36637229 0.00003226 0.00003198 -0.00006945
0.60299391 0.44173586 0.40813693 0.00000463 -0.00000009 0.00004955
0.68197161 0.42034453 0.40828806 0.00003901 0.00001716 0.00003222
0.36267319 0.91490561 0.41825137 0.00001818 0.00002463 0.00012962
0.19914976 0.65314794 0.38858375 -0.00001267 -0.00002752 -0.00001791
0.52729970 0.64054418 0.61114025 -0.00001663 -0.00004805 0.00002541
0.54310179 0.37576726 0.38187486 -0.00000434 -0.00002683 -0.00010986
0.21479331 0.69821084 0.38848996 0.00000898 -0.00000554 -0.00000271
0.50572020 0.70134515 0.47709411 0.00001873 0.00001263 -0.00000129
0.25048611 0.56044507 0.40818626 -0.00002266 -0.00004292 0.00002982
0.37783316 0.47084531 0.38833687 0.00001653 0.00002846 -0.00006255
0.91085690 0.28024182 0.40983748 -0.00003172 -0.00007345 -0.00005711
0.61027962 0.58181918 0.38320529 0.00003641 0.00003527 -0.00005981
0.69409430 0.41088945 0.40819353 0.00004299 0.00002050 0.00003244
0.25991806 0.67566484 0.51028907 0.00001443 0.00001271 -0.00000148
0.26454920 0.63171458 0.41660061 -0.00000267 -0.00000984 0.00000994
0.66960782 0.52134585 0.45381159 0.00003426 0.00002273 -0.00000946
0.06612681 0.59688383 0.41431460 -0.00004453 0.00003279 0.00009356
0.49951929 0.79529494 0.41813284 -0.00003046 0.00001515 0.00006237
0.49524096 0.66818666 0.58480024 -0.00001607 -0.00001574 0.00002000
0.23664969 0.75495285 0.57115835 0.00003033 0.00000499 0.00002568
0.29198086 0.70044100 0.41966990 0.00000418 0.00001101 0.00001272
0.15049559 0.55576146 0.38700256 0.00002216 0.00000965 -0.00005987
0.61594141 0.47158355 0.38861039 0.00000175 -0.00001856 -0.00003942
0.24120325 0.74029464 0.50636905 -0.00000641 0.00001703 -0.00000229
0.38312981 0.57158864 0.38857841 -0.00000376 -0.00002308 -0.00002159
0.91516924 0.34109133 0.40314412 0.00008448 0.00004830 -0.00000971
0.39557070 0.75943851 0.41812521 0.00000689 0.00001788 0.00000794
0.65041178 0.45902398 0.40817583 0.00002247 0.00000195 0.00002101
0.17470330 0.55192518 0.40834197 -0.00000311 0.00002769 0.00006166
0.24034876 0.74331868 0.49285135 -0.00000699 0.00001142 -0.00000084
0.73726523 0.14650138 0.38070488 0.00002357 -0.00002645 -0.00005910
0.48810777 0.78843486 0.61293876 -0.00004900 0.00001977 0.00001597
0.05194134 0.54411596 0.38689870 -0.00012142 -0.00008916 -0.00009224
0.45930022 0.69900841 0.62063992 -0.00000028 0.00000084 -0.00001186
0.43387008 0.66579175 0.51669121 0.00000319 -0.00000950 -0.00000010
0.45027444 0.66908240 0.51158994 -0.00000109 -0.00000033 0.00000183
0.50432920 0.83435720 0.59354377 0.00000058 0.00000750 -0.00008771
0.68235821 0.26000834 0.38370562 -0.00002390 -0.00002149 -0.00008589
0.33138853 0.67510122 0.38866228 -0.00000618 0.00000916 -0.00001433
0.53695792 0.65938741 0.56523687 0.00001793 0.00001116 -0.00000010
0.36674318 0.80399001 0.61994207 -0.00000211 0.00001020 0.00004891
0.50459623 0.69341129 0.38693735 0.00001351 0.00001216 -0.00002647
0.42405140 0.47080168 0.40830624 -0.00000183 -0.00001419 0.00004225
0.24393030 0.73158509 0.58473915 -0.00002084 0.00001679 0.00001018
0.20909801 0.59161288 0.40962529 -0.00000539 -0.00001016 0.00004544
0.24767059 0.60175824 0.38807300 -0.00000389 0.00000698 -0.00002212
0.46976823 0.83498502 0.61263359 0.00000374 0.00001062 0.00003656
0.46625650 0.86705506 0.61317897 -0.00006033 -0.00005691 0.00000849
0.85571116 0.22090854 0.40850368 -0.00002594 0.00002631 0.00006188
0.24156079 0.73884267 0.41091412 -0.00002431 0.00000713 0.00001100
0.68320060 0.10848027 0.37698957 0.00004500 0.00005591 -0.00009320
0.38180217 0.66995502 0.46579883 -0.00000519 0.00001124 -0.00000601
0.76912320 0.20497897 0.38860703 0.00003598 -0.00004068 -0.00004975
0.35679731 0.62642407 0.38851455 0.00000235 -0.00000304 -0.00001373
0.36455062 0.84135902 0.38866219 -0.00000187 0.00002472 -0.00003288
0.65890688 0.50400573 0.49395466 -0.00003785 -0.00005176 -0.00000231
0.12445897 0.58474934 0.41404733 -0.00002766 -0.00002507 0.00002277
0.15607816 0.63803768 0.40816128 0.00000632 -0.00002802 0.00003260
0.31432083 0.84327763 0.59338474 -0.00000914 0.00001935 0.00000072
0.49611160 0.83835930 0.38763982 -0.00004577 -0.00000997 -0.00007331
0.17466694 0.52242237 0.39432389 -0.00003842 -0.00003436 -0.00002703
0.90500653 0.27749538 0.40583652 0.00001888 -0.00007726 -0.00003883
0.44694260 0.61707771 0.41238070 -0.00001225 -0.00000847 0.00001335
0.38520598 0.47510278 0.40902010 0.00001616 0.00002176 0.00005571
0.31825629 0.62833905 0.54194087 0.00001224 -0.00000134 -0.00000653
0.44261581 0.57134819 0.38203907 0.00000061 -0.00000193 -0.00002825
0.75735927 0.19349384 0.40829241 0.00001303 -0.00005856 0.00003801
0.27520528 0.77771336 0.38914251 -0.00001305 0.00002429 -0.00003474
0.30489492 0.46922287 0.40193281 -0.00002492 -0.00004891 0.00002665
0.25210053 0.70553273 0.46082774 -0.00000577 -0.00001634 -0.00000087
0.31000602 0.65425324 0.61286712 0.00000202 0.00004561 -0.00004135
0.77646321 0.37997708 0.38675481 0.00000139 -0.00002841 -0.00005766
0.36004311 0.85980117 0.59266531 -0.00002576 0.00005732 0.00001619
0.70066464 0.35745484 0.40816975 -0.00002044 -0.00004193 0.00004685
0.31943676 0.57989246 0.40822530 -0.00000149 -0.00000406 0.00002758
0.51203835 0.57541144 0.40827957 0.00000055 -0.00000670 0.00002314
0.50888240 0.65941769 0.53445596 -0.00000809 -0.00001661 -0.00001101
0.36382461 0.44503933 0.39684138 -0.00002175 -0.00005228 -0.00000997
0.47142673 0.85316288 0.59331131 0.00000077 0.00000812 -0.00001002
0.22981873 0.62671983 0.40853146 -0.00002089 -0.00002843 0.00001994
0.61365348 0.57957417 0.44199508 0.00002189 0.00002523 -0.00003256
0.42211264 0.92480427 0.62904263 0.00001835 0.00009417 0.00009328
0.49572420 0.70486122 0.53039885 0.00000406 0.00001131 -0.00001227
0.44803450 0.56814587 0.42936561 0.00000955 -0.00000244 -0.00002347
0.86762536 0.19943883 0.40075183 0.00002768 -0.00004289 0.00001211
0.85335982 0.37351531 0.41505817 -0.00000802 0.00003343 0.00007517
0.44504964 0.44366819 0.40834466 0.00001067 0.00003125 0.00006709
0.54964828 0.63697231 0.38182044 0.00002100 0.00000916 -0.00004725
0.68655062 0.18389706 0.38864911 0.00000628 -0.00001960 -0.00004541
0.66014314 0.17063271 0.41505307 0.00000170 -0.00001626 0.00007701
0.37743074 0.70366979 0.41813502 -0.00000546 0.00000989 0.00002233
0.42225069 0.68264729 0.61404777 0.00000691 0.00000743 -0.00001984
0.34963670 0.66595900 0.61285478 -0.00001025 0.00003427 -0.00002570
0.52984434 0.63843882 0.51778579 -0.00002462 -0.00001607 -0.00001041
0.44546244 0.83496803 0.61234719 0.00005304 0.00005080 0.00004499
0.56222612 0.39320844 0.40821788 0.00001527 0.00002189 0.00006601
0.85143036 0.34944457 0.41700044 -0.00002182 -0.00006888 0.00008772
0.20541349 0.75616246 0.51914406 -0.00000138 -0.00001650 -0.00000193
0.67904335 0.18635140 0.38250706 0.00000840 -0.00002424 -0.00006642
0.49541438 0.87793297 0.38227409 0.00004777 0.00004475 -0.00013637
0.54395330 0.60244447 0.38856593 -0.00001277 -0.00001904 -0.00001049
0.04897550 0.54901075 0.40930930 -0.00013091 -0.00006596 0.00011525
0.72698605 0.25080425 0.40817147 0.00001009 -0.00002585 0.00004845
0.20234950 0.59276664 0.38405928 -0.00000345 -0.00001824 -0.00005975
0.69607347 0.21881902 0.38300505 0.00001957 -0.00004564 -0.00007596
0.25728676 0.79653120 0.61317569 0.00002506 -0.00003902 -0.00003255
0.54698682 0.64929974 0.55963457 0.00002293 0.00001918 -0.00000712
0.33689833 0.91448146 0.40205321 -0.00004238 0.00008929 -0.00002216
0.67052650 0.32702705 0.38339397 0.00002115 -0.00000468 -0.00008256
0.45592266 0.61963457 0.58812296 -0.00002356 -0.00004230 0.00001126
0.21243715 0.79045045 0.49877533 -0.00002307 0.00001507 0.00000279
0.25530270 0.66859269 0.41731423 -0.00000596 0.00000273 0.00001006
0.71915275 0.13230135 0.41177383 -0.00000561 -0.00009187 0.00003755
0.43390912 0.63683659 0.38858643 -0.00000545 -0.00000046 -0.00000623
0.49441168 0.53915894 0.40794593 -0.00000096 -0.00001115 0.00002791
0.51150721 0.44764334 0.38857138 -0.00001685 -0.00004271 -0.00003551
0.19603002 0.55840260 0.40820107 -0.00000200 0.00001355 0.00004591
0.48897523 0.70213175 0.63298416 -0.00000819 0.00001547 0.00003999
0.90172195 0.24829416 0.41794786 0.00000219 0.00005410 -0.00004725
0.73959839 0.30699474 0.40819085 -0.00002036 -0.00001796 0.00005259
0.32079303 0.90499377 0.60680920 -0.00004262 0.00007322 -0.00006809
0.42101017 0.92471337 0.40196711 0.00001603 0.00008096 0.00003190
0.34418142 0.90731716 0.59339732 -0.00000858 0.00002947 -0.00010464
0.20822172 0.69608617 0.40909275 -0.00000500 0.00001157 0.00001065
0.31627220 0.83119017 0.61251611 -0.00000641 0.00002225 0.00002544
0.42228428 0.78875613 0.62001455 -0.00000214 0.00001574 0.00004310
0.59897292 0.49903023 0.38857591 0.00000910 -0.00000205 -0.00003472
0.21674468 0.66453850 0.46713796 -0.00001146 -0.00001768 -0.00000812
0.71640635 0.41901094 0.40825510 -0.00002511 -0.00002972 0.00001468
0.07803734 0.54278934 0.37521395 0.00001411 -0.00000547 -0.00008750
0.73581320 0.10632411 0.41264248 -0.00003273 0.00002056 0.00010582
0.45568150 0.50403124 0.40818021 0.00000246 0.00000747 0.00003890
0.31914225 0.49783501 0.38863638 0.00000936 0.00003032 -0.00005992
0.63795459 0.14476214 0.41208243 -0.00008338 -0.00000879 0.00009237
0.45294926 0.66894662 0.57493001 0.00000415 -0.00000183 0.00002712
0.52806145 0.59006178 0.40818298 0.00002116 0.00001221 0.00001905
0.51724100 0.82923156 0.38161644 0.00003130 0.00002077 -0.00012426
0.24621858 0.72428024 0.46830383 -0.00001547 -0.00000982 0.00000120
0.82901037 0.35686094 0.41021079 0.00000208 -0.00003076 0.00006778
0.08749234 0.58111596 0.41004550 0.00003084 -0.00007994 0.00004064
0.41731289 0.79517013 0.37511578 0.00001904 0.00001535 -0.00003904
0.50425267 0.81960565 0.38736311 -0.00003895 0.00000211 -0.00007041
0.71402228 0.17574017 0.38836896 -0.00001657 0.00001152 -0.00003840
0.34790716 0.52028304 0.40819690 -0.00001365 -0.00004563 0.00003012
0.26689446 0.63013530 0.59745944 -0.00002397 -0.00000676 -0.00004136
0.12411838 0.65539020 0.41538623 -0.00003147 -0.00000997 0.00008217
0.30140674 0.62302917 0.61975008 0.00000913 -0.00005289 0.00002005
0.45550668 0.63885093 0.48410627 -0.00001241 -0.00000418 -0.00000033
0.59564835 0.56992000 0.49102437 -0.00000926 -0.00004125 0.00002373
0.36773458 0.82651907 0.61330843 0.00001620 -0.00001919 0.00003021
0.14159451 0.53937066 0.41520506 0.00002114 -0.00002702 0.00008480
0.68169767 0.22826551 0.38276726 -0.00001792 -0.00001750 -0.00009275
0.77442819 0.41241440 0.40812930 0.00005255 0.00001210 0.00002023
0.59266335 0.60172236 0.38845369 0.00003498 0.00002938 -0.00003633
0.20650551 0.71302539 0.40815398 -0.00002113 0.00001629 0.00001876
0.44326943 0.88539773 0.61333388 -0.00004082 -0.00006767 0.00000577
0.34784412 0.81473333 0.61311400 0.00000738 -0.00000735 0.00003409
0.54165483 0.65449691 0.54101491 0.00002326 0.00000644 0.00002126
0.39269498 0.67232209 0.51170570 -0.00000442 0.00000206 0.00000003
0.40696928 0.67751318 0.47652158 -0.00000437 0.00000661 -0.00000170
0.14278229 0.65507382 0.38803616 0.00000661 -0.00002894 -0.00004472
0.49886113 0.74675477 0.61809236 -0.00002281 0.00001241 0.00000438
0.50126797 0.51512468 0.40821862 0.00000336 -0.00001406 0.00003323
0.57773381 0.54912972 0.38861758 -0.00000069 -0.00000825 -0.00001930
0.60450637 0.47049519 0.38848025 -0.00000853 -0.00002388 -0.00004446
0.48437679 0.65667731 0.53993022 -0.00000640 -0.00000627 -0.00000823
0.66860062 0.49431494 0.41718867 -0.00001387 -0.00003699 0.00004286
0.24225891 0.75328147 0.63343501 0.00001453 -0.00000842 0.00006559
0.35848081 0.49591550 0.38863939 -0.00000060 -0.00000521 -0.00003785
0.33069402 0.48873559 0.40822297 0.00001315 0.00002759 0.00006784
0.43360367 0.62995350 0.40817583 -0.00000864 0.00000094 0.00001821
0.43591174 0.66491789 0.62782818 -0.00001174 0.00000271 0.00002121
0.27497619 0.69789696 0.55085248 -0.00001564 -0.00000934 -0.00000602
0.54513109 0.65162927 0.47017467 0.00002016 0.00001288 0.00001450
0.24189653 0.75631154 0.39995119 -0.00000449 -0.00000088 -0.00000565
0.39816383 0.71986359 0.38862121 -0.00000161 0.00001045 -0.00001893
0.24375214 0.64623213 0.52623433 0.00000078 -0.00002196 -0.00000987
0.34742233 0.53646278 0.40824249 -0.00000372 -0.00000711 0.00003958
0.41872224 0.68121469 0.45845371 -0.00000074 0.00000817 -0.00001425
0.42727658 0.81072402 0.59354544 -0.00005805 -0.00001245 -0.00006448
0.89801556 0.25373131 0.41771999 0.00002764 0.00004559 -0.00006245
0.38353136 0.72181255 0.41812918 -0.00000115 0.00000507 0.00002246
0.17711279 0.71887344 0.40712124 -0.00003371 -0.00003845 0.00004326
0.34603941 0.47766876 0.40880683 0.00001331 0.00002609 0.00007021
0.51735508 0.38705236 0.41510630 -0.00000603 -0.00002460 0.00010541
0.19954486 0.77582264 0.51516175 -0.00004187 0.00002170 -0.00000132
0.57626230 0.61691236 0.47920114 0.00002691 0.00003005 -0.00000314
0.25809154 0.75492740 0.43448651 -0.00001363 0.00002316 -0.00001528
0.42486358 0.77779454 0.41812274 -0.00001832 0.00003106 0.00001394
0.67072529 0.08884314 0.41504532 -0.00002807 -0.00004931 0.00014640
0.77232897 0.25216898 0.40825257 -0.00000497 -0.00000561 0.00006330
0.21156934 0.67947543 0.38186589 0.00001575 -0.00001969 -0.00003300
0.69359243 0.12217855 0.38751671 -0.00000931 -0.00003229 -0.00000160
0.43318090 0.58434433 0.43424857 -0.00000368 0.00001061 -0.00003115
0.18289171 0.54080755 0.38565359 -0.00001187 0.00002894 -0.00007774
0.70140880 0.12025871 0.40905502 -0.00004115 -0.00002640 0.00003392
0.33391798 0.65385336 0.47681072 -0.00001446 0.00001259 -0.00000083
0.20649460 0.75419295 0.47507286 0.00001504 -0.00001545 -0.00001116
0.24538352 0.79687542 0.63148242 0.00003687 -0.00000172 0.00005005
0.24651553 0.56742644 0.40819269 -0.00002028 -0.00003413 0.00003149
0.18119246 0.75431412 0.39380041 -0.00001739 0.00000525 -0.00002731
0.71366352 0.47520471 0.44843516 0.00004028 0.00004174 -0.00004273
0.20648248 0.67252207 0.47197622 -0.00003682 -0.00001022 -0.00000034
0.49264997 0.51889312 0.40823314 0.00000149 -0.00001385 0.00003117
0.78730351 0.14395978 0.38178021 -0.00000009 -0.00002749 -0.00013076
0.48208535 0.65161353 0.53903663 -0.00000269 -0.00000480 -0.00000782
0.49646571 0.58164245 0.38857481 -0.00000560 -0.00001165 -0.00002877
0.53297955 0.63567543 0.47940183 -0.00001714 -0.00001953 0.00000894
0.06917989 0.57757312 0.40606898 0.00006297 0.00001108 0.00007542
0.83959615 0.35060206 0.40908340 -0.00000381 -0.00005281 0.00007312
0.46651101 0.61440641 0.41712791 -0.00000666 -0.00001219 0.00001014
0.22316594 0.66039097 0.49895135 -0.00000545 -0.00001932 -0.00000566
0.51521224 0.65344971 0.61666799 0.00000126 -0.00001536 0.00000841
0.94533402 0.23802228 0.39615890 0.00008472 -0.00008444 0.00003076
0.71618819 0.33578390 0.38860425 -0.00001295 -0.00004266 -0.00004533
0.52108061 0.79940128 0.59346825 0.00002956 0.00001396 -0.00009048
0.85704440 0.29757130 0.41633967 0.00000224 0.00002861 0.00001462
0.20305368 0.54360014 0.40827194 0.00001140 0.00004219 0.00006687
0.40372565 0.65519017 0.42199674 0.00000211 0.00000002 0.00000696
0.63423371 0.52958179 0.46550089 -0.00001676 -0.00004021 0.00002370
0.20677094 0.78418314 0.48648489 -0.00002952 0.00001558 -0.00000585
0.64415896 0.44395226 0.40822953 0.00000950 -0.00000140 0.00003007
0.36265379 0.72914404 0.59265184 0.00000500 0.00001092 -0.00002807
0.29693681 0.62168628 0.46649063 0.00001006 -0.00000614 -0.00000723
0.76897413 0.29084215 0.38854533 0.00002467 -0.00002085 -0.00005015
0.50265533 0.71551490 0.38185462 0.00001402 0.00001755 -0.00005382
0.42044565 0.74064982 0.61268872 -0.00000513 0.00000621 0.00002202
0.25766611 0.84202921 0.41058242 -0.00003611 0.00004765 -0.00002883
0.50010604 0.59314126 0.38859880 0.00000339 -0.00000259 -0.00002553
0.68156439 0.26153186 0.40307966 -0.00002368 -0.00002452 0.00002532
0.43639484 0.80888534 0.61319536 -0.00003073 -0.00000474 0.00003088
0.26603514 0.63070613 0.52884293 -0.00001438 0.00000096 -0.00000904
0.17318100 0.58207405 0.38585186 -0.00002270 -0.00004037 -0.00004530
0.58062631 0.55387920 0.38863102 -0.00001146 -0.00001977 -0.00001684
0.40286565 0.67592788 0.50417709 -0.00000444 0.00000186 -0.00000112
0.24333519 0.79928005 0.44314945 0.00003010 -0.00002665 -0.00000573
0.40893787 0.70837605 0.59357065 -0.00000289 0.00000164 -0.00000779
0.44063473 0.70564049 0.59266627 0.00000455 -0.00000869 -0.00000661
0.39879516 0.65361333 0.62101203 0.00001140 -0.00002959 0.00000616
0.35294431 0.83476079 0.59300721 0.00000370 -0.00000131 -0.00003186
0.23098105 0.50769788 0.38168955 -0.00001404 -0.00001443 -0.00011320
0.53067708 0.52458572 0.38859138 -0.00000583 -0.00001830 -0.00003679
0.46478572 0.65531141 0.63285446 0.00001276 -0.00003135 0.00005979
0.35703364 0.64050531 0.47662556 0.00000786 -0.00001218 0.00000230
0.49502647 0.70597869 0.43159366 -0.00000260 0.00001835 -0.00002073
0.40753976 0.76013660 0.61700439 0.00000365 0.00000187 0.00003854
0.76052511 0.26969847 0.38837090 0.00000958 -0.00002660 -0.00004977
0.22848916 0.80871445 0.62906206 -0.00004973 0.00007604 0.00006791
0.51475078 0.68257701 0.58009648 0.00000374 -0.00000556 0.00002278
0.54135638 0.42740253 0.40798363 -0.00000940 -0.00003318 0.00003881
0.41730249 0.92354250 0.41757274 0.00001057 0.00007297 0.00014031
0.68741721 0.40803742 0.38857841 0.00002043 0.00000265 -0.00003998
0.38479257 0.87795967 0.59290224 -0.00000405 0.00005516 0.00002298
0.31383482 0.69963497 0.59339374 0.00000490 0.00000423 -0.00000084
0.49288365 0.70370615 0.47106022 -0.00000134 0.00000818 -0.00000990
0.86290336 0.33887091 0.41831574 -0.00002775 -0.00007539 0.00006799
0.76630038 0.39834803 0.38222563 0.00000564 -0.00001770 -0.00007108
0.38387156 0.77895933 0.39763731 -0.00000424 -0.00000187 0.00003119
0.86090952 0.22023225 0.38793495 -0.00004121 0.00000691 -0.00005405
0.33742681 0.83644062 0.61236393 -0.00002981 0.00005015 0.00004163
0.84912020 0.22603419 0.40827012 -0.00002207 0.00003563 0.00005716
0.44706026 0.66792125 0.38612348 -0.00000455 -0.00000003 -0.00001464
0.95394790 0.26863915 0.40635282 0.00011046 0.00001715 0.00008677
0.28808179 0.65231162 0.63228357 0.00000967 0.00005376 0.00005557
0.49782538 0.66843396 0.43777010 -0.00000517 -0.00001595 -0.00002689
0.49016079 0.59411168 0.38861623 0.00000027 -0.00000930 -0.00002339
0.27777112 0.68944436 0.49036521 -0.00001805 -0.00000795 -0.00000627
0.41073492 0.69308764 0.61330891 -0.00000311 0.00001779 -0.00001602
0.68004447 0.13341761 0.41834131 0.00002704 -0.00005956 0.00002388
0.26273963 0.63302112 0.49357584 -0.00001541 0.00000292 -0.00000450
0.61243153 0.58084410 0.50904477 0.00003269 0.00004062 -0.00002730
0.52898949 0.63988113 0.46659708 -0.00001551 -0.00001676 0.00001219
0.69386637 0.24995342 0.41507527 0.00000492 -0.00001479 0.00009231
0.24989586 0.69653827 0.40797719 -0.00001298 -0.00000525 0.00001927
0.74270475 0.18678895 0.40820780 0.00000614 -0.00004006 0.00002836
0.54919350 0.61985421 0.49005580 -0.00002306 -0.00002194 -0.00001303
0.30017531 0.86404443 0.41812542 0.00002635 -0.00001057 0.00005663
0.53410000 0.44847372 0.40827909 -0.00001382 -0.00003714 0.00004264
0.71936125 0.13280433 0.38554862 0.00001207 -0.00009946 -0.00001892
0.43963069 0.41396740 0.39102709 -0.00001676 -0.00004924 -0.00004957
0.25924295 0.68071294 0.46016160 0.00000551 0.00000969 -0.00000378
0.68165529 0.48161936 0.44658127 -0.00004682 -0.00002923 -0.00006676
0.12982701 0.69560987 0.38250595 -0.00004215 -0.00001267 -0.00008805
0.60699892 0.55009842 0.40808505 -0.00001832 -0.00003282 0.00003781
0.23079321 0.81092155 0.42556369 -0.00002460 0.00002661 -0.00000306
0.22472946 0.80420452 0.55063760 -0.00002296 0.00002701 0.00001011
0.23158222 0.54008049 0.40816879 0.00000367 0.00001875 0.00005144
0.44844440 0.79917222 0.61309302 0.00001367 0.00000462 0.00004176
0.49158999 0.88493234 0.60348368 0.00005727 0.00005814 -0.00008845
0.30567548 0.68490654 0.59315169 -0.00000662 -0.00003942 0.00001916
0.50221235 0.72164166 0.38187304 0.00001172 0.00001444 -0.00005386
0.30826679 0.78425592 0.41812843 0.00000513 0.00000837 0.00004549
0.30668998 0.71835226 0.61327934 0.00000423 0.00003665 0.00001055
0.43783692 0.84661436 0.38862240 0.00005355 0.00007673 -0.00004744
0.82914120 0.29492423 0.41761819 -0.00000253 -0.00001586 0.00005179
0.28902960 0.84743732 0.62622350 0.00004294 -0.00001534 0.00006128
0.26129249 0.73649496 0.38363168 -0.00001047 0.00001211 -0.00004714
0.26013258 0.67772526 0.56996369 0.00003298 0.00001087 0.00002422
0.25531480 0.76115352 0.62276554 0.00000694 0.00002692 0.00000334
0.36741462 0.66521239 0.47930863 -0.00000108 0.00001153 -0.00000094
0.57515097 0.58917022 0.47915530 -0.00002990 -0.00002774 0.00000189
0.38409504 0.67121065 0.38624576 -0.00000047 0.00000357 -0.00001710
0.30937093 0.62555265 0.53683388 0.00001957 -0.00000340 -0.00000948
0.27992004 0.54975271 0.38861150 -0.00001950 -0.00004314 -0.00003427
0.57292247 0.61736161 0.51688927 0.00002753 -0.00000105 0.00001618
0.37550607 0.81361461 0.37500671 -0.00000470 0.00002377 -0.00005008
0.54457003 0.65152621 0.56627220 0.00001861 0.00002762 -0.00002157
0.79965276 0.28127447 0.40819523 -0.00001177 -0.00000904 0.00004514
0.06218533 0.57972068 0.41841060 0.00000572 0.00000390 0.00008604
0.70861185 0.44682765 0.38824171 0.00000580 -0.00003298 0.00000507
0.93066007 0.22709228 0.38521895 0.00003949 -0.00009022 -0.00005271
0.80342090 0.24043542 0.40820587 0.00000131 -0.00003947 0.00005503
0.28090662 0.86118889 0.40421385 -0.00003337 0.00004543 -0.00005277
0.65797722 0.53344822 0.48556554 0.00004292 0.00005911 -0.00002863
0.38796055 0.51005417 0.40829217 -0.00001529 -0.00002892 0.00004044
0.66573417 0.43051580 0.40823948 0.00002459 0.00000929 0.00002976
0.41139609 0.70473880 0.41820422 -0.00000260 0.00001363 0.00001647
0.36178839 0.66333497 0.46430826 -0.00000089 0.00001505 -0.00000615
0.21160085 0.58223134 0.38852739 -0.00001857 -0.00003156 -0.00003231
0.44372949 0.58754218 0.50932020 -0.00000861 -0.00002060 -0.00000053
0.23614064 0.81742281 0.58248734 -0.00002941 0.00003393 0.00002623
0.07843612 0.52986467 0.41725436 -0.00002727 -0.00007164 0.00011186
0.10829788 0.56546503 0.41828495 -0.00008347 0.00001036 -0.00000430
0.41187021 0.65850991 0.54327214 0.00000238 -0.00001160 -0.00000768
0.38226163 0.65459508 0.38221750 -0.00000084 -0.00000430 -0.00003476
0.84104943 0.24461204 0.38859746 0.00001634 -0.00002411 -0.00001956
0.32558534 0.64106286 0.38215992 0.00000020 -0.00000180 -0.00003337
0.21392792 0.68666518 0.47091648 -0.00000340 0.00001545 -0.00000254
0.86614788 0.33491609 0.37506971 0.00003749 0.00001298 -0.00002523
0.35608223 0.60935968 0.40822297 -0.00000117 0.00000048 0.00002398
0.16611856 0.73795789 0.41498446 -0.00000716 -0.00005217 0.00005500
0.36336040 0.46650857 0.38544196 0.00000429 0.00001870 -0.00008626
0.11850310 0.65630162 0.41350350 -0.00005541 0.00000016 0.00007742
0.48139295 0.64912033 0.47905433 0.00000804 0.00000633 0.00000123
0.88290894 0.33038071 0.41791233 -0.00006458 -0.00005508 0.00007228
0.92290795 0.24771239 0.40298909 -0.00008145 0.00004426 0.00004544
0.43041256 0.91665584 0.41814083 0.00000860 0.00004423 0.00013547
0.25919449 0.68340480 0.41040641 -0.00000956 -0.00000137 0.00001925
0.52812493 0.80506146 0.40194750 0.00005985 0.00001353 0.00002475
0.66436821 0.17607832 0.38182807 -0.00000197 -0.00001308 -0.00007934
0.37954235 0.86005688 0.59274161 -0.00001105 0.00004942 -0.00000072
0.26534912 0.82034016 0.62607801 0.00003157 -0.00002037 0.00003780
0.41859993 0.56301379 0.40799874 -0.00001484 -0.00001736 0.00000746
0.46527985 0.81586170 0.61238229 0.00007123 0.00003301 0.00004554
0.14210722 0.65920317 0.41041914 0.00001184 -0.00000907 0.00005662
0.26978633 0.73459572 0.38822213 0.00000300 0.00000424 -0.00002138
0.66395611 0.35167590 0.38859805 0.00002823 0.00000599 -0.00004756
0.79181105 0.34134826 0.40825415 0.00000819 -0.00000788 0.00003065
0.06790607 0.53964931 0.37514243 -0.00002550 -0.00005557 -0.00012199
0.41432104 0.53482646 0.41308209 -0.00000573 -0.00001131 0.00002671
0.52714974 0.64131981 0.45342773 -0.00001683 -0.00001340 -0.00001154
0.18922937 0.56147343 0.38862106 -0.00000299 0.00000882 -0.00004047
0.24934559 0.63705230 0.40794507 -0.00001524 -0.00001393 0.00001811
0.77530694 0.12562309 0.38235542 0.00001150 -0.00004331 -0.00012280
0.75363719 0.12858286 0.41125229 -0.00002967 0.00001039 0.00008290
0.54173803 0.62564963 0.59422362 -0.00003187 -0.00005224 0.00001078
0.88217562 0.22155577 0.38186455 -0.00002014 -0.00001075 -0.00005228
0.38121650 0.80517656 0.39944154 0.00000752 0.00003355 0.00004038
0.66376102 0.09009634 0.41482958 -0.00004983 -0.00006834 0.00014841
0.53605509 0.63289261 0.49757615 -0.00002345 -0.00001840 -0.00001988
0.91002303 0.28006002 0.39192957 -0.00003580 -0.00009458 0.00001992
0.62506723 0.53909105 0.49816775 -0.00006253 -0.00003590 -0.00004365
0.32841179 0.77070785 0.41812012 0.00000786 0.00000223 0.00002458
0.34985971 0.58824396 0.38859430 -0.00000925 -0.00001687 -0.00002273
0.27584282 0.69551897 0.52984768 -0.00001684 -0.00001003 -0.00000154
0.20708001 0.70766705 0.40808034 -0.00001818 0.00001834 0.00001763
0.22473067 0.59605813 0.38747028 -0.00001065 0.00000958 -0.00003540
0.37244570 0.62964928 0.38852015 -0.00000239 -0.00000647 -0.00001354
0.19288361 0.68072385 0.38620180 -0.00003057 -0.00000167 -0.00001689
0.79421806 0.39183089 0.38509303 0.00003530 0.00001330 -0.00007622
0.28876415 0.65852928 0.50331289 0.00000809 0.00001366 -0.00000049
0.31218645 0.64784777 0.50595272 0.00000507 0.00001326 -0.00000046
0.46863255 0.42751437 0.38820705 0.00001095 0.00002033 -0.00006794
0.22566150 0.67359108 0.58414686 -0.00001637 0.00002184 0.00000750
0.52840710 0.63989812 0.43559793 -0.00001871 -0.00001670 -0.00002321
0.73725671 0.17131144 0.40839753 0.00002811 -0.00003424 0.00003267
0.81446856 0.16253884 0.38523424 0.00003667 -0.00005318 -0.00011145
0.57832736 0.47469261 0.38855976 -0.00000479 -0.00001476 -0.00004294
0.75647575 0.28812724 0.40819725 0.00000964 -0.00002197 0.00005297
0.69664431 0.15471283 0.39286280 -0.00008430 -0.00000236 0.00000009
0.50422853 0.66428518 0.49439555 0.00000403 -0.00001778 -0.00000055
0.26383290 0.70282018 0.63310534 0.00000444 -0.00002011 0.00005404
0.50562066 0.70628172 0.58206183 0.00001231 0.00000896 0.00002310
0.17507297 0.55802274 0.38860267 0.00000002 0.00002249 -0.00005132
0.49433812 0.39141363 0.39146715 -0.00001792 -0.00005267 -0.00004794
0.69364339 0.20319246 0.38795835 0.00001543 -0.00003619 -0.00004328
0.27216917 0.74673051 0.59093112 -0.00000020 0.00000042 -0.00000578
0.50881010 0.71715480 0.40795708 0.00001565 0.00001851 0.00002208
0.44872436 0.62322068 0.45805266 -0.00001510 -0.00000354 0.00000252
0.32248622 0.86463344 0.59360361 0.00000970 0.00001159 -0.00002613
0.74197757 0.33783466 0.38861963 0.00001170 -0.00001789 -0.00005232
0.38394222 0.66995019 0.55348659 -0.00000522 0.00001336 -0.00000039
0.24300794 0.73451453 0.43451235 -0.00002096 0.00001287 -0.00002224
0.41429195 0.71906126 0.41811633 -0.00000032 0.00001289 0.00002073
0.63005590 0.33506033 0.40663135 -0.00000495 -0.00004410 0.00005107
0.27359208 0.70334494 0.61570472 0.00000240 -0.00002691 -0.00001481
0.36487788 0.66682553 0.58273292 0.00000056 0.00001747 0.00000988
0.24547684 0.72636485 0.51229364 -0.00000928 -0.00000185 -0.00000356
0.22406043 0.78984451 0.63307017 -0.00002254 0.00002601 0.00008714
0.51954591 0.60489255 0.40826699 0.00001610 0.00001091 0.00002015
0.43902007 0.67524552 0.38197267 -0.00000555 0.00000125 -0.00003216
0.64056051 0.40096381 0.38861611 -0.00000407 -0.00003818 -0.00004057
0.70461702 0.07256447 0.39224142 -0.00000043 -0.00012483 -0.00005835
0.67780101 0.22175938 0.40779901 -0.00001819 -0.00002512 0.00005579
0.18328683 0.75747144 0.39760882 -0.00002398 0.00000386 -0.00002040
0.78250265 0.24140382 0.40819657 -0.00001023 -0.00001457 0.00006600
0.17415184 0.60376340 0.38507217 -0.00003410 -0.00001072 -0.00005197
0.47360545 0.62649316 0.40841845 0.00000826 0.00001044 0.00000703
0.38683593 0.85149640 0.38857406 0.00000212 0.00005321 -0.00004532
0.77812123 0.38643789 0.41452536 0.00000961 -0.00003750 0.00007297
0.32328373 0.58579379 0.40819839 -0.00000600 -0.00001108 0.00002387
0.25824910 0.69817936 0.63353080 0.00000189 -0.00000338 0.00006022
0.84180802 0.37980121 0.39181781 0.00002327 0.00005061 -0.00005338
0.20920467 0.60125202 0.41474944 0.00000354 0.00000190 0.00005392
0.44203171 0.85283440 0.59269011 0.00003742 0.00005347 0.00001693
0.52046448 0.67650479 0.40676707 0.00001322 0.00001435 0.00001253
0.79323030 0.37010348 0.41396892 0.00001831 -0.00003458 0.00007459
0.45513436 0.70682955 0.41952109 0.00000112 0.00001775 0.00000823
0.20244525 0.75637937 0.50317776 -0.00000520 -0.00001329 0.00000201
0.61712295 0.57596391 0.43905750 0.00002082 0.00002464 -0.00003159
0.43223897 0.46174029 0.38862422 0.00001337 0.00000811 -0.00004647
0.47663879 0.63867521 0.46761817 0.00000738 0.00000845 0.00000541
0.30501252 0.78768468 0.38857561 0.00000583 0.00001145 -0.00003724
0.24525020 0.66955507 0.44759899 0.00000843 0.00000194 -0.00003062
0.51264769 0.72628129 0.62323707 0.00003674 0.00000368 0.00001843
0.75295240 0.09656248 0.39275685 0.00005360 -0.00006935 -0.00004619
0.39884412 0.92675918 0.59916836 0.00000589 0.00008884 -0.00011776
0.42234886 0.92435336 0.61023611 0.00001565 0.00008759 -0.00005535
0.38975456 0.84234434 0.59339905 0.00000921 -0.00004613 -0.00006160
0.55111361 0.64551097 0.43963951 0.00001712 0.00000924 -0.00002064
0.12847197 0.57242227 0.38196453 -0.00002987 0.00000426 -0.00003043
0.44291273 0.77705765 0.38858375 0.00000268 0.00000810 -0.00002236
0.53573596 0.60016477 0.40821356 -0.00000049 -0.00000424 0.00002630
0.60932648 0.39927500 0.38860703 0.00000307 -0.00002180 -0.00003620
0.65693247 0.31499046 0.39187393 -0.00001185 -0.00003715 -0.00004001
0.79238915 0.18049128 0.40838587 -0.00002139 0.00002298 0.00007877
0.30100435 0.50159448 0.40823147 0.00000817 0.00003003 0.00006837
0.68474108 0.13948257 0.37867633 -0.00004375 -0.00007321 -0.00001345
0.47797492 0.58427876 0.38865551 -0.00000170 -0.00001414 -0.00001681
0.50504661 0.77498996 0.61374134 -0.00003430 0.00001560 -0.00000825
0.48366547 0.86527467 0.61951047 -0.00003822 -0.00002564 0.00003788
0.37570241 0.63250357 0.40810883 -0.00000234 -0.00001148 0.00001922
0.40764329 0.49116769 0.41468170 -0.00001682 -0.00004331 0.00005052
0.31851321 0.62839478 0.58775771 0.00002120 0.00000092 -0.00001059
0.21394733 0.50641418 0.40111944 -0.00001967 -0.00005396 0.00002195
0.24460903 0.72966039 0.41862708 -0.00002376 0.00000325 0.00000687
0.53906101 0.37333715 0.38580543 -0.00001310 -0.00004603 -0.00008716
0.52327251 0.75675631 0.39043427 0.00004946 0.00000083 -0.00003842
0.51696676 0.68004507 0.41082689 0.00001203 0.00000934 0.00001555
0.21043125 0.67681986 0.48976952 -0.00002871 -0.00000026 0.00000126
0.47780755 0.63166726 0.40802661 0.00001430 0.00001577 0.00000777
0.46508861 0.77406394 0.59271890 0.00003410 -0.00000217 0.00000426
0.33960721 0.65565437 0.47790739 -0.00001176 0.00001185 -0.00000060
0.24385151 0.73184085 0.50026476 -0.00001354 0.00000701 -0.00000313
0.82162184 0.31496745 0.41751167 0.00001508 0.00000966 0.00004939
0.88084120 0.20533408 0.38535056 0.00000451 -0.00009624 -0.00006878
0.49472257 0.88160658 0.61526376 0.00005681 0.00005293 -0.00001109
0.19904795 0.61292011 0.40994817 0.00001269 0.00000431 0.00004661
0.71690208 0.22835279 0.40826476 0.00001417 -0.00002678 0.00005255
0.34434381 0.65750515 0.44692147 -0.00000757 0.00000963 -0.00002103
0.91723216 0.22157030 0.38487983 0.00002580 -0.00006606 -0.00005167
0.81903547 0.37699503 0.41420966 0.00001494 -0.00000900 0.00008278
0.44805714 0.80600435 0.61297524 0.00001684 0.00000767 0.00004206
0.48393068 0.64627457 0.40814626 0.00000723 0.00000421 0.00001722
0.84127116 0.21130328 0.40866497 -0.00001423 0.00002530 0.00007735
0.78837377 0.25224414 0.40819293 -0.00001887 -0.00000106 0.00006559
0.42929071 0.60556245 0.38856629 -0.00000145 -0.00000541 -0.00000756
0.26705080 0.71386415 0.52138829 -0.00000321 -0.00001356 -0.00000150
0.09466384 0.57641441 0.39564195 0.00000982 -0.00005503 0.00000475
0.31629398 0.65118927 0.58207357 -0.00000423 0.00000882 0.00002081
0.47164962 0.59916741 0.40815085 -0.00000680 -0.00002009 0.00001700
0.37775195 0.92599320 0.60867846 -0.00001239 0.00008949 -0.00006198
0.44613442 0.70799309 0.59284216 0.00000525 -0.00000656 -0.00000656
0.50319088 0.72223312 0.59188330 0.00000756 0.00001859 -0.00001892
0.50191271 0.66473609 0.44969916 -0.00000689 -0.00001756 -0.00002310
0.35508594 0.74310046 0.38864025 -0.00000023 0.00000633 -0.00002084
0.16903104 0.53155446 0.41503200 -0.00002617 -0.00000202 0.00009782
0.41637239 0.44212431 0.41383040 0.00001039 0.00001162 0.00009661
0.05411086 0.56993955 0.41855255 -0.00004361 0.00001117 0.00011410
0.23902404 0.64951795 0.42386591 -0.00000950 -0.00000300 -0.00000611
0.78681988 0.34881675 0.38863796 0.00001312 -0.00002877 -0.00004103
0.77456397 0.12176888 0.41183442 0.00002341 -0.00005264 0.00010506
0.88889027 0.30367383 0.38591707 -0.00001973 0.00001401 -0.00000232
0.36043823 0.44636250 0.39263529 -0.00002295 -0.00005342 -0.00004093
0.27789232 0.77200353 0.61322552 -0.00001487 0.00003331 0.00000459
0.43544924 0.66556144 0.54621398 0.00000776 -0.00001624 -0.00000413
0.35378060 0.89260691 0.61306965 0.00003155 -0.00005846 0.00000017
0.52788228 0.77671099 0.39726266 0.00005787 0.00000910 -0.00000384
0.67764831 0.38401967 0.38859722 -0.00001861 -0.00004174 -0.00005000
0.19965638 0.60788041 0.38229710 0.00000825 -0.00000099 -0.00006895
0.59514046 0.57394373 0.56090295 -0.00000663 -0.00005667 0.00004485
0.62660408 0.56619447 0.42802289 0.00002061 0.00002241 -0.00001150
0.37420312 0.45016435 0.38185847 -0.00000624 -0.00001267 -0.00010964
0.38202372 0.51248789 0.38861322 -0.00002059 -0.00003199 -0.00003465
0.51319069 0.58422732 0.38860753 0.00000711 -0.00000151 -0.00002827
0.36527660 0.87848681 0.41813260 0.00002344 0.00000877 0.00006101
0.73482788 0.27186313 0.38858131 -0.00000708 -0.00002582 -0.00004668
0.15616180 0.60647231 0.38837034 -0.00003884 -0.00000042 -0.00003062
0.56892133 0.60458106 0.38213339 0.00000528 -0.00000224 -0.00004467
0.32692584 0.53208137 0.38860485 -0.00001823 -0.00003704 -0.00003575
0.25216115 0.70047611 0.51648301 -0.00000084 -0.00000644 -0.00000114
0.37355351 0.70096701 0.59321868 -0.00000227 -0.00001159 -0.00000508
0.73510659 0.14286533 0.41757506 0.00000883 -0.00003652 0.00004695
0.79979706 0.38737842 0.40645587 0.00003305 -0.00000329 0.00004633
0.63518393 0.55714482 0.41101062 0.00002628 0.00002016 0.00001584
0.13114932 0.73817486 0.38478163 -0.00009858 0.00007212 -0.00007542
0.68229163 0.49663702 0.38178977 0.00001054 0.00001142 -0.00007011
0.29379404 0.72542435 0.38863611 0.00001612 0.00000858 -0.00001413
0.22907333 0.65634769 0.45081303 0.00000581 -0.00001686 -0.00003053
0.51077813 0.52845633 0.40798444 -0.00000089 -0.00001805 0.00003269
0.67235667 0.49027398 0.45092732 -0.00005019 -0.00003071 -0.00005706
0.45905235 0.84194684 0.38862509 0.00003171 0.00003900 -0.00004652
0.10305589 0.53099644 0.40172920 -0.00001465 -0.00003381 0.00003248
0.75618970 0.43108463 0.38490587 0.00005208 0.00002008 -0.00005265
0.51339746 0.68402416 0.43967479 0.00000418 0.00000364 -0.00003021
0.41191420 0.48600918 0.38345048 -0.00001727 -0.00004321 -0.00005516
0.31034538 0.64885497 0.61303413 0.00000986 0.00004739 -0.00004072
0.58966619 0.60227108 0.46794748 0.00002753 0.00003092 -0.00000509
0.57390529 0.58244157 0.40801838 -0.00002143 -0.00002840 0.00003038
0.73851967 0.17947076 0.38856584 0.00001942 -0.00003051 -0.00003306
0.87818807 0.33305201 0.41817924 -0.00005949 -0.00007145 0.00007248
0.60776699 0.53508937 0.40826565 -0.00001372 -0.00002475 0.00003896
0.24807055 0.49862891 0.38180345 -0.00001697 -0.00002241 -0.00011542
0.54751700 0.62453574 0.48732540 -0.00001827 -0.00001841 -0.00000959
0.80899137 0.18102822 0.41392189 -0.00002057 0.00000968 0.00012327
0.31673154 0.89773250 0.40222603 -0.00004076 0.00006586 -0.00005271
0.25744191 0.63675779 0.57167625 -0.00002023 -0.00000372 0.00002673
0.42506561 0.66185266 0.42655721 0.00000092 0.00000072 -0.00000750
0.85997021 0.24258676 0.38857225 -0.00004529 -0.00000239 -0.00001140
0.11963877 0.53633964 0.38200128 -0.00001905 -0.00002954 -0.00008036
0.27710694 0.86168700 0.59571183 -0.00003385 0.00004814 -0.00009282
0.73726034 0.45099485 0.40517619 0.00003075 0.00003748 -0.00001987
0.57540262 0.43238512 0.40828601 -0.00000207 -0.00002798 0.00003970
0.30824253 0.46784389 0.39627004 -0.00002356 -0.00004990 -0.00001405
0.51400208 0.52889383 0.38835382 0.00000010 -0.00001585 -0.00003282
0.40474862 0.69923985 0.59342694 -0.00000299 -0.00000292 -0.00000874
0.72451115 0.39728314 0.38862616 0.00001539 -0.00001645 -0.00001336
0.45658845 0.47081512 0.38859880 -0.00002112 -0.00003980 -0.00003190
0.18420555 0.58604306 0.41143861 -0.00001784 -0.00004730 0.00004910
0.72618854 0.13549381 0.41826880 0.00001031 -0.00006566 0.00002864
0.33780131 0.78471768 0.38869539 0.00000643 0.00000042 -0.00002219
0.30492768 0.57324827 0.40801680 0.00000323 0.00001136 0.00003372
0.64698541 0.48077953 0.40820965 0.00000661 -0.00000989 0.00002385
0.72016358 0.32804757 0.38858765 -0.00001261 -0.00003964 -0.00004510
0.69604683 0.11580088 0.41832143 -0.00001331 0.00001459 0.00002732
0.52721465 0.77309555 0.61843240 0.00006563 0.00000045 0.00000901
0.25551236 0.51087826 0.38561007 0.00000168 0.00002028 -0.00008631
0.52524716 0.82052195 0.60222620 0.00006947 0.00002089 -0.00008759
0.73663133 0.40765092 0.40819472 -0.00003197 -0.00005677 0.00001224
0.65309525 0.53854018 0.50197959 0.00004814 0.00005023 -0.00002616
0.57075661 0.51314938 0.38841081 -0.00000102 -0.00001103 -0.00004597
0.22751346 0.65750271 0.42130566 -0.00000021 -0.00000584 -0.00000886
0.70473582 0.43966004 0.40819874 -0.00002254 -0.00004289 0.00004070
0.69574016 0.46594122 0.42342937 -0.00002463 -0.00003084 0.00000405
0.38040981 0.76059842 0.38009465 0.00000085 -0.00000277 -0.00003721
0.15334505 0.73332316 0.39241859 0.00002399 0.00001647 0.00000361
0.74043339 0.39986685 0.38863379 -0.00000963 -0.00003478 -0.00002585
0.40956664 0.90127170 0.38833672 -0.00000215 -0.00005909 -0.00008144
0.84988379 0.29785612 0.38665289 -0.00001311 -0.00001398 -0.00002472
0.34621879 0.88151330 0.61322367 0.00004940 -0.00006961 0.00000878
0.87594825 0.24529804 0.40857786 -0.00000415 0.00001647 0.00001919
0.06050428 0.59284371 0.37694231 -0.00006586 0.00005036 -0.00010960
0.20766905 0.63586694 0.40822732 -0.00000804 -0.00001562 0.00001774
0.43350151 0.69240165 0.61348236 0.00000439 0.00000532 -0.00001869
0.38207293 0.64835316 0.49453780 0.00000360 -0.00000879 -0.00000299
0.73652464 0.36509541 0.40818021 0.00003449 0.00001262 0.00004201
0.41356084 0.83664185 0.61310834 -0.00000777 -0.00002087 0.00003239
0.43972585 0.59995961 0.52309757 -0.00001978 -0.00000510 0.00000464
0.37312445 0.78675628 0.59355617 -0.00002230 0.00002371 -0.00003893
0.38060069 0.90527862 0.59353471 0.00000446 -0.00000091 -0.00007893
0.58616275 0.40692747 0.40824077 0.00000002 -0.00002391 0.00004098
0.35430902 0.66015947 0.61635083 -0.00000705 0.00002535 -0.00001515
0.32737914 0.61251879 0.38855708 -0.00000071 -0.00001238 -0.00001403
0.22034799 0.60857719 0.38192043 -0.00000797 -0.00000104 -0.00005382
0.27385023 0.67045802 0.38237008 0.00000242 0.00000538 -0.00003623
0.24899411 0.80234283 0.58721167 0.00000340 -0.00003582 0.00002597
0.72107506 0.10561870 0.38814259 -0.00005172 0.00007246 -0.00008202
0.19175522 0.76763177 0.43952292 -0.00003245 0.00001579 -0.00000690
0.71096319 0.11894971 0.41824734 -0.00005259 -0.00002971 0.00002179
0.20560376 0.60974669 0.38232645 0.00000634 -0.00000049 -0.00006340
0.35305822 0.52946448 0.40817583 -0.00000504 -0.00002200 0.00003557
0.20596009 0.74764073 0.40372834 -0.00000344 -0.00002856 0.00000320
0.28567594 0.58530152 0.40820128 -0.00000127 0.00000811 0.00002692
0.76459265 0.37081614 0.40829995 -0.00001096 -0.00003089 0.00004998
0.53467447 0.66197503 0.39346126 0.00001931 0.00002563 -0.00000969
0.68536162 0.14344707 0.39487514 -0.00004245 -0.00007601 0.00000707
0.62216079 0.57075208 0.52603710 0.00004765 0.00005485 -0.00001628
0.78984517 0.24069358 0.40823981 -0.00001116 -0.00002541 0.00006405
0.39434150 0.65244985 0.52782249 0.00000008 -0.00000775 -0.00000562
0.42307100 0.74530149 0.61273926 -0.00000568 0.00000618 0.00002281
0.82673174 0.19480282 0.41406673 -0.00003014 -0.00000049 0.00012442
0.63849032 0.50533736 0.40825549 -0.00002033 -0.00002143 0.00002880
0.66699350 0.43838522 0.40820721 0.00003083 0.00001155 0.00002702
0.42981756 0.57528746 0.42659381 -0.00000618 0.00000014 -0.00001718
0.56488067 0.60159147 0.57927501 -0.00003447 -0.00005544 0.00002416
0.24019122 0.71906126 0.38875937 -0.00001402 0.00000487 -0.00001397
0.72104716 0.10311712 0.40834549 -0.00004746 0.00006412 0.00009739
0.46163300 0.65340853 0.45960730 0.00000439 0.00000716 -0.00000362
0.19618636 0.77184600 0.46748182 -0.00003304 0.00002399 -0.00001865
0.43902603 0.45599973 0.38857347 0.00001244 0.00002064 -0.00004911
0.37837613 0.55041122 0.38858086 0.00000382 0.00000054 -0.00002911
0.43805510 0.70613384 0.41827995 0.00000136 0.00001464 0.00001331
0.25855088 0.67421407 0.59616363 0.00007478 0.00000296 -0.00004863
0.83895254 0.20057084 0.38224402 -0.00001506 0.00000315 -0.00012168
0.31525165 0.64867073 0.46094966 -0.00000240 0.00001722 -0.00000907
0.24641372 0.78937298 0.55303693 0.00001303 -0.00004419 0.00000416
0.34337053 0.67687809 0.61324698 -0.00000841 0.00003105 -0.00001498
0.26204151 0.73958194 0.48929963 -0.00001003 0.00000407 -0.00000024
0.59276420 0.60019004 0.44013295 0.00002127 0.00000757 -0.00001571
0.27694210 0.83449900 0.63143271 0.00004459 -0.00001266 0.00007657
0.69617772 0.10748766 0.37533879 0.00000347 0.00005492 -0.00007191
0.40142342 0.67545760 0.44245443 -0.00000387 0.00000771 -0.00002267
0.65224558 0.53923553 0.43411237 0.00002632 0.00001205 -0.00001320
0.11636631 0.62533695 0.41489384 0.00000474 0.00000671 0.00007357
0.22547121 0.78406191 0.63295263 -0.00000788 0.00001032 0.00008123
0.61442178 0.54195023 0.40782592 -0.00002074 -0.00003171 0.00003618
0.40109947 0.65430421 0.61292934 0.00000974 -0.00002288 -0.00001703
0.32966504 0.69327915 0.61318880 0.00001200 -0.00001619 0.00001992
0.61291540 0.34302571 0.40971401 -0.00000559 -0.00004487 0.00006801
0.37953457 0.92204320 0.59386539 -0.00000501 0.00006346 -0.00011813
0.29046100 0.80538380 0.59305614 -0.00001805 0.00003239 0.00000493
0.51701510 0.45084918 0.40809536 -0.00001809 -0.00004381 0.00003806
0.23225003 0.76464534 0.57815129 0.00006056 0.00000047 0.00002495
0.74108309 0.41824374 0.42520812 -0.00000413 -0.00005563 0.00000259
0.23110469 0.67874461 0.54553407 0.00000810 0.00002513 -0.00000665
0.91238046 0.33008379 0.38398957 0.00003720 0.00006974 -0.00009335
0.20129624 0.77809280 0.59781492 -0.00007456 0.00001778 -0.00001252
0.50145966 0.60961407 0.38858154 0.00001138 0.00000611 -0.00001797
0.31030178 0.46697873 0.40178689 -0.00002368 -0.00004879 0.00002508
0.11382470 0.64864892 0.38654864 -0.00006100 -0.00000085 -0.00006770
0.25011402 0.77762246 0.45262599 0.00000545 -0.00001387 -0.00003365
0.23773323 0.67422861 0.42554566 0.00000188 0.00000378 -0.00001843
0.22459978 0.73710579 0.40195528 0.00000404 -0.00000389 0.00001357
0.77193630 0.30398530 0.38857695 0.00002354 -0.00001645 -0.00005101
0.33526939 0.69505960 0.61315513 0.00001450 -0.00001307 0.00001971
0.77449727 0.13533382 0.41497952 -0.00001381 -0.00001501 0.00011500
0.55631679 0.60731041 0.51950127 -0.00001082 -0.00003940 0.00001953
0.45432818 0.69551533 0.61845744 0.00000289 0.00000054 -0.00001672
0.30574700 0.53780442 0.38860813 -0.00001892 -0.00004378 -0.00003287
0.48817065 0.66354102 0.45288450 -0.00000402 -0.00000936 -0.00001277
0.27873710 0.52377695 0.38857213 0.00000459 0.00001347 -0.00004479
0.72884047 0.29615566 0.40824032 -0.00001161 -0.00000965 0.00004715
0.65158504 0.50292718 0.38873661 -0.00000415 -0.00001657 -0.00002326
0.33079824 0.74124610 0.59267932 -0.00001479 0.00001335 -0.00002531
0.57792509 0.61378664 0.52119243 0.00003106 0.00000596 0.00001530
0.39605200 0.64486378 0.40801391 0.00000011 -0.00000697 0.00001697
0.89514905 0.31858534 0.40869978 -0.00006032 -0.00001973 0.00003392
0.85928780 0.33365682 0.37593874 0.00004762 0.00001775 -0.00001278
