0.68650621 0.69591874 0.53395998 0.00075815 0.00107371 0.00004354
0.38908574 0.82944995 0.54003316 0.00005682 0.00021944 0.00089161
0.55613226 0.74673408 0.47209078 0.00058054 0.00040572 -0.00056171
0.59202540 0.36662915 0.32688290 0.00021729 -0.00008280 -0.00078822
0.60484457 0.20280404 0.33579499 0.00073541 -0.00042034 -0.00062434
0.33083934 0.23227714 0.48072872 -0.00108195 -0.00005982 0.00015984
0.53493267 0.11897345 0.50959843 0.00027447 -0.00065095 0.00061982
0.43411666 0.46442598 0.51620543 0.00028118 0.00027325 0.00025348
0.49883252 0.84522521 0.50542796 -0.00023100 0.00045785 -0.00049268
0.33375725 0.23142812 0.49506283 -0.00110267 -0.00000759 0.00023152
0.72248399 0.46108675 0.68634719 0.00005795 -0.00035833 0.00108143
0.63187617 0.09344337 0.42335796 0.00097897 -0.00134464 0.00012137
0.61920804 0.12588035 0.49263299 0.00091267 -0.00030311 0.00089146
0.35645589 0.07836469 0.37484676 0.00065038 -0.00096572 -0.00059675
0.52390158 0.16928101 0.29964110 0.00050893 -0.00000685 -0.00103419
0.37222162 0.54097754 0.47050598 -0.00008232 0.00016351 0.00006427
0.70787621 0.63251340 0.48675746 0.00091389 0.00029742 -0.00018631
0.48698717 0.33412576 0.32062253 0.00002640 0.00011576 -0.00086892
0.47360745 0.73434168 0.53257513 -0.00026059 0.00006581 0.00008452
0.58833307 0.61294568 0.42863959 0.00018416 0.00016217 0.00015493
0.58616000 0.62251115 0.43744704 0.00018562 0.00009092 0.00014482
0.32909077 0.23419496 0.46888208 -0.00105863 -0.00011317 0.00017419
0.39991885 0.73060292 0.52790356 -0.00001137 0.00012861 0.00059855
0.42282811 0.57993138 0.39913559 0.00009630 0.00041876 -0.00043195
0.50333190 0.27962357 0.31364968 -0.00021271 -0.00005037 -0.00086993
0.36830997 0.78574848 0.52168506 -0.00038261 0.00009314 0.00048583
0.52920765 0.74435627 0.55313683 0.00003922 0.00007778 0.00054432
0.47171766 0.95019966 0.57417053 -0.00085587 0.00161909 0.00036695
0.65267056 0.63323659 0.43743476 -0.00002196 0.00051320 -0.00054150
0.24153827 0.70160532 0.52941227 -0.00097328 -0.00000819 -0.00111784
0.43008900 0.37362432 0.53478020 0.00040613 0.00031193 0.00033719
0.27192000 0.70610845 0.57760620 0.00046757 -0.00000879 0.00127010
0.46554822 0.17878686 0.29410833 -0.00019559 0.00049413 -0.00118761
0.34132436 0.50609213 0.44727775 -0.00017770 0.00030754 -0.00036531
0.60537964 0.63797033 0.45789114 -0.00023302 -0.00002766 0.00003616
0.43913487 0.80612206 0.48293433 0.00047851 0.00021328 -0.00001162
0.66980684 0.58735073 0.64361447 -0.00025360 0.00009383 -0.00009709
0.47563478 0.59604096 0.45790523 0.00003114 0.00017092 0.00010369
0.59730840 0.26846287 0.33173275 0.00040705 0.00001961 -0.00070614
0.60283530 0.22578156 0.33385396 0.00062844 -0.00030017 -0.00068258
0.62790900 0.48701358 0.50986516 0.00001144 0.00007633 0.00024274
0.52189374 0.50648892 0.49145809 0.00017356 0.00011685 0.00027365
0.38774532 0.54834592 0.49940342 -0.00009093 0.00019087 0.00012391
0.64300454 0.70437676 0.61995578 0.00005887 0.00104072 0.00004756
0.44964492 0.59477329 0.40239656 0.00036361 0.00036000 -0.00034258
0.49843565 0.87129587 0.51240951 -0.00018867 0.00058437 -0.00057999
0.70390856 0.51415569 0.40347308 0.00101807 -0.00024391 -0.00039819
0.40909395 0.30089208 0.34414151 -0.00052965 0.00017665 -0.00069748
0.32015821 0.08344700 0.44991952 -0.00095345 -0.00070344 0.00107595
0.42189354 0.47852916 0.35886121 -0.00042092 0.00036266 -0.00070724
0.63213456 0.20448391 0.59088767 0.00023317 -0.00085142 0.00102613
0.63528138 0.11103826 0.38761723 0.00134580 -0.00049565 -0.00056098
0.73538828 0.43097439 0.53984416 0.00032798 0.00041716 -0.00023737
0.59468168 0.30094805 0.33004695 0.00027995 -0.00014248 -0.00074065
0.54402834 0.85606283 0.56075370 0.00086543 0.00039131 0.00040939
0.71929580 0.31326264 0.61270177 0.00045045 -0.00055661 0.00084910
0.52198613 0.79864913 0.57183182 0.00010017 0.00002894 0.00086402
0.31498808 0.41859519 0.52063763 -0.00084795 0.00058179 0.00032106
0.51679248 0.80428886 0.48518991 0.00001847 0.00050067 -0.00062959
0.75988543 0.38350922 0.54021400 0.00088651 0.00059188 -0.00047719
0.37811980 0.91255713 0.51547331 -0.00058402 0.00168045 0.00039884
0.39306471 0.86503094 0.47619727 -0.00014355 0.00027159 -0.00123547
0.47603562 0.24072559 0.54731929 0.00012708 0.00027012 0.00045569
0.69115174 0.21544942 0.46766272 0.00094206 -0.00028635 -0.00017905
0.37701732 0.60093594 0.45865232 -0.00041947 -0.00009992 0.00021575
0.76339442 0.36683756 0.54429966 0.00108518 0.00021746 -0.00034469
0.47324419 0.07866041 0.36889669 0.00040169 -0.00097990 -0.00028446
0.75387031 0.32641807 0.55829388 0.00109579 -0.00049098 0.00026012
0.61392277 0.40184391 0.59698105 -0.00001322 0.00039220 0.00035277
0.54282349 0.38049802 0.53013629 -0.00015059 0.00014640 0.00028185
0.64753318 0.62586480 0.57306486 -0.00000581 -0.00016755 0.00031140
0.34302425 0.24291414 0.52595699 -0.00099860 -0.00021523 0.00053075
0.74265051 0.31218293 0.51225156 0.00108453 0.00012018 0.00006768
0.23506272 0.71260405 0.56808442 -0.00113327 -0.00024687 0.00090129
0.47516116 0.68849313 0.51420778 -0.00019129 0.00006890 -0.00000812
0.70617312 0.65295261 0.50619137 0.00091850 0.00032923 -0.00020456
0.65884221 0.56690300 0.38677821 0.00030558 0.00081198 -0.00054438
0.52258432 0.72308636 0.44964606 0.00000564 0.00029944 -0.00056178
0.33609188 0.60366732 0.48574322 0.00006027 0.00030345 0.00004916
0.42205736 0.25919497 0.55954993 0.00034279 0.00011339 0.00084472
0.65291989 0.48736712 0.64224768 -0.00025421 -0.00010355 -0.00002411
0.65465254 0.62224329 0.60632581 -0.00017296 -0.00028537 -0.00013109
0.50728953 0.60192341 0.50074238 -0.00006158 0.00001618 0.00009205
0.60196352 0.32542342 0.33087188 0.00028305 -0.00019991 -0.00078189
0.64557165 0.70956188 0.57173127 0.00007116 0.00071157 0.00035795
0.70479810 0.61409885 0.46043277 0.00085643 0.00040472 -0.00051978
0.33361802 0.16555682 0.40099788 -0.00103380 0.00044223 -0.00008971
0.31241730 0.07202650 0.44424474 -0.00147862 -0.00152853 0.00081527
0.37270710 0.63248962 0.47182870 -0.00051271 -0.00003979 0.00018194
0.59817517 0.66104883 0.48854727 -0.00008624 -0.00000273 0.00013398
0.44615597 0.30966222 0.32782975 -0.00028953 -0.00014016 -0.00085320
0.45570236 0.37872124 0.33419341 -0.00022590 0.00009807 -0.00069099
0.50450569 0.43445742 0.49246094 0.00013326 0.00004346 0.00034881
0.67614537 0.63262206 0.56916279 -0.00017268 -0.00057081 0.00030494
0.51366323 0.81493312 0.49004990 -0.00002812 0.00049186 -0.00063077
0.53748864 0.61259216 0.39575991 -0.00002868 0.00022244 -0.00059318
0.60001069 0.64391357 0.56512666 -0.00005174 -0.00013454 0.00013539
0.67843771 0.32369715 0.63299519 0.00048806 -0.00012882 0.00088331
0.65400553 0.69582003 0.64748108 0.00046957 0.00105380 0.00073268
0.73250037 0.43708867 0.67032754 0.00015911 -0.00031953 0.00099457
0.47316381 0.78601241 0.55813491 -0.00033386 0.00004637 0.00041701
0.60426170 0.51906925 0.35015208 0.00026806 0.00099729 -0.00043921
0.60123599 0.24071150 0.33358324 0.00056101 -0.00013539 -0.00067082
0.68535733 0.32705870 0.37468341 0.00095849 0.00017413 -0.00064093
0.71267736 0.58980739 0.48527384 0.00081962 -0.00018111 0.00045416
0.60421026 0.39547890 0.59016609 -0.00014315 0.00034434 0.00031311
0.40456167 0.60271430 0.40995455 -0.00029357 0.00016486 -0.00046288
0.60762691 0.14987160 0.33603474 0.00101819 0.00002122 -0.00071302
0.46837494 0.64661723 0.47643912 0.00004680 0.00009950 0.00003963
0.72510117 0.27808976 0.48437771 0.00102453 -0.00018043 -0.00011645
0.54237300 0.72668952 0.54653960 0.00011311 0.00009037 0.00044834
0.44390965 0.39032829 0.52272129 0.00036878 0.00020206 0.00027774
0.64637518 0.49644434 0.64661062 -0.00029144 -0.00018290 -0.00010419
0.69715184 0.55724704 0.68655097 0.00051004 0.00054660 0.00046353
0.59041107 0.48298001 0.50152230 0.00000107 0.00006357 0.00026028
0.29264888 0.73052287 0.54737318 0.00049964 0.00015831 0.00010838
0.69532639 0.28854704 0.40304673 0.00049583 -0.00102396 -0.00056101
0.44337410 0.78682458 0.49096769 0.00029499 0.00016576 0.00011826
0.58346778 0.64563257 0.45702571 0.00012683 0.00004075 0.00003076
0.23601502 0.70017570 0.56701332 -0.00106788 -0.00035884 0.00082423
0.55410343 0.52879304 0.49939826 0.00006090 0.00007291 0.00025430
0.48422986 0.61696517 0.44395128 -0.00012142 0.00003184 0.00019888
0.39587069 0.25155550 0.56297326 0.00025343 -0.00007167 0.00117335
0.33734947 0.15304066 0.44661164 -0.00093477 0.00051135 -0.00004940
0.56143892 0.53719509 0.50403219 0.00002876 0.00006668 0.00024413
0.37475416 0.17624339 0.33551970 -0.00087066 0.00026719 -0.00084244
0.59265059 0.59589082 0.41195065 0.00011249 0.00028442 0.00003035
0.44235671 0.46797228 0.50792813 0.00021482 0.00021521 0.00022514
0.64446193 0.70645016 0.60643095 0.00006671 0.00093296 0.00004300
0.68886536 0.46451473 0.52238977 0.00006054 0.00004705 0.00021442
0.76666087 0.49705726 0.62427288 0.00106779 0.00052061 -0.00056641
0.39954302 0.57112682 0.48135653 -0.00015056 -0.00000128 0.00020973
0.76915747 0.46665776 0.64298975 0.00126282 -0.00016371 0.00014000
0.56566811 0.77658659 0.52688229 0.00055945 0.00032229 0.00010958
0.47365302 0.77317595 0.55283523 -0.00030509 0.00006615 0.00035439
0.47386271 0.76019984 0.54648012 -0.00029353 0.00008922 0.00026019
0.32723394 0.63649744 0.51824796 0.00004974 0.00027547 0.00012378
0.70078003 0.53719103 0.69593400 0.00051389 0.00029797 0.00094808
0.70334345 0.66911197 0.54912496 0.00091466 0.00028620 0.00047145
0.52270615 0.75911963 0.46661028 -0.00004188 0.00048580 -0.00055516
0.63273650 0.31066686 0.63410634 0.00006148 0.00020944 0.00098269
0.69282478 0.65456831 0.60291564 0.00058006 -0.00025541 0.00015807
0.59064311 0.65295035 0.53270859 -0.00001157 -0.00004606 0.00009590
0.61006576 0.12815990 0.33598518 0.00106269 -0.00030886 -0.00105674
0.31218433 0.67459333 0.53311902 0.00018353 0.00019055 0.00017010
0.28458723 0.56688243 0.54667562 -0.00062370 -0.00004241 0.00070779
0.66967165 0.49273381 0.69995075 -0.00020289 -0.00055270 0.00075682
0.64905286 0.68866104 0.48447892 0.00007122 0.00054960 -0.00060158
0.56038874 0.80111569 0.53677559 0.00068887 0.00040540 0.00020152
0.71322882 0.45173422 0.68210566 -0.00026643 -0.00040388 0.00087088
0.44141304 0.80449224 0.49505877 0.00031529 0.00017030 0.00014461
0.46269295 0.67303497 0.44437531 0.00003405 0.00016887 -0.00003212
0.68746763 0.57673699 0.64699012 0.00003341 0.00040306 -0.00007908
0.59027457 0.60450560 0.42024395 0.00016468 0.00021954 0.00010262
0.36440107 0.72964567 0.49087295 -0.00063083 0.00010725 0.00000087
0.54374486 0.51982456 0.49285942 0.00011628 0.00009483 0.00025836
0.42742589 0.13233222 0.52106214 0.00021691 -0.00046268 0.00098916
0.51315600 0.60879970 0.40163216 -0.00030390 0.00008800 -0.00038078
0.71192068 0.24609414 0.49275535 0.00100755 -0.00040707 -0.00009078
0.50880027 0.29177251 0.54469937 -0.00008842 0.00040911 0.00027439
0.34433648 0.07903808 0.37322605 0.00073054 -0.00089716 -0.00079956
0.50384110 0.31754145 0.31827703 -0.00001127 0.00008677 -0.00082389
0.76550829 0.35648265 0.57127219 0.00125227 -0.00030732 0.00023956
0.39669880 0.85382837 0.54193980 0.00000787 0.00013602 0.00091210
0.65992826 0.40446654 0.61744332 -0.00012296 0.00035635 0.00022595
0.27381054 0.56437528 0.53529298 -0.00100621 -0.00013339 0.00028397
0.59734118 0.65062481 0.48259670 -0.00008202 -0.00003082 0.00015220
0.68442458 0.50734848 0.49400619 0.00009288 0.00009251 0.00034313
0.66958749 0.60128891 0.66678262 0.00009166 -0.00014370 -0.00030152
0.43141624 0.44432318 0.35149524 -0.00036580 0.00000432 -0.00060545
0.59385812 0.62198824 0.50152123 -0.00000701 0.00002719 0.00008165
0.42169562 0.89183778 0.50161141 0.00077154 0.00030804 -0.00044487
0.65879303 0.20777173 0.57851118 0.00072361 -0.00079592 0.00084070
0.63390321 0.65656352 0.68443161 -0.00009405 0.00067009 0.00113418
0.52375877 0.69749308 0.55070847 -0.00000217 0.00009124 0.00043702
0.52557832 0.78265363 0.56651378 0.00003909 0.00005409 0.00080400
0.72872841 0.30638257 0.60128623 0.00071524 -0.00063594 0.00067764
0.36741728 0.22593808 0.55034542 -0.00037659 -0.00050893 0.00122001
0.60419166 0.68508607 0.64497399 -0.00081866 0.00056484 0.00042675
0.59320062 0.31315842 0.32929713 0.00019729 -0.00023067 -0.00076226
0.55011439 0.61433661 0.39813593 0.00015137 0.00029420 -0.00052606
0.41446978 0.69871652 0.52167833 0.00008254 0.00012075 0.00042720
0.50769860 0.82195926 0.57857805 0.00001960 -0.00002975 0.00086294
0.53576976 0.22524785 0.31441998 0.00022331 -0.00012962 -0.00077655
0.60892957 0.18519144 0.33825064 0.00091338 -0.00023427 -0.00055758
0.46132573 0.36723748 0.32988727 -0.00018430 0.00022674 -0.00075553
0.39954031 0.77140599 0.45372242 -0.00023559 0.00039311 -0.00074536
0.46482351 0.64391994 0.43328196 0.00005598 0.00011392 -0.00001205
0.68533051 0.48236117 0.69745284 -0.00014110 -0.00048542 0.00081270
0.28027382 0.65117490 0.49821505 -0.00035682 0.00031061 -0.00052978
0.35892060 0.80703932 0.51598060 -0.00069298 0.00011928 0.00022715
0.65269697 0.57862759 0.52757370 0.00004893 -0.00001155 0.00025108
0.27420136 0.71652931 0.52034795 -0.00011086 0.00029324 -0.00076885
0.34787545 0.20674345 0.51557583 -0.00085692 -0.00033693 0.00064099
0.50135803 0.87798935 0.59597319 -0.00000377 0.00007648 0.00127212
0.42456803 0.46046156 0.52358705 0.00031630 0.00032319 0.00030403
0.46983159 0.60528523 0.42788658 0.00011784 0.00017376 0.00015705
0.34648451 0.17182398 0.36988315 -0.00101924 0.00038942 -0.00045053
0.70554024 0.66057754 0.51561075 0.00096381 0.00036457 -0.00015754
0.54887503 0.11902807 0.51125121 0.00016714 -0.00065752 0.00072597
0.47645763 0.12234046 0.50942129 -0.00005560 -0.00023062 0.00075757
0.32913902 0.25485790 0.43113708 -0.00114411 0.00013620 -0.00007506
0.63570863 0.54677224 0.52165496 0.00007046 0.00010873 0.00025025
0.45345291 0.07616248 0.37793893 0.00020981 -0.00096992 -0.00024739
0.62505662 0.14211522 0.35739201 0.00128032 0.00018002 -0.00044323
0.59351695 0.67197478 0.61851579 -0.00052530 0.00005457 0.00005926
0.64471585 0.70771867 0.59434885 0.00009098 0.00082167 0.00014614
0.58156675 0.67388535 0.47406319 0.00014828 0.00012735 -0.00003880
0.63676649 0.50884950 0.51130021 0.00002804 0.00001444 0.00024848
0.64668280 0.51625961 0.70340288 -0.00052150 -0.00041527 0.00070372
0.33154777 0.16214706 0.41516477 -0.00102258 0.00045460 0.00000331
0.53613549 0.07908359 0.36641058 0.00035456 -0.00109431 -0.00029373
0.40923545 0.81454182 0.46501917 0.00001891 0.00055938 -0.00067262
0.32799059 0.29586890 0.51967418 -0.00092821 -0.00041463 0.00030752
0.74577367 0.51787984 0.67176032 0.00080450 0.00075793 0.00074514
0.45949620 0.85850805 0.56789923 -0.00049157 0.00015754 0.00037988
0.65989691 0.71438491 0.52478850 0.00045538 0.00103246 -0.00010243
0.43701959 0.38212374 0.52876943 0.00038111 0.00024567 0.00030709
0.64607030 0.65424210 0.68377507 0.00023875 0.00063896 0.00106595
0.39757925 0.64227146 0.42105111 -0.00033689 0.00038732 -0.00054196
0.69786251 0.66515481 0.57408863 0.00067062 -0.00001973 0.00038790
0.40440515 0.70959234 0.52444756 -0.00001179 0.00010743 0.00052181
0.43040112 0.30654183 0.33389443 -0.00037999 -0.00001364 -0.00079117
0.70809370 0.23594125 0.51501721 0.00110697 -0.00043607 0.00017516
0.68433857 0.62691182 0.64303666 0.00052639 -0.00020134 -0.00003471
0.73083323 0.39468083 0.64862311 0.00017955 -0.00011603 0.00103393
0.27359486 0.69248849 0.50999200 -0.00029810 0.00035171 -0.00062290
0.24294560 0.66889173 0.56200391 -0.00103030 -0.00008054 0.00061063
0.58644891 0.43664870 0.32689425 0.00008412 0.00025187 -0.00083329
0.44667286 0.33463535 0.32984951 -0.00053084 0.00007331 -0.00073923
0.67490095 0.33011401 0.36580181 0.00085345 0.00015192 -0.00068221
0.68946368 0.44698814 0.54239780 -0.00011894 0.00012179 0.00020548
0.41149768 0.79894310 0.46237290 0.00010404 0.00042975 -0.00060382
0.29189950 0.61506802 0.56198740 0.00024163 0.00015297 0.00097050
0.58455610 0.63243890 0.44573078 0.00017903 0.00001481 0.00010035
0.45102036 0.90527111 0.57186639 -0.00078891 -0.00041392 0.00033421
0.46342313 0.05030024 0.46001464 -0.00002709 -0.00125081 0.00036334
0.70650798 0.54548067 0.60604417 0.00015845 0.00027917 -0.00012992
0.29757109 0.59560841 0.55760074 0.00013325 0.00020959 0.00094804
0.39647540 0.44709185 0.53908539 0.00018636 0.00031010 0.00056447
0.45979333 0.27645719 0.54707217 0.00032943 0.00021250 0.00049195
0.57755870 0.15724079 0.31460747 0.00038964 0.00000395 -0.00117775
0.53535742 0.16807069 0.30319288 0.00050450 -0.00002476 -0.00098925
0.63691753 0.13593128 0.37965018 0.00126971 0.00014192 -0.00045917
0.64600891 0.32109410 0.63720989 0.00028858 0.00030433 0.00100425
0.63288897 0.52205175 0.65531665 -0.00047453 -0.00002303 -0.00022651
0.36371449 0.43338042 0.54662293 -0.00013557 0.00023588 0.00089620
0.74658257 0.40864205 0.53924942 0.00049648 0.00066077 -0.00034512
0.31243414 0.43047252 0.51721066 -0.00088096 0.00048034 0.00018669
0.34396884 0.26865670 0.39873064 -0.00093014 0.00027729 -0.00048334
0.54262972 0.21344151 0.58612382 -0.00046259 -0.00026113 0.00073238
0.34019417 0.23079976 0.51400411 -0.00104804 -0.00011549 0.00041198
0.38203189 0.28772938 0.36204669 -0.00068081 0.00020730 -0.00058755
0.37110597 0.64656943 0.47573003 -0.00053425 0.00000218 0.00015953
0.48246744 0.74551374 0.47937331 -0.00036690 0.00021136 -0.00003881
0.39549899 0.72930574 0.44707346 -0.00034986 0.00034500 -0.00063274
0.71206313 0.25975916 0.46646786 0.00082416 -0.00039241 -0.00047116
0.63737661 0.62009293 0.60861582 -0.00005891 -0.00024767 -0.00004375
0.47370905 0.74525303 0.53817356 -0.00027442 0.00007977 0.00013530
0.38033885 0.86363590 0.47788826 -0.00022633 0.00020122 -0.00141634
0.38534883 0.56562197 0.42507830 -0.00066890 0.00009791 0.00022244
0.26016873 0.60646468 0.54396284 -0.00097431 -0.00018855 0.00028783
0.67005020 0.18219163 0.45134822 0.00070246 -0.00061205 -0.00017552
0.32619378 0.51809692 0.54603851 0.00023255 0.00012335 0.00083494
0.76468158 0.38761014 0.59560513 0.00112597 0.00003528 0.00010598
0.28025651 0.63953781 0.49495029 -0.00047166 0.00034002 -0.00053074
0.52026534 0.33888596 0.52856821 -0.00007627 0.00015899 0.00035103
0.69023943 0.47782072 0.51175690 0.00013226 0.00005495 0.00020963
0.39908028 0.79030532 0.53285933 0.00019711 0.00013924 0.00062545
0.46740535 0.66050422 0.47870496 0.00002862 0.00012301 0.00006716
0.50217670 0.07977971 0.36512339 0.00045201 -0.00099171 -0.00032808
0.36278626 0.51934314 0.52514553 0.00020813 0.00031053 0.00026491
0.58287078 0.44562674 0.51456255 -0.00007042 0.00024282 0.00020105
0.36170840 0.57393920 0.50223333 0.00000585 0.00019898 0.00010995
0.33218750 0.07924284 0.37305903 -0.00017809 -0.00084389 -0.00088989
0.50050151 0.61053228 0.40942270 -0.00033836 0.00006398 -0.00016465
0.39511859 0.65650392 0.42951685 -0.00035699 0.00041976 -0.00043684
0.76669860 0.36564273 0.57904905 0.00124710 -0.00022672 0.00023053
0.58963668 0.39450294 0.32642472 0.00025395 -0.00011441 -0.00075049
0.52462840 0.92652106 0.54673147 0.00119427 0.00065628 -0.00106706
0.69236660 0.67055297 0.61785328 0.00096021 0.00030950 0.00035261
0.32130802 0.53083146 0.54880565 0.00018407 0.00010222 0.00086767
0.59134698 0.48827755 0.33653483 -0.00003224 0.00052576 -0.00079768
0.66860920 0.46466351 0.63887608 -0.00029241 0.00001785 0.00009993
0.30718979 0.56860346 0.55332226 0.00005860 0.00021321 0.00090518
0.33015320 0.28037429 0.51769084 -0.00096776 -0.00040627 0.00027552
0.43844101 0.59058577 0.49319410 0.00008913 -0.00001320 0.00015948
0.42381364 0.17640175 0.30542281 -0.00055494 0.00035952 -0.00110461
0.65432179 0.33253282 0.63838333 0.00030165 0.00043197 0.00094754
0.59771425 0.59540230 0.43826148 -0.00003999 0.00013616 0.00027440
0.46121904 0.07878782 0.36913058 0.00025587 -0.00096455 -0.00030121
0.37126884 0.68603885 0.49668786 -0.00047994 0.00000792 0.00025103
0.26743326 0.58146918 0.53776377 -0.00102184 -0.00015160 0.00025842
0.49165732 0.11054229 0.50732219 0.00007075 -0.00041779 0.00083055
0.38322628 0.24613829 0.56126767 0.00000571 -0.00017824 0.00126603
0.33817121 0.26405799 0.40844759 -0.00099071 0.00024346 -0.00038978
0.57710958 0.71364284 0.49698597 0.00026631 -0.00002090 -0.00007272
0.57426721 0.73817915 0.51017797 0.00036110 0.00012741 0.00003160
0.69716048 0.51069313 0.58524615 -0.00029574 0.00002118 -0.00006130
0.51735657 0.68861556 0.43601015 -0.00003101 0.00037248 -0.00034679
0.52570033 0.61118805 0.39822239 -0.00018100 0.00013717 -0.00051372
0.59209591 0.61317819 0.49273467 0.00001674 0.00005140 0.00006878
0.27677396 0.65951556 0.57043952 0.00030022 0.00014693 0.00104151
0.33461538 0.25625929 0.41826379 -0.00102493 0.00008914 -0.00026272
0.40161055 0.78480399 0.45811042 -0.00019746 0.00039114 -0.00070060
0.67837352 0.45662683 0.66015190 -0.00054182 -0.00020757 0.00014240
0.70675194 0.64379299 0.49592900 0.00089681 0.00031140 -0.00023829
0.54544705 0.22385554 0.59149557 -0.00062018 -0.00005928 0.00073543
0.35448250 0.87113112 0.49999112 -0.00109840 -0.00002234 -0.00071702
0.65381533 0.66543370 0.46505874 0.00007238 0.00068722 -0.00041312
0.53799015 0.88394171 0.56613934 0.00109373 0.00029484 0.00038835
0.36732218 0.86452544 0.48795331 -0.00044154 -0.00008880 -0.00134494
0.30479378 0.47782442 0.51714981 -0.00070317 0.00018791 0.00033154
0.69836259 0.45039105 0.55094308 -0.00016945 0.00013321 0.00012442
0.57700813 0.12322767 0.51188636 0.00030241 -0.00049528 0.00091467
0.41141534 0.62652695 0.51491052 -0.00004772 -0.00009181 0.00037385
0.39505309 0.32825488 0.56001443 0.00013108 0.00025529 0.00091747
0.69418436 0.50824249 0.48496917 0.00022593 0.00004682 0.00041154
0.45152268 0.92207748 0.57656699 -0.00110317 0.00004490 0.00060562
0.67398006 0.54995173 0.71276128 0.00062842 0.00026459 0.00139661
0.48207545 0.42265925 0.49697340 0.00023031 0.00007812 0.00031567
0.59239441 0.33536565 0.32771599 0.00015700 -0.00012842 -0.00081702
0.46535024 0.83494133 0.56560332 -0.00044471 0.00016455 0.00039707
0.55525452 0.33523279 0.31994507 -0.00020428 0.00004472 -0.00089826
0.68071085 0.57665139 0.51697671 0.00005466 -0.00011331 0.00046997
0.33152276 0.10323498 0.45773414 -0.00017437 0.00072603 0.00135027
0.56847364 0.24688129 0.60882330 -0.00045316 0.00014412 0.00099388
0.75926441 0.50225925 0.60972518 0.00089270 0.00049866 -0.00048567
0.28476831 0.57525051 0.48396811 -0.00088739 0.00004256 -0.00049984
0.63882488 0.68863869 0.66001540 0.00004263 0.00096233 0.00089344
0.66270560 0.49699536 0.50396734 -0.00005769 0.00009920 0.00026106
0.54877084 0.20244551 0.31591147 0.00028428 0.00021961 -0.00071632
0.66357416 0.41974726 0.61446351 -0.00016325 0.00028920 0.00012780
0.76660579 0.43793905 0.62855488 0.00115272 0.00015790 0.00017499
0.39595398 0.07814171 0.37378022 0.00000820 -0.00095243 -0.00045157
0.37356886 0.53086060 0.51488388 0.00006472 0.00028525 0.00018736
0.52077866 0.84268862 0.50296640 0.00026770 0.00063833 -0.00067048
0.58740944 0.42257828 0.32621408 0.00016291 0.00010477 -0.00081367
0.52711898 0.23948753 0.31328887 0.00015600 -0.00019741 -0.00080930
0.65110534 0.49449331 0.50932747 -0.00008448 0.00009036 0.00025885
0.57259327 0.74981529 0.51562577 0.00044037 0.00018095 0.00006591
0.42077467 0.36258328 0.54366452 0.00041279 0.00038775 0.00044167
0.73593104 0.46500701 0.68543541 0.00041106 -0.00031506 0.00128321
0.77109444 0.48683611 0.65034664 0.00141057 0.00023407 0.00028320
0.45733842 0.06933749 0.39943999 0.00017445 -0.00102411 -0.00007435
0.35093445 0.85772413 0.51073152 -0.00106563 -0.00017923 -0.00002050
0.59831715 0.59420413 0.42539728 -0.00003122 0.00022661 0.00020914
0.65214413 0.65688878 0.45647061 0.00001400 0.00066629 -0.00043226
0.29886466 0.65545422 0.56067854 0.00041257 0.00025424 0.00056360
0.50689989 0.90009648 0.52285194 0.00004755 0.00056697 -0.00098381
0.35479465 0.89840388 0.51014209 -0.00139733 0.00107748 -0.00010338
0.29027197 0.51623636 0.52500260 -0.00096480 -0.00005842 0.00018645
0.38414809 0.68650657 0.51444858 -0.00029470 0.00003863 0.00048276
0.59494287 0.38996065 0.58468735 -0.00026058 0.00028469 0.00026329
0.63636428 0.71680874 0.52134633 -0.00011882 0.00075404 -0.00011081
0.37540707 0.26566324 0.55982953 -0.00018090 0.00008701 0.00121652
0.55339360 0.23044622 0.59767586 -0.00058354 -0.00004820 0.00082495
0.48347452 0.61524791 0.45603609 -0.00007110 0.00004626 0.00012004
0.68802774 0.33342689 0.63059825 0.00021021 -0.00007848 0.00081147
0.37893060 0.58927250 0.45376652 -0.00039282 -0.00006116 0.00023733
0.59083331 0.67177510 0.54193485 -0.00006654 -0.00007307 0.00008558
0.59211552 0.64309591 0.52597785 -0.00001013 -0.00001476 0.00010780
0.43774393 0.70714450 0.51528519 0.00019616 0.00012035 0.00020284
0.28877822 0.65045053 0.56539679 0.00042162 0.00020254 0.00081138
0.58257186 0.08024840 0.36258996 0.00052690 -0.00139289 -0.00043805
0.71561664 0.25644219 0.48531327 0.00095723 -0.00038439 -0.00018306
0.49906257 0.89496905 0.59967512 0.00006186 0.00000142 0.00152586
0.44201410 0.41643301 0.34448731 -0.00027003 -0.00001543 -0.00062084
0.51964140 0.93490171 0.57494313 0.00134578 0.00076293 0.00067542
0.22890563 0.73126179 0.55944312 -0.00158995 0.00037230 0.00028388
0.39876226 0.75337207 0.44892034 -0.00024860 0.00045986 -0.00072800
0.45661750 0.87027436 0.56919461 -0.00047717 0.00003956 0.00037796
0.47904879 0.68468750 0.45802900 -0.00024095 0.00011102 0.00012677
0.34474096 0.23043483 0.52535105 -0.00100640 -0.00020179 0.00060824
0.47933403 0.82532853 0.57723904 -0.00031835 0.00005125 0.00073648
0.32690448 0.59978491 0.47862691 0.00005360 0.00037967 -0.00010103
0.59258366 0.60111248 0.46790838 0.00000431 0.00006614 0.00013674
0.59488463 0.61363256 0.51009154 -0.00000543 0.00007968 0.00008153
0.64844865 0.71710628 0.52159363 0.00017471 0.00094472 -0.00015052
0.52316111 0.68568170 0.54820800 -0.00003039 0.00001907 0.00039500
0.42460716 0.71631730 0.43677637 0.00033366 0.00029199 -0.00071842
0.66311961 0.39507940 0.62491304 -0.00021439 0.00039421 0.00032515
0.70087147 0.58076698 0.50412941 0.00031531 -0.00026352 0.00069323
0.68454701 0.20455852 0.46291843 0.00091637 -0.00032962 -0.00010704
0.51569754 0.67459697 0.42600104 -0.00005169 0.00035448 -0.00044223
0.60267335 0.63253653 0.67149824 -0.00075393 -0.00005841 0.00023995
0.57668734 0.33103266 0.32385668 -0.00008424 -0.00011522 -0.00087849
0.59537464 0.67569852 0.60627985 -0.00041781 0.00006835 -0.00002378
0.36063322 0.78953820 0.51240510 -0.00063567 0.00015070 0.00017751
0.43252915 0.80438215 0.47211850 0.00049536 0.00031798 -0.00027945
0.52491671 0.92228043 0.57335466 0.00137859 0.00028137 0.00060558
0.63870299 0.57884246 0.67094857 -0.00034740 -0.00000517 -0.00062512
0.61481088 0.09717440 0.46775275 0.00064366 -0.00114949 0.00068869
0.47466210 0.70245481 0.52043700 -0.00022961 0.00003630 -0.00001023
0.62458295 0.71439356 0.52066749 -0.00032773 0.00050204 -0.00005898
0.42162010 0.79663211 0.52824348 0.00016262 0.00015242 0.00033869
0.74358368 0.30763337 0.58069021 0.00112118 -0.00054566 0.00030749
0.54822934 0.84180546 0.55404109 0.00079188 0.00039114 0.00037690
0.66591561 0.63155246 0.43850991 0.00030139 0.00057529 -0.00063081
0.46379343 0.65832347 0.43967384 0.00002784 0.00016327 -0.00000904
0.60782206 0.57452250 0.39297125 -0.00025204 0.00066678 -0.00010122
0.55386817 0.73152703 0.54144371 0.00011870 -0.00000375 0.00048450
0.49216759 0.61858004 0.49635613 -0.00012495 0.00001927 -0.00002793
0.47274107 0.59598798 0.44368964 0.00008576 0.00018084 0.00020158
0.33233449 0.50044608 0.53883266 0.00025300 0.00019599 0.00070364
0.56098300 0.23882596 0.60357171 -0.00052686 0.00007018 0.00092273
0.71332937 0.46316794 0.55412894 -0.00003022 0.00013290 -0.00002797
0.71419340 0.53750271 0.68620068 0.00058238 0.00046835 0.00073716
0.29446164 0.50494057 0.52372199 -0.00090449 0.00002059 0.00026714
0.42730895 0.45572367 0.35381573 -0.00045779 0.00018855 -0.00061434
0.39234310 0.69057018 0.44140416 -0.00041073 0.00025445 -0.00050286
0.29872087 0.49264693 0.52130002 -0.00082574 0.00012748 0.00035587
0.35801563 0.14162198 0.48285058 -0.00057845 -0.00023492 0.00053113
0.55172557 0.83091819 0.54922670 0.00075992 0.00041242 0.00035050
0.35243684 0.84274089 0.50960129 -0.00090301 -0.00011285 -0.00008249
0.66858464 0.37936413 0.63143277 -0.00024268 0.00059388 0.00045754
0.55817473 0.40841910 0.52410352 -0.00012053 0.00020358 0.00025341
0.40284723 0.61565775 0.41253304 -0.00029017 0.00023478 -0.00051972
0.58830029 0.45926535 0.32949734 0.00010525 0.00043101 -0.00083962
0.51167887 0.50007617 0.49246967 0.00016762 0.00010547 0.00028940
0.35389423 0.17302202 0.35820740 -0.00101361 0.00033232 -0.00056230
0.46862623 0.81439036 0.56267339 -0.00039962 0.00014662 0.00042297
0.46162438 0.61296976 0.49286965 0.00008215 0.00002928 0.00001076
0.64807373 0.71457827 0.54340494 0.00009571 0.00084688 0.00036905
0.56565547 0.16068013 0.30989638 0.00032697 0.00002336 -0.00116724
0.51523918 0.84001005 0.58206201 0.00010591 -0.00006574 0.00099347
0.62947738 0.53318202 0.65854299 -0.00049861 0.00009390 -0.00027908
0.57654220 0.61575830 0.41054288 0.00036589 0.00029587 -0.00013907
0.46582219 0.67172641 0.48334780 0.00003394 0.00012163 0.00006624
0.70744306 0.54859155 0.68297970 0.00055328 0.00056780 0.00049929
0.52259332 0.77005738 0.47211716 -0.00001501 0.00052914 -0.00053992
0.43104360 0.85427833 0.49866286 0.00044989 0.00017822 -0.00013838
0.70222104 0.56285858 0.65495217 0.00035177 0.00063097 -0.00011886
0.25183493 0.69055933 0.51806903 -0.00076991 0.00022399 -0.00087408
0.69593793 0.68618536 0.53807455 0.00086755 0.00090075 0.00017207
0.59412295 0.63222724 0.51859260 -0.00001629 0.00002694 0.00010962
0.60345685 0.08156785 0.35748437 0.00091263 -0.00163952 -0.00073635
0.51930374 0.81289107 0.57502502 0.00012017 -0.00002860 0.00088883
0.29393291 0.58142799 0.47805601 -0.00065408 0.00018087 -0.00047524
0.43779898 0.17604640 0.30082002 -0.00048345 0.00042902 -0.00111278
0.58933139 0.47106126 0.33214268 0.00005152 0.00039827 -0.00083391
0.59661317 0.64201623 0.61781186 -0.00024200 -0.00035506 -0.00004135
0.58261555 0.60075587 0.51350498 0.00006931 0.00012905 0.00010517
0.72983772 0.36461762 0.63601959 0.00037981 -0.00042504 0.00088541
0.55728340 0.81529713 0.54188824 0.00074293 0.00046760 0.00027186
0.31714520 0.54203767 0.55081087 0.00014590 0.00009978 0.00089561
0.32723802 0.54902869 0.45507237 -0.00022821 0.00010446 -0.00042233
0.27319220 0.65916836 0.50403720 -0.00040874 0.00025476 -0.00059383
0.38225392 0.07804620 0.37481809 0.00006301 -0.00096160 -0.00047756
0.53342378 0.20818578 0.58025157 -0.00055237 -0.00017609 0.00070038
0.54954886 0.59819776 0.50268042 0.00008950 0.00009348 0.00012898
0.45458636 0.72633594 0.46745747 0.00021933 0.00021096 0.00001716
0.49534276 0.60519701 0.49474949 -0.00010572 0.00003960 -0.00000074
0.47722608 0.67395318 0.50871068 -0.00017819 0.00011439 -0.00000103
0.46201533 0.10464095 0.28723872 0.00006354 -0.00064537 -0.00187321
0.62010801 0.20369720 0.59308261 0.00003128 -0.00088333 0.00098000
0.48767519 0.63240266 0.50184441 -0.00015109 0.00004570 -0.00001230
0.35101590 0.15757748 0.48503399 -0.00085002 -0.00007961 0.00043185
0.61140567 0.63257277 0.57157516 0.00000266 -0.00010421 0.00020849
0.55548209 0.18792328 0.31467891 0.00034339 0.00022861 -0.00079537
0.51580930 0.44049162 0.48998216 0.00011290 0.00004306 0.00035317
0.30891517 0.48166868 0.46361092 -0.00073423 0.00014279 -0.00061999
0.46316111 0.40678155 0.50667149 0.00029950 0.00013137 0.00027067
0.61378169 0.71116853 0.52482915 -0.00042453 0.00026495 0.00008659
0.68919569 0.56090933 0.61645460 0.00001957 0.00029412 -0.00003535
0.50983179 0.83643556 0.50065732 -0.00004497 0.00052393 -0.00058485
0.31418541 0.56807768 0.46555239 -0.00031913 0.00015438 -0.00046292
0.35223210 0.17013869 0.49398562 -0.00082836 -0.00010351 0.00053229
0.36931691 0.65931350 0.47645685 -0.00057318 0.00003019 0.00012359
0.67417294 0.50490648 0.50003111 -0.00000048 0.00010458 0.00029679
0.25042033 0.63236433 0.54908061 -0.00105579 -0.00017168 0.00027869
0.67986500 0.21422955 0.56371999 0.00096977 -0.00068135 0.00065690
0.59770244 0.60870975 0.45762676 -0.00007157 0.00001301 0.00018228
0.46920699 0.60727376 0.46361953 0.00007893 0.00009957 0.00006638
0.42539021 0.87830377 0.50075138 0.00072220 -0.00003435 -0.00032799
0.67844498 0.19492480 0.45836931 0.00083305 -0.00044816 -0.00010765
0.40932417 0.71102607 0.43713447 0.00001091 0.00027874 -0.00073068
0.66588604 0.33376586 0.35852224 0.00076276 0.00019803 -0.00074887
0.40680438 0.68287522 0.52253264 -0.00004012 0.00011239 0.00048435
0.42859069 0.86659157 0.50160843 0.00057226 -0.00002951 -0.00018300
0.66727424 0.69235426 0.64310718 0.00081382 0.00098503 0.00070615
0.47010279 0.60689807 0.48322833 0.00002648 0.00007350 -0.00003166
0.38175479 0.56331742 0.44639874 -0.00039518 -0.00000747 0.00029419
0.75925344 0.34253189 0.55803376 0.00111712 -0.00037449 0.00016724
0.29487386 0.57135081 0.55169636 -0.00021076 0.00007468 0.00088381
0.51665694 0.58890998 0.50343794 -0.00002255 0.00004004 0.00016768
0.63654399 0.53829980 0.70708746 -0.00073015 -0.00005572 0.00078346
0.52302819 0.73549235 0.45552418 -0.00002502 0.00032547 -0.00058310
0.62451154 0.30224070 0.63143414 0.00000273 0.00016164 0.00095753
0.52826160 0.35436144 0.53163773 -0.00014234 0.00008417 0.00031306
0.45214173 0.71310639 0.49950403 0.00014156 0.00010408 0.00008746
0.40995389 0.64898223 0.52095264 -0.00005114 0.00004765 0.00046820
0.45033696 0.26880866 0.55071485 0.00034475 0.00023802 0.00054855
0.45260808 0.71981078 0.45555830 0.00029016 0.00023523 -0.00012421
0.47349495 0.76980716 0.50365490 -0.00029084 0.00019356 -0.00011336
0.51048797 0.94602597 0.57611656 0.00108323 0.00139341 0.00073380
0.40936330 0.25544077 0.56198394 0.00035014 0.00000560 0.00100463
0.72433358 0.33977050 0.62643367 0.00041767 -0.00043827 0.00090019
0.71143931 0.57675147 0.45655888 0.00089124 0.00003202 -0.00016279
0.76383120 0.39837772 0.60287511 0.00108543 0.00015009 0.00007913
0.64391184 0.20514594 0.58620346 0.00047546 -0.00084671 0.00095707
0.76531273 0.47849005 0.66409355 0.00127298 -0.00006381 0.00082988
0.51141393 0.17304431 0.29598019 0.00040428 0.00010610 -0.00112191
0.44138074 0.22821991 0.55749696 0.00014845 -0.00010832 0.00078335
0.63678282 0.10679765 0.40117350 0.00126400 -0.00076115 -0.00026335
0.39815617 0.74127907 0.44759127 -0.00028388 0.00045595 -0.00067128
0.38237861 0.29622015 0.56137353 -0.00005554 0.00006912 0.00110955
0.33464587 0.15692137 0.43556240 -0.00095557 0.00050072 -0.00001337
0.62194443 0.09838922 0.45805806 0.00073938 -0.00109111 0.00069885
0.25291285 0.75566751 0.56185502 -0.00036861 0.00141349 0.00056784
0.48665214 0.61798728 0.42975616 -0.00023629 0.00001525 0.00018483
0.39234218 0.84252709 0.54164106 0.00000969 0.00018881 0.00090275
0.66937864 0.57654685 0.52148426 0.00004562 -0.00005600 0.00036505
0.63328981 0.69599742 0.65081167 -0.00013876 0.00104073 0.00071606
0.49595401 0.12193095 0.50918716 0.00001056 -0.00032640 0.00068021
0.57927352 0.37984052 0.57674992 -0.00032032 0.00025215 0.00024946
0.57623005 0.72713947 0.50467682 0.00030729 0.00006193 -0.00001740
0.70840716 0.31271982 0.40623629 0.00114496 0.00000528 -0.00032358
0.45829493 0.70678413 0.45636323 0.00020083 0.00014908 -0.00002524
0.67634559 0.60274351 0.68490440 0.00058056 0.00019777 0.00030441
0.50741100 0.11806802 0.50800121 0.00018931 -0.00046131 0.00065000
0.46738768 0.04545452 0.47515357 0.00017295 -0.00153289 0.00116460
0.47829586 0.71525943 0.47350124 -0.00021789 0.00007690 0.00006500
0.40775168 0.87835830 0.48575175 0.00030639 0.00000810 -0.00111263
0.33850795 0.28529561 0.53235763 -0.00069627 -0.00032633 0.00077589
0.27589625 0.74404824 0.53508896 0.00027287 0.00058810 -0.00072869
0.51681530 0.64771509 0.41507468 -0.00013144 0.00031744 -0.00039404
0.65214092 0.55631697 0.37504965 0.00026598 0.00073205 -0.00074777
0.23367268 0.71646243 0.54410076 -0.00133009 -0.00004262 -0.00062855
0.66251040 0.16884466 0.44377291 0.00065218 -0.00075772 -0.00026406
0.36278218 0.75317276 0.50151283 -0.00060584 0.00012978 0.00006226
0.64905924 0.42448741 0.58983845 0.00008674 0.00033618 0.00008937
0.66145802 0.47960210 0.63853168 -0.00025835 -0.00002258 0.00001068
0.29894885 0.71674049 0.54611772 0.00041696 0.00004305 0.00021136
0.26920274 0.72292298 0.57886428 0.00057572 -0.00014238 0.00163647
0.45178983 0.47182521 0.50114125 0.00017875 0.00016809 0.00021027
0.63774204 0.67938131 0.66791600 -0.00001614 0.00078858 0.00105288
0.70149755 0.46166050 0.55572164 -0.00018774 0.00008893 0.00008122
0.49318731 0.88189918 0.51577950 -0.00020221 0.00053803 -0.00060679
0.53042197 0.90749562 0.57083851 0.00129831 0.00003653 0.00053569
0.48453009 0.64425981 0.50528222 -0.00018645 0.00010324 -0.00000595
0.60666233 0.20434012 0.59544224 -0.00010559 -0.00091349 0.00096148
0.59352964 0.65895039 0.55778986 -0.00008070 -0.00011183 0.00011012
0.34861395 0.59668827 0.50618565 0.00001249 0.00022503 0.00011961
0.30819446 0.65958697 0.55421394 0.00035126 0.00025115 0.00038043
0.45531476 0.12790963 0.50966501 0.00010565 -0.00021018 0.00066846
0.68923986 0.68050373 0.62391025 0.00106328 0.00062105 0.00045308
0.31006950 0.44324619 0.51824754 -0.00087108 0.00036037 0.00029109
0.51604813 0.32380861 0.53065604 -0.00005174 0.00027405 0.00033548
0.40662056 0.53251266 0.38782293 -0.00059288 0.00082225 -0.00006746
0.36802289 0.56057596 0.49841964 0.00002262 0.00017732 0.00008467
0.71150982 0.56248355 0.45100787 0.00086987 0.00007612 -0.00010578
0.72416615 0.49182063 0.57097459 0.00009635 0.00016514 -0.00020582
0.59537649 0.68995458 0.53951997 -0.00019160 -0.00006186 0.00013241
0.66696393 0.54881454 0.37686151 0.00049940 0.00057708 -0.00082595
0.26391429 0.59401584 0.54080307 -0.00100344 -0.00016167 0.00026440
0.67400914 0.36561087 0.63380420 -0.00012849 0.00058027 0.00059831
0.76129591 0.35251185 0.55148751 0.00110385 -0.00014376 -0.00006386
0.71823424 0.30725300 0.42818689 0.00119964 0.00009277 -0.00009151
0.74649298 0.32233489 0.51772475 0.00104215 0.00010228 -0.00002699
0.51443642 0.61231971 0.50130534 -0.00003646 -0.00002193 0.00007227
0.55012399 0.16479468 0.30634147 0.00044993 -0.00004474 -0.00104387
0.36538389 0.71454418 0.48574105 -0.00064295 0.00007132 0.00000189
0.29136306 0.65618587 0.49861160 -0.00010877 0.00033349 -0.00038173
0.56422347 0.41825712 0.52055740 -0.00011582 0.00021172 0.00024074
0.47756645 0.89552873 0.52837050 -0.00026530 0.00036749 -0.00059213
0.64442098 0.12667204 0.42717177 0.00119181 -0.00022467 0.00007297
0.41079244 0.52321702 0.38052061 -0.00049160 0.00082205 -0.00023433
0.53497165 0.59852797 0.50194985 0.00003944 0.00004144 0.00013693
0.47358906 0.74153388 0.49766952 -0.00021437 0.00016205 -0.00001603
0.36341646 0.90632540 0.51365775 -0.00112879 0.00145806 0.00019964
0.64272791 0.70207989 0.63253611 0.00009794 0.00107352 0.00035724
0.60671967 0.61037779 0.68837422 -0.00071128 -0.00019489 0.00048238
0.75738567 0.50877762 0.66758388 0.00104002 0.00076181 0.00079675
0.74664086 0.46969175 0.68222535 0.00069941 -0.00032929 0.00139095
0.49305952 0.42746586 0.49540672 0.00017135 0.00006354 0.00033567
0.46225953 0.47600532 0.49514073 0.00014937 0.00012703 0.00021457
0.72762960 0.35353836 0.63143826 0.00039212 -0.00046486 0.00085578
0.47924474 0.66052973 0.50461257 -0.00016629 0.00013085 -0.00000718
0.27540120 0.73344713 0.52884525 0.00013619 0.00037180 -0.00086105
0.64620912 0.71172911 0.55754590 0.00003459 0.00072795 0.00052189
0.59931725 0.25268391 0.33273283 0.00049557 -0.00011157 -0.00068210
0.70685333 0.66497368 0.52905726 0.00105282 0.00036269 0.00014687
0.62253952 0.56660414 0.38479033 -0.00028899 0.00081800 -0.00023576
0.60630423 0.12414227 0.50064445 0.00074965 -0.00034788 0.00093050
0.52103257 0.78351903 0.47723076 0.00002402 0.00056881 -0.00055544
0.41981372 0.30374312 0.33897409 -0.00043892 0.00008431 -0.00073857
0.67045879 0.63012260 0.60381788 -0.00016938 -0.00049103 -0.00017616
0.48926330 0.95454538 0.57095683 0.00005066 0.00203611 0.00013690
0.66016257 0.59211379 0.70486522 0.00015835 0.00029303 0.00088358
0.65772748 0.58160996 0.40004331 0.00028908 0.00074954 -0.00037739
0.73672140 0.30609867 0.59226543 0.00094340 -0.00060740 0.00050364
0.71185744 0.58827305 0.46273777 0.00092863 0.00006519 -0.00012263
0.45210505 0.08262803 0.35724962 0.00008372 -0.00095414 -0.00037615
0.32096541 0.65113533 0.52326578 0.00009680 0.00025007 0.00014499
0.42514727 0.46744716 0.35542005 -0.00041170 0.00031549 -0.00070196
0.32406941 0.47660911 0.53669167 -0.00012119 0.00030372 0.00087973
0.51822084 0.74579084 0.45996913 -0.00014378 0.00036835 -0.00055937
0.53489029 0.89566386 0.56778276 0.00120601 0.00015049 0.00043781
0.57110178 0.42900014 0.51756942 -0.00010329 0.00023987 0.00021585
0.34414583 0.49832940 0.53701818 0.00023746 0.00029947 0.00055986
0.59626919 0.63722283 0.47494584 -0.00006485 -0.00010513 0.00013575
0.42221203 0.57375699 0.49220309 -0.00004539 0.00002152 0.00020982
0.73625773 0.52470392 0.67464006 0.00068858 0.00066835 0.00067764
0.51571798 0.66045642 0.41918150 -0.00007764 0.00031400 -0.00045891
0.75842083 0.37397969 0.53247219 0.00089151 0.00045295 -0.00048596
0.45685920 0.09712433 0.31137967 -0.00020980 -0.00104274 -0.00043781
0.54876626 0.39188668 0.52777249 -0.00013038 0.00018696 0.00027144
0.70483363 0.28193495 0.42407548 0.00061908 -0.00087950 -0.00037792
0.50412935 0.85710800 0.50834066 -0.00010544 0.00055324 -0.00057714
0.64072001 0.52700579 0.70525336 -0.00065482 -0.00020982 0.00073850
0.45489141 0.93363768 0.57764858 -0.00124688 0.00052312 0.00066503
0.61824799 0.58983773 0.52614635 -0.00001039 0.00006799 0.00015319
0.27336693 0.64153618 0.56680089 0.00003798 0.00000373 0.00102007
0.38192859 0.78714538 0.53115100 -0.00001148 0.00009934 0.00073629
0.69105577 0.65920794 0.61403036 0.00071206 -0.00005318 0.00024741
0.62775564 0.57591766 0.68616885 -0.00054218 -0.00005163 -0.00021690
0.59252638 0.67909145 0.55734771 -0.00014434 -0.00003814 0.00012125
0.62555850 0.51358694 0.51298672 0.00004853 -0.00001292 0.00024129
0.34114739 0.26867080 0.52933365 -0.00080057 -0.00020955 0.00059771
0.41603634 0.90253842 0.50293541 0.00069729 0.00070580 -0.00048169
0.52787018 0.76408005 0.55995643 0.00001530 0.00002881 0.00068271
0.68222558 0.56819570 0.62333149 -0.00007708 0.00031309 0.00001598
0.62271702 0.62817061 0.57324052 0.00005070 -0.00010066 0.00026168
0.62843949 0.60884720 0.63047725 -0.00005660 -0.00030455 -0.00011418
0.34127706 0.60464615 0.49661198 0.00001547 0.00025413 0.00011136
0.65786254 0.54521716 0.36886165 0.00044665 0.00055365 -0.00093143
0.71365374 0.50950927 0.43783197 0.00096397 -0.00027365 0.00016310
0.71394271 0.28994569 0.59782004 0.00049166 -0.00066937 0.00070772
0.70969844 0.24623337 0.48091063 0.00093356 -0.00038977 -0.00026700
0.31038892 0.66725552 0.51484042 0.00014894 0.00024666 -0.00000071
0.68920982 0.45612723 0.53124446 -0.00001263 0.00006983 0.00020140
0.63882083 0.49289307 0.50796127 -0.00001221 0.00006552 0.00025373
0.40832043 0.90675122 0.49467918 0.00051799 0.00099231 -0.00094226
0.68077552 0.61302459 0.65705109 0.00047095 -0.00005823 -0.00015538
0.41306427 0.61184794 0.50785315 -0.00003621 -0.00014783 0.00028578
0.67316788 0.46095613 0.64954084 -0.00039362 -0.00006250 0.00012953
0.48325148 0.72499239 0.54347450 -0.00029159 0.00003573 0.00029670
0.59074098 0.12391018 0.50750279 0.00049287 -0.00041878 0.00092885
0.35515505 0.50940686 0.53259271 0.00025552 0.00031337 0.00038523
0.62386173 0.40757781 0.60221034 0.00008724 0.00040295 0.00033328
0.48139495 0.17804520 0.29154301 0.00000049 0.00039978 -0.00125511
0.42306656 0.80096734 0.46510926 0.00037731 0.00039505 -0.00046467
0.63707542 0.56182772 0.37928164 0.00000451 0.00080516 -0.00047359
0.34029835 0.16965955 0.38165399 -0.00101811 0.00042763 -0.00033913
0.59239304 0.35250232 0.32724100 0.00018908 -0.00009818 -0.00080605
0.31713429 0.39459845 0.51901472 -0.00082894 0.00037856 0.00020087
0.29275173 0.60912704 0.48327371 -0.00042584 0.00032396 -0.00049106
0.69160360 0.57812655 0.51181090 0.00014825 -0.00018709 0.00058142
0.70215595 0.31531513 0.39601153 0.00108732 -0.00004877 -0.00045310
0.49357623 0.72080451 0.54911584 -0.00027597 0.00007380 0.00041310
0.36790368 0.68887031 0.47734618 -0.00064725 0.00005303 0.00002924
0.63864470 0.58243996 0.52841181 0.00002246 0.00001333 0.00020233
0.66276425 0.43009987 0.58791512 -0.00004246 0.00027463 0.00002906
0.64849323 0.33952525 0.34799990 0.00056258 0.00026287 -0.00082856
0.71129733 0.54860157 0.44469291 0.00088083 0.00026926 0.00000574
0.70239162 0.47696537 0.69469184 -0.00005693 -0.00032626 0.00097240
0.73316962 0.42256552 0.66232407 0.00020824 -0.00019247 0.00102597
0.75111580 0.33600125 0.52258718 0.00098741 0.00006836 -0.00021410
0.72437173 0.28289455 0.47326693 0.00101117 -0.00011065 -0.00026500
0.45404005 0.88443029 0.57030165 -0.00050481 -0.00022025 0.00033436
0.38436285 0.17757475 0.32823607 -0.00080534 0.00027996 -0.00090103
0.47167367 0.84920973 0.52324766 -0.00035613 0.00024535 -0.00014009
0.67471212 0.48963934 0.60073024 -0.00020001 0.00004576 0.00000539
0.45973200 0.06016920 0.42876974 -0.00004270 -0.00083582 -0.00075218
0.34520733 0.12951124 0.46476340 -0.00046157 0.00033434 0.00058808
0.57910430 0.69203395 0.48474196 0.00019783 0.00004839 -0.00008907
0.51215607 0.26590303 0.31207493 -0.00008688 -0.00005592 -0.00088405
0.48642877 0.09477199 0.49995232 0.00027743 -0.00031850 0.00104192
0.46998969 0.77808130 0.51198494 -0.00029992 0.00019646 -0.00016316
0.59504116 0.15332142 0.32496643 0.00069793 -0.00002739 -0.00100736
0.54875529 0.83925015 0.52159286 0.00082330 0.00073055 -0.00051489
0.48735264 0.48950332 0.49471325 0.00011700 0.00010509 0.00030021
0.52514076 0.82568705 0.57389480 0.00018271 -0.00004566 0.00090229
0.30039209 0.47412160 0.48596904 -0.00097546 0.00012196 -0.00053074
0.33891562 0.11793149 0.46346763 -0.00032233 0.00060744 0.00103219
0.39392969 0.66760594 0.43450636 -0.00036857 0.00035928 -0.00042842
0.48954198 0.89761764 0.52366465 -0.00018652 0.00049998 -0.00076838
0.67642337 0.70536500 0.52915949 0.00079838 0.00103321 -0.00001270
0.41495979 0.13531707 0.52293438 0.00002691 -0.00045609 0.00110083
0.45425984 0.09245148 0.32599020 -0.00030565 -0.00122060 0.00024514
0.51237476 0.85236192 0.58696234 0.00008450 -0.00000954 0.00109773
0.56561130 0.46390912 0.49331450 -0.00000397 0.00010525 0.00029868
0.31333685 0.66292351 0.54361105 0.00023904 0.00022766 0.00026156
0.51946342 0.33477095 0.32000920 0.00002033 0.00024392 -0.00077755
0.36615008 0.17538483 0.34403729 -0.00092877 0.00028697 -0.00073865
0.46508533 0.23688538 0.55068552 0.00016230 0.00015299 0.00056176
0.42371264 0.07893340 0.37029177 0.00006670 -0.00092354 -0.00044510
0.48679549 0.84775960 0.51014942 -0.00033889 0.00037952 -0.00036122
0.46533683 0.31577334 0.32380027 -0.00024809 -0.00014348 -0.00081800
0.71190476 0.50709093 0.45098239 0.00078874 -0.00025095 0.00030281
0.57672012 0.25456122 0.61340243 -0.00037227 0.00015148 0.00102658
0.40662509 0.45167965 0.53443843 0.00028318 0.00033625 0.00045790
0.72898227 0.50945646 0.58233863 0.00020531 0.00032510 -0.00025834
0.52870595 0.92373323 0.55797935 0.00143830 0.00051630 -0.00036939
0.44439057 0.13007089 0.51483512 0.00024442 -0.00034473 0.00078262
0.72216773 0.32373765 0.61817223 0.00046644 -0.00048920 0.00088973
0.39021006 0.80153930 0.53567022 0.00014354 0.00014908 0.00077665
0.41247186 0.17619792 0.31069624 -0.00057848 0.00029818 -0.00108907
0.47398752 0.60104936 0.47329557 0.00001068 0.00012521 0.00000437
0.46510741 0.63265908 0.42840710 0.00009390 0.00011962 0.00001331
0.62455106 0.60202283 0.64071614 -0.00004284 -0.00033850 -0.00019487
0.61436772 0.47686934 0.50960863 0.00000497 0.00011780 0.00023477
0.39228350 0.67894316 0.43829334 -0.00041321 0.00031939 -0.00045292
0.26320130 0.70238978 0.51528674 -0.00044080 0.00028641 -0.00083101
0.68509430 0.63515842 0.63360763 0.00047946 -0.00036098 0.00013874
0.69745308 0.55346286 0.61114568 0.00010027 0.00027592 -0.00009260
0.75458241 0.39453840 0.53965449 0.00069987 0.00068745 -0.00042298
0.39730445 0.74458736 0.52996027 0.00001484 0.00014018 0.00064194
0.72038555 0.54198718 0.67380279 0.00061619 0.00065156 0.00036565
0.46908066 0.63254994 0.46479532 0.00006957 0.00002422 0.00005705
0.52119708 0.25002080 0.31239432 0.00007431 -0.00016437 -0.00084851
0.43659416 0.71900314 0.44255397 0.00044432 0.00029773 -0.00049068
0.48790398 0.07894251 0.36791208 0.00048443 -0.00099144 -0.00026900
