0.184316619368246 -0.09736124155189708 0.07301349121205708
-0.09600034095946416 -0.08801219900679809 -0.40365578779792977
-0.001106437864949507 0.0063765661626672965 0.4218904769592253
0.029412026706893947 0.06108957898056827 0.232333194586255
-0.11096937549837678 0.048193358342525555 0.012329854544918917
0.005143551202430062 0.03081380106421308 0.3885082338348735
0.12188685506553502 -0.011523142545614984 -0.11468591743808351
0.19448608344172633 -0.03704287015637092 -0.3311485408949226
-0.18591793232808912 0.016972679838004545 0.2265915741981481
0.06425837162755105 -0.08378713266003546 -0.41365554225249773
-0.006028396902139383 0.03452669784438139 0.3820431145450877
0.1842428821542057 0.019834367902485994 0.21663552994777924
-0.02240052899584457 0.007716949076652407 0.41877640997658533
0.10951648718844464 0.04451942065740433 -0.054045610886412326
0.11682825412913128 0.02689527627994273 0.057663797807879724
-0.09537775561617545 0.047737631952657955 0.08637741103503063
0.015147866721784071 0.05927427519574113 0.31940848241573905
-0.12653780996791592 -0.042312800427859204 0.38805554815486326
-0.14915422979801818 -0.018500051313262933 0.09549022843308816
-0.14503843896175342 0.03260858005750322 0.17915041900405632
-0.11403137032470997 0.023499563546767382 0.012651029523599602
0.19464134968881636 -0.010240723163285281 -0.2507413397382014
-0.13827000886369875 0.0012529700530631016 -0.2857093130531518
0.04396961519323633 0.06668315480749631 -0.19104555368596393
-0.07996629779302107 0.040370372057075 0.11616401475308752
-0.19448608257295205 -0.03704287015637092 -0.3311485408949226
-0.15109838366304976 -0.08248741924039217 0.06340541819598663
-0.19464134882004208 -0.010240723163285281 -0.2507413397382014
0.09969670474855746 0.0717999093199215 0.06377391422182203
0.11177269390258489 0.0198604039806394 -0.10238662615390826
0.14574863562658077 -0.029995454928906068 -0.2059560545601229
0.1476105002810983 -0.06470363759542067 -0.17832265350978915
-0.04154084732591826 0.0391185498176847 -0.21147551308427848
0.12281750232624464 -0.012750259017414473 -0.136102017052004
-0.02457368632200644 0.06290754338652055 0.26115000190418913
0.15483484681338663 0.03508238757080878 0.17309351501261733
-0.16359342064429072 -0.03631899116595985 0.3473294205919567
-0.10197419556292478 0.08245968785789659 -0.15620529018502147
-0.1471559132886529 -0.10146220892760735 0.01174793869597203
0.163593421513065 -0.03631899116595985 0.3473294205919567
0.19543250438482088 -0.008197366139158252 -0.2723071943125955
-0.12404499801800205 -0.021180627096867077 -0.16675294254700748
-0.16337753024442017 -0.09776717631785088 0.04936475038539065
-0.10630910755328352 -0.08939895274610751 -0.4001620121718554
0.1202074330024574 -0.009752879275549603 -0.17015872763158524
0.007922950056397472 0.05682783407115155 0.1227574139899795
0.187033493625772 -0.06205841006390801 0.31037149271974873
-0.1066857754868605 0.06421010747165506 0.04612259350001054
0.14273320166993797 -0.06860334798744878 -0.010596527646265105
-0.06083187083829596 0.01524346615101313 -0.22449811322576652
0.022279661647789883 0.016047733908277406 -0.2370286885034651
0.1552331798046971 0.043574520069238454 0.239250809511685
-0.0033981828755473187 0.022358157084071434 0.40159373866153514
0.011193993685422229 0.10714112976985934 0.08092807888195976
-0.15188497729426828 -0.10710728677774396 -0.10085448847454515
-0.14672774333186733 0.010362556696897202 0.12694143075366815
0.17007336426340527 -0.09738879798497915 0.057305184089080655
-0.08094597650018016 0.0011425542763687513 -0.2569863876520628
0.13245123133173636 -0.05353016913592255 -0.15817662039440294
-0.11782408573863323 -0.0010705123666706062 -0.12693503700961276
0.1936599605823625 -0.03238203207817944 0.2760050098234518
0.010383074375345037 0.0069185726947366966 0.4205162661480774
-0.1414540121730574 -0.060344019837471105 0.03523267123470863
0.18664884382881955 -0.11164972721586561 -0.17500200830121665
0.08728623751022352 0.05707052072663987 0.2583975893502055
-0.14699190500072304 -0.10265416719168145 -0.010189072525382634
0.11846700669786707 0.0011459750749582553 -0.06115783124271157
-0.13843268684106602 -0.07382481694558585 -0.37704387521529337
-0.10042970499976628 -0.0012229279482693645 -0.21925763983102114
-0.040855357297456006 0.11392571363903109 -0.14932169320112038
-0.0501272418299252 0.042602063047990496 0.36685153805349163
-0.14222863300921268 0.00026207872830508183 -0.2503224819553539
0.010493870240771567 0.04913768879759317 0.35063752287236766
0.10981409666573098 0.04572601233766682 -0.031894799753214007
-0.0997616990529837 0.08035380623732824 0.05686865218018744
0.14999612720854122 -0.027066111070098986 0.08994036281035925
-0.1421275294064564 -0.07622450715611895 -0.14087840210477412
-0.19477304956573777 -0.01248590730419269 -0.2929247275002342
-0.13528004085211112 -0.043123529693570306 0.38040075113339633
0.17119500611202856 -0.022228151642717908 0.332636520516963
-0.07864643967057294 -0.03578078552121211 0.41238711838886677
-0.15995160045703757 -0.0006246682838393081 0.3302951739268175
0.1461112402770676 0.0318014616347477 0.2981518300249623
-0.008663552082249611 0.06561016431659034 0.11699507876596954
-0.11378925380231993 0.021224162351652726 -0.023409318807597265
-0.030435604793844027 -0.07967096173503851 -0.42283886611037214
0.10042970586854053 -0.0012229279482693645 -0.21925763983102114
-0.011632615213568096 0.052281972834440416 0.3428002832594609
0.11282173880336438 0.020543613476708633 -0.04736023017633603
-0.04261250750626166 0.09998025805584282 -0.16381979780087869
-0.10619565106673183 0.09943198005969267 -0.012582491271834986
-0.07219310313148432 -0.0727740616455116 0.4235630574251239
-0.14240043311615194 -0.06906325535337024 -0.024234491445130693
-0.1674104617370726 -0.07247626212385917 0.351708993008345
0.18084184817878002 0.01800234021344352 0.185681483688873
-0.00928955822412781 -0.0010345939814808691 -0.316135796151811
-0.11736588877200652 -0.0012065841327862092 -0.13730518793367696
-0.0642583707587768 -0.08378713266003546 -0.41365554225249773
0.1265378108366902 -0.042312800427859204 0.38805554815486326
0.11678682445732513 -0.001270248995424078 -0.14770840657743975
-0.004688584121252529 0.028739276764048444 0.39188057111102065
-0.18791415834942748 -0.08494184222835724 -0.36079337151588153
-0.08728623664144927 0.05707052072663987 0.2583975893502055
-0.19091495888988186 -0.0294188603222095 0.13614870020166903
-0.020935286933342775 -0.01491163359287917 0.421319013550413
0.18781210539361506 -0.06161332615854108 -0.1964392028397724
0.14216534910408124 -0.06955737070518665 -0.036459285337801295
0.19829476258240059 -0.05347106533807067 0.12562784409530078
-0.0996900523269703 0.05414687819881528 0.07712015991874985
-0.09160936588111086 -0.00043690445014907264 -0.23837629310336134
-0.1220383195565291 -0.012324179548655834 -0.1257198933328765
-0.11224951434831348 0.020138818976951328 -0.08173355466981197
-0.10825782248310108 0.08263623907398793 -0.10522645911629011
-0.033028950213415946 0.05832690403081617 0.21120539227568275
-0.060724305727092844 -0.04984292834517551 -0.3918433901796597
-0.01022115570666786 0.04833855223821315 0.35252751409306554
0.10246774165041722 0.090097380886416 -0.14792714764280154
-0.11678682358855089 -0.001270248995424078 -0.14770840657743975
-0.06579297901489899 0.05574420109574493 0.3281790299104806
0.10891518681415725 0.13054490340864455 -0.005863852797694136
-0.10603202286753416 0.0954286954881492 -0.002117698253461267
0.14344339746599105 -0.06822934067499696 0.010597410103704102
0.1387253560336085 -0.05936510130777632 -0.36904205718135846
-0.16079691779737582 -0.09269071121103534 -0.3774574117558905
0.02093528780211703 -0.01491163359287917 0.421319013550413
0.1458423274990598 0.015750504519723207 0.137057302315913
0.09969005319574455 0.05414687819881528 0.07712015991874985
-0.11078731299566903 0.04757894490697842 0.0007014198730175419
-0.07349984819267269 0.05798140337327681 0.30492083025611527
0.09997892063219109 0.05327704513525228 -0.17820254547042452
0.10448943361681073 0.10906532897645221 -0.12130630297495928
-0.0115543169347418 0.11501960901020625 0.0722510332153311
-0.014798184219416654 0.058787761618568024 0.32167362121508514
-0.10806587767335701 0.10427602090678845 -0.05552301578834343
-0.1452271530172741 -0.01506766001743351 -0.2214648150987119
0.09598361792402309 0.052443130456878984 0.22499083050262894
-0.14936251842324544 -0.10519829112043781 -0.06144783894535458
-0.12767180470033462 0.01773418761290005 0.348480709361689
0.14820647941313533 -0.10418079358442812 -0.040657935517678365
-0.1865053594636524 -0.10066079183583433 -0.17697067788947296
0.04151272162851218 -0.08098093755045031 -0.41995931387547886
-0.11205338856251558 0.020020991469979738 -0.09193893712848206
-0.00869281891462643 0.04365661923538641 0.36318254152188856
-0.11282173793459013 0.020543613476708633 -0.04736023017633603
0.04491223524900922 0.042257322567915506 0.14385537933507667
-0.13495620525230528 -0.06369792281010815 -0.15637556993703206
-0.02841486304928092 0.1630124629990377 -0.027863958748588435
-0.15414536498446235 -0.1086685012451178 -0.1332690256868011
0.1458888883687502 -0.07612245333153225 0.3831478424451296
0.10855372242986694 0.10250480741489265 -0.06575044339347919
0.060085187392729146 0.004096413858400566 -0.28189474253712893
0.07864644053934719 -0.03578078552121211 0.41238711838886677
-0.06981146713572912 0.057218375243452635 0.3163596006506656
-0.11225331523563516 0.04265356507119905 -0.0962818309822163
0.18062215689158778 0.014277660682578075 0.17556219132803863
0.1518213133004047 -0.06814477093208991 0.07853865106719517
-0.11947348079186969 -0.008154796201155612 0.3788000074378772
-0.13714969732563806 -0.007653839252160177 -0.31580283842243306
0.10630910842205776 -0.08939895274610751 -0.4001620121718554
-0.011084907350516194 0.047847287551887996 0.1272696373738939
0.16913549531678448 -0.09496060111953357 -0.1719829635016183
-0.032826172874805125 -0.04870589290289945 0.4238724496531075
0.14259218875030422 -0.07151900865189789 0.053189013164083726
-0.1945957381721821 -0.047204162322109694 -0.3379236225457902
0.09352976506915626 0.05415847090514633 0.23482657666926712
0.09997626001106591 0.10481669712829528 0.033664045037057555
0.11003245764236065 0.01889687904459736 -0.13556172091922936
0.05799983056369774 -0.049620006303759845 0.4216550119896482
-0.15483484594461236 0.03508238757080878 0.17309351501261733
-0.14611180954139158 -0.03814360712472506 -0.19875850428345226
-0.10651207493626043 0.10245501579097882 -0.022983619427570795
-0.11080517716608086 0.01931991780349865 -0.12416362001902084
-0.04195552413271189 -0.024625941409590152 -0.37065306327264613
-0.12199403921923171 0.004124920513313063 0.04775298411663867
-0.03366350835176789 0.004119219182330547 -0.29955689578780714
0.10439726209926037 0.044349520994125924 0.18905287074318972
0.13725023166407035 -0.038893142104557354 0.048846119310349476
-0.01207427832034555 0.12295890244769975 0.06303578190395473
-0.108915185945383 0.13054490340864455 -0.005863852797694136
-0.11110354682083155 0.048696595823913974 0.022489056222630775
0.0999093643942046 0.09678314168522445 0.042214901244606924
0.1544825045586683 -0.0026159531516595225 0.339606587687432
0.13817745812619048 -0.026637751068947335 -0.3448564410205069
0.19091495975865613 -0.0294188603222095 0.13614870020166903
-0.041512720759737935 -0.08098093755045031 -0.41995931387547886
-0.1105642009098873 0.04701223260731821 -0.009574849134201605
0.14370470846935549 -0.003546220323636995 -0.23974974373704494
-0.13963566767837293 -0.049762349533956196 0.049447039595904685
0.013476046433349795 0.056523573041052266 0.3303641600317057
0.04342627835060434 0.056937869759113746 -0.19831893166470171
0.13931221303607355 0.002560665336081902 -0.2734012797281367
0.14244224374546452 -0.04283542243458813 0.3728791752125538
0.14385199285307002 -0.06837890559110447 0.021506526849980417
0.11232192212056546 0.013227285471236 0.36931451303793045
-0.146578558504492 -0.046905792667359 -0.19154346992510202
-0.043969614324462086 0.06668315480749631 -0.19104555368596393
-0.048041124823429454 -0.048981077144988006 0.42312747573806114
-0.13753681769934964 -0.0737959302019412 -0.1554483434749119
0.14803182864070483 -0.002630776612214003 0.10961603611968943
-0.1858658601717823 -0.011827213531348163 0.14620945889774978
-0.1186397561578625 0.00013398882556497904 -0.08425335291970965
0.13930442121706413 -0.05024107129211988 0.03594248694202954
0.1442771220999982 0.02857925940780634 0.16874111894057892
-0.09013424151157273 0.038061713097895744 0.11188991695987541
0.07723612129864346 -0.045922123028512146 0.4143502766905066
0.018965858036396395 -0.04886191932745382 0.4237268756686877
0.15206476013335732 -0.07845068686041805 0.07679955507316742
0.1060331640025049 0.053470700344291106 -0.13026328399282855
0.05012724269869945 0.042602063047990496 0.36685153805349163
-0.04963578709923394 0.015363574190377732 -0.22950331169530086
-0.10142971845409629 0.07348408249215119 -0.1643905010322267
0.07272997933444371 0.009478660350244056 0.3987286297984642
0.03268116989225787 -0.01417844242853003 0.4191099378390614
0.06398204711926601 -0.010034144937352774 0.4120813370038388
-0.016666700426747085 0.060913597897575195 0.3097103283701451
0.16685230230266043 0.005239340676025189 0.3085702522180117
-0.1447096622084294 -0.00869699277759109 -0.23026919049061634
-0.15363851666011835 -0.07495843158927239 0.3731800154440636
0.14551089012461063 -0.02277699977196629 -0.21290901773764437
-0.17237137986930956 -0.07110281149017558 0.34265470927504116
0.1430653992218515 -0.06834032658478958 0.0002717295613033216
0.11403137119348422 0.023499563546767382 0.012651029523599602
0.1267056200119417 0.003922143174702242 0.03287821158330335
-0.14611123940829332 0.0318014616347477 0.2981518300249623
-0.1146514850912396 0.0226772415747252 1.878051004652881e-05
-0.1954325035160466 -0.008197366139158252 -0.2723071943125955
0.11101004586149282 -0.03575303904376395 0.39914672740384727
0.11465148596001384 0.0226772415747252 1.878051004652881e-05
-0.09902280655765204 0.036178563474376924 0.10651622246450568
0.11205338943128983 0.020020991469979738 -0.09193893712848206
0.0953777564849497 0.047737631952657955 0.08637741103503063
-0.04768973279054154 -0.05457788372613946 -0.401983017287665
0.03488891529304688 0.16046776893718306 -0.06178516769515233
-0.14449814282897877 0.024548228358814733 0.15803667997657422
0.14470966307720368 -0.00869699277759109 -0.23026919049061634
0.09103638298614414 0.05556137841557282 0.24448007028883148
-0.19517898433169156 -0.009674390952357226 -0.28259410580431527
0.19447354051356486 -0.028726528696568276 -0.32297796346390584
0.10058383184943404 0.13007283320329371 -0.03673256913622901
0.10534425317545315 0.11441545797042763 -0.11143748908862264
-0.10070945030664082 0.0627446753647872 -0.17238699782391126
0.13246358421553175 -0.017035569428225483 0.03499891666442624
-0.03682299593790178 0.01562640554867084 -0.2337057627624996
0.11136941975775626 0.019634441229366417 -0.11311520075240553
0.10197419643169903 0.08245968785789659 -0.15620529018502147
0.10627338008123412 0.08524991924073078 0.0181647867167727
0.15577176553817704 0.04308211511671678 0.2239444462229746
-0.10896269703690384 0.09968968022010155 -0.07559284111293027
0.19446232789596593 -0.021625901046600116 -0.31306334888534315
-0.12607049087171723 -0.006177764660791646 0.04803101902421846
0.17024003317246028 -0.09164071608842542 -0.3723497793730373
0.11436774972145154 0.024177641844952386 0.02302422115752118
0.09886640091313978 -0.07554946956779128 0.41483983097753707
-0.11862189198745066 -0.03989277547015521 0.39390511374290543
-0.14865745382507659 -0.10073053811818689 0.022364957251578416
0.136966305381142 -0.07701053065423923 0.39247369957756645
-0.14216534823530697 -0.06955737070518665 -0.036459285337801295
0.151484174594973 0.039258422471121934 0.2733071400025341
0.14709605018211094 -0.05588995002957817 -0.18462604504403812
0.1067511516175674 0.0716459733833941 0.0375010407882782
-0.01896585716762214 -0.04886191932745382 0.4237268756686877
0.03875403761044785 0.05167136028621497 0.17843642232068158
-0.1924683815382463 -0.04920342905330538 0.29094591779618406
0.1396356685471472 -0.049762349533956196 0.049447039595904685
0.12920451338157027 -0.07729502707026585 0.3988895973765367
-0.043339807295262225 -0.013225369932622577 0.4165821577257882
0.17296697978138872 -0.0821685247941045 0.09123456494338612
0.10364753707506198 0.10269599204717234 -0.13142844600128492
0.0616348091537719 0.009177630074368198 0.404419888429559
-0.18276395602857162 0.020887973868051496 0.2063862472405439
0.12199404008800596 0.004124920513313063 0.04775298411663867
0.1122533161044094 0.04265356507119905 -0.0962818309822163
0.1369313372177827 -0.03836120792389036 0.03592158206176038
0.08094597736895441 0.0011425542763687513 -0.2569863876520628
0.12869671483539583 -0.05102120341489161 -0.365362798253987
0.15295435781099295 -0.10785720184630844 -0.11640942979409241
0.15188497816304256 -0.10710728677774396 -0.10085448847454515
0.08000905864416404 0.05833735647095073 0.2837417159667005
0.00999291329177614 0.08368433375293705 0.10328546824109056
-0.17969740013745247 -0.08934383987994336 -0.36669843005881997
-0.11522883987540047 -0.0011491907342290608 -0.16843863607416582
0.11139621601337399 -0.009338392513122018 0.3854840578373909
0.13495620612107956 -0.06369792281010815 -0.15637556993703206
-0.0349335748503022 0.056383130254516745 0.20022386862592872
0.15093285588896552 -0.10641609541829922 -0.08654699837396829
0.0436786572687629 -0.03199301126080703 -0.3790511238098646
-0.10887584676160379 0.01837843801392225 -0.14721733193548062
-0.09834871919115477 0.05050524805592818 0.2152261609289059
-0.15448250368989402 -0.0026159531516595225 0.339606587687432
0.18112748486100314 0.008811794669657952 0.16572302436281094
0.19451344983044236 -0.0164036719109987 -0.3030900105976607
-0.19649903249850578 -0.07780890703615492 0.116872880238578
-0.15206475926458304 -0.07845068686041805 0.07679955507316742
-0.09997891976341684 0.05327704513525228 -0.17820254547042452
0.018944002934296825 0.06230054168125068 0.29548436730261796
-0.13930442034828985 -0.05024107129211988 0.03594248694202954
-0.012770220788942382 0.1305203876854198 0.053726268587001046
0.011566480642945381 0.01642478193058655 -0.23871723269611467
-0.03321842444640094 -0.004323691825283527 -0.3343760643641144
0.15532155043492582 0.03759021302564325 0.18490952347384287
0.11096937636715103 0.048193358342525555 0.012329854544918917
-0.14164975787012313 -0.07274517490186697 -0.09597795004084916
-0.1558266874912008 0.04117673030236618 0.2059689098126251
0.023669836185688797 0.16045446583155726 -0.005255330737495595
-0.13476616088622204 -0.027717203068300167 0.03557703162605146
-0.16693078975707853 -0.08290399649084663 0.08320899136369082
0.08684837529076775 0.00020050435369411979 -0.24725858668535988
-0.037811796774632894 -0.06875519343594928 0.43127562793388013
-0.193243952596232 -0.022539634358728328 0.26861475455957273
-0.1556488059645469 0.03961038463710814 0.19585075771798727
0.19477305043451204 -0.01248590730419269 -0.2929247275002342
0.09160936674988511 -0.00043690445014907264 -0.23837629310336134
0.09282260998296053 -0.01226830650502736 0.3975763908069015
0.014991650252863647 0.14384116743729242 0.03468287288362981
0.036860055458062264 0.05412540318544787 0.18920243565929723
-0.18112748399222886 0.008811794669657952 0.16572302436281094
0.022462104239229792 0.06303259257940333 0.27392421405920636
0.09600034182823841 -0.08801219900679809 -0.40365578779792977
0.18767755398242814 0.012194774430305755 0.23608600068330077
0.1181707275311433 -0.0008698255160866919 -0.11664185405381222
-0.05403797479518615 0.009025404537135517 0.4079965233992456
-0.04491223438023497 0.042257322567915506 0.14385537933507667
-0.026896978697374067 0.06230035163688458 0.24723400319774375
0.13782739640386518 -0.09116845583870857 -0.3857638709086568
-0.03788629416613752 -0.012673671137882925 -0.3532812978133431
-0.011566479774171128 0.01642478193058655 -0.23871723269611467
-0.010508502788185721 0.09154931984329201 0.09642448653675337
-0.17739064162193408 -0.0691960963652624 0.33272052012677183
0.04890126649309646 -0.06254701412910803 -0.4097550716830053
-0.14056973573767206 0.002362449062257077 -0.2623935299558632
0.03560177171022512 -0.008158787132843348 -0.3440871414266019
-0.18780602310512615 -0.07960957740479364 0.10888360513280461
-0.15428808830339089 0.04292247784920686 0.2523032466186481
-0.19428805634349333 -0.04056173163876822 0.13095782838647138
0.1942880572122676 -0.04056173163876822 0.13095782838647138
-0.10916566441988072 0.1261212406993249 0.016583047457861877
0.05794870862922135 0.04482406177623577 0.12196568916087672
-0.14306539835307722 -0.06834032658478958 0.0002717295613033216
0.11604641160706482 0.025807842417214427 0.04490345889158655
0.15582668835997507 0.04117673030236618 0.2059689098126251
0.13753681856812391 -0.0737959302019412 -0.1554483434749119
0.11515092255408059 0.02496670605293 0.03404432381359012
0.10916566528865497 0.1261212406993249 0.016583047457861877
-0.170073363394631 -0.09738879798497915 0.057305184089080655
0.14742843777839054 -0.10334041739760803 -0.023723082056000683
0.12880446999096504 -0.09203258757128907 -0.3919608375978992
0.0214084982736643 0.15771801700432464 0.004873273797276853
-0.08473356071621918 -0.08647968123870284 -0.4073654538238746
-0.09990936352543035 0.09678314168522445 0.042214901244606924
-0.03686005458928802 0.05412540318544787 0.18920243565929723
0.14056973660644634 0.002362449062257077 -0.2623935299558632
-0.10002624081057156 0.11139945388068656 0.02523671766746228
-0.1894098075105026 0.005421973311831196 0.24496335311178113
0.033663509220542134 0.004119219182330547 -0.29955689578780714
-0.04361746211410984 0.008788989345727971 0.41255074658806445
0.03282617374357937 -0.04870589290289945 0.4238724496531075
-0.04172994147017108 0.10718674041771936 -0.15670529691218646
0.10142971932287054 0.07348408249215119 -0.1643905010322267
-0.18701391818729118 -0.07967590288855671 -0.18622982944941457
0.15414536585323663 -0.1086685012451178 -0.1332690256868011
-0.10655673536228999 0.06533041900971578 -0.12150851018047185
-0.1518213124316304 -0.06814477093208991 0.07853865106719517
-0.18925321095285 -0.04240288145738266 -0.20917825678706425
0.14611181041016585 -0.03814360712472506 -0.19875850428345226
-0.13765692573871424 -0.01861730868713629 -0.33535707338183607
0.10192725547327647 0.12636468753227753 -0.07137613671827528
0.02928507707035034 0.01631493628699046 0.40949103229412426
0.0008975799753982765 0.04823022694954571 0.12765067632789082
0.20404436483388297 -0.09532263563692214 0.09944942271170032
-0.03704515780185309 0.14449511010098487 -0.10327451343224917
-0.06856819689281256 -0.050880760628356086 0.41843832104932327
0.14915423066679245 -0.018500051313262933 0.09549022843308816
0.10651207580503468 0.10245501579097882 -0.022983619427570795
-0.014991649384089393 0.14384116743729242 0.03468287288362981
-0.10249149632740336 0.12405545844000004 -0.08211383344634451
0.10906228115350569 0.08984158116966795 -0.09571511868255606
0.10649041074730119 0.03413425622841951 0.09880973337546414
-0.10010795988798736 0.12166793106889628 0.006306018273178421
0.15301270143138052 0.04139414105716541 0.26351700448375587
-0.15523317893592284 0.043574520069238454 0.239250809511685
-0.10603316313373065 0.053470700344291106 -0.13026328399282855
0.10668577635563475 0.06421010747165506 0.04612259350001054
0.11841512458592635 -0.0006123154000439168 -0.1064697293592067
0.016764004010955957 0.14925078031785188 0.024920103753567603
0.011547096117604893 0.0017911756978108428 -0.30879324202381875
0.1474854510882155 0.004326747630093469 0.11791774416330367
-0.10627337921245987 0.08524991924073078 0.0181647867167727
0.04172994233894533 0.10718674041771936 -0.15670529691218646
-0.10006596008308295 0.11673780012396484 0.016702965452860402
-0.18084184731000574 0.01800234021344352 0.185681483688873
-0.10089227298681289 0.12971174890773557 -0.04696341753995423
-0.15532154956615155 0.03759021302564325 0.18490952347384287
-0.11136941888898201 0.019634441229366417 -0.11311520075240553
-0.0752153786853061 -0.0852077142965077 -0.41037157560657933
-0.16868128841307126 -0.030247263713966355 0.3395003528867915
-0.1386191203641937 -0.037759717505236906 -0.35468458541250175
0.006461318836851261 0.03618787564831499 0.37892676703005473
-0.029412025838119693 0.06108957898056827 0.232333194586255
0.09925485159741392 -0.01929918787264298 0.401869683081088
-0.04265412722243389 0.04839252483818082 -0.20463638648204086
-0.02246210337045554 0.06303259257940333 0.27392421405920636
0.15690557022622964 -0.04016776966787766 0.3557208295763622
0.11078731386444328 0.04757894490697842 0.0007014198730175419
0.012074279189119803 0.12295890244769975 0.06303578190395473
-0.1069332132515009 0.10427602090678845 -0.03308295712996644
-0.050198128378474254 -0.07147738893572564 -0.41841843415527596
-0.11607757801432823 -0.0012537151355748455 -0.15810098273670178
-0.011193992816647975 0.10714112976985934 0.08092807888195976
0.10010796075676161 0.12166793106889628 0.006306018273178421
-0.023387049300182677 0.047415886840879024 0.12625879139069715
-0.1416738935046157 -0.07344567843524978 -0.10640701471839925
0.07521537955408035 -0.0852077142965077 -0.41037157560657933
0.1060320237363084 0.0954286954881492 -0.002117698253461267
0.011554317803516054 0.11501960901020625 0.0722510332153311
-0.19344102860386034 -0.041469193486815714 0.2833996361077507
0.10877968518113991 0.13236932932304363 -0.03094723854392295
0.028414863918055176 0.1630124629990377 -0.027863958748588435
0.028385787130044436 0.0014899553775689078 -0.31262567671025343
-0.1427332008011637 -0.06860334798744878 -0.010596527646265105
0.11362220567330698 0.042062717137046235 -0.1080220117413746
0.034933575719076446 0.056383130254516745 0.20022386862592872
-0.1143677488526773 0.024177641844952386 0.02302422115752118
-0.04253877029222136 0.004614284755977416 -0.2948561483927382
0.024573687190780694 0.06290754338652055 0.26115000190418913
0.1276718055691089 0.01773418761290005 0.348480709361689
0.20298600775916542 -0.06829775664678693 0.1201344216492986
-0.11808311620960468 -0.0908847196001463 -0.39599985051026626
-0.04403213892090348 0.060458061552073644 0.11328275211889949
-0.11682825326035703 0.02689527627994273 0.057663797807879724
-0.03280849874875939 0.1622579868656872 -0.04964000239187061
-0.03560177084145087 -0.008158787132843348 -0.3440871414266019
-0.13246358334675748 -0.017035569428225483 0.03499891666442624
0.14167389437338998 -0.07344567843524978 -0.10640701471839925
-0.10906228028473144 0.08984158116966795 -0.09571511868255606
0.1493625192920197 -0.10519829112043781 -0.06144783894535458
0.14888417762258815 0.0355021955754867 0.28623091707365883
0.1420376392900733 -0.005317623859898896 0.3565678573159953
-0.079941021892332 -0.01361971199224532 0.40991958233964193
-0.03141870429959264 -0.0043193208048636356 -0.32336432366015316
0.03819701757345787 0.1340445704100674 -0.1224039992334561
0.011928895249066125 0.05304043989947865 0.34077859129306737
0.1298571257347001 -0.04247775893761946 -0.16080284348930726
-0.16685230143388616 0.005239340676025189 0.3085702522180117
-0.12054685137150782 0.015233963932708955 0.35938583517627753
-0.11502093133890541 0.02957813259593986 0.08027755701685682
0.04085535816623025 0.11392571363903109 -0.14932169320112038
0.004117311625580557 -0.07666426981923556 -0.4293393336522494
0.03704515867062734 0.14449511010098487 -0.10327451343224917
0.04411366882272743 0.07549380166348146 -0.1843337568090021
-0.14742843690961627 -0.10334041739760803 -0.023723082056000683
-0.07476896446937656 0.0021661332320930815 -0.265765107054546
0.1102031174831034 0.04635752976616142 -0.021021601392127415
-0.10433929769883073 0.01720434392025999 -0.17057701528133445
-0.19767255645906978 -0.09636711947291564 0.09013553837432674
0.11130936573807393 0.04910880205394852 0.032754872789715325
-0.05316567115486407 -0.012019918518556577 0.4142932633806817
-0.14166458133067764 -0.07208990192761194 -0.0855025145379748
0.02254097265115434 0.0030813868991499682 -0.3044950085961141
0.10070945117541506 0.0627446753647872 -0.17238699782391126
-0.10981409579695674 0.04572601233766682 -0.031894799753214007
-0.15690556935745537 -0.04016776966787766 0.3557208295763622
0.19649903336728006 -0.07780890703615492 0.116872880238578
0.1111035476896058 0.048696595823913974 0.022489056222630775
0.14852043270590484 -0.010330994237174818 0.10209160953335564
0.18701391905606546 -0.07967590288855671 -0.18622982944941457
-0.10649040987852694 0.03413425622841951 0.09880973337546414
-0.18703349275699774 -0.06205841006390801 0.31037149271974873
0.06579963143648615 -0.05960797800763071 -0.395517327864781
-0.028385786261270182 0.0014899553775689078 -0.31262567671025343
-0.11362220480453274 0.042062717137046235 -0.1080220117413746
0.1827394411741212 0.0005133173802671365 0.15600320525948355
-0.13872535516483422 -0.05936510130777632 -0.36904205718135846
0.03481327763534575 0.04697574408903024 0.12513733958643994
0.17099127855158733 -0.012720422051939406 0.3257318286084267
-0.0600851865239549 0.004096413858400566 -0.28189474253712893
-0.09598361705524884 0.052443130456878984 0.22499083050262894
-0.14686058434375954 -0.1020990475983523 0.00039829910911476363
-0.029285076201576086 0.01631493628699046 0.40949103229412426
-0.09352976420038202 0.05415847090514633 0.23482657666926712
0.04333980816403647 -0.013225369932622577 0.4165821577257882
-0.02227966077901563 0.016047733908277406 -0.2370286885034651
0.09976169992175794 0.08035380623732824 0.05686865218018744
-0.10779810516154573 -0.0014969719241614 -0.19912262928886776
-0.10192725460450222 0.12636468753227753 -0.07137613671827528
-0.06824208076061371 0.0031522734476990277 -0.273671332772341
-0.0996548941192449 0.0624309121163838 0.07099274946749397
0.06579297988367323 0.05574420109574493 0.3281790299104806
0.1915141696449166 -0.09702125218097417 0.08180779425255909
-0.14826729274150768 -0.004220117645768157 0.3487266267714007
0.10433910852323888 -0.028866021261273384 0.4024829562504386
-0.022540971782380088 0.0030813868991499682 -0.3044950085961141
0.03302895108219019 0.05832690403081617 0.21120539227568275
0.13861912123296796 -0.037759717505236906 -0.35468458541250175
0.15363851752889263 -0.07495843158927239 0.3731800154440636
0.10615479239679819 0.11886173595931115 -0.10191132519433407
-0.08421664004047276 0.009987599162614963 0.39206662454541613
-0.10448943274803649 0.10906532897645221 -0.12130630297495928
-0.15577176466940276 0.04308211511671678 0.2239444462229746
0.13494385323728414 -0.006218814243865611 0.36430779421346743
-0.1913615631501775 -0.02629453094380102 -0.22292530605206162
0.14222863387798695 0.00026207872830508183 -0.2503224819553539
0.1468605852125338 -0.1020990475983523 0.00039829910911476363
-0.012084920804846211 0.007027658160868505 0.42029733503834954
-0.11846700582909282 0.0011459750749582553 -0.06115783124271157
0.13827000973247303 0.0012529700530631016 -0.2857093130531518
0.18242130690529781 -0.06641764773312542 0.3218494122537121
-0.13725023079529608 -0.038893142104557354 0.048846119310349476
0.10417776085643421 -0.0014112619150578598 -0.20976207307967198
0.0501981292472485 -0.07147738893572564 -0.41841843415527596
-0.18767755311365386 0.012194774430305755 0.23608600068330077
-0.16469130694715362 0.0016349592288904258 0.32113370517104267
0.15564880683332116 0.03961038463710814 0.19585075771798727
-0.06432944735169194 0.009239014404613083 0.4030929986655658
0.17237138073808383 -0.07110281149017558 0.34265470927504116
0.09965489498801915 0.0624309121163838 0.07099274946749397
0.10953815224617812 0.04511463961197704 -0.04272409786573536
-0.14244224287669024 -0.04283542243458813 0.3728791752125538
-0.07052470364163953 0.015249927659459928 -0.2187671353221603
-0.1399401187528383 0.02528293987809252 0.3201143071913722
-0.14185614605168953 -0.07497420527165731 -0.12666460387667627
0.19231539669232353 -0.012551662654857493 0.2610785452225418
-0.009992912423001887 0.08368433375293705 0.10328546824109056
0.01900044611102355 0.15391028808548085 0.014970140922913405
-0.19260065241704025 -0.01924730576070227 -0.2313577646195411
0.11793184176297666 0.002340023827059251 -0.03847926690490007
-0.020582184501160113 0.0627971276098262 0.2853992829276786
-0.15891984959357164 -0.09493741570687142 -0.16892914058302666
0.008663552951023865 0.06561016431659034 0.11699507876596954
0.1469919058694973 -0.10265416719168145 -0.010189072525382634
0.14826729361028196 -0.004220117645768157 0.3487266267714007
0.141792672102192 -0.07092207929803042 -0.06487243842217458
-0.07662322734925076 0.058308659771672156 0.29491499438183255
-0.13229140315108606 0.01995181532072543 0.3396252120353082
0.11599661998315101 0.004879966779761796 0.004723708881169339
-0.03772342614440419 0.028242120702374696 0.3935132422600418
-0.10058383098065979 0.13007283320329371 -0.03673256913622901
-0.10302095993131129 0.09678941314930517 -0.1396484349674834
0.10806587854213126 0.10427602090678845 -0.05552301578834343
0.03788629503491177 -0.012673671137882925 -0.3532812978133431
-0.09262116208613805 0.010568184700999267 0.3864874920903104
-0.10020450242595763 0.1277168531969598 -0.013666314291607709
0.03997697310619351 -0.017984841036811278 -0.3619024704363433
0.07882812295332277 0.015367185033333314 -0.2123871559083798
0.04253877116099561 0.004614284755977416 -0.2948561483927382
0.18159309355790706 0.020241252890270206 0.1960121053847919
-0.170240032303686 -0.09164071608842542 -0.3723497793730373
0.0018403900755372385 0.0005205390661782994 -0.31230811257452834
-0.1973344675318077 -0.07021055319141477 -0.34961629221342777
-0.023745092885883504 -0.06700469477995656 0.43360842252755194
-0.10651435546865344 0.04169365097811262 0.17938987490532118
-0.18424288128543143 0.019834367902485994 0.21663552994777924
-0.10034380494629665 0.12952816605009915 -0.025448874944402608
-0.04338921883044387 0.09214396866476643 -0.17085124930159257
-0.10727168226749513 0.07421955418889331 -0.11393657250261727
0.03749556381824463 0.13967235422289043 -0.11307168059257244
0.16071101861268047 -0.08331069143426478 0.07510759008192831
0.11126527544514264 0.04310130959769118 -0.08613498218829985
-0.16069904494884293 -0.07380315188785237 0.3627828782200155
-0.18835829203296403 -0.05287831696025705 -0.20194535825830218
0.1512597321986287 -0.09306566874531758 -0.3822225841910617
-0.1069932672711832 0.12316472049616789 -0.09103470603465796
-0.007328110321782673 0.03925937269295235 0.37276096761685
-0.05138875633198576 -0.08217802701240866 -0.41729584208482223
-0.12702717421058027 -0.03137726751469733 -0.16381352633679797
-0.09618715457132399 -0.0009053638125442742 -0.2289217759350861
0.10779810603031997 -0.0014969719241614 -0.19912262928886776
0.1607969186661501 -0.09269071121103534 -0.3774574117558905
0.10884277991067955 0.13180736813253552 -0.017521744346338436
-0.031185329818042416 0.05988735832072567 0.22192997594249225
0.07996629866179532 0.040370372057075 0.11616401475308752
-0.11046309730713103 0.04352415831222642 -0.07605008785772652
0.1003438058150709 0.12952816605009915 -0.025448874944402608
0.03280849961753364 0.1622579868656872 -0.04964000239187061
0.14817930306878543 -0.07493695657590498 -0.17175415008485406
-0.1607110177439062 -0.08331069143426478 0.07510759008192831
-0.016764003142181703 0.14925078031785188 0.024920103753567603
-0.01363663305391588 0.13716395863495773 0.04485385731203882
0.045786439332992125 0.0379421751916294 0.3765476016110586
-0.06398204625049177 -0.010034144937352774 0.4120813370038388
0.11947348166064393 -0.008154796201155612 0.3788000074378772
-0.11515092168530634 0.02496670605293 0.03404432381359012
0.11021528032253274 -0.07651869583481581 0.4099990208846647
-0.10584387894511174 0.05726493611314304 0.05346039651885059
0.013636633922690133 0.13716395863495773 0.04485385731203882
-0.1338579388607102 -0.027539701630378416 0.048528555174624385
0.1075050576178196 0.10494649743033013 -0.04464544640683693
-0.11755460282752718 0.0029711611668216953 -0.027628493779011304
0.14522715388604837 -0.01506766001743351 -0.2214648150987119
-0.1324512304629621 -0.05353016913592255 -0.15817662039440294
0.023895988981327852 0.06182524072167647 0.11837613117429645
-0.10903301345235462 0.1283993025155647 0.006637645691993668
-0.20841310385263026 -0.08519308088031928 0.11445380550270443
0.12054685224028207 0.015233963932708955 0.35938583517627753
-0.1184151237171521 -0.0006123154000439168 -0.1064697293592067
0.06891008757617055 0.042788496571118134 0.11960381777919418
-0.14179267123341774 -0.07092207929803042 -0.06487243842217458
0.1000659609518572 0.11673780012396484 0.016702965452860402
0.04520661397207216 -0.03977931898360351 -0.3872313935035517
-0.03402763335718338 0.061222610036826525 0.11569517530196016
0.009402065357623344 0.07570646130912861 0.10965328481544173
0.15109838453182403 -0.08248741924039217 0.06340541819598663
0.0747689653381508 0.0021661332320930815 -0.265765107054546
-0.15748235400851798 -0.09862579676381499 0.04104080715094466
0.076623228218025 0.058308659771672156 0.29491499438183255
0.03356962730369702 0.022581269169853174 0.40158841741928475
-0.19151416877614233 -0.09702125218097417 0.08180779425255909
-0.07723612042986921 -0.045922123028512146 0.4143502766905066
0.15137660948376988 -0.04682863465472922 0.08235607224870924
-0.137266004477681 -0.0125697168696354 -0.3257579324509715
-0.11020311661432915 0.04635752976616142 -0.021021601392127415
-0.11805042857863836 0.013798368791316157 0.04744625250978032
-0.15009361909956764 -0.10578077710248295 -0.07343032627126905
0.04056078939880123 0.04913939919688795 0.16822248786553773
0.1606990458176172 -0.07380315188785237 0.3627828782200155
-0.0755952773731065 0.009582424574125503 0.39715069142687504
0.08358702392441324 0.05796011840427551 0.2715269944254324
-0.12985712486592582 -0.04247775893761946 -0.16080284348930726
-0.15295435694221868 -0.10785720184630844 -0.11640942979409241
-0.13494385236850986 -0.006218814243865611 0.36430779421346743
-0.17099127768281305 -0.012720422051939406 0.3257318286084267
0.02689697956614832 0.06230035163688458 0.24723400319774375
-0.1088427790419053 0.13180736813253552 -0.017521744346338436
0.1416497587388974 -0.07274517490186697 -0.09597795004084916
0.1516236671596781 -0.05740270318360076 0.08029998225205465
0.09618715544009823 -0.0009053638125442742 -0.2289217759350861
0.07052470451041377 0.015249927659459928 -0.2187671353221603
0.03989791464990288 0.12117894691496411 -0.1405176978979481
-0.1095164863196704 0.04451942065740433 -0.054045610886412326
0.10300936809375444 0.011682604863711393 0.3783281272768925
-0.15125973132985443 -0.09306566874531758 -0.3822225841910617
0.046867411687273604 0.04621138564864341 0.12368331014153705
0.11825757780644335 0.0016874114739293955 -0.05044389006040273
0.084216640909247 0.009987599162614963 0.39206662454541613
0.03118533068681667 0.05988735832072567 0.22192997594249225
-0.11232192125179122 0.013227285471236 0.36931451303793045
-0.12883734679752315 -0.07292343651725304 -0.384088439777267
-0.11709127466301623 0.0036450584889528848 -0.016574943314511717
0.11860041784285752 0.0006231630238632546 -0.07245634889509242
0.12985560537977142 -0.016140270419607333 0.048271235102947674
0.13726600534645528 -0.0125697168696354 -0.3257579324509715
-0.1378273955350909 -0.09116845583870857 -0.3857638709086568
-0.04578643846421788 0.0379421751916294 0.3765476016110586
-0.007922949187623218 0.05682783407115155 0.1227574139899795
-0.03481346681093758 0.04697574408903024 0.12513733958643994
-0.11423110695346346 -0.0009486939280112516 -0.17867727629690044
-0.09780101132810289 0.02993009476192604 -0.1891897704511611
0.05044176612456722 -0.07027934925193689 0.4288208248571829
-0.13011463498196862 -0.007216927254534822 0.034239689421923694
-0.04655022677150643 -0.04749626051277964 -0.3950011673664989
-0.12188685419676078 -0.011523142545614984 -0.11468591743808351
0.010508503656959975 0.09154931984329201 0.09642448653675337
0.051223228557901505 0.004637280124273474 -0.28915842825319654
-0.03488891442427263 0.16046776893718306 -0.06178516769515233
0.0429880360424164 0.04545367876106954 0.15458452406667217
0.020743723081105125 0.007605583078127642 0.4190514041743078
0.12031366780309795 -0.0771232269633266 0.40471407710825585
0.08473356158499343 -0.08647968123870284 -0.4073654538238746
0.018017346605274938 -0.07823593672674396 -0.4259578742465303
0.19459573904095637 -0.047204162322109694 -0.3379236225457902
-0.18242130603652354 -0.06641764773312542 0.3218494122537121
-0.10042058287019429 0.016624518559340024 -0.1819167725611554
0.14212753027523067 -0.07622450715611895 -0.14087840210477412
-0.14427712123122394 0.02857925940780634 0.16874111894057892
0.038657875161209734 0.02096190112645785 -0.2249158307424175
-0.11661388321541513 0.02812106244117965 0.06971774181544149
0.09834872005992902 0.05050524805592818 0.2152261609289059
0.11681058000308554 0.0216893909598245 -0.011904983106748215
0.12702717507935454 -0.03137726751469733 -0.16381352633679797
0.13385793972948448 -0.027539701630378416 0.048528555174624385
-0.10615479152802394 0.11886173595931115 -0.10191132519433407
0.10302096080008553 0.09678941314930517 -0.1396484349674834
-0.14588888749997592 -0.07612245333153225 0.3831478424451296
-0.12768643811652303 -0.007065271850400373 0.3713922680923185
0.0480411256922037 -0.048981077144988006 0.42312747573806114
-0.0238959881125536 0.06182524072167647 0.11837613117429645
0.03781179764340714 -0.06875519343594928 0.43127562793388013
0.19476373826057397 -0.05687494997898761 -0.34296720997727337
0.017575873542863565 -0.002240425484279024 -0.318889348971991
-0.1118173534598402 0.03153083845744517 0.08976020075131233
-0.04411366795395318 0.07549380166348146 -0.1843337568090021
0.009181233804234615 0.045176974164052364 0.3597701048844979
-0.18736664053074167 -0.07067863246507779 -0.1911196709887364
0.13765692660748852 -0.01861730868713629 -0.33535707338183607
-0.10417775998765996 -0.0014112619150578598 -0.20976207307967198
-0.19364722674106064 -0.014194786244013186 -0.2399386478369317
-0.06183549513558156 -0.07160870959268917 0.42624838431788015
-0.14817930220001116 -0.07493695657590498 -0.17175415008485406
0.19733446840058197 -0.07021055319141477 -0.34961629221342777
0.09902280742642629 0.036178563474376924 0.10651622246450568
0.1411837699532613 -0.060854288960404596 0.05078666233242546
0.13229140401986034 0.01995181532072543 0.3396252120353082
0.06981146800450337 0.057218375243452635 0.3163596006506656
-0.07882812208454852 0.015367185033333314 -0.2123871559083798
-0.08000905777538979 0.05833735647095073 0.2837417159667005
0.03130904956913686 0.008277009823499715 0.41686950480730606
0.20977477260439098 -0.09368160253579336 0.10883324337579256
0.11607757888310248 -0.0012537151355748455 -0.15810098273670178
-0.1437047076005812 -0.003546220323636995 -0.23974974373704494
-0.023669835316914543 0.16045446583155726 -0.005255330737495595
-0.1513766086149956 -0.04682863465472922 0.08235607224870924
0.1646913078159279 0.0016349592288904258 0.32113370517104267
-0.11257962141220008 0.020365731950054727 -0.05945541381133787
-0.05425329506195846 0.04685772653769252 0.3574608757922204
-0.043426277481830096 0.056937869759113746 -0.19831893166470171
0.062143747966142825 0.05364326062869468 0.3381489473995736
-0.18667601930439517 -0.09089631230647736 -0.18078980947028178
-0.042988225218008234 0.04545367876106954 0.15458452406667217
0.13768353281874016 -0.0007738531112146674 -0.29554943024020985
-0.09983790684378306 0.08889668058150207 0.0495568852395008
-0.05122322768912726 0.004637280124273474 -0.28915842825319654
0.11736588964078076 -0.0012065841327862092 -0.13730518793367696
0.10654153268177757 0.0789417765973297 0.027939338597532067
0.18780602397390042 -0.07960957740479364 0.10888360513280461
-0.03634275382480943 0.15793922864644555 -0.07278930662447028
-0.1182575769376691 0.0016874114739293955 -0.05044389006040273
0.18586586104055658 -0.011827213531348163 0.14620945889774978
-0.13696630451236771 -0.07701053065423923 0.39247369957756645
0.14145401304183167 -0.060344019837471105 0.03523267123470863
-0.15014017996925805 -0.04190306477458375 0.36390585037920137
-0.10300936722498019 0.011682604863711393 0.3783281272768925
0.05856407228659888 0.05087051332754017 0.3472161541497711
-0.11860041697408327 0.0006231630238632546 -0.07245634889509242
0.061835496004355804 -0.07160870959268917 0.42624838431788015
0.12883734766629742 -0.07292343651725304 -0.384088439777267
0.11863975702663675 0.00013398882556497904 -0.08425335291970965
0.14715591415742718 -0.10146220892760735 0.01174793869597203
0.1142311078222377 -0.0009486939280112516 -0.17867727629690044
0.10706795557582816 0.017801653362859632 -0.15894991091999564
0.1799436985046706 -0.08106664755955385 0.10006497641344395
0.19260065328581452 -0.01924730576070227 -0.2313577646195411
0.037694540269533776 0.15392815225589268 -0.08666748650206507
0.0926211629549123 0.010568184700999267 0.3864874920903104
-0.14118376908448702 -0.060854288960404596 0.05078666233242546
-0.11021527945375849 -0.07651869583481581 0.4099990208846647
0.1260704917404915 -0.006177764660791646 0.04803101902421846
-0.116535965025321 0.004348032599094803 -0.0052669234438266765
0.1952871204447672 -0.008248868162366807 -0.26226791062988214
0.13729945315488593 -0.0037324638023985834 -0.3056569398503471
0.1276864389852973 -0.007065271850400373 0.3713922680923185
-0.129204512512796 -0.07729502707026585 0.3988895973765367
0.10619565193550608 0.09943198005969267 -0.012582491271834986
0.09780101219687713 0.02993009476192604 -0.1891897704511611
-0.09969670387978322 0.0717999093199215 0.06377391422182203
0.18791415921820176 -0.08494184222835724 -0.36079337151588153
0.054253295930732706 0.04685772653769252 0.3574608757922204
0.05170822178014594 0.00898017397800771 0.4090493691873468
0.10133184647433768 0.12851503953450938 -0.05845330986898095
-0.14203763842129902 -0.005317623859898896 0.3565678573159953
-0.02199592454045335 -0.0028966486803644886 -0.3203329259767593
0.14863692990231386 -0.08391750309516857 -0.1670087422637555
-0.14888417675381388 0.0355021955754867 0.28623091707365883
-0.19451344896166808 -0.0164036719109987 -0.3030900105976607
-0.1112652745763684 0.04310130959769118 -0.08613498218829985
0.04963578796800819 0.015363574190377732 -0.22950331169530086
-0.09282260911418629 -0.01226830650502736 0.3975763908069015
0.11502093220767966 0.02957813259593986 0.08027755701685682
-0.10161748228778653 0.04739840275919932 0.2013014201816207
-0.13768353194996588 -0.0007738531112146674 -0.29554943024020985
-0.14316194089104747 0.028394346239607376 0.30944350608016424
0.04163111926858205 0.03318384435363722 0.3855315689289117
0.15082148989044072 -0.03637277372156142 0.08553665475947837
-0.05044176525579297 -0.07027934925193689 0.4288208248571829
-0.19099648792293158 -0.0030279693373279903 0.25324491645259056
0.1589198504623459 -0.09493741570687142 -0.16892914058302666
0.12203832042530335 -0.012324179548655834 -0.1257198933328765
-0.018017345736500684 -0.07823593672674396 -0.4259578742465303
0.046550227640280675 -0.04749626051277964 -0.3950011673664989
0.10020450329473188 0.1277168531969598 -0.013666314291607709
-0.09886640004436553 -0.07554946956779128 0.41483983097753707
0.14657855937326628 -0.046905792667359 -0.19154346992510202
0.1240449988867763 -0.021180627096867077 -0.16675294254700748
-0.03356962643492277 0.022581269169853174 0.40158841741928475
0.14316194175982175 0.028394346239607376 0.30944350608016424
0.19074049903059173 -0.055353644828491255 0.29867426198732516
0.1186218928562249 -0.03989277547015521 0.39390511374290543
-0.1878121045248408 -0.06161332615854108 -0.1964392028397724
0.1024914971961776 0.12405545844000004 -0.08211383344634451
-0.10014729907176657 0.1250172729767473 -0.003245991654897487
-0.1450988730701679 0.02016276456707783 0.14697419742686874
-0.14709604931333667 -0.05588995002957817 -0.18462604504403812
