-0.14314559707556432 -0.06830079735664427 0.0026049042437072817
0.1488520601247201 -0.014958574551301757 0.09819722038357785
-0.141957629743178 -0.07017919587101103 -0.05013487792115137
0.18076202954502504 0.01182323769461302 0.170615716567624
0.042752761117205336 0.09872311457420219 -0.16499104122904973
0.060831871707070204 0.01524346615101313 -0.22449811322576652
-0.10893951162424166 0.1300971588821524 -0.0028185818755762787
0.13370172326056406 0.020757413388552276 0.33654098201814325
0.1946044810817962 -0.07816790084368617 -0.3546171196625422
-0.11257962141220008 0.020365731950054727 -0.05945541381133787
-0.1134063144046622 0.02095943054969876 -0.03058653433709696
-0.08169133050395865 -0.08606975554106128 -0.40834152168807814
-0.19352369790310653 -0.027517086350814512 0.2723187192545351
0.09980712052525183 0.08552225281732806 0.05250637380111271
0.11185289262507202 0.019905824584133286 -0.09974995061886935
-0.043932175584343695 0.08348269668052272 -0.1780430982472807
-0.13890019598163078 -0.0057446535504879215 0.3601211168286536
-0.03280849874875939 0.1622579868656872 -0.04964000239187061
0.09865146073509964 0.03842792859133817 -0.18563670098286877
0.025906468330122466 0.1621682859248959 -0.01592138073955146
0.20841310472140454 -0.08519308088031928 0.11445380550270443
0.037076515991031074 0.008559795840231588 0.4150714950597925
0.1462208958762976 -0.04029186863893003 -0.19694415072045557
0.14476781665322516 0.022371080100965085 0.15243056122148468
0.14582674386104097 -0.03195348203266171 -0.20417552889428903
-0.0017039373519152187 3.4785666469527854e-05 -0.31354644166392676
-0.0755952773731065 0.009582424574125503 0.39715069142687504
-0.108627458775133 0.10210723460104648 -0.06740972075375196
-0.14533851901579886 0.018695622060915212 0.1435193808958415
0.19447125998117185 -0.02562310419842892 -0.31901021718881994
-0.06083985270167146 -0.010692078532732963 0.41268453782178705
0.004117311625580557 -0.07666426981923556 -0.4293393336522494
0.054037975663960396 0.009025404537135517 0.4079965233992456
-0.157804289164663 -0.094947868147006 -0.16847854539104332
0.08135077186871173 0.009835183581016205 0.39381807342323927
0.06655714827969395 0.056087611265257326 0.32599408983362155
0.11302755685183254 0.020692228170985733 -0.04015849892361159
0.05794870862922135 0.04482406177623577 0.12196568916087672
0.1416566003360764 -0.07308991538194196 -0.10120550041870091
0.15161758573996342 -0.041625790044468314 0.36212988577815347
0.05091288610808758 -0.012339003009210342 0.41479954157192744
-0.009849238882242956 0.08170198097032272 0.10491984978940644
0.11863975702663675 0.00013398882556497904 -0.08425335291970965
-0.0996548941192449 0.0624309121163838 0.07099274946749397
0.004017538333386855 0.025508142451901167 0.3969066744608241
-0.15414536498446235 -0.1086685012451178 -0.1332690256868011
-0.10007812292251227 0.11827620926740867 0.01379490656305464
0.13254644355914405 -0.006492098042293337 0.36671736673103683
0.042877620265722026 0.05059475895235341 -0.20301093701893086
0.11661388408418938 0.02812106244117965 0.06971774181544149
0.16685230230266043 0.005239340676025189 0.3085702522180117
0.1493625192920197 -0.10519829112043781 -0.06144783894535458
-0.03812099895825032 0.1521890562618649 -0.09212651091780619
-0.060204344341489094 -0.08327363278287854 -0.41482564541447225
-0.1150334742670669 0.02245698015443473 -0.0029998842008196747
0.1420921820231392 -0.06975083586985939 -0.04087572636120976
-0.043499444562772153 0.09076291625643956 -0.17203218499243383
-0.15214571816453448 -0.0813064835495509 0.07629137643826082
-0.10673385671147956 0.12184562255118414 -0.09459556732195967
-0.18679422690009895 0.01482992961041596 0.23140691834596527
0.04768973365931579 -0.05457788372613946 -0.401983017287665
0.09794886671368988 0.01107351267041462 0.38251081373001855
-0.14231985430493266 -0.069213390402576 -0.028124319530122496
0.09968891292954805 0.04981652727324254 -0.18009842806647097
0.10815253877306522 0.10405480926466754 -0.057266862891523274
0.11688716788261709 0.027149555641762135 0.06039625570342458
-0.010804781954909496 0.09739945556443241 0.09090122712527612
0.03858128728167819 -0.04874010088879446 0.4237346674876971
0.04101442530064193 0.03243525959563531 0.3868225403077152
-0.100114041307702 0.12227588299599657 0.004762287887484243
-0.1141704828006829 0.023091158204054496 0.006200163561270039
-0.15480671937843204 0.043374783440484954 0.24603273275973156
-0.11448063520613075 0.013684342171666197 0.36692052415837983
0.19543782562707124 -0.00808409969697263 -0.27027428972860307
-0.19450774763068554 -0.039941996960970755 -0.3333209380436202
-0.14048250537363988 -0.05593993169785806 0.03569694962104999
-0.12869671396662155 -0.05102120341489161 -0.365362798253987
0.04222576809005651 0.046647537468804484 0.15885672141622342
0.11865420039845906 -0.008270533220100296 0.37950602225787644
0.10020450329473188 0.1277168531969598 -0.013666314291607709
-0.1118173534598402 0.03153083845744517 0.08976020075131233
0.020582185369934367 0.0627971276098262 0.2853992829276786
0.11232192212056546 0.013227285471236 0.36931451303793045
0.10109942221461786 0.0683614366043774 -0.168418491371361
-0.03860884284598601 0.008621560259208627 0.41451922613195463
-0.10725552849637807 0.033819922846917816 0.09775631745426473
-0.13768353194996588 -0.0007738531112146674 -0.29554943024020985
0.040163026540589 0.11917911005067017 -0.14303673597038147
-0.00233070367125775 0.016276547325041635 0.4098661798727725
0.07889748914694315 -0.032329959921872625 0.4119247404461862
-0.14436891266004215 0.025953986534732437 0.16173893427224187
-0.10704286885073092 0.040953808260950575 0.17690067379836288
-0.15165901454299532 -0.059387526542974134 0.07996664443394463
0.07994102276110625 -0.01361971199224532 0.40991958233964193
0.10951610709971246 0.04502873955850742 -0.04429880548310111
0.0173033499219002 0.002491299142461517 -0.3065957590187983
0.018944002934296825 0.06230054168125068 0.29548436730261796
0.10260704417075622 0.0463592401654562 0.19698741307153111
0.04244526933288265 -0.026563443721808827 -0.3729554507677446
-0.14157031932510034 0.0013282276220320799 -0.2549485419145522
0.10863145057559498 0.13160326048336207 -0.04989694237481515
-0.13902733566254047 0.002379743099570647 -0.27636578179466914
0.013342255199627194 -0.0016201206733833518 -0.31749100252635054
-0.11032892598467627 0.04360701765583869 -0.07407305631736258
-0.1935966749396825 -0.09683633901277516 0.08454766387838118
0.0406518206501551 -0.013491432045139112 0.4172271683042747
0.05568090920875002 0.04824923138615403 0.35413091840970984
-0.13190922393089266 -0.07724694584564679 0.3968143128989077
0.10259773199681814 0.0918474994536766 -0.14585452378629774
-0.08490669113372101 0.0004981138309804733 -0.25061134939180046
-0.16817501022182552 -0.031103033494439214 0.340423968505956
-0.10209753435651281 0.08447795902570066 -0.15414064819189313
-0.14193292397558716 -0.07538147034817369 -0.13151985734137095
0.1811580820039425 0.019314026428150055 0.19083073578789844
-0.1179208183209696 -0.001026041985007109 -0.12435271416327365
-0.12604863576961767 -0.0072710898988685435 0.37291737413013654
-0.10279100624835055 -0.07590884346405469 0.4132696844249573
-0.012231825099828559 0.12490590697822257 0.06069633575747002
0.07174630969559687 -0.0847527480841044 -0.4114314530362256
0.10610918174893821 0.09793443045495676 -0.008390302600404742
-0.11694342014620349 -0.0012615069545842683 -0.14510688925012624
0.10971755412776071 0.04554946112157551 -0.03496990764080693
-0.13505293783464165 0.02159626922044372 0.33339023647284916
-0.14281720041097248 -0.06852067868820258 -0.00763601651142036
0.15109838453182403 -0.08248741924039217 0.06340541819598663
0.028471307094781895 0.008110340914444708 0.4175781802484305
0.194462517940332 -0.020450096553643105 -0.31107776534850545
-0.1916232542422741 -0.024708800753202448 -0.2246104294461217
-0.17237137986930956 -0.07110281149017558 0.34265470927504116
-0.029896448927265874 0.008196050923548248 0.41723629043384675
-0.03967176098548958 0.05040775529612748 0.17324193966252832
0.11503347513584115 0.02245698015443473 -0.0029998842008196747
0.028167426153414797 0.0016877915626615503 -0.3114856005581201
-0.19447125911239757 -0.02562310419842892 -0.31901021718881994
-0.14609926661323008 0.014253525048085525 0.1340264747656175
0.10903301432112887 0.1283993025155647 0.006637645691993668
0.04392875565452844 -0.0331885803678367 -0.38034095492247155
0.1067338575802538 0.12184562255118414 -0.09459556732195967
0.11653596589409525 0.004348032599094803 -0.0052669234438266765
0.20977477260439098 -0.09368160253579336 0.10883324337579256
-0.12670561914316741 0.003922143174702242 0.03287821158330335
0.13817745812619048 -0.026637751068947335 -0.3448564410205069
0.19055767635041967 -0.03160722119765805 -0.2178438997917279
0.09974744659430168 0.07862326223977423 0.05829436501454392
-0.01946453358422457 0.06249324666845907 0.2922695768059539
0.04890126649309646 -0.06254701412910803 -0.4097550716830053
0.015643122339797 0.1461194192978983 0.030770999652172365
-0.1905576754816454 -0.03160722119765805 -0.2178438997917279
-0.19485153788893017 -0.011828923930642915 -0.29086559679372226
-0.19446251707155773 -0.020450096553643105 -0.31107776534850545
0.0214084982736643 0.15771801700432464 0.004873273797276853
-0.060724305727092844 -0.04984292834517551 -0.3918433901796597
-0.09282260911418629 -0.01226830650502736 0.3975763908069015
0.13190922479966694 -0.07724694584564679 0.3968143128989077
-0.010493869371997313 0.04913768879759317 0.35063752287236766
-0.10584387894511174 0.05726493611314304 0.05346039651885059
-0.12263277833363749 -0.012670440383659498 -0.13391631679768065
-0.12030530498221602 -0.09114356002675165 -0.3951858904903318
0.19383290095549824 -0.013390898575481064 -0.24169218720278174
-0.10887489653977336 0.13127714435116322 -0.011796657818080772
-0.12188685419676078 -0.011523142545614984 -0.11468591743808351
0.15414536585323663 -0.1086685012451178 -0.1332690256868011
-0.07052470364163953 0.015249927659459928 -0.2187671353221603
0.11545461345108161 -0.0011839688532223058 -0.16586182451444312
0.1470502494898849 0.03300254202839378 0.2942486988343447
0.1681750110905998 -0.031103033494439214 0.340423968505956
0.04056078939880123 0.04913939919688795 0.16822248786553773
0.10622339841295422 0.08640101796609695 0.016185094555283566
-0.19169699145631441 -0.007693748569037651 0.25720829170725656
-0.037811796774632894 -0.06875519343594928 0.43127562793388013
-0.007922949187623218 0.05682783407115155 0.1227574139899795
0.1067690157879792 0.07012162752304041 0.03934010011886573
-0.06129044789365482 0.003981627061286297 -0.2807816526849794
-0.11407641083947169 0.023712603281146688 0.016006262806799232
0.037443681706303904 0.004376539254007272 -0.2976629136354216
0.10308443561835733 -0.02694315236524311 0.4027199415749444
-0.09103638211736989 0.05556137841557282 0.24448007028883148
0.03682299680667603 0.01562640554867084 -0.2337057627624996
0.11749131892239571 -0.0011790276997041271 -0.13470785158241733
0.1247230771849613 -0.0027335906142650634 0.0479420782608915
0.11064706112227385 0.04720246701776756 -0.006166213384132577
0.10015471167081808 0.12551233855039418 -0.004912870789813589
-0.005590534682683594 0.03274446177925275 0.38522597758824983
-0.13827000886369875 0.0012529700530631016 -0.2857093130531518
0.10606699189966771 0.09068670846564014 0.008165222306570769
0.10916927613161055 -0.0014929809924736637 -0.1943021539431663
0.1450384398305277 0.03260858005750322 0.17915041900405632
0.02093528780211703 -0.01491163359287917 0.421319013550413
-0.041512720759737935 -0.08098093755045031 -0.41995931387547886
-0.14689783303951187 -0.10186358262877517 0.004728840079053595
0.10675533259362122 0.10369714576769884 -0.029090695131655783
-0.17083297072586573 -0.02445699196814216 0.3343165127131389
0.10862745964390724 0.10210723460104648 -0.06740972075375196
0.19447125998117185 -0.03236568826269626 -0.3269884697213605
-0.14748545021944123 0.004326747630093469 0.11791774416330367
0.014406883738425512 0.14135994819370962 0.03866012137701989
-0.11661388321541513 0.02812106244117965 0.06971774181544149
0.14955256365810293 -0.09307479087488957 -0.38303540394479973
-0.19305523854071135 -0.04553918363085441 0.28714579065198353
0.11204312703552133 0.042745736588749444 -0.09426508016934093
0.13840950229717813 -0.04577749926592278 0.03599455909833635
-0.0033981828755473187 0.022358157084071434 0.40159373866153514
-0.12020743213368315 -0.009752879275549603 -0.17015872763158524
0.12188685506553502 -0.011523142545614984 -0.11468591743808351
-0.04392875478575419 -0.0331885803678367 -0.38034095492247155
-0.11130936486929968 0.04910880205394852 0.032754872789715325
0.13877362730259363 -0.053112261574905506 -0.3652706267364365
-0.1479618914452119 -0.0015849624656579242 0.11075763262675145
-0.014691379285677871 0.14262868438168136 0.036660284512725946
0.18650536033242668 -0.10066079183583433 -0.17697067788947296
0.1016083610269888 0.12756633805902184 -0.06472477394972789
-0.19521091178519354 -0.008439672705914364 -0.26030266184021533
-0.1654875928410424 0.0020682603835602276 0.31948944131569046
0.1474854510882155 0.004326747630093469 0.11791774416330367
0.12882309433884118 -0.03825098219156209 -0.16191802382948373
0.19363753534716469 -0.037058073705657585 0.27969225061419883
-0.09352976420038202 0.05415847090514633 0.23482657666926712
0.07555479879190502 0.041359552982538295 0.1176769579514762
0.15009361996834192 -0.10578077710248295 -0.07343032627126905
-0.10004030409366171 0.11330711922743014 0.022415128964224394
0.1335823753986638 -0.05820469040847204 -0.15725680566256006
-0.1823426276689651 -0.08826305757002798 -0.36493652874086224
-0.10583551699300409 0.01750328370810894 -0.16478807384607283
0.03141870516836689 -0.0043193208048636356 -0.32336432366015316
0.041853091088167274 0.04150854776554752 -0.20971304163322246
-0.023745092885883504 -0.06700469477995656 0.43360842252755194
0.11694342101497773 -0.0012615069545842683 -0.14510688925012624
0.037435699842928404 0.14018813463244034 -0.11214483421918447
-0.06285888404693982 0.0541160910115098 0.33625629555775055
-0.07662322734925076 0.058308659771672156 0.29491499438183255
-0.09051357006627489 -0.08726456447062662 -0.40547755309120365
-0.13877362643381935 -0.053112261574905506 -0.3652706267364365
-0.05091288523931333 -0.012339003009210342 0.41479954157192744
-0.18076202867625077 0.01182323769461302 0.170615716567624
-0.11276472462476517 0.020501993760536408 -0.049768472383342865
-0.10606699103089347 0.09068670846564014 0.008165222306570769
0.1496221198960894 -0.023327178211777266 0.09218383655197192
0.17083297159464 -0.02445699196814216 0.3343165127131389
0.14777241808100122 -0.103739890655115 -0.031737062929364915
-0.109807824332876 0.04401941393023931 -0.06454822273363658
-0.1451575967792876 -0.00481856735456429 0.35278464412037613
-0.026896978697374067 0.06230035163688458 0.24723400319774375
-0.15064892873726288 0.038046319504243004 0.27779788837308106
-0.19091495888988186 -0.0294188603222095 0.13614870020166903
0.1516590154117696 -0.059387526542974134 0.07996664443394463
0.13861437012381586 -0.06625534984449033 -0.3729611520987271
0.059284720522786535 0.05147751503281006 0.34543980945999103
-0.11115770946516526 -0.0900295199527717 -0.39847517837850055
0.06970941417991668 -0.050982054275478444 0.4180282053073156
-0.09834871919115477 0.05050524805592818 0.2152261609289059
-0.041414467822472906 0.0478811154490508 0.16341512558109605
-0.11631076245151237 0.02608815785718724 0.04833946103037155
0.10543870522539654 0.012027155299420333 0.37615725048312365
-0.16685230143388616 0.005239340676025189 0.3085702522180117
-0.08585577269794072 0.015579084501516127 -0.20543514295268872
-0.10902332118968439 0.09912125752114653 -0.07721639013237938
0.10052415791848389 0.13004641703640818 -0.03435112318483989
0.08000905864416404 0.05833735647095073 0.2837417159667005
-0.03285638992901236 0.06130014813818846 0.11597796131869202
0.011084908219290448 0.047847287551887996 0.1272696373738939
-0.034383396410491214 0.1610536757178177 -0.05856144511328229
0.14195763061195227 -0.07017919587101103 -0.05013487792115137
0.09968644235278896 0.07014462289133647 0.06507286746400098
0.151484174594973 0.039258422471121934 0.2733071400025341
0.15188497816304256 -0.10710728677774396 -0.10085448847454515
0.138712813105447 -0.04235137943417411 -0.35810785457875915
-0.19383290008672396 -0.013390898575481064 -0.24169218720278174
-0.08423792500947408 0.039398105080193146 0.1145165201435119
0.037255917872613654 0.15545572887046977 -0.0816525957698605
-0.06981146713572912 0.057218375243452635 0.3163596006506656
0.10678136867177464 0.06858967988804338 -0.11886613331445048
0.14281720127974676 -0.06852067868820258 -0.00763601651142036
-0.03702368278848569 0.027312423663495428 0.394897335378226
0.14436891352881642 0.025953986534732437 0.16173893427224187
0.12197256507463855 -0.012265455839536116 -0.12455150057019673
0.007766353498744881 0.05545400334873579 0.12357479480850353
0.19464134968881636 -0.010240723163285281 -0.2507413397382014
0.1580420355354074 -0.039713753677304786 0.3543363563694458
0.10517492364527299 0.1134213358914462 -0.11338677415153844
-0.09968891206077381 0.04981652727324254 -0.18009842806647097
-0.1378273955350909 -0.09116845583870857 -0.3857638709086568
-0.018017345736500684 -0.07823593672674396 -0.4259578742465303
0.1552331798046971 0.043574520069238454 0.239250809511685
0.07805236185097099 -0.041585120550126475 0.4133593853657486
-0.03141870429959264 -0.0043193208048636356 -0.32336432366015316
-0.15483484594461236 0.03508238757080878 0.17309351501261733
-0.10210342573186139 0.1256643740432608 -0.07485128799647345
0.053838429079572994 0.004535036255320701 -0.28717246462762663
-0.04491223438023497 0.042257322567915506 0.14385537933507667
-0.11371817720940479 -0.07676404311142926 0.4082912822110407
-0.15546294257451745 -0.10954441572839546 -0.1514895292850319
-0.14797348415154302 0.03423650009737228 0.2902754412726424
-0.16259397732305897 -0.09785288632695442 0.04834934333740788
0.10664073584087302 0.07613235073352115 0.03180123016070962
-0.13187710643302458 -0.014464839288217485 0.03482388580326358
0.03302895108219019 0.05832690403081617 0.21120539227568275
0.174625116875465 -0.0819267883604466 0.093398600139976
0.036860055458062264 0.05412540318544787 0.18920243565929723
-0.07882812208454852 0.015367185033333314 -0.2123871559083798
-0.14736743266810357 -0.1012904088206681 0.014549762785137269
-0.10448943274803649 0.10906532897645221 -0.12130630297495928
0.029357483973828053 0.0471984760860798 0.12569530984526034
0.1467053189654438 -0.049146415743480415 -0.18977377678813484
0.106021951384906 0.09453244625770063 -3.9183021608865665e-05
-0.10259773112804389 0.0918474994536766 -0.14585452378629774
-0.04911468544743369 0.045994545026942474 0.12336897676003537
0.1072150499151766 0.10479959313534776 -0.038944685557437936
-0.039611897010173355 0.026413323767555646 -0.22086769570047837
-0.16359342064429072 -0.03631899116595985 0.3473294205919567
-0.1186397561578625 0.00013398882556497904 -0.08425335291970965
0.0953777564849497 0.047737631952657955 0.08637741103503063
0.19359667580845677 -0.09683633901277516 0.08454766387838118
0.15748235487729226 -0.09862579676381499 0.04104080715094466
0.13782739640386518 -0.09116845583870857 -0.3857638709086568
-0.14496166103785577 -0.011092882100802504 -0.22669027498853672
-0.1558266874912008 0.04117673030236618 0.2059689098126251
-0.15804203466663314 -0.039713753677304786 0.3543363563694458
-0.1683317968238442 -0.09743326836664264 0.05533898507758343
-0.1946681450756598 -0.051704222866594776 -0.34038298668727346
-0.10157738292654298 0.07587674106113923 -0.1623581665813325
0.1458888883687502 -0.07612245333153225 0.3831478424451296
0.07349984906144694 0.05798140337327681 0.30492083025611527
-0.11859110480014518 -0.00022272444957327497 -0.09399198641527931
0.12303662348033863 -0.04144999900584129 0.3907294723856545
-0.18213300873317528 0.020770336405445927 0.20120430751055218
0.14351029308285235 -0.06823029089682739 0.012293175982264856
0.20298600775916542 -0.06829775664678693 0.1201344216492986
0.017027595546713414 0.016226185568029572 -0.2379275983550388
-0.13849350103821267 -0.03363803529362355 -0.3513455059004192
0.07272997933444371 0.009478660350244056 0.3987286297984642
-0.05138875633198576 -0.08217802701240866 -0.41729584208482223
0.16833179769261847 -0.09743326836664264 0.05533898507758343
0.0885340688179261 0.05664159059238996 0.2538397553184311
-0.004461861192515222 0.027668756849901527 0.39357272614662586
-0.037051999399032094 -0.010904548134014036 -0.34991770257803584
-0.1704502213725741 -0.009266175654010417 0.3229672532150138
-0.1945448062820718 -0.015532888625605284 -0.30107611045027655
-0.14135689950198885 -0.062337205148952135 0.05104056160551267
0.13802485250022564 -0.04308229006613026 0.377648908712511
0.11781040341304946 0.0025542038276350487 -0.03473121191700637
0.029412026706893947 0.06108957898056827 0.232333194586255
0.12030530585099027 -0.09114356002675165 -0.3951858904903318
0.15428808917216516 0.04292247784920686 0.2523032466186481
-0.14556296141214317 -0.02449081986530499 -0.21119006644642146
0.11626762324918571 -0.0012658779750041593 -0.1555063070065673
0.04460892444074036 0.03663790070720013 0.3791380963651393
-0.18780602310512615 -0.07960957740479364 0.10888360513280461
-0.14174972120668292 -0.0711955531408242 -0.06995384468250831
0.032265732907999896 0.16252480915566808 -0.04678496588020206
-0.14016475119354868 -0.05303168276368622 0.04974825991614663
-0.030289460676326013 0.06053103858864961 0.2271746303132915
0.09965489498801915 0.0624309121163838 0.07099274946749397
-0.1181032609124095 0.0020148579166908154 -0.0443316831584335
-0.001106437864949507 0.0063765661626672965 0.4218904769592253
0.030052856309326633 0.1630766979947738 -0.03571051053543334
-0.10274805622161576 -0.0013500676291790525 -0.21351582939854818
-0.11626762238041147 -0.0012658779750041593 -0.1555063070065673
-0.02025359779220219 0.047526682706305556 0.12653777652010734
0.09438743529328994 -0.0007373645929266981 -0.2327498396011009
-0.1806584544967354 0.016319497351776402 0.1805850639236187
0.18780602397390042 -0.07960957740479364 0.10888360513280461
-0.10906228028473144 0.08984158116966795 -0.09571511868255606
0.0604304980059024 -0.04986573366910549 0.4210858291132289
0.13849350190698695 -0.03363803529362355 -0.3513455059004192
0.11139621601337399 -0.009338392513122018 0.3854840578373909
-0.04187893625318035 0.10602119832053081 -0.15790713748329688
-0.11314804411115507 0.04226758496368399 -0.10419679874085114
-0.10622339754417998 0.08640101796609695 0.016185094555283566
-0.15748235400851798 -0.09862579676381499 0.04104080715094466
0.19466814594443407 -0.051704222866594776 -0.34038298668727346
-0.10863144970682073 0.13160326048336207 -0.04989694237481515
0.13419982954406826 -0.02501515227132864 0.03545236252190086
-0.14950524174217392 -0.1004863311077699 0.025032039885190628
-0.15161758487118915 -0.041625790044468314 0.36212988577815347
0.1916969923250887 -0.007693748569037651 0.25720829170725656
-0.13878882998310602 0.024311623123041054 0.32353472569213837
-0.19460448021302193 -0.07816790084368617 -0.3546171196625422
0.13122639539232986 -0.04830261875807082 -0.15935432533102079
-0.04185309021939303 0.04150854776554752 -0.20971304163322246
-0.11204312616674708 0.042745736588749444 -0.09426508016934093
0.15564880683332116 0.03961038463710814 0.19585075771798727
0.14417050721062555 0.0294973637403545 0.30574885355913994
-0.19169091003659974 -0.05246554059712423 0.2947933659875393
-0.17136604517272921 -0.017168220395751582 0.3289935600635134
0.13540490086940207 -0.03241300930985097 0.048647903036524665
0.09355865181280092 0.037311798029331295 0.11010064925320169
0.039852684090775074 0.04671994437228219 0.12457233768607447
0.1472269907503423 -0.05812468173035101 -0.18298026083375724
0.04411366882272743 0.07549380166348146 -0.1843337568090021
-0.010390675281214113 0.08959148278390244 0.09819113896386318
-0.15775715816187438 -0.09287410402430567 -0.3790178660458
-0.03781464744012414 0.05291558075096192 0.18376887718861123
-0.13729945228611165 -0.0037324638023985834 -0.3056569398503471
-0.19283611738661738 -0.017525693848354174 0.2648743013463224
0.16741046260584688 -0.07247626212385917 0.351708993008345
0.08604410753350346 0.0574306548003676 0.2628680029735816
0.04561882020210671 0.0046834609052316956 -0.29298345120935393
-0.10815253790429097 0.10405480926466754 -0.057266862891523274
0.01071508188289246 0.09545226098954351 0.09278038581710721
0.11556236860665081 -0.03849252858085389 0.39604444317190446
0.11742290295060574 0.0031722281061377644 -0.02428466315777668
0.07030254264646248 -0.008576504649494332 0.41094088076297325
0.16737511435375543 -0.09493665552940708 -0.17155346323427012
0.11099047129178627 0.04827355706501271 0.013897720565105673
-0.10675533172484697 0.10369714576769884 -0.029090695131655783
-0.04101442443186768 0.03243525959563531 0.3868225403077152
0.14556296228091745 -0.02449081986530499 -0.21119006644642146
-0.18963558021740948 -0.05789624840231895 0.30257359229062114
0.13765692660748852 -0.01861730868713629 -0.33535707338183607
-0.1486369290335396 -0.08391750309516857 -0.1670087422637555
-0.033975181112144405 0.0574013879679908 0.205738005907834
0.10126095992578862 -0.08872505542397634 -0.40188647474969474
-0.14837485785271082 -0.008071176680078979 0.1041535909053588
-0.10921545604379454 0.018514889868770007 -0.14428893829850395
0.02788540031414726 0.16291192952937966 -0.02535404280572706
-0.11099047042301202 0.04827355706501271 0.013897720565105673
-0.03586897322016391 0.1589261290395158 -0.0688574787345741
-0.11865419952968481 -0.008270533220100296 0.37950602225787644
-0.1865053594636524 -0.10066079183583433 -0.17697067788947296
0.061835496004355804 -0.07160870959268917 0.42624838431788015
0.10080390322535843 0.1298757571956654 -0.044294624507047256
-0.03895244305986451 -0.015200120940593559 -0.3576262821551043
-0.11435919685620356 0.04173812135977609 -0.11352816715990441
0.09282260998296053 -0.01226830650502736 0.3975763908069015
0.13759288165611844 0.023373564132054214 0.3268872983542128
0.19022908964146173 0.0013694672494721227 0.24916960506630154
-0.10858393861529993 -0.03377885816889126 0.4006332544353504
-0.13254644269036978 -0.006492098042293337 0.36671736673103683
0.08171489687412722 -0.07380714281954011 0.4207690251549681
-0.10610918088016397 0.09793443045495676 -0.008390302600404742
0.023669836185688797 0.16045446583155726 -0.005255330737495595
-0.05044176525579297 -0.07027934925193689 0.4288208248571829
0.07219310400025857 -0.0727740616455116 0.4235630574251239
0.11589095531560872 0.04101443241373112 -0.12341522530538504
0.0480411256922037 -0.048981077144988006 0.42312747573806114
-0.079941021892332 -0.01361971199224532 0.40991958233964193
-0.0435703311113212 0.058967163500150604 -0.19681244997475988
0.11545385327361728 0.02524474096050977 0.037724152874059926
0.0747689653381508 0.0021661332320930815 -0.265765107054546
0.11702590026985786 0.003733429119181564 -0.015149800613253495
-0.012770220788942382 0.1305203876854198 0.053726268587001046
-0.048041124823429454 -0.048981077144988006 0.42312747573806114
-0.1895029292498834 -0.04004272047499488 -0.2109395879719237
-0.042445268464108406 -0.026563443721808827 -0.3729554507677446
-0.18703349275699774 -0.06205841006390801 0.31037149271974873
0.14773250876412372 -0.06683460507231205 -0.17687964663811906
0.19091495975865613 -0.0294188603222095 0.13614870020166903
0.19454480715084607 -0.015532888625605284 -0.30107611045027655
0.09103638298614414 0.05556137841557282 0.24448007028883148
-0.009181232935460361 0.045176974164052364 0.3597701048844979
-0.11449507857795309 -0.0010081778145953069 -0.17612935148082243
-0.15188497729426828 -0.10710728677774396 -0.10085448847454515
-0.09988237722544654 0.09374813315887509 0.04513151213088644
-0.01948049731097556 0.15474800365117575 0.012956050731163196
0.04546507430994536 0.008839541147106111 0.41177726601810566
0.09352976506915626 0.05415847090514633 0.23482657666926712
0.18736854184317678 -0.09727059038927538 0.07661844279229009
0.11859338620131242 0.014687206291487453 0.3619571354493838
-0.151783873691512 -0.07525699128838916 0.3757178679087392
0.14105035880827085 0.0262871343084764 0.3166258528075482
-0.08972013483787736 -0.0002025797467684609 -0.24201488253639108
0.19425099856088138 -0.07829066950417596 0.11499809256716684
-0.02732666900908828 0.015888666773865745 -0.2360235438512508
-0.13765692573871424 -0.01861730868713629 -0.33535707338183607
0.14024229016368492 0.0025445115649648242 -0.265023173849357
0.08423792587824833 0.039398105080193146 0.1145165201435119
-0.030195198670748727 -0.014365256040389851 0.4196711388521052
-0.10348181751906314 0.01705629935908115 -0.17344611507609314
-0.14906338859103038 -0.09375628997166408 -0.16408129884860925
0.10381211549609005 0.10405689975269444 -0.12938812968701524
0.11003169746489631 0.04608424596773375 -0.02572139856536597
-0.035897479875076396 0.05528619417348429 0.19469965899262107
0.15532155043492582 0.03759021302564325 0.18490952347384287
0.16259397819183324 -0.09785288632695442 0.04834934333740788
-0.10120831676760932 0.1288989291539976 -0.05545326950599089
-0.10612286407452194 -0.0014711258903740976 -0.20430304866393084
0.15187205514614888 -0.07056365562359743 0.0781412682977151
-0.1168105791343113 0.0216893909598245 -0.011904983106748215
0.11032892685345051 0.04360701765583869 -0.07407305631736258
0.17237138073808383 -0.07110281149017558 0.34265470927504116
0.15301270143138052 0.04139414105716541 0.26351700448375587
-0.09598361705524884 0.052443130456878984 0.22499083050262894
0.10847238344118332 0.08429608656735899 -0.10323137336114827
-0.03858128641290394 -0.04874010088879446 0.4237346674876971
-0.027305193995720872 0.003568280565055232 -0.30247445689591707
0.04820361362520487 0.04055300469288098 0.3711644048973847
0.15722883569293725 -0.07437556551849507 0.3680353244098241
0.1267056200119417 0.003922143174702242 0.03287821158330335
0.011667584245701666 0.11701013370056212 0.0699853242828867
0.14385199285307002 -0.06837890559110447 0.021506526849980417
0.11853048151613887 0.0009336955180432593 -0.06561190105060447
-0.011452263110155101 0.11303782636069021 0.07447892331892496
-0.11589095444683448 0.04101443241373112 -0.12341522530538504
-0.030435604793844027 -0.07967096173503851 -0.42283886611037214
-0.011928894380291872 0.05304043989947865 0.34077859129306737
-0.11108853331591097 0.043187399695526874 -0.08410112738247699
0.023895988981327852 0.06182524072167647 0.11837613117429645
0.15110579626210127 -0.04068583060982059 0.08402257129489318
-0.0288358113201553 0.15495876285316207 0.009007308892685612
0.06285888491571406 0.0541160910115098 0.33625629555775055
-0.10270396592868444 0.12314324548280048 -0.08590673890463388
0.11449507944672734 -0.0010081778145953069 -0.17612935148082243
0.12263277920241174 -0.012670440383659498 -0.13391631679768065
-0.10847238257240907 0.08429608656735899 -0.10323137336114827
-0.011117404937116429 0.10518766373088972 0.08299994256099925
0.14736743353687784 -0.1012904088206681 0.014549762785137269
0.11115771033393951 -0.0900295199527717 -0.39847517837850055
-0.1354049000006278 -0.03241300930985097 0.048647903036524665
-0.18347187129223172 0.020580482083728785 0.211537019694498
0.040998081485158766 0.11283409880024897 -0.1505689543757247
-0.14165260853561437 -0.07241183708375695 -0.09073880695666636
0.007547992522115236 0.03999522447842668 0.3712092553677803
0.14873480275084675 -0.10466597685103864 -0.050542713130766
-0.10381211462731581 0.10405689975269444 -0.12938812968701524
0.021995925409227603 -0.0028966486803644886 -0.3203329259767593
0.11337970906218478 -0.0007309030844798448 -0.18626498765714
0.03118533068681667 0.05988735832072567 0.22192997594249225
0.049865171517870656 -0.06915048571740244 -0.4161633677073322
-0.017613881547305962 0.1512004454694999 0.02097041169325959
-0.02199592454045335 -0.0028966486803644886 -0.3203329259767593
0.03586897408893816 0.1589261290395158 -0.0688574787345741
0.10893951249301591 0.1300971588821524 -0.0028185818755762787
-0.15009361909956764 -0.10578077710248295 -0.07343032627126905
-0.015996603991937575 0.1471960206317599 0.02882437521038172
-0.04890126562432221 -0.06254701412910803 -0.4097550716830053
-0.06671203356927755 0.043235861008878135 0.12015114555351393
0.044338111219071746 0.04324384287225361 0.14704679437471255
0.04614866389474678 0.039949423786200644 0.1370350671250813
0.03438339727926546 0.1610536757178177 -0.05856144511328229
-0.08604410666472921 0.0574306548003676 0.2628680029735816
-0.17740755557051546 -0.0951780118743328 -0.1736998243048143
0.14259218875030422 -0.07151900865189789 0.053189013164083726
0.11130936573807393 0.04910880205394852 0.032754872789715325
-0.05383842821079875 0.004535036255320701 -0.28717246462762663
-0.005891945047291616 0.016643713040314423 -0.23939493090556752
0.14906338945980466 -0.09375628997166408 -0.16408129884860925
-0.08171489600535298 -0.07380714281954011 0.4207690251549681
-0.19962032116705694 -0.09609193523082711 0.09290581509872214
-0.06970941331114243 -0.050982054275478444 0.4180282053073156
-0.1425653916259122 -0.0688063153704257 -0.017043212632540827
-0.13821128515457903 -0.04276548610786948 0.0490068968440559
0.009101985303577904 0.07166269728760938 0.11268145174461211
0.027714930517770592 0.061969864484265835 0.24236867738164664
-0.14429612566783226 0.029184360669415405 0.1703561159635543
-0.19447125911239757 -0.03236568826269626 -0.3269884697213605
-0.0657996305677119 -0.05960797800763071 -0.395517327864781
0.13201888039889698 -0.02213921087939094 0.04840673673596503
0.1713660460415035 -0.017168220395751582 0.3289935600635134
0.10902332205845863 0.09912125752114653 -0.07721639013237938
0.043570331980095446 0.058967163500150604 -0.19681244997475988
0.006245238392614615 0.035370684874157066 0.38047866932349045
-0.09653816651547974 0.016223714991270483 -0.19012307833299585
0.1881644476483334 -0.055728602362773494 -0.20010420843968774
0.026307461942558105 -0.04874314159865176 0.42387568040733087
0.008460205479314796 0.0013977838600185422 -0.3099335082203183
0.1495052426109482 -0.1004863311077699 0.025032039885190628
-0.03292651630009708 0.021676087854198667 0.40281021264883393
-0.039391065456784634 0.12499123689859393 -0.13551173925094945
-0.11036921539028591 0.046635184585009065 -0.01621537937388222
0.1415703201938746 0.0013282276220320799 -0.2549485419145522
-0.15059685658095606 -0.003689703820029838 0.34547572784518077
-0.010383073506570783 0.0069185726947366966 0.4205162661480774
0.13768353281874016 -0.0007738531112146674 -0.29554943024020985
-0.10517492277649874 0.1134213358914462 -0.11338677415153844
0.011042148236921718 0.10323799857924176 0.08503303718935779
0.12927977095053922 0.018440202432899316 0.3455946956183489
0.12317364546828465 -0.018441327604143215 -0.16756082114722734
-0.12883734679752315 -0.07292343651725304 -0.384088439777267
0.1823426285377394 -0.08826305757002798 -0.36493652874086224
0.15178387456028627 -0.07525699128838916 0.3757178679087392
-0.18812453746268162 -0.019890986028626212 0.14122440513102025
-0.021181774476152743 0.06290830356398486 0.2817283859524147
-0.1421275294064564 -0.07622450715611895 -0.14087840210477412
0.08490669200249526 0.0004981138309804733 -0.25061134939180046
0.11792081918974384 -0.001026041985007109 -0.12435271416327365
-0.09058464665919003 -0.07473417923729417 0.41786761781797527
-0.1381774572574162 -0.026637751068947335 -0.3448564410205069
0.19829476258240059 -0.05347106533807067 0.12562784409530078
-0.0579487077604471 0.04482406177623577 0.12196568916087672
-0.12865243362932416 -0.012917117970835557 0.04819597753397871
0.1382112860233533 -0.04276548610786948 0.0490068968440559
-0.14024228929491064 0.0025445115649648242 -0.265023173849357
-0.07219310313148432 -0.0727740616455116 0.4235630574251239
0.18940904820181254 -0.08375976627131948 -0.3595609338018317
-0.03985268322200083 0.04671994437228219 0.12457233768607447
0.15059685744973034 -0.003689703820029838 0.34547572784518077
-0.10308443474958308 -0.02694315236524311 0.4027199415749444
-0.10752615167368061 0.07664109950152603 -0.11163000403146495
-0.12340929961345362 -0.07723193234072621 0.40283719894881775
0.04911468631620794 0.045994545026942474 0.12336897676003537
-0.09999450340143565 0.10716203465012852 0.030852528685222078
-0.0665571474109197 0.056087611265257326 0.32599408983362155
-0.10903301345235462 0.1283993025155647 0.006637645691993668
0.08585577356671496 0.015579084501516127 -0.20543514295268872
-0.11545461258230737 -0.0011839688532223058 -0.16586182451444312
0.15147239184427583 -0.050132365914720284 0.08163789458928067
0.10887489740854761 0.13127714435116322 -0.011796657818080772
0.046550227640280675 -0.04749626051277964 -0.3950011673664989
-0.14722698988156802 -0.05812468173035101 -0.18298026083375724
-0.05647700418949847 0.009072345495558104 0.4068729811069615
-0.017972305221738955 0.06183151218575722 0.30151751574829655
0.04072631804165973 -0.02028760862064191 -0.365125432840749
0.07882812295332277 0.015367185033333314 -0.2123871559083798
0.10643415761494054 0.08158168288659207 0.02405236117803153
-0.1358917936665331 -0.06735627685721056 -0.1559301059429329
0.09051357093504914 -0.08726456447062662 -0.40547755309120365
0.18132304051370277 -0.09739373913849732 0.06961492781339046
-0.10592749846618837 0.04873878567318449 -0.13349004728455593
0.1186163815696085 0.000522059421106974 -0.07477869104862964
-0.10721504904640235 0.10479959313534776 -0.038944685557437936
0.1301610066760672 -0.04285974811344678 0.38507717284960663
-0.04411366795395318 0.07549380166348146 -0.1843337568090021
0.034933575719076446 0.056383130254516745 0.20022386862592872
0.11435919772497781 0.04173812135977609 -0.11352816715990441
-0.1320188795301227 -0.02213921087939094 0.04840673673596503
-0.07993741104937642 0.0013107435403524048 -0.25851339413354163
-0.13016100580729292 -0.04285974811344678 0.38507717284960663
0.06579963143648615 -0.05960797800763071 -0.395517327864781
0.16834871164119988 -0.08275500170783738 0.08509537174143308
0.17739064249070835 -0.0691960963652624 0.33272052012677183
0.187033493625772 -0.06205841006390801 0.31037149271974873
-0.11683870570049162 0.016715549810693925 0.047339257531675456
0.11683870656926587 0.016715549810693925 0.047339257531675456
-0.15147239097550155 -0.050132365914720284 0.08163789458928067
-0.008041536872059161 -0.06499687605228711 0.4358152177065105
-0.013476045564575542 0.056523573041052266 0.3303641600317057
-0.14503843896175342 0.03260858005750322 0.17915041900405632
-0.11025138788331429 0.019012996152274197 -0.13268121846250563
-0.04275276024843109 0.09872311457420219 -0.16499104122904973
-0.12880446912219076 -0.09203258757128907 -0.3919608375978992
-0.11702589940108361 0.003733429119181564 -0.015149800613253495
-0.014798184219416654 0.058787761618568024 0.32167362121508514
0.10317185602675562 0.0983373245110532 -0.13758607350674804
-0.11096329407866211 0.019408098389361278 -0.12136939770449892
0.03292651716887133 0.021676087854198667 0.40281021264883393
0.19485153875770445 -0.011828923930642915 -0.29086559679372226
-0.13714969732563806 -0.007653839252160177 -0.31580283842243306
0.04963578796800819 0.015363574190377732 -0.22950331169530086
0.10120584705962447 0.03570801362395484 0.10468628526349014
0.10120831763638356 0.1288989291539976 -0.05545326950599089
0.09969005319574455 0.05414687819881528 0.07712015991874985
0.11210888238618615 0.02005348905657997 -0.08936649658917928
0.051388757200760006 -0.08217802701240866 -0.41729584208482223
-0.17739064162193408 -0.0691960963652624 0.33272052012677183
-0.09968644148401472 0.07014462289133647 0.06507286746400098
-0.10780076578267088 0.012399072123845223 0.37393183095628885
0.10752615254245486 0.07664109950152603 -0.11163000403146495
-0.14773250789534945 -0.06683460507231205 -0.17687964663811906
-0.13640795416481516 -0.035752848999397874 0.035860387775881575
0.10157738379531722 0.07587674106113923 -0.1623581665813325
-0.09262116208613805 0.010568184700999267 0.3864874920903104
-0.18940904733303826 -0.08375976627131948 -0.3595609338018317
-0.129531008733727 -0.005002720345298944 0.034027979998106965
-0.1873685409744025 -0.09727059038927538 0.07661844279229009
0.1428578707740886 -0.0010773539638495866 -0.24593625798615265
0.1453537234338598 -0.01798351072624868 -0.21803660477893633
0.10617683754326385 0.057796300160711744 -0.12719748827917368
-0.040651819781380855 -0.013491432045139112 0.4172271683042747
0.14863692990231386 -0.08391750309516857 -0.1670087422637555
0.05215311564114681 0.04472599888333684 0.3622756498069393
-0.024109027846932914 0.16087370370313686 -0.0073205428637221764
-0.10080390235658418 0.1298757571956654 -0.044294624507047256
-0.116535965025321 0.004348032599094803 -0.0052669234438266765
0.15780429003343727 -0.094947868147006 -0.16847854539104332
-0.02630746107378385 -0.04874314159865176 0.42387568040733087
0.14165260940438865 -0.07241183708375695 -0.09073880695666636
-0.1536867879291035 0.04225105110383476 0.2581140431560093
-0.1936375344783904 -0.037058073705657585 0.27969225061419883
0.10210342660063564 0.1256643740432608 -0.07485128799647345
-0.10031130735969643 0.12930486391995133 -0.023365608603398105
0.11112103177128545 0.048755699621765874 0.023754371612013
0.09172111283714206 0.01587004242598955 -0.1979882544677169
0.10048728931146375 0.05973456265039473 -0.17434540501639906
-0.18242130603652354 -0.06641764773312542 0.3218494122537121
0.11314804497992932 0.04226758496368399 -0.10419679874085114
0.10592749933496262 0.04873878567318449 -0.13349004728455593
-0.09878316061202107 -0.0011127022159410915 -0.22312409245898468
-0.15586431627568528 0.04232288787421423 0.21531624195842938
0.1935236987718808 -0.027517086350814512 0.2723187192545351
0.13890019685040506 -0.0057446535504879215 0.3601211168286536
0.14796189231398618 -0.0015849624656579242 0.11075763262675145
0.07052470451041377 0.015249927659459928 -0.2187671353221603
0.12880446999096504 -0.09203258757128907 -0.3919608375978992
0.08169133137273289 -0.08606975554106128 -0.40834152168807814
-0.10769757169188769 0.10485584626770839 -0.04835112150109405
0.1664294535881252 -0.09216371818388651 -0.3744592718365613
-0.1468904213092346 -0.10236168891227934 -0.004555397337211012
-0.0788974882781689 -0.032329959921872625 0.4119247404461862
0.10612286494329619 -0.0014711258903740976 -0.20430304866393084
0.10270396679745869 0.12314324548280048 -0.08590673890463388
0.11859110566891942 -0.00022272444957327497 -0.09399198641527931
0.01900044611102355 0.15391028808548085 0.014970140922913405
-0.20841310385263026 -0.08519308088031928 0.11445380550270443
-0.14553255431356985 -0.04254731517560595 0.36934929115692366
0.008041537740833415 -0.06499687605228711 0.4358152177065105
-0.05928471965401229 0.05147751503281006 0.34543980945999103
0.009702145411668781 0.07971202641306513 0.10652515454971158
-0.007995356091100933 0.04145286476628515 0.368064781286567
0.06432944822046618 0.009239014404613083 0.4030929986655658
-0.12599447312528392 0.017061050468233224 0.3513019179761947
-0.04084452476858926 0.03419012927204798 -0.21511315229547778
0.05044176612456722 -0.07027934925193689 0.4288208248571829
-0.028167425284640543 0.0016877915626615503 -0.3114856005581201
0.1618457735225635 -0.08327268256104814 0.07656142948246511
0.15582668835997507 0.04117673030236618 0.2059689098126251
-0.11861638070083426 0.000522059421106974 -0.07477869104862964
-0.1174229020818315 0.0031722281061377644 -0.02428466315777668
0.146847282106908 0.009549546898793115 0.1255970569079953
-0.029285076201576086 0.01631493628699046 0.40949103229412426
-0.16239937189218973 -0.0735045921887356 0.3600975513272593
-0.04277822619348624 0.06056619679637498 0.11358967377012393
0.19450774849945981 -0.039941996960970755 -0.3333209380436202
0.014457625584169739 0.0582697006766251 0.32389295932220524
0.150486441673036 -0.03226819550289556 0.08727784124153304
0.10042058373896853 0.016624518559340024 -0.1819167725611554
0.01163261608234235 0.052281972834440416 0.3428002832594609
-0.13871281223667273 -0.04235137943417411 -0.35810785457875915
-0.1518720542773746 -0.07056365562359743 0.0781412682977151
0.0897201357066516 -0.0002025797467684609 -0.24201488253639108
0.13589179453530736 -0.06735627685721056 -0.1559301059429329
0.14716959735178517 -0.10297933310204987 -0.016559359676492885
0.11276472549353941 0.020501993760536408 -0.049768472383342865
-0.07805236098219674 -0.041585120550126475 0.4133593853657486
0.09598361792402309 0.052443130456878984 0.22499083050262894
-0.06824208076061371 0.0031522734476990277 -0.273671332772341
0.09058464752796427 -0.07473417923729417 0.41786761781797527
-0.08853406794915185 0.05664159059238996 0.2538397553184311
-0.14209218115436492 -0.06975083586985939 -0.04087572636120976
0.08986399929177662 0.010352484345494795 0.38839971850184
-0.1219725642058643 -0.012265455839536116 -0.12455150057019673
0.09878316148079531 -0.0011127022159410915 -0.22312409245898468
0.14496166190663004 -0.011092882100802504 -0.22669027498853672
-0.1121088815174119 0.02005348905657997 -0.08936649658917928
0.10916566528865497 0.1261212406993249 0.016583047457861877
0.19525177219267573 -0.009264085165983482 -0.2805262330569635
-0.16073743391079176 -0.00028638931221114383 0.32884874625655797
-0.03704515780185309 0.14449511010098487 -0.10327451343224917
-0.14212315838603648 0.02732439645855872 0.31306898245193426
0.026100313583527372 0.06256375312827597 0.25198986345897684
-0.05568090833997577 0.04824923138615403 0.35413091840970984
0.03019519953952298 -0.014365256040389851 0.4196711388521052
0.10004030496243596 0.11330711922743014 0.022415128964224394
-0.042988225218008234 0.04545367876106954 0.15458452406667217
0.13933406813817312 -0.07683264912758532 0.39021673268596185
0.060839853570445704 -0.010692078532732963 0.41268453782178705
0.19305523940948563 -0.04553918363085441 0.28714579065198353
0.18667602017316945 -0.09089631230647736 -0.18078980947028178
-0.07174630882682262 -0.0847527480841044 -0.4114314530362256
-0.144176777805932 -0.005463387888684751 -0.2358492731675525
-0.14885205925594583 -0.014958574551301757 0.09819722038357785
0.11810326178118374 0.0020148579166908154 -0.0443316831584335
0.06671203443805179 0.043235861008878135 0.12015114555351393
0.12883734766629742 -0.07292343651725304 -0.384088439777267
-0.1928256649464828 -0.018089175393790985 -0.2330548608086645
0.10274805709039 -0.0013500676291790525 -0.21351582939854818
-0.12472307631618705 -0.0027335906142650634 0.0479420782608915
-0.09438743442451569 -0.0007373645929266981 -0.2327498396011009
-0.01334225433085294 -0.0016201206733833518 -0.31749100252635054
0.03285639079778661 0.06130014813818846 0.11597796131869202
-0.03744368083752966 0.004376539254007272 -0.2976629136354216
0.09834872005992902 0.05050524805592818 0.2152261609289059
0.011359522328280733 0.11106497579638008 0.07666766428310565
-0.14962211902731512 -0.023327178211777266 0.09218383655197192
-0.11185289175629777 0.019905824584133286 -0.09974995061886935
-0.15227532842220326 0.04038538556199556 0.2685640127138285
-0.09974744572552743 0.07862326223977423 0.05829436501454392
-0.1288230934700669 -0.03825098219156209 -0.16191802382948373
0.10348181838783739 0.01705629935908115 -0.17344611507609314
0.14689783390828615 -0.10186358262877517 0.004728840079053595
0.04084452563736351 0.03419012927204798 -0.21511315229547778
-0.10602195051613175 0.09453244625770063 -3.9183021608865665e-05
-0.14165659946730214 -0.07308991538194196 -0.10120550041870091
-0.10518518517226723 0.04340405027286176 0.18549961123053132
0.022462104239229792 0.06303259257940333 0.27392421405920636
0.11371817807817904 -0.07676404311142926 0.4082912822110407
-0.09355865094402667 0.037311798029331295 0.11010064925320169
-0.10260704330198198 0.0463592401654562 0.19698741307153111
-0.14817930220001116 -0.07493695657590498 -0.17175415008485406
0.07993741191815067 0.0013107435403524048 -0.25851339413354163
0.14016475206232296 -0.05303168276368622 0.04974825991614663
