0.11371817807817904 -0.07676404311142926 0.4082912822110407
0.09966135649646597 0.05724479141033817 0.07485692156306452
-0.11276472462476517 0.020501993760536408 -0.049768472383342865
0.0615713343355001 -0.055720810543764085 -0.39179340851137984
-0.17099127768281305 -0.012720422051939406 0.3257318286084267
-0.14567983869728438 -0.028099002199761414 -0.20771700565625023
-0.11607757801432823 -0.0012537151355748455 -0.15810098273670178
0.10954252326659804 0.04443561109196159 -0.05573434512342798
0.11106781934878215 0.04856793578807564 0.019802589063678065
0.09600034182823841 -0.08801219900679809 -0.40365578779792977
-0.18276395602857162 0.020887973868051496 0.2063862472405439
0.11742290295060574 0.0031722281061377644 -0.02428466315777668
-0.12290796257572602 -0.01278750771316678 -0.13714308008940798
0.10072332441413913 0.12998940372658319 -0.04170165917620751
0.10921697726749745 0.09650377646708208 -0.08373529197776675
-0.18712167334286037 -0.07670893024526512 -0.18779693529213698
-0.02732666900908828 0.015888666773865745 -0.2360235438512508
0.11860041784285752 0.0006231630238632546 -0.07245634889509242
-0.19446251707155773 -0.020450096553643105 -0.31107776534850545
0.11427519811516901 0.02155426941553934 -0.01621518932951614
0.012400585365684731 0.1268207940108773 0.05835955023211048
-0.18674633571984597 -0.08821041528062291 -0.18201103456673268
-0.1806221560228135 0.014277660682578075 0.17556219132803863
-0.0645193016734091 0.04366498118749407 0.1206572337003936
0.19635821049201235 -0.07503596969063434 -0.35236262334769675
-0.09968644148401472 0.07014462289133647 0.06507286746400098
0.19879571953139602 -0.07730623968786475 0.11864485390793816
0.07772605567440606 0.058356740996291234 0.29131403373328735
-0.0381394332617604 0.018153425484479707 -0.22700669885806535
-0.10807690024658984 0.12861481282670312 -0.07160152933645
0.16195181827883795 -0.037570433316618024 0.3494750214850365
0.036805132636264205 0.1567875597879811 -0.07704059909375238
-0.06014010934575295 0.044461077037016766 0.12156032452802117
0.11709203570925482 -0.0012480138045923572 -0.14250537192281273
0.08423792587824833 0.039398105080193146 0.1145165201435119
0.021995925409227603 -0.0028966486803644886 -0.3203329259767593
0.036133135757793866 -0.08034086812548195 -0.421370583338013
0.01611044143599569 -0.06603489837983378 0.4347279738881483
0.11863462582875249 4.162726364853597e-05 -0.08666501592530601
-0.18765284734606302 -0.06461811763068322 -0.19463321122888338
0.10024441261160937 0.056580776395243365 -0.17628442768354635
0.19246838240702058 -0.04920342905330538 0.29094591779618406
-0.151448255341009 -0.09997416154117557 0.029832370528087238
0.10678136867177464 0.06858967988804338 -0.11886613331445048
-0.042200301276227106 -0.025579013905497605 -0.3717961801346369
0.006245238392614615 0.035370684874157066 0.38047866932349045
0.1842428821542057 0.019834367902485994 0.21663552994777924
0.12224565882870017 -0.015624109921325263 -0.1683977765354579
0.014691380154452125 0.14262868438168136 0.036660284512725946
-0.11793184089420242 0.002340023827059251 -0.03847926690490007
-0.18182836761434384 -0.08073521018510468 0.10230274882407411
-0.1479168509304502 -0.07584441842395247 0.38070596238532606
-0.09878316061202107 -0.0011127022159410915 -0.22312409245898468
0.10973522825380645 0.04410227327385163 -0.06273082846078254
0.09343778359597198 0.015981788513246498 -0.19540916237560124
-0.055118377016369374 0.004467190416628963 -0.28615401686978653
0.13370172326056406 0.020757413388552276 0.33654098201814325
0.19074049903059173 -0.055353644828491255 0.29867426198732516
0.02499444541728899 0.1615947320280567 -0.011540478012600566
0.04024189495251355 0.06077239493357531 0.11420389716130497
0.14417677867470627 -0.005463387888684751 -0.2358492731675525
-0.10603316313373065 0.053470700344291106 -0.13026328399282855
0.10011404217647625 0.12227588299599657 0.004762287887484243
0.06370762305464181 -0.057755235482685185 -0.3938217520305863
0.115517138047523 0.022221895273589726 -0.00598567123635349
0.022462104239229792 0.06303259257940333 0.27392421405920636
0.11684592825517703 0.02764196059428381 0.0653528028152416
-0.023997661848408132 0.007823373921659021 0.41849419409295174
-0.09970810654174822 0.0734804716491956 0.06244341361487325
-0.1053442523066789 0.11441545797042763 -0.11143748908862264
-0.1035356000746647 0.04533870191958919 0.19289328729299987
0.10021970684401853 0.12809105055377773 -0.015519626949651477
0.05511837788514362 0.004467190416628963 -0.28615401686978653
0.03481327763534575 0.04697574408903024 0.12513733958643994
0.15144825620978328 -0.09997416154117557 0.029832370528087238
-0.13081855931394096 0.01917928497259705 0.34264292652434397
-0.1065964546348014 0.12114378870723869 -0.09639756800116098
0.061430891548964583 0.05314325390152966 0.34000625098930504
-0.13886693821756624 -0.048066773699761506 0.0359791655046836
-0.061430890680190336 0.05314325390152966 0.34000625098930504
0.16913549531678448 -0.09496060111953357 -0.1719829635016183
0.15480672024720632 0.043374783440484954 0.24603273275973156
0.020009961783657725 0.06265877531131758 0.28891092272416474
-0.09824343461234467 0.03427393883749069 -0.18742824922193552
0.017083658634707972 0.06124864611497993 0.3070818247428478
-0.19454328592714315 -0.04330635237374239 -0.33557448413663526
0.14160528835723393 -0.076621889925599 0.3879073135493183
-0.09968891206077381 0.04981652727324254 -0.18009842806647097
0.14195763061195227 -0.07017919587101103 -0.05013487792115137
-0.12539906412634513 -0.018900664836966424 -0.13367210978726368
0.043694430951147806 0.04431417274203445 0.1506355921838285
-0.18816444677955912 -0.055728602362773494 -0.20010420843968774
-0.08705837344651547 0.010159399269554226 0.39026006280142883
0.10607592398487363 0.09713187309698718 -0.006295253508703094
-0.14216534823530697 -0.06955737070518665 -0.036459285337801295
0.10760179020015598 0.10491894099724802 -0.04650807123881878
-0.0671151176697401 0.003304689029297786 -0.2749096618617394
0.10260704417075622 0.0463592401654562 0.19698741307153111
0.11932410678890248 0.010703686334016638 0.04755096695549219
-0.037378305575597015 0.04685373560600481 0.12485645401336891
0.16833179769261847 -0.09743326836664264 0.05533898507758343
0.1950174474892951 -0.010652929393319827 -0.28673327209760824
-0.11671023570901935 0.004138793752037129 -0.008646482405884962
0.17237138073808383 -0.07110281149017558 0.34265470927504116
-0.10024441174283512 0.056580776395243365 -0.17628442768354635
0.10815253877306522 0.10405480926466754 -0.057266862891523274
-0.04410093498142561 0.07715364915685252 -0.18304639627315417
0.16741046260584688 -0.07247626212385917 0.351708993008345
0.14455496696321193 -0.007572120174744401 -0.2320976073367032
-0.0238959881125536 0.06182524072167647 0.11837613117429645
-0.19540893801465228 -0.008373917355249588 -0.2743505513367225
-0.10466123285497574 0.11021319694759496 -0.11930950682052266
0.04288940301641919 0.09744772683341757 -0.16616095434665815
0.06425837162755105 -0.08378713266003546 -0.41365554225249773
-0.10221954283953825 0.08641926222524099 -0.15207182522271095
0.17071666444259706 -0.07161041999198392 0.3457600342168413
0.11515092255408059 0.02496670605293 0.03404432381359012
-0.04597382220917595 -0.012943724182087224 0.4159529208296866
-0.038425450032715684 -0.013909149561790068 -0.35546870846696116
-0.11124493982919748 0.019564884991379927 -0.11584575820428952
-0.18638487133555565 -0.0860161630298258 -0.361997682663751
-0.01948049731097556 0.15474800365117575 0.012956050731163196
0.1463548771543863 0.012727278744071008 0.1311140448553918
0.18712167421163464 -0.07670893024526512 -0.18779693529213698
-0.04987733348852574 0.004669777710873707 -0.29012993505261403
-0.08481014859575073 0.05772579370089487 0.2672460550350413
0.04128067745752455 0.015521881147325028 -0.23239882765694514
-0.1858658601717823 -0.011827213531348163 0.14620945889774978
-0.10002624081057156 0.11139945388068656 0.02523671766746228
-0.010715081014118206 0.09545226098954351 0.09278038581710721
0.06422435368602215 0.015232253533414203 -0.22266456518179545
-0.14837485785271082 -0.008071176680078979 0.1041535909053588
0.1450631455981185 -0.012365989309194164 -0.2249327446909989
-0.1630331698530773 -0.08321357876319624 0.07809527756112296
-0.11060658080352387 0.04344091887988191 -0.07804441343540405
-0.012844338091714844 0.055203904962970285 0.33458561553551275
0.03272107920913534 0.008353597703031262 0.4164736423927547
-0.017613881547305962 0.1512004454694999 0.02097041169325959
0.14522715388604837 -0.01506766001743351 -0.2214648150987119
-0.10639633791731573 0.06031894907610069 0.050323144123548436
-0.11614960482907379 0.04088292171240149 -0.12488274790027984
0.04491223524900922 0.042257322567915506 0.14385537933507667
-0.19470102275099221 -0.013186220793209413 -0.294976826565201
-0.18866635395038495 -0.0843641073554642 -0.36018028839089694
-0.045824257293068445 0.04059538458651757 0.13881236203669176
0.1260704917404915 -0.006177764660791646 0.04803101902421846
-0.04491223438023497 0.042257322567915506 0.14385537933507667
-0.08194675013197453 0.0009766455447780542 -0.25543315504806446
-0.04146558975694929 -0.022808737181102212 -0.3684090193979352
0.1467053189654438 -0.049146415743480415 -0.18977377678813484
-0.09834871919115477 0.05050524805592818 0.2152261609289059
0.19325212537274788 -0.016000207721803994 -0.23647432908760024
-0.1141704828006829 0.023091158204054496 0.006200163561270039
-0.040909519941789735 0.004553660603196841 -0.2957900264076712
0.11130936573807393 0.04910880205394852 0.032754872789715325
-0.1477397295812606 0.0014534668592809386 0.11427402353238968
-0.024994444548514735 0.1615947320280567 -0.011540478012600566
0.10792125477954191 0.12783087981660973 -0.07520191985189703
-0.008518548230928099 0.06366772085085351 0.11832614950601655
-0.18112748399222886 0.008811794669657952 0.16572302436281094
0.11436774972145154 0.024177641844952386 0.02302422115752118
0.19490323082527905 -0.009354736328605201 -0.25450896929580163
-0.08169133050395865 -0.08606975554106128 -0.40834152168807814
0.1655736838076524 -0.08302980586119375 0.08141554268096328
0.15575124074664 -0.0832027462343295 0.06891499441310589
-0.12985560451099715 -0.016140270419607333 0.048271235102947674
0.12030530585099027 -0.09114356002675165 -0.3951858904903318
0.0460032799546931 -0.04426493615626628 -0.39177516425223585
-0.1554511598238203 -0.07466329268874511 0.3706182173892615
0.14105035880827085 0.0262871343084764 0.3166258528075482
-0.044608923571966115 0.03663790070720013 0.3791380963651393
-0.09732228956993919 0.025389364723099134 -0.1909199343599829
-0.13872535516483422 -0.05936510130777632 -0.36904205718135846
-0.11551713717874876 0.022221895273589726 -0.00598567123635349
-0.11860041697408327 0.0006231630238632546 -0.07245634889509242
0.11969317294783614 -0.04031942507201208 0.393148547121528
-0.040651819781380855 -0.013491432045139112 0.4172271683042747
-0.09948195374610916 0.049483949632596835 0.21045452698528788
0.014492973836261221 0.002155300703226337 -0.30768129243786574
0.03903416300605455 0.1276767538357162 -0.13181480619753216
0.07821694027199907 -0.04027438455725035 0.4131125177342065
-0.14533851901579886 0.018695622060915212 0.1435193808958415
-0.12702717421058027 -0.03137726751469733 -0.16381352633679797
-0.10948550908799883 0.04477274979739329 -0.049098756037265545
0.10431820364296975 0.1078766014666015 -0.1233133615251644
-0.02630746107378385 -0.04874314159865176 0.42387568040733087
0.14696491956951352 -0.053644575844304654 -0.1863102182162678
0.138712813105447 -0.04235137943417411 -0.35810785457875915
0.19451344983044236 -0.0164036719109987 -0.3030900105976607
-0.15523317893592284 0.043574520069238454 0.239250809511685
0.09190640609407322 0.03766927148193386 0.1109953781287216
-0.041434042392179474 0.10948228631563883 -0.15427443942561572
-0.14826729274150768 -0.004220117645768157 0.3487266267714007
0.1519288784116078 -0.07308421405095945 0.07772127024867113
0.13607936832463152 -0.03467453726624156 0.04871004754423388
-0.18213300873317528 0.020770336405445927 0.20120430751055218
-0.17908393692373575 -0.06839848016081106 0.32918816549438257
0.13081856018271523 0.01917928497259705 0.34264292652434397
-0.10019157940906398 0.1273179500725511 -0.011850820462414494
0.005891945916065868 0.016643713040314423 -0.23939493090556752
-0.10229137960991772 0.1248952644937219 -0.0784296333654548
-0.19448608257295205 -0.03704287015637092 -0.3311485408949226
0.14742843777839054 -0.10334041739760803 -0.023723082056000683
-0.18076202867625077 0.01182323769461302 0.170615716567624
0.18638487220432992 -0.0860161630298258 -0.361997682663751
-0.19428805634349333 -0.04056173163876822 0.13095782838647138
0.09479812116839582 -0.07515702795182937 0.4163713985238019
-0.10962025054355186 0.04426856209417446 -0.05918136983544586
0.03528040668717836 -0.013969393625838461 0.4185057867992828
-0.02610031271475312 0.06256375312827597 0.25198986345897684
0.1387578536202087 0.0021022783250891075 -0.279411052716787
-0.15916690726947985 -0.0009486939280112516 0.3317113845428698
0.1850627335494888 0.018636328218697207 0.22166068307575232
-0.15206475926458304 -0.07845068686041805 0.07679955507316742
-0.13802485163145137 -0.04308229006613026 0.377648908712511
-0.14259218788152994 -0.07151900865189789 0.053189013164083726
0.07970422748096652 -0.017856751134071175 0.4103521233168474
0.013182427887751185 0.13399002767700152 0.04920283258548773
0.17581650500644086 -0.09052021450599863 -0.36911408399610407
0.11815666424805313 0.0019057724505590345 -0.04634102224103159
0.05628068922810873 -0.07096635963532781 0.42754904795935383
-0.008808745977937208 0.06760391976116964 0.1156016734738472
0.061835496004355804 -0.07160870959268917 0.42624838431788015
0.05096381799819788 0.059748435889118795 0.11150621738475334
-0.1691354944480102 -0.09496060111953357 -0.1719829635016183
-0.13205422778221418 -0.051852267427773616 -0.15853922504488976
-0.14241411631050993 -0.09294480052848864 -0.3863026466865028
-0.07933687085255337 -0.024899035163651773 0.4110733416861333
-0.02771492964899634 0.061969864484265835 0.24236867738164664
0.14417050721062555 0.0294973637403545 0.30574885355913994
0.11084641766229515 0.04776195763151658 0.004107585046327467
0.13266788190907122 -0.04305340332248561 0.3828604953636117
0.04768973365931579 -0.05457788372613946 -0.401983017287665
-0.20147762475678843 -0.09579584610846942 0.09560805594005976
0.09282260998296053 -0.01226830650502736 0.3975763908069015
0.02592832343222204 0.002865686543645496 -0.2954163991839516
-0.1378579926780303 3.6183904318642934e-06 -0.2922284049429052
-0.12335912790080764 0.0007126739202884536 0.047849336610242876
-0.12054685137150782 0.015233963932708955 0.35938583517627753
0.13834374694651333 -0.029944713083161822 -0.3480748423601266
-0.11091958387446298 0.04327253957153218 -0.08207278386327055
-0.11862835349589751 0.0004224761732793403 -0.07712003763877517
0.16071101861268047 -0.08331069143426478 0.07510759008192831
-0.18148267691243844 -0.0886439064796588 -0.36552148529966644
-0.10792125391076766 0.12783087981660973 -0.07520191985189703
-0.1705840126062967 -0.025507937312582468 0.33514871699221743
-0.14359942302177112 -0.005078928136098337 0.3547077030607725
0.043149953842319316 0.09483803759836246 -0.16850173080370545
-0.011261268522241442 -0.07746796744340159 -0.4276143009413118
0.1622619706842858 -0.09257839499068014 -0.3766909628274768
0.14777241808100122 -0.103739890655115 -0.031737062929364915
0.14224136685051456 -0.06937815886797015 -0.03220400193683143
-0.16226196981551153 -0.09257839499068014 -0.3766909628274768
0.042837710948844546 0.03461392820841361 0.3829718613621365
-0.05425329506195846 0.04685772653769252 0.3574608757922204
-0.09990936352543035 0.09678314168522445 0.042214901244606924
0.1219379770000114 -0.007813856608402253 0.3766401532173411
0.023895988981327852 0.06182524072167647 0.11837613117429645
0.19488574674359938 -0.06278475963107817 -0.34569054574324626
0.19543782562707124 -0.00808409969697263 -0.27027428972860307
0.17136756639643216 -0.08238707581510021 0.08912070145944223
-0.007547991653340984 0.03999522447842668 0.3712092553677803
-0.17936330214187812 -0.0973939291828634 0.06744462115271985
0.09702506105015925 -0.013065732665112656 0.39913494465315014
-0.10774774340453368 0.12696066666431455 -0.07874814772301031
0.07994102276110625 -0.01361971199224532 0.40991958233964193
-0.033975181112144405 0.0574013879679908 0.205738005907834
0.02093528780211703 -0.01491163359287917 0.421319013550413
0.10300936809375444 0.011682604863711393 0.3783281272768925
0.14212315925481075 0.02732439645855872 0.31306898245193426
-0.15173408206759817 -0.06359263823129803 0.07927830373999113
-0.11009536145875995 0.012798925470084377 0.37165129856329
-0.14202281496074454 -0.06995817427325622 -0.04543907167960057
-0.13246358334675748 -0.017035569428225483 0.03499891666442624
0.13736919943723847 -0.014435572455840678 -0.32899495813846735
0.09902698840248012 0.042398715576281415 -0.1838170261776217
-0.11021527945375849 -0.07651869583481581 0.4099990208846647
-0.12880446912219076 -0.09203258757128907 -0.3919608375978992
0.10673442771335208 0.06563525017291333 0.0445332524664564
-0.10657345926650531 -0.07623267906386051 0.41165715797874103
-0.023141131890470963 0.06303696359982322 0.2698027218919591
-0.18242130603652354 -0.06641764773312542 0.3218494122537121
-0.05592036424124065 -0.08273770767052381 -0.4160381284700833
0.10048728931146375 0.05973456265039473 -0.17434540501639906
0.1515136314717159 -0.05185948911368478 0.081296194819063
-0.19635820962323808 -0.07503596969063434 -0.35236262334769675
-0.17876865332040365 -0.08966463476989188 -0.3672928888359283
-0.015308453342350157 0.1450029086471593 0.03272180507001684
0.10948550995677307 0.04477274979739329 -0.049098756037265545
0.038657875161209734 0.02096190112645785 -0.2249158307424175
0.19425099856088138 -0.07829066950417596 0.11499809256716684
-0.0788556785176306 0.05836757352515798 0.2875880238918593
0.10862745964390724 0.10210723460104648 -0.06740972075375196
0.10439726209926037 0.044349520994125924 0.18905287074318972
0.1365318639602757 -0.006034281164398803 0.3626622000475527
-0.04293615306170142 -0.02863017620296407 -0.37532929494449035
0.19363753534716469 -0.037058073705657585 0.27969225061419883
-0.1174229020818315 0.0031722281061377644 -0.02428466315777668
0.1468605852125338 -0.1020990475983523 0.00039829910911476363
-0.19767255645906978 -0.09636711947291564 0.09013553837432674
-0.19283611738661738 -0.017525693848354174 0.2648743013463224
-0.03538417004228556 0.15976365456084468 -0.0652033056635255
0.13587164983250252 -0.033100209737607994 0.0357818994526892
-0.19074049816181746 -0.055353644828491255 0.29867426198732516
-0.12235873435774547 -0.012535508883740415 -0.13045370844764395
-0.01207427832034555 0.12295890244769975 0.06303578190395473
-0.10847789385902547 0.10287349348509406 -0.06408052354870575
-0.11863462495997824 4.162726364853597e-05 -0.08666501592530601
0.04120484975545734 0.03667933037900625 -0.21327523323108677
-0.11464825433701617 0.029835072578884403 0.08177757719835185
-0.08237739066551915 0.05813761984219726 0.275706450124335
-0.157804289164663 -0.094947868147006 -0.16847854539104332
0.0406518206501551 -0.013491432045139112 0.4172271683042747
-0.14056973573767206 0.002362449062257077 -0.2623935299558632
-0.13843268684106602 -0.07382481694558585 -0.37704387521529337
0.11243404829655458 0.02026063741561071 -0.06925809225827756
-0.1417136127771271 -0.0714815699117795 -0.07509549500689042
0.15487779684012146 -0.09915488027899072 0.03667928894933427
0.04403898138685672 0.08037851200491902 -0.18051785598241665
0.15024508532811026 -0.02963228014532099 0.08856140089005925
-0.1940105915690118 -0.012648775325926037 -0.24346226042848107
-0.011566479774171128 0.01642478193058655 -0.23871723269611467
0.06745377759887468 0.015234534065807187 -0.22075328899209629
-0.07582066999128123 0.0019949032582521065 -0.26436467012087855
-0.025906467461348212 0.1621682859248959 -0.01592138073955146
0.014137020738587308 0.14003001771985912 0.04068827485186025
-0.04766141617999514 0.06011541156002556 0.11237472013775376
-0.04020160467812966 0.008680093923962268 0.4139177357133012
-0.06370762218586756 -0.057755235482685185 -0.3938217520305863
-0.14436891266004215 0.025953986534732437 0.16173893427224187
-0.0986514598663254 0.03842792859133817 -0.18563670098286877
-0.11581892763208892 -0.090612386023549 -0.39681894172808513
-0.052541565456646705 0.004592049565145667 -0.28817342830378706
-0.14684728123813373 0.009549546898793115 0.1255970569079953
0.15304424879615033 -0.0413148774615561 0.3604058032890463
-0.18236828365838634 -0.09538040912421146 -0.17456528634795737
-0.10005360719928755 0.1150838440059424 0.019573395558181682
0.18674633658862025 -0.08821041528062291 -0.18201103456673268
-0.1068661275902735 0.12251894974021704 -0.09280896023641111
-0.108440265074541 0.13049796245022194 -0.060265953032682895
-0.106020240116837 0.09360864059416996 0.0020298299919393886
0.0885340688179261 0.05664159059238996 0.2538397553184311
-0.10911644292906517 0.12694888391361742 0.013212990714107753
-0.11419100759221988 0.023937615810589258 0.019463359870219486
-0.12935426747326956 -0.040399433750133135 -0.1613454201544749
-0.1337017223917898 0.020757413388552276 0.33654098201814325
-0.05044176525579297 -0.07027934925193689 0.4288208248571829
-0.1184151237171521 -0.0006123154000439168 -0.1064697293592067
-0.11781040254427522 0.0025542038276350487 -0.03473121191700637
-0.15132035548263498 -0.045242144286666314 0.08273920169073305
0.02928507707035034 0.01631493628699046 0.40949103229412426
0.13802485250022564 -0.04308229006613026 0.377648908712511
-0.1183050880291899 -0.0007478170330612599 -0.11153802255828069
-0.1683487107724256 -0.08275500170783738 0.08509537174143308
0.040029615395598565 0.12018653523527745 -0.1417767418232496
0.17876865418917792 -0.08966463476989188 -0.3672928888359283
-0.13793363033573144 -0.04338750131805996 0.035989617944818184
0.01797230609051321 0.06183151218575722 0.30151751574829655
0.13714969819441233 -0.007653839252160177 -0.31580283842243306
0.13800242726502784 -0.023675529534807865 -0.3416747182435413
0.09878316148079531 -0.0011127022159410915 -0.22312409245898468
0.1435994238905454 -0.005078928136098337 0.3547077030607725
0.006677019192355739 0.036981881009810785 0.37738322668872665
-0.03869949400860771 0.13020472399335548 -0.12819541124547681
-0.14455496609443766 -0.007572120174744401 -0.2320976073367032
0.1245733222244877 -0.017097713935934705 -0.11268646066252172
-0.010887831342887873 0.09934512978439264 0.08898348942713012
0.11338312986077427 0.042166291316561605 -0.10612289839110478
0.10852844652917788 0.13098580633795764 -0.05624005318157552
0.09797452270311112 -0.015989945326035482 0.40071668391206094
-0.10021970597524428 0.12809105055377773 -0.015519626949651477
0.20841310472140454 -0.08519308088031928 0.11445380550270443
0.18076202954502504 0.01182323769461302 0.170615716567624
0.16961516729677859 -0.005231153673331018 0.31938510695871075
-0.10607592311609938 0.09713187309698718 -0.006295253508703094
0.07450746429042027 0.05811709505066029 0.3017231437523986
-0.030435604793844027 -0.07967096173503851 -0.42283886611037214
0.04090952081056398 0.004553660603196841 -0.2957900264076712
0.04038613862637073 0.03166044871511395 0.38812548448158185
0.18076678065417712 -0.0674817061388255 0.3255598384571214
-0.08628584309838709 0.0389313561170927 0.11365599925388697
0.1946044810817962 -0.07816790084368617 -0.3546171196625422
0.1483748587214851 -0.008071176680078979 0.1041535909053588
-0.09886640004436553 -0.07554946956779128 0.41483983097753707
-0.18424288128543143 0.019834367902485994 0.21663552994777924
-0.1448445937083485 -0.009870326693789039 -0.22846794998887937
0.11522884074417472 -0.0011491907342290608 -0.16843863607416582
0.09937229901565336 0.046192571256401194 -0.18197036507239084
-0.11106781848000791 0.04856793578807564 0.019802589063678065
-0.10659265374747973 0.07755901378970803 0.029873230066795126
-0.13466581746093007 -0.030037644778176553 0.048587849016842356
-0.014492972967486967 0.002155300703226337 -0.30768129243786574
0.09824343548111891 0.03427393883749069 -0.18742824922193552
0.10677376689713129 0.06860336308240136 0.041132028446664616
-0.097025060181385 -0.013065732665112656 0.39913494465315014
0.10860085343265559 0.13141207585108233 -0.05205527624042253
-0.1558266874912008 0.04117673030236618 0.2059689098126251
0.031163095495984935 0.1628991965568521 -0.04117162543920136
-0.18653025527560932 -0.09837968930973717 -0.17775537107703065
0.01599660486071183 0.1471960206317599 0.02882437521038172
0.04494663327927028 -0.03837565129571269 -0.3857891468093459
-0.19169091003659974 -0.05246554059712423 0.2947933659875393
0.00999291329177614 0.08368433375293705 0.10328546824109056
-0.05053735757193284 -0.07386890723851716 -0.4207352650221967
0.1355886737714046 -0.06617553121073537 -0.15606047637806603
0.1086584368755788 0.13177867143325694 -0.04769299786134781
-0.108627458775133 0.10210723460104648 -0.06740972075375196
-0.03141870429959264 -0.0043193208048636356 -0.32336432366015316
-0.050198128378474254 -0.07147738893572564 -0.41841843415527596
-0.19099648792293158 -0.0030279693373279903 0.25324491645259056
-0.01626608690304361 0.06054909280342752 0.31224818083482064
0.1303347072266673 -0.044487288064583685 -0.16029010378961467
-0.14718613034286013 0.007019106164394745 0.12168309318851094
-0.19485153788893017 -0.011828923930642915 -0.29086559679372226
0.15060255878071285 -0.033615039925327495 0.08667273997992399
0.12931644951319327 -0.006866865532209471 0.3698502481059191
-0.11689210816736101 0.027398133672598968 0.06295482300400326
0.11101004586149282 -0.03575303904376395 0.39914672740384727
0.11117348401632443 0.04890963555829331 0.027197975525441336
-0.1944644175152186 -0.022876963108526077 -0.3150464618454218
0.1827394411741212 0.0005133173802671365 0.15600320525948355
0.037814648308898385 0.05291558075096192 0.18376887718861123
-0.0428377100800703 0.03461392820841361 0.3829718613621365
0.008518549099702353 0.06366772085085351 0.11832614950601655
-0.1414540121730574 -0.060344019837471105 0.03523267123470863
0.07349984906144694 0.05798140337327681 0.30492083025611527
-0.1459358284583985 -0.004679264834225261 0.3517975536829398
0.02660830217406788 -0.0035891703503718175 -0.32182382402868237
-0.17811433056797904 -0.08137584974317129 0.09782663386971552
-0.12883734679752315 -0.07292343651725304 -0.384088439777267
-0.1872391207610998 -0.07370489895058734 -0.1894299865298903
0.033342714330593624 0.16193320104405096 -0.05253057719999671
0.11060658167229812 0.04344091887988191 -0.07804441343540405
0.17403274858638354 -0.07053571910178319 0.33945170152907417
0.002849525659439252 0.006489072427388581 0.4214248682623214
-0.10004030409366171 0.11330711922743014 0.022415128964224394
0.10858393948407417 -0.03377885816889126 0.4006332544353504
-0.029834494463922733 1.5401141129023355e-05 -0.31968012357926334
-0.08853406794915185 0.05664159059238996 0.2538397553184311
0.18943204357010862 -0.09716663612102784 0.07915572512386745
-0.10160836015821455 0.12756633805902184 -0.06472477394972789
0.012770221657716636 0.1305203876854198 0.053726268587001046
0.10668463608943825 0.07466387791679596 0.03372143843561469
0.09965812574224257 0.06388133071833105 0.06989562334209541
0.14955256365810293 -0.09307479087488957 -0.38303540394479973
0.009289559092902064 -0.0010345939814808691 -0.316135796151811
-0.14689783303951187 -0.10186358262877517 0.004728840079053595
-0.08392663233782974 0.0006539502111687356 -0.2522459209844824
0.18664884382881955 -0.11164972721586561 -0.17500200830121665
-0.1329768931795483 -0.024909867692518517 0.04846869119930816
-0.04185309021939303 0.04150854776554752 -0.20971304163322246
0.15929499804099423 -0.09278934423703253 -0.37823336290260834
0.026100313583527372 0.06256375312827597 0.25198986345897684
0.10004030496243596 0.11330711922743014 0.022415128964224394
-0.09985292034870363 0.09054702585656899 0.048078910204471435
-0.13725023079529608 -0.038893142104557354 0.048846119310349476
-0.04004861896343265 0.02905817121033613 -0.21890833828616013
-0.15483484594461236 0.03508238757080878 0.17309351501261733
0.008808746846711462 0.06760391976116964 0.1156016734738472
-0.19517898433169156 -0.009674390952357226 -0.28259410580431527
0.03676712376304756 -0.010334985168862554 -0.3487723051836521
0.16906441872386935 -0.07206595633748544 0.3487754681734841
-0.14487310036326098 0.021635608404222934 0.1505833299831556
0.10661469976271963 0.06284064776965925 0.047624134036434236
-0.013182427018976931 0.13399002767700152 0.04920283258548773
-0.10873844468492559 0.13227582749493066 -0.03841028080001185
0.008460205479314796 0.0013977838600185422 -0.3099335082203183
-0.11850026359315739 0.0010393601855855361 -0.06337355850687607
0.13462666919029123 -0.06239592885807185 -0.15656257359325795
-0.10651207493626043 0.10245501579097882 -0.022983619427570795
0.10070945117541506 0.0627446753647872 -0.17238699782391126
0.10176229696351621 0.12699810540443296 -0.06800151890973519
0.1384326877098403 -0.07382481694558585 -0.37704387521529337
-0.15165901454299532 -0.059387526542974134 0.07996664443394463
-0.0115543169347418 0.11501960901020625 0.0722510332153311
-0.14705024862111063 0.03300254202839378 0.2942486988343447
-0.1061768366744896 0.057796300160711744 -0.12719748827917368
-0.16906441785509507 -0.07206595633748544 0.3487754681734841
0.14660535562888402 0.011162453433741587 0.12830803979017275
0.1425480984573729 -0.0003749499868059558 -0.24810105336020694
-0.10604323548513307 0.09168615178687195 0.00613250776694442
-0.12607049087171723 -0.006177764660791646 0.04803101902421846
-0.10779240383056324 0.10475835350790769 -0.05017459719366277
-0.03921185361956814 -0.015869077109206542 -0.35869794233544766
-0.13449382730962475 -0.0771504033076765 0.3946742232924443
0.11014591412891234 0.04626592838170934 -0.02259801940878789
-0.03116309462721068 0.1628991965568521 -0.04117162543920136
-0.12188685419676078 -0.011523142545614984 -0.11468591743808351
-0.106684635220664 0.07466387791679596 0.03372143843561469
0.10825782335187532 0.08263623907398793 -0.10522645911629011
0.14231985517370693 -0.069213390402576 -0.028124319530122496
0.12054685224028207 0.015233963932708955 0.35938583517627753
-0.1924683815382463 -0.04920342905330538 0.29094591779618406
0.17367907602110264 -0.09736542252795091 0.061264568412058906
-0.04443370266643736 -0.035699066443796335 -0.3830042366687621
-0.11567126315964227 -0.0012128555968669574 -0.163279311623738
0.11864013711536892 0.00022844087550835668 -0.08185822377396257
0.011359522328280733 0.11106497579638008 0.07666766428310565
-0.012770220788942382 0.1305203876854198 0.053726268587001046
0.12235873522651972 -0.012535508883740415 -0.13045370844764395
0.10702557568219159 0.10449495201651632 -0.0350542873393479
-0.1928256649464828 -0.018089175393790985 -0.2330548608086645
0.1479734850203173 0.03423650009737228 0.2902754412726424
-0.15428808830339089 0.04292247784920686 0.2523032466186481
-0.021181774476152743 0.06290830356398486 0.2817283859524147
-0.18076677978540284 -0.0674817061388255 0.3255598384571214
0.11032892685345051 0.04360701765583869 -0.07407305631736258
-0.10849537794070514 0.018238185271752833 -0.15015028663724328
-0.11522883987540047 -0.0011491907342290608 -0.16843863607416582
-0.14433451462978109 0.02976494620779971 0.17189908617178412
0.09768945615398626 0.047802056992760134 0.0842015930877436
-0.13759288078734416 0.023373564132054214 0.3268872983542128
-0.16337753024442017 -0.09776717631785088 0.04936475038539065
-0.01896585716762214 -0.04886191932745382 0.4237268756686877
0.010508503656959975 0.09154931984329201 0.09642448653675337
0.08171489687412722 -0.07380714281954011 0.4207690251549681
0.029599220407485936 0.061505586097924475 0.11677747796680422
-0.11288407248666543 0.020588844035836468 -0.04495616894538304
-0.1419019467439156 0.0008306914716261493 -0.2526039645701832
0.19447125998117185 -0.03236568826269626 -0.3269884697213605
-0.01894400206552257 0.06230054168125068 0.29548436730261796
-0.16106564053101752 -0.09804559131416284 0.04629876462736971
0.10010187933704694 0.12103774395096423 0.007833214799023339
-0.1328421517239953 -0.09238188911615007 -0.3903545826157636
0.13634885123573756 0.022468382816399707 0.33017240526632774
-0.03743569897415416 0.14018813463244034 -0.11214483421918447
-0.04056078853002698 0.04913939919688795 0.16822248786553773
0.11671213702145442 0.026633775232212192 0.05474490638920722
0.09966933835984146 0.06693116270523494 0.06756491923645054
-0.00893436530391823 0.04440976505817429 0.36149437741797114
-0.11782408573863323 -0.0010705123666706062 -0.12693503700961276
0.09976169992175794 0.08035380623732824 0.05686865218018744
0.060831871707070204 0.01524346615101313 -0.22449811322576652
-0.13358237452988952 -0.05820469040847204 -0.15725680566256006
-0.147964362021971 -0.0709754817648998 -0.1741819668615675
0.11393900963156776 0.021326406220605526 -0.021013809573117992
0.19767255732784406 -0.09636711947291564 0.09013553837432674
0.07030254264646248 -0.008576504649494332 0.41094088076297325
0.08392663320660398 0.0006539502111687356 -0.2522459209844824
0.062462452368064414 -0.010360451113917729 0.41236906417408886
0.11614960569784803 0.04088292171240149 -0.12488274790027984
0.04766141704876939 0.06011541156002556 0.11237472013775376
-0.03772342614440419 0.028242120702374696 0.3935132422600418
0.11204312703552133 0.042745736588749444 -0.09426508016934093
-0.195657135956757 -0.09661683776994903 0.08733656495065276
-0.19539525482029432 -0.008044760513193416 -0.2662440188570757
0.1265378108366902 -0.042312800427859204 0.38805554815486326
0.14582674386104097 -0.03195348203266171 -0.20417552889428903
0.18767755398242814 0.012194774430305755 0.23608600068330077
0.11257962228097433 0.020365731950054727 -0.05945541381133787
-0.10831977694644422 0.10352306512836662 -0.06070324511904043
0.07847293003311319 0.009700632169829304 0.39551326916870183
-0.028954018915859074 0.16307498759547906 -0.03042879751324787
-0.011042147368147464 0.10323799857924176 0.08503303718935779
0.03233433892415594 -0.0030735799851879797 -0.33067951139942925
0.03997697310619351 -0.017984841036811278 -0.3619024704363433
0.13726600534645528 -0.0125697168696354 -0.3257579324509715
0.0141246678547919 0.0577199023255463 0.32607523877793915
-0.15327249121104203 -0.08291862990703505 0.06593889964024233
-0.09282260911418629 -0.01226830650502736 0.3975763908069015
-0.10126095905701438 -0.08872505542397634 -0.40188647474969474
-0.17570456800604353 -0.06990268131835992 0.3361426490268328
0.1079767477344382 0.10446720553906813 -0.05376054433728744
0.11065295249762243 0.03216919748311878 0.09215704029635417
-0.12686829712053468 -0.007167325674987068 0.3721571966658036
0.10648851030364036 0.08028215951131484 0.025999175664188252
-0.02025359779220219 0.047526682706305556 0.12653777652010734
-0.12030530498221602 -0.09114356002675165 -0.3951858904903318
0.17095992123118361 -0.09737606501245158 0.05828942386102576
0.04232364093858938 0.1024426629071834 -0.16146951912552723
-0.11515092168530634 0.02496670605293 0.03404432381359012
0.11604641160706482 0.025807842417214427 0.04490345889158655
0.08481014946452498 0.05772579370089487 0.2672460550350413
0.036342754693583675 0.15793922864644555 -0.07278930662447028
-0.18736664053074167 -0.07067863246507779 -0.1911196709887364
-0.06708490061553285 0.00930876068696565 0.4017013037727382
-0.1375313064127332 -0.0016550888367426464 -0.2989001024586235
-0.1973344675318077 -0.07021055319141477 -0.34961629221342777
-0.10038086359768289 0.12971592988378938 -0.027586493974106924
0.10197419643169903 0.08245968785789659 -0.15620529018502147
0.04057390246006097 0.11606903399971791 -0.14681462792375022
0.11072117842504631 0.04739175120638647 -0.0027321116890083874
0.1073454203503097 0.1249418253634123 -0.08576173505331236
-0.10292935854685914 0.12215691522282845 -0.0898108203170819
0.11841512458592635 -0.0006123154000439168 -0.1064697293592067
-0.10012677428022959 0.12342945229812186 0.0016199042942978414
0.14100379793858045 -0.05933944531835508 0.050547586519892745
0.1881644476483334 -0.055728602362773494 -0.20010420843968774
-0.17257947845017071 -0.09123326096754296 -0.37101832854425815
0.14433451549855536 0.02976494620779971 0.17189908617178412
0.09780918410461871 0.03642904194887461 0.10741798298157065
0.19447582104595784 -0.01830468570492938 -0.3070951956128651
0.07554947754965469 0.05822751082735464 0.29838634477270903
0.10916927613161055 -0.0014929809924736637 -0.1943021539431663
-0.10192725460450222 0.12636468753227753 -0.07137613671827528
0.19531600718841186 -0.008909272334506058 -0.2784617811082013
-0.13558867290263033 -0.06617553121073537 -0.15606047637806603
-0.14166458133067764 -0.07208990192761194 -0.0855025145379748
0.04141446869124715 0.0478811154490508 0.16341512558109605
0.10599895601660993 0.11803941398726897 -0.10378497259954875
-0.027885399445373008 0.16291192952937966 -0.02535404280572706
0.11760952651809949 -0.001147100246202154 -0.13211317585228285
-0.03226573203922565 0.16252480915566808 -0.04678496588020206
0.10637030270793658 0.10137936467894765 -0.018846923711036884
-0.1468904213092346 -0.10236168891227934 -0.004555397337211012
-0.1864933866685892 -0.10282444694369203 -0.17630799318494067
0.05647700505827272 0.009072345495558104 0.4068729811069615
-0.1034753560106163 -0.0013829453045114681 -0.21162963906517201
0.10348181838783739 0.01705629935908115 -0.17344611507609314
-0.1221109165043729 -0.012380622725382567 -0.12689968875752128
0.0071099402582933645 0.03851420873354 0.3743045079581781
0.09834872005992902 0.05050524805592818 0.2152261609289059
0.15414536585323663 -0.1086685012451178 -0.1332690256868011
-0.07344131452791904 0.01527748409254201 -0.21670876479311274
0.11781040341304946 0.0025542038276350487 -0.03473121191700637
0.10759570878044132 0.01794912779094021 -0.15601942679499203
-0.03634275382480943 0.15793922864644555 -0.07278930662447028
-0.016110440567221437 -0.06603489837983378 0.4347279738881483
-0.09922330336386985 0.01648673639392967 -0.18468533888625605
-0.13805392841946212 0.0006788460231256233 -0.28894557856318326
-0.008460204610540542 0.0013977838600185422 -0.3099335082203183
0.18975987010160222 -0.03778461331719382 -0.21268495543003224
-0.13719568806223018 -0.01081864808054439 -0.32247491602688355
-0.060204344341489094 -0.08327363278287854 -0.41482564541447225
-0.03707651512225683 0.008559795840231588 0.4150714950597925
-0.07767987402467358 -0.04393273860435276 0.41385578124995803
-0.10627337921245987 0.08524991924073078 0.0181647867167727
-0.11427519724639476 0.02155426941553934 -0.01621518932951614
-0.16642546178766318 -0.033499112862016706 0.3432934483894469
-0.08473356071621918 -0.08647968123870284 -0.4073654538238746
-0.10865843600680455 0.13177867143325694 -0.04769299786134781
0.1915141696449166 -0.09702125218097417 0.08180779425255909
-0.13229140315108606 0.01995181532072543 0.3396252120353082
-0.14837656825200554 -0.07869793458069234 -0.1696180514100784
-0.10249149632740336 0.12405545844000004 -0.08211383344634451
0.14826729361028196 -0.004220117645768157 0.3487266267714007
-0.11101080517018291 0.048351285210740724 0.015432138776861754
-0.0762077903649928 0.015316633231955146 -0.2145812181148108
0.11148382646613837 0.019698296136370363 -0.11040459795896021
-0.2097747717356167 -0.09368160253579336 0.10883324337579256
-0.10890017244046245 0.10022978630851015 -0.07396682151672204
0.1123587907275856 0.031226387382979837 0.08852472232740519
-0.07952862561793136 -0.02124714262499619 0.41069401313143117
0.045550214185950656 0.015434460738926764 -0.23099706041271517
-0.04038613775759648 0.03166044871511395 0.38812548448158185
0.10649041074730119 0.03413425622841951 0.09880973337546414
-0.14817930220001116 -0.07493695657590498 -0.17175415008485406
0.16843347142847298 -0.0004507776888731385 0.3146856898742043
0.19305523940948563 -0.04553918363085441 0.28714579065198353
0.19446441838399287 -0.022876963108526077 -0.3150464618454218
0.14558766804850826 0.017228099466020413 0.14021774012387733
0.10916566528865497 0.1261212406993249 0.016583047457861877
-0.11678682358855089 -0.001270248995424078 -0.14770840657743975
-0.19187905395902216 -0.02321334163649344 -0.22629460261835138
0.017310191519079195 0.007374109040238219 0.4195774469796262
-0.03769453940075953 0.15392815225589268 -0.08666748650206507
-0.11755460282752718 0.0029711611668216953 -0.027628493779011304
0.15555815567069947 0.043488049882670576 0.23190521467383554
-0.14185614605168953 -0.07497420527165731 -0.12666460387667627
-0.14699190500072304 -0.10265416719168145 -0.010189072525382634
0.11094714117631928 0.048110879087645414 0.010732151559257108
-0.05727252990592293 0.015268552007336123 -0.22625089241415225
0.1099752542881696 0.045993974893844214 -0.027271590459506986
0.03488891529304688 0.16046776893718306 -0.06178516769515233
-0.18855422777439584 0.009053721147681937 0.24060753624115325
0.194462517940332 -0.020450096553643105 -0.31107776534850545
-0.1112652745763684 0.04310130959769118 -0.08613498218829985
0.1448445945771228 -0.009870326693789039 -0.22846794998887937
0.18084184817878002 0.01800234021344352 0.185681483688873
0.028471307094781895 0.008110340914444708 0.4175781802484305
0.09058464752796427 -0.07473417923729417 0.41786761781797527
-0.12193797613123715 -0.007813856608402253 0.3766401532173411
-0.13729945228611165 -0.0037324638023985834 -0.3056569398503471
-0.1420323171790487 -0.06787680837591256 0.05219337073017362
0.09979172693159909 0.08380843272398941 0.05397161586361451
0.017110644934691794 0.047636718394267724 0.1268045988100882
-0.07864643967057294 -0.03578078552121211 0.41238711838886677
-0.14873480188207247 -0.10466597685103864 -0.050542713130766
-0.16231385192745224 0.00043501910144083666 0.3258612488217294
0.10518518604104148 0.04340405027286176 0.18549961123053132
0.0032107999993634946 0.021369926380438553 0.40302230216138285
-0.18591793232808912 0.016972679838004545 0.2265915741981481
-0.10702557481341735 0.10449495201651632 -0.0350542873393479
-0.13693133634900842 -0.03836120792389036 0.03592158206176038
0.10592749933496262 0.04873878567318449 -0.13349004728455593
-0.05146800483264247 0.0440139026436229 0.36382869236657156
0.1417497220754572 -0.0711955531408242 -0.06995384468250831
-0.11036921539028591 0.046635184585009065 -0.01621537937388222
0.13849350190698695 -0.03363803529362355 -0.3513455059004192
0.004916448184960589 0.029790602197220933 0.39018822603104936
0.1369313372177827 -0.03836120792389036 0.03592158206176038
-0.14545995736572603 -0.021121713343381254 -0.2146207473429561
0.13205422865098845 -0.051852267427773616 -0.15853922504488976
0.13729945315488593 -0.0037324638023985834 -0.3056569398503471
-0.0642583707587768 -0.08378713266003546 -0.41365554225249773
-0.05186500751339036 -0.049167320623749566 0.4226937944946592
-0.10624829335613689 0.10012298137477132 -0.014675829964241896
0.1827639568973459 0.020887973868051496 0.2063862472405439
-0.10091279777834988 0.06561814617996581 -0.1704109165053777
-0.10916566441988072 0.1261212406993249 0.016583047457861877
0.11025956065983011 0.04644951123934574 -0.019433400624769753
0.14316194175982175 0.028394346239607376 0.30944350608016424
-0.16239937189218973 -0.0735045921887356 0.3600975513272593
-0.20841310385263026 -0.08519308088031928 0.11445380550270443
0.11406082807022713 0.02329374549829924 0.009386067314289509
-0.12179487272357647 -0.012003384658707317 -0.1201004714721611
-0.04172994147017108 0.10718674041771936 -0.15670529691218646
-0.12191441062984283 -0.012203881464925154 -0.12340002175609838
-0.15304424792737606 -0.0413148774615561 0.3604058032890463
-0.0402418940837393 0.06077239493357531 0.11420389716130497
-0.18400589596092562 -0.08743522431136937 -0.3637673758007181
-0.11486053389393115 0.02469456252069882 0.0303464405383424
0.14865745469385086 -0.10073053811818689 0.022364957251578416
-0.15014017996925805 -0.04190306477458375 0.36390585037920137
-0.193243952596232 -0.022539634358728328 0.26861475455957273
-0.1399220645380604 0.0026402939254707714 -0.2677322562878736
-0.1704502213725741 -0.009266175654010417 0.3229672532150138
0.03043560566261828 -0.07967096173503851 -0.42283886611037214
-0.017972305221738955 0.06183151218575722 0.30151751574829655
0.02689697956614832 0.06230035163688458 0.24723400319774375
-0.10397916362510298 0.10537333707655305 -0.1273550350586567
0.084216640909247 0.009987599162614963 0.39206662454541613
-0.10025866507029135 0.128758296323096 -0.019350541281157457
-0.10821487245636627 0.12931740684811288 -0.06792588125203405
0.0559203651100149 -0.08273770767052381 -0.4160381284700833
0.09982251411890457 0.08722010918391576 0.05103372000833367
0.1493625192920197 -0.10519829112043781 -0.06144783894535458
0.03939106632555888 0.12499123689859393 -0.13551173925094945
0.10246774165041722 0.090097380886416 -0.14792714764280154
-0.10439726123048612 0.044349520994125924 0.18905287074318972
-0.05575312519908741 0.04516082039293526 0.12234520775994495
0.11459523282765319 0.02443078094057527 0.026662620546184852
0.13793363120450572 -0.04338750131805996 0.035989617944818184
-0.07554947668088044 0.05822751082735464 0.29838634477270903
0.10302096080008553 0.09678941314930517 -0.1396484349674834
-0.14316194089104747 0.028394346239607376 0.30944350608016424
-0.19305523854071135 -0.04553918363085441 0.28714579065198353
-0.10896687801295767 0.12959183091273707 0.0002799014690449131
-0.04659203653204474 -0.08159288040923836 -0.4186020170129124
0.13750204044913067 -0.01643768985252761 -0.33218960393232666
-0.15569574692296945 -0.04058643740635903 0.3571904426592839
0.11862835436467176 0.0004224761732793403 -0.07712003763877517
0.14796189231398618 -0.0015849624656579242 0.11075763262675145
0.00845621454762705 0.04291525616329567 0.3648374478617414
-0.17367907515232836 -0.09736542252795091 0.061264568412058906
0.0992233042326441 0.01648673639392967 -0.18468533888625605
0.1060320237363084 0.0954286954881492 -0.002117698253461267
-0.0027282764851038915 0.018721278050336437 0.40673177814296163
0.11435919772497781 0.04173812135977609 -0.11352816715990441
-0.12563053816423453 -0.026429272399354053 -0.16522460575496603
0.14906338945980466 -0.09375628997166408 -0.16408129884860925
-0.1087669513398381 0.13236932932304363 -0.03348338060930382
0.0480411256922037 -0.048981077144988006 0.42312747573806114
-0.10051256434337856 0.011364850683620226 0.380445601603792
-0.1588734787682473 -0.0983794992653711 0.043167973740514384
-0.005226409677268104 0.0009745550567511474 -0.31110456160412314
-0.16685230143388616 0.005239340676025189 0.3085702522180117
0.09228554460440928 0.05490211450963006 0.2396873414205782
-0.035280405818404116 -0.013969393625838461 0.4185057867992828
0.04758672961289868 0.039892220432009545 0.3725437469064169
0.03812099982702457 0.1521890562618649 -0.09212651091780619
0.11567886580305983 0.029079646223703542 0.07708500171102445
0.13765692660748852 -0.01861730868713629 -0.33535707338183607
-0.10047075458284026 0.1299768607984217 -0.032034862451017346
-0.10881617283065365 0.13215362896753918 -0.023042343136690527
-0.09997625914229166 0.10481669712829528 0.033664045037057555
0.03589748074385064 0.05528619417348429 0.19469965899262107
-0.14152584894343687 -0.06378458304104212 0.051308524161690044
-0.03858128641290394 -0.04874010088879446 0.4237346674876971
0.051468005701416714 0.0440139026436229 0.36382869236657156
-0.04708083064161084 0.00469372330100018 -0.2920402610204828
-0.1464550296665379 -0.044679232874327734 -0.1933315973655792
0.14216534910408124 -0.06955737070518665 -0.036459285337801295
-0.0306332509345706 -0.0009008027477582781 -0.32331111123764983
0.014798185088190908 0.058787761618568024 0.32167362121508514
0.06251604487929989 -0.05011051081262072 0.4205071440185054
-0.10779525449605448 0.03976603097293027 0.17322236509282174
-0.18691566525002615 -0.08259099341990754 -0.18473741104256286
-0.11856658907692046 -0.0003059638819177257 -0.0964629432630936
0.183471872161006 0.020580482083728785 0.211537019694498
