0.10727168313626938 0.07421955418889331 -0.11393657250261727
-0.05215311477237256 0.04472599888333684 0.3622756498069393
0.19447354051356486 -0.028726528696568276 -0.32297796346390584
0.11051916126389981 0.04691740046864268 -0.011261112794458197
0.1022195437083125 0.08641926222524099 -0.15207182522271095
-0.06228875094869009 -0.05641979372221824 -0.39250778528348673
0.10875326901425433 0.13233740186954163 -0.035971061361333434
-0.16685230143388616 0.005239340676025189 0.3085702522180117
-0.03702368278848569 0.027312423663495428 0.394897335378226
-0.1490476149086455 -0.01731379438017136 0.09637146415861614
0.15301270143138052 0.04139414105716541 0.26351700448375587
-0.06988919528145718 0.009388009187622365 0.4002461340616389
0.03528040668717836 -0.013969393625838461 0.4185057867992828
-0.10518518517226723 0.04340405027286176 0.18549961123053132
-0.19542509178576936 -0.00803354789559449 -0.2682527878065756
0.09968644235278896 0.07014462289133647 0.06507286746400098
-0.15014017996925805 -0.04190306477458375 0.36390585037920137
-0.11862493269730799 -4.8643810241000285e-05 -0.08909245261328724
-0.14999612633976694 -0.027066111070098986 0.08994036281035925
-0.07052470364163953 0.015249927659459928 -0.2187671353221603
0.11096329494743636 0.019408098389361278 -0.12136939770449892
-0.09653816651547974 0.016223714991270483 -0.19012307833299585
-0.023845246266809374 0.06299686423857967 0.2655428774262032
0.07994102276110625 -0.01361971199224532 0.40991958233964193
0.1429008208008234 -0.06844960209528744 -0.004842174285630635
-0.12673507601991033 -0.09183323103126775 -0.39276434517769915
-0.017303349053125947 0.002491299142461517 -0.3065957590187983
0.10583950879346608 0.11718440438426048 -0.10567496382024658
-0.005891945047291616 0.016643713040314423 -0.23939493090556752
0.1823426285377394 -0.08826305757002798 -0.36493652874086224
0.0060283977709136355 0.03452669784438139 0.3820431145450877
-0.04369443008237356 0.04431417274203445 0.1506355921838285
0.036805132636264205 0.1567875597879811 -0.07704059909375238
-0.02737322987877867 0.002338313427764499 -0.3070550962516215
0.10902332205845863 0.09912125752114653 -0.07721639013237938
0.11742290295060574 0.0031722281061377644 -0.02428466315777668
0.1180504294474126 0.013798368791316157 0.04744625250978032
-0.011791872392345852 0.11900255883457878 0.06768863811877072
0.09974098508585486 -0.020437933714213763 0.4021530392309181
-0.04686741081849936 0.04621138564864341 0.12368331014153705
-0.12340929961345362 -0.07723193234072621 0.40283719894881775
0.1890124256097968 -0.04486642657491974 -0.20739906143179293
-0.10780076578267088 0.012399072123845223 0.37393183095628885
0.11787178774329438 0.00244739889389628 -0.03658946572856833
0.011791873261120106 0.11900255883457878 0.06768863811877072
-0.11351083880600797 -0.09032712943005806 -0.3976435442325203
0.11589095531560872 0.04101443241373112 -0.12341522530538504
0.03586897408893816 0.1589261290395158 -0.0688574787345741
0.11419100846099413 0.023937615810589258 0.019463359870219486
0.0999945042702099 0.10716203465012852 0.030852528685222078
0.09865792224354647 -0.08837309325799017 -0.40276504985409756
0.10914305000909108 0.09100484273446346 -0.09392794146390926
0.1412550365905425 -0.0054301301246201805 0.35747588929714097
-0.1035356000746647 0.04533870191958919 0.19289328729299987
0.1267056200119417 0.003922143174702242 0.03287821158330335
0.037435699842928404 0.14018813463244034 -0.11214483421918447
-0.1168105791343113 0.0216893909598245 -0.011904983106748215
0.15618397176821158 -0.09294442043975647 -0.3798101610080011
0.00834617885966485 0.04794383008985825 0.12745150983223558
0.084216640909247 0.009987599162614963 0.39206662454541613
0.18159309355790706 0.020241252890270206 0.1960121053847919
0.1469977972448459 -0.1016522532936906 0.008493238882430434
0.1868263452667413 -0.08543956842312925 -0.1833286121567878
0.11809394960724567 -0.0009256985597151657 -0.11920555255227516
-0.11081772009424236 0.04767092638016274 0.0024095386353737147
-0.10583950792469184 0.11718440438426048 -0.10567496382024658
-0.116535965025321 0.004348032599094803 -0.0052669234438266765
-0.1556488059645469 0.03961038463710814 0.19585075771798727
0.04697953786326272 0.039239037945781485 0.3738983831478582
0.15586431714445956 0.04232288787421423 0.21531624195842938
0.10248408546590036 -0.02593135616021594 0.40276137124675054
-0.11235878985881136 0.031226387382979837 0.08852472232740519
0.14736743353687784 -0.1012904088206681 0.014549762785137269
0.03171650469001933 0.1627376588456813 -0.04396090660020509
0.04766141704876939 0.06011541156002556 0.11237472013775376
0.10042305431572761 0.12986606493299518 -0.02978074622490401
0.10431820364296975 0.1078766014666015 -0.1233133615251644
0.05215311564114681 0.04472599888333684 0.3622756498069393
-0.07836935498482359 -0.03887071686935953 0.4128675505463252
-0.05053735757193284 -0.07386890723851716 -0.4207352650221967
0.11025138875208854 0.019012996152274197 -0.13268121846250563
0.07554947754965469 0.05822751082735464 0.29838634477270903
-0.11662205512315672 -0.0012738598383796595 -0.15030935377165497
-0.1190911115273102 -0.0066971559132971425 -0.17108234325074978
-0.11589095444683448 0.04101443241373112 -0.12341522530538504
0.04288940301641919 0.09744772683341757 -0.16616095434665815
-0.010264865910867007 0.08762832448226254 0.09992244313888152
0.054253295930732706 0.04685772653769252 0.3574608757922204
-0.14604377365833376 -0.093043813643218 -0.38466769500508874
0.10246774165041722 0.090097380886416 -0.14792714764280154
0.12243171226309567 0.01581150876123591 0.3567535306616586
0.1859179331968634 0.016972679838004545 0.2265915741981481
0.14370470846935549 -0.003546220323636995 -0.23974974373704494
-0.14551088925583636 -0.02277699977196629 -0.21290901773764437
-0.11246939567987181 0.04255968315435393 -0.09828622891129624
0.1067690157879792 0.07012162752304041 0.03934010011886573
0.1100953623275342 0.012798925470084377 0.37165129856329
0.11820835631562779 0.0017964969400611763 -0.048378677934176134
0.19450774849945981 -0.039941996960970755 -0.3333209380436202
-0.026608301305293625 -0.0035891703503718175 -0.32182382402868237
0.1147491687641806 -0.001061390237098614 -0.17357306471263678
-0.1354049000006278 -0.03241300930985097 0.048647903036524665
-0.11787178687452013 0.00244739889389628 -0.03658946572856833
-0.02233610395574235 0.15894589365358847 0.0008367314616688076
-0.10080390235658418 0.1298757571956654 -0.044294624507047256
0.10954252326659804 0.04443561109196159 -0.05573434512342798
0.08490669200249526 0.0004981138309804733 -0.25061134939180046
0.15215009005372868 -0.0032906106512550493 0.3431991863838696
0.09780918410461871 0.03642904194887461 0.10741798298157065
-0.07349984819267269 0.05798140337327681 0.30492083025611527
-0.029578124614076443 0.0002945763149053149 -0.3184826540285729
-0.14378756694419353 -0.07638338424616453 0.3855498131880557
0.04269042656513004 -0.027579991035988072 -0.3741325855712642
-0.04947329916623276 0.04190764093432234 0.3683194407371186
0.062288751817464336 -0.05641979372221824 -0.39250778528348673
0.1353239419694506 -0.030416783288512605 0.03568725735837974
-0.01894400206552257 0.06230054168125068 0.29548436730261796
-0.10381211462731581 0.10405689975269444 -0.12938812968701524
-0.02702126771279251 0.008019879796189094 0.417898975138379
-0.11474916789540636 -0.001061390237098614 -0.17357306471263678
0.14707704574550262 0.007879056920921418 0.12296931345816231
0.1384326877098403 -0.07382481694558585 -0.37704387521529337
0.04090952081056398 0.004553660603196841 -0.2957900264076712
0.14273320166993797 -0.06860334798744878 -0.010596527646265105
-0.01757587267408931 -0.002240425484279024 -0.318889348971991
0.10348181838783739 0.01705629935908115 -0.17344611507609314
0.15480672024720632 0.043374783440484954 0.24603273275973156
0.11246939654864606 0.04255968315435393 -0.09828622891129624
0.15295435781099295 -0.10785720184630844 -0.11640942979409241
0.011928895249066125 0.05304043989947865 0.34077859129306737
-0.10821487245636627 0.12931740684811288 -0.06792588125203405
-0.029599219538711682 0.061505586097924475 0.11677747796680422
0.14220962944137863 -0.06914573460825035 0.052513595487023876
0.10779525536482873 0.03976603097293027 0.17322236509282174
0.12865243449809843 -0.012917117970835557 0.04819597753397871
-0.1183050880291899 -0.0007478170330612599 -0.11153802255828069
0.011053740943252796 0.05072588956495086 0.3467714503331363
0.1827639568973459 0.020887973868051496 0.2063862472405439
-0.11709203484048057 -0.0012480138045923572 -0.14250537192281273
-0.0058860536719430355 0.04803239076445304 0.12758872186454767
-0.16259397732305897 -0.09785288632695442 0.04834934333740788
0.1366341078292285 -0.043116117963293066 0.37906454919546506
-0.10171611531378374 0.07816582545061185 -0.16031556973466982
0.1339398488512664 -0.05965187825619593 -0.15700195616764243
-0.10967365301042124 0.045461850668811116 -0.036510027183545526
-0.09965413394178056 0.05970415555182143 0.07303572640288881
0.1657511852455741 -0.07284798890391798 0.35456859058479956
-0.059106648082992284 -0.011026556617039468 0.41303117874552286
-0.17553922940755112 -0.09737302430259424 0.0632809391362021
0.14657855937326628 -0.046905792667359 -0.19154346992510202
0.18701391905606546 -0.07967590288855671 -0.18622982944941457
-0.001106437864949507 0.0063765661626672965 0.4218904769592253
-0.09878316061202107 -0.0011127022159410915 -0.22312409245898468
-0.17570456800604353 -0.06990268131835992 0.3361426490268328
-0.1053442523066789 0.11441545797042763 -0.11143748908862264
-0.10885798259119195 0.13156639187634195 -0.014684952093813888
0.1474854510882155 0.004326747630093469 0.11791774416330367
0.11282173880336438 0.020543613476708633 -0.04736023017633603
-0.06431652433479827 -0.050344455427269175 0.4199368208758896
-0.1509229727131549 -0.037785753583390314 0.08500643097810613
-0.09328650741179548 -0.08764256271476618 -0.40455963880302165
-0.09948195374610916 0.049483949632596835 0.21045452698528788
-0.12064396404257637 0.007467230779619027 0.047653400868811056
0.10219483794072168 0.03547577940860111 0.10375316742602142
-0.11570452092370682 0.0194191209625941 0.047230552154275844
0.037023683657259936 0.027312423663495428 0.394897335378226
0.13284215259276957 -0.09238188911615007 -0.3903545826157636
-0.04222576722128226 0.046647537468804484 0.15885672141622342
0.042238311018218004 0.03390905365461086 0.38424914954658196
0.011547096117604893 0.0017911756978108428 -0.30879324202381875
-0.15093285502019124 -0.10641609541829922 -0.08654699837396829
0.14487310123203526 0.021635608404222934 0.1505833299831556
0.05316567202363832 -0.012019918518556577 0.4142932633806817
-0.10142971845409629 0.07348408249215119 -0.1643905010322267
0.039852684090775074 0.04671994437228219 0.12457233768607447
0.10171611618255799 0.07816582545061185 -0.16031556973466982
-0.10637961401310041 0.08284186707808999 0.022097944917231466
0.13991199305543223 -0.05140851383296925 0.049589762914833205
-0.05316567115486407 -0.012019918518556577 0.4142932633806817
0.09902698840248012 0.042398715576281415 -0.1838170261776217
-0.195657135956757 -0.09661683776994903 0.08733656495065276
-0.015508189971103644 0.059729811541242656 0.31708842079459476
0.12869671483539583 -0.05102120341489161 -0.365362798253987
0.16010914810529484 -0.09492753339983509 -0.16937498466585793
0.10133184647433768 0.12851503953450938 -0.05845330986898095
0.008041537740833415 -0.06499687605228711 0.4358152177065105
0.10109942221461786 0.0683614366043774 -0.168418491371361
-0.013476045564575542 0.056523573041052266 0.3303641600317057
0.012770221657716636 0.1305203876854198 0.053726268587001046
-0.10007812292251227 0.11827620926740867 0.01379490656305464
0.10031130822847067 0.12930486391995133 -0.023365608603398105
-0.15480671937843204 0.043374783440484954 0.24603273275973156
-0.2097747717356167 -0.09368160253579336 0.10883324337579256
0.1309797178051538 -0.019218799105789774 0.048341361474032396
-0.04627485248505181 -0.04585579754474911 -0.39336735595128125
0.06072430659586709 -0.04984292834517551 -0.3918433901796597
-0.045465073441171115 0.008839541147106111 0.41177726601810566
-0.07333203901742118 0.041847967003372205 0.11836890948838528
0.02928507707035034 0.01631493628699046 0.40949103229412426
-0.18649490702351784 -0.10486400308049738 -0.17577225811695202
-0.08766841586164269 -0.08687744409691506 -0.40641181119486885
0.1060320237363084 0.0954286954881492 -0.002117698253461267
-0.01948049731097556 0.15474800365117575 0.012956050731163196
-0.14553255431356985 -0.04254731517560595 0.36934929115692366
-0.02000996091488347 0.06265877531131758 0.28891092272416474
0.10630910842205776 -0.08939895274610751 -0.4001620121718554
0.14878573464095707 -0.08708497254467795 -0.16569781622651333
0.14999612720854122 -0.027066111070098986 0.08994036281035925
-0.04185309021939303 0.04150854776554752 -0.20971304163322246
0.11749131892239571 -0.0011790276997041271 -0.13470785158241733
0.14439323920767508 0.030318355401834113 0.1733612875244286
-0.13871281223667273 -0.04235137943417411 -0.35810785457875915
0.138712813105447 -0.04235137943417411 -0.35810785457875915
-0.03704515780185309 0.14449511010098487 -0.10327451343224917
-0.20841310385263026 -0.08519308088031928 0.11445380550270443
-0.1471695964830109 -0.10297933310204987 -0.016559359676492885
-0.1378579926780303 3.6183904318642934e-06 -0.2922284049429052
0.18736854184317678 -0.09727059038927538 0.07661844279229009
0.1448445945771228 -0.009870326693789039 -0.22846794998887937
0.037814648308898385 0.05291558075096192 0.18376887718861123
-0.041512720759737935 0.06067110128645295 0.11389697551008053
-0.10567017839451166 -0.030649777681330675 0.4020488949183045
0.017575873542863565 -0.002240425484279024 -0.318889348971991
-0.033028950213415946 0.05832690403081617 0.21120539227568275
-0.19418030118792412 -0.011965565829856778 -0.24525057791332439
0.14224136685051456 -0.06937815886797015 -0.03220400193683143
-0.010771334146478845 0.0499343547802141 0.348718264819293
-0.10721504904640235 0.10479959313534776 -0.038944685557437936
0.07136242007610871 -0.008337808925693774 0.41074950608632743
0.10882434560716947 0.08725868819023064 -0.09939285725499894
-0.11861638070083426 0.000522059421106974 -0.07477869104862964
-0.13876697488100645 -0.047455020885339566 -0.3616312771259425
0.13070130280884187 -0.009541359896098944 0.03444360702673101
0.14553255518234412 -0.04254731517560595 0.36934929115692366
-0.1378273955350909 -0.09116845583870857 -0.3857638709086568
-0.18682634439796703 -0.08543956842312925 -0.1833286121567878
-0.02246210337045554 0.06303259257940333 0.27392421405920636
-0.10603202286753416 0.0954286954881492 -0.002117698253461267
0.18723912162987408 -0.07370489895058734 -0.1894299865298903
-0.1386143692550416 -0.06625534984449033 -0.3729611520987271
-0.14535372256508552 -0.01798351072624868 -0.21803660477893633
0.020253598660976445 0.047526682706305556 0.12653777652010734
0.16906441872386935 -0.07206595633748544 0.3487754681734841
0.12188685506553502 -0.011523142545614984 -0.11468591743808351
-0.1106345173253381 0.01922489562045704 -0.12698026756874056
0.005368373687506537 0.031799371146720795 0.3868527573619224
-0.033867806045307376 0.16153695854076738 -0.05549051820174322
-0.06014010934575295 0.044461077037016766 0.12156032452802117
0.14165260940438865 -0.07241183708375695 -0.09073880695666636
-0.07961832655872264 -0.019508996852798888 0.41051803204843806
0.05628068922810873 -0.07096635963532781 0.42754904795935383
-0.12865243362932416 -0.012917117970835557 0.04819597753397871
0.10347535687939055 -0.0013829453045114681 -0.21162963906517201
-0.19231539582354926 -0.012551662654857493 0.2610785452225418
0.04151272162851218 -0.08098093755045031 -0.41995931387547886
-0.11689210816736101 0.027398133672598968 0.06295482300400326
-0.11031505274595219 0.04654206284562826 -0.017831896751786286
0.12895175437467954 -0.0029128024514815665 0.033809048888379066
-0.14748545021944123 0.004326747630093469 0.11791774416330367
0.11139621601337399 -0.009338392513122018 0.3854840578373909
0.1186163815696085 0.000522059421106974 -0.07477869104862964
0.10007812379128651 0.11827620926740867 0.01379490656305464
0.10815253877306522 0.10405480926466754 -0.057266862891523274
-0.10643890785531837 0.10194075573635752 -0.020920497789371134
0.09343778359597198 0.015981788513246498 -0.19540916237560124
-0.10779240383056324 0.10475835350790769 -0.05017459719366277
-0.11419100759221988 0.023937615810589258 0.019463359870219486
-0.11124493982919748 0.019564884991379927 -0.11584575820428952
0.036860055458062264 0.05412540318544787 0.18920243565929723
-0.1375313064127332 -0.0016550888367426464 -0.2989001024586235
-0.15526111545773705 -0.002368895475751309 0.33835875637972945
-0.13843268684106602 -0.07382481694558585 -0.37704387521529337
0.016764004010955957 0.14925078031785188 0.024920103753567603
0.11607757888310248 -0.0012537151355748455 -0.15810098273670178
0.1461112402770676 0.0318014616347477 0.2981518300249623
0.07996629866179532 0.040370372057075 0.11616401475308752
-0.19344102860386034 -0.041469193486815714 0.2833996361077507
0.03381421440284615 -0.005215189946580018 -0.3368314375739098
0.07272997933444371 0.009478660350244056 0.3987286297984642
0.14716959735178517 -0.10297933310204987 -0.016559359676492885
0.043389219699218114 0.09214396866476643 -0.17085124930159257
0.10483303383068923 0.11132115560186023 -0.1173233531505867
0.15178387456028627 -0.07525699128838916 0.3757178679087392
-0.011261268522241442 -0.07746796744340159 -0.4276143009413118
0.1881245383314559 -0.019890986028626212 0.14122440513102025
-0.018064286694923246 0.15213432348443295 0.01897874673670722
0.1952871204447672 -0.008248868162366807 -0.26226791062988214
0.09732229043871343 0.025389364723099134 -0.1909199343599829
0.18112748486100314 0.008811794669657952 0.16572302436281094
0.19488574674359938 -0.06278475963107817 -0.34569054574324626
-0.004461861192515222 0.027668756849901527 0.39357272614662586
0.1842428821542057 0.019834367902485994 0.21663552994777924
-0.14515075518210863 -0.013690598540794352 -0.2231921283420425
0.10870328734597444 0.13207267006758766 -0.043145616269707976
0.036133135757793866 -0.08034086812548195 -0.421370583338013
-0.013880650019966764 0.1386330015847812 0.042750826356961674
0.05856407228659888 0.05087051332754017 0.3472161541497711
0.11846130536688457 -0.0005400985409322878 -0.10395088133113942
0.14817930306878543 -0.07493695657590498 -0.17175415008485406
0.18062215689158778 0.014277660682578075 0.17556219132803863
0.10711565671171505 0.12378331490776884 -0.08927052418430725
-0.10005360719928755 0.1150838440059424 0.019573395558181682
0.04172994233894533 0.10718674041771936 -0.15670529691218646
0.1481002446124948 -0.003691794308056745 0.10849002325064622
0.03130904956913686 0.008277009823499715 0.41686950480730606
0.0068930996365923845 0.037756311801599995 0.37584367727908624
0.06733880075739432 0.05640612562281283 0.3237274306793468
-0.03214429368929846 0.04708939061994799 0.12541632471585012
-0.15483731652137145 -0.0949682028941769 -0.1670927418735643
0.1060331640025049 0.053470700344291106 -0.13026328399282855
0.07836935585359783 -0.03887071686935953 0.4128675505463252
-0.0752153786853061 -0.0852077142965077 -0.41037157560657933
0.04057390246006097 0.11606903399971791 -0.14681462792375022
-0.11862189198745066 -0.03989277547015521 0.39390511374290543
-0.039611897010173355 0.026413323767555646 -0.22086769570047837
0.12492946536652771 -0.017461078763885862 -0.11976751374278327
0.11830508889796415 -0.0007478170330612599 -0.11153802255828069
-0.18780602310512615 -0.07960957740479364 0.10888360513280461
0.04921693018516072 -0.06468653360247316 -0.41183339687049164
-0.1451575967792876 -0.00481856735456429 0.35278464412037613
-0.016666700426747085 0.060913597897575195 0.3097103283701451
0.14777241808100122 -0.103739890655115 -0.031737062929364915
-0.10622339754417998 0.08640101796609695 0.016185094555283566
-0.11314804411115507 0.04226758496368399 -0.10419679874085114
0.13992206540683466 0.0026402939254707714 -0.2677322562878736
-0.1973344675318077 -0.07021055319141477 -0.34961629221342777
0.19446783918258237 -0.024207843804207013 -0.3170284345393039
-0.03680513176748996 0.1567875597879811 -0.07704059909375238
0.04056078939880123 0.04913939919688795 0.16822248786553773
-0.13878882998310602 0.024311623123041054 0.32353472569213837
-0.18557262171491587 -0.06373422128403004 0.31424098605756956
-0.14240043311615194 -0.06906325535337024 -0.024234491445130693
0.09228554460440928 0.05490211450963006 0.2396873414205782
0.10899804615776956 0.12902663896800548 0.0034317872805354616
0.13849350190698695 -0.03363803529362355 -0.3513455059004192
-0.11620794844946133 -0.008622305341720371 0.38157731580381765
0.1000262416793458 0.11139945388068656 0.02523671766746228
0.10948550995677307 0.04477274979739329 -0.049098756037265545
-0.10678136780300039 0.06858967988804338 -0.11886613331445048
-0.15109838366304976 -0.08248741924039217 0.06340541819598663
-0.19352369790310653 -0.027517086350814512 0.2723187192545351
-0.11302755598305829 0.020692228170985733 -0.04015849892361159
-0.1589768629033966 -0.07409106910246847 0.3654262053078673
0.08169133137273289 -0.08606975554106128 -0.40834152168807814
-0.014691379285677871 0.14262868438168136 0.036660284512725946
-0.1558266874912008 0.04117673030236618 0.2059689098126251
-0.09537775561617545 0.047737631952657955 0.08637741103503063
0.14611181041016585 -0.03814360712472506 -0.19875850428345226
0.04342627835060434 0.056937869759113746 -0.19831893166470171
-0.0563996561325026 0.04892863999490163 0.35243268195439
0.06713127230963141 -0.07220981992261045 0.4249195941102261
0.10777910159371165 0.07883402144176055 -0.1094159871665952
0.18664884382881955 -0.11164972721586561 -0.17500200830121665
-0.09228554373563504 0.05490211450963006 0.2396873414205782
0.14660535562888402 0.011162453433741587 0.12830803979017275
0.11834936923526156 0.0014696206303979886 -0.054653752857878685
-0.10882434473839522 0.08725868819023064 -0.09939285725499894
-0.1337017223917898 0.020757413388552276 0.33654098201814325
0.034236112895550945 0.02351096620873236 0.4003145500334288
-0.006677018323581487 0.036981881009810785 0.37738322668872665
-0.15546294257451745 -0.10954441572839546 -0.1514895292850319
0.19542509265454364 -0.00803354789559449 -0.2682527878065756
-0.13827000886369875 0.0012529700530631016 -0.2857093130531518
-0.06981146713572912 0.057218375243452635 0.3163596006506656
0.11124494069797172 0.019564884991379927 -0.11584575820428952
-0.10916566441988072 0.1261212406993249 0.016583047457861877
0.1016083610269888 0.12756633805902184 -0.06472477394972789
0.07521537955408035 -0.0852077142965077 -0.41037157560657933
0.11366135481272015 -0.037466289004004366 0.3973648714274508
0.0953777564849497 0.047737631952657955 0.08637741103503063
-0.15488767827838348 -0.08312539817733361 0.0678680400003533
0.13449382817839903 -0.0771504033076765 0.3946742232924443
-0.12335912790080764 0.0007126739202884536 0.047849336610242876
0.0994819546148834 0.049483949632596835 0.21045452698528788
-0.12457332135571346 -0.017097713935934705 -0.11268646066252172
-0.007438526098477037 0.05325519003315268 0.1247669431169437
-0.035280405818404116 -0.013969393625838461 0.4185057867992828
-0.09718051647284108 0.05149575929195402 0.22008274470416317
-0.18591793232808912 0.016972679838004545 0.2265915741981481
-0.032826172874805125 -0.04870589290289945 0.4238724496531075
-0.11715722005804714 0.003554407326331166 -0.018039995332647427
-0.11403137032470997 0.023499563546767382 0.012651029523599602
0.12335912876958188 0.0007126739202884536 0.047849336610242876
-0.12883734679752315 -0.07292343651725304 -0.384088439777267
-0.04597382220917595 -0.012943724182087224 0.4159529208296866
0.012074279189119803 0.12295890244769975 0.06303578190395473
-0.0906676960471684 -0.00032325791923129565 -0.24020889092550207
0.026307461942558105 -0.04874314159865176 0.42387568040733087
-0.04120484888668309 0.03667933037900625 -0.21327523323108677
0.12211091737314715 -0.012380622725382567 -0.12689968875752128
-0.12303662261156438 -0.04144999900584129 0.3907294723856545
0.16774018958100131 -0.09200104020651925 -0.3737410941771327
0.10637961488187465 0.08284186707808999 0.022097944917231466
-0.008041536872059161 -0.06499687605228711 0.4358152177065105
0.18855422864317012 0.009053721147681937 0.24060753624115325
0.12317364546828465 -0.018441327604143215 -0.16756082114722734
0.1416566003360764 -0.07308991538194196 -0.10120550041870091
-0.03946898364687876 -0.0165555173594992 -0.3597667518502998
-0.18816444677955912 -0.055728602362773494 -0.20010420843968774
-0.0999338792486551 0.0996349474426696 0.039336679320276235
0.15109838453182403 -0.08248741924039217 0.06340541819598663
-0.09347066040253013 -0.0006438627648137352 -0.23464382175348647
0.1793633030106524 -0.0973939291828634 0.06744462115271985
0.13759288165611844 0.023373564132054214 0.3268872983542128
-0.16469130694715362 0.0016349592288904258 0.32113370517104267
-0.15440762620965723 -0.04096899671528462 0.3587531774815864
-0.10825782248310108 0.08263623907398793 -0.10522645911629011
0.1387578536202087 0.0021022783250891075 -0.279411052716787
0.1901388185675722 -0.08313071941958396 -0.35893701814798035
0.14515759764806188 -0.00481856735456429 0.35278464412037613
-0.10875326814548009 0.13233740186954163 -0.035971061361333434
0.03781179764340714 -0.06875519343594928 0.43127562793388013
0.15483484681338663 0.03508238757080878 0.17309351501261733
0.11567886580305983 0.029079646223703542 0.07708500171102445
0.13245123133173636 -0.05353016913592255 -0.15817662039440294
-0.028385786261270182 0.0014899553775689078 -0.31262567671025343
0.042877620265722026 0.05059475895235341 -0.20301093701893086
-0.09902698753370587 0.042398715576281415 -0.1838170261776217
0.15526111632651132 -0.002368895475751309 0.33835875637972945
-0.040909519941789735 0.004553660603196841 -0.2957900264076712
-0.14950030058865577 -0.022105763070960294 0.09297727178036945
-0.029285076201576086 0.01631493628699046 0.40949103229412426
-0.13527681009788772 -0.06495696673540963 -0.1562085209392449
-0.09996637683525535 0.10358406936987935 0.03507436427776129
-0.1817696439052241 0.0050922463366767645 0.16086016912347295
0.10381211549609005 0.10405689975269444 -0.12938812968701524
0.0436786572687629 -0.03199301126080703 -0.3790511238098646
-0.0038031674196707063 0.024436672315923835 0.3985233818830943
-0.18376758032585724 -0.08038172766418986 0.10452702808471237
-0.044689122294453244 -0.0370158838563871 -0.384380728012303
-0.1381730862369963 -0.0821151223272351 -0.3813061902578083
0.10800126345766295 0.12823339378397403 -0.07340980147973206
-0.09343778272719773 0.015981788513246498 -0.19540916237560124
-0.02227966077901563 0.016047733908277406 -0.2370286885034651
0.10936863267163187 -0.034469479395237757 0.4001744873356255
0.06579963143648615 -0.05960797800763071 -0.395517327864781
-0.11183863842884152 0.04283657779573721 -0.09223920722689358
-0.08490669113372101 0.0004981138309804733 -0.25061134939180046
-0.04269042569635579 -0.027579991035988072 -0.3741325855712642
-0.15125973132985443 -0.09306566874531758 -0.3822225841910617
-0.008954510006723055 0.06962827234868829 0.11415942677964148
-0.03613313488901962 -0.08034086812548195 -0.421370583338013
-0.14820647854436106 -0.10418079358442812 -0.040657935517678365
0.0180642875636975 0.15213432348443295 0.01897874673670722
0.021181775344926997 0.06290830356398486 0.2817283859524147
0.13994011962161257 0.02528293987809252 0.3201143071913722
-0.11768421308519594 0.0027647729852552927 -0.031112577142415374
-0.10019157940906398 0.1273179500725511 -0.011850820462414494
-0.19446251707155773 -0.020450096553643105 -0.31107776534850545
-0.10649040987852694 0.03413425622841951 0.09880973337546414
-0.14707704487672835 0.007879056920921418 0.12296931345816231
0.10197419643169903 0.08245968785789659 -0.15620529018502147
0.16195181827883795 -0.037570433316618024 0.3494750214850365
-0.1043182027741955 0.1078766014666015 -0.1233133615251644
-0.04045930483853853 0.031650186319345464 -0.21699060058801417
-0.12607049087171723 -0.006177764660791646 0.04803101902421846
0.08628584396716134 0.0389313561170927 0.11365599925388697
0.01026486677964126 0.08762832448226254 0.09992244313888152
-0.13246358334675748 -0.017035569428225483 0.03499891666442624
-0.11856658907692046 -0.0003059638819177257 -0.0964629432630936
0.18767755398242814 0.012194774430305755 0.23608600068330077
-0.10667076198193992 0.10333416102847992 -0.027070143431458735
0.1942880572122676 -0.04056173163876822 0.13095782838647138
0.012400585365684731 0.1268207940108773 0.05835955023211048
0.09531827259836564 0.010808210735362422 0.3845245238330366
0.005891945916065868 0.016643713040314423 -0.23939493090556752
-0.15206475926458304 -0.07845068686041805 0.07679955507316742
0.19363753534716469 -0.037058073705657585 0.27969225061419883
-0.15227532842220326 0.04038538556199556 0.2685640127138285
-0.19074049816181746 -0.055353644828491255 0.29867426198732516
0.04045930570731278 0.031650186319345464 -0.21699060058801417
-0.10161748228778653 0.04739840275919932 0.2013014201816207
-0.0755952773731065 0.009582424574125503 0.39715069142687504
-0.03781464744012414 0.05291558075096192 0.18376887718861123
-0.04411328786522102 0.07380107649477805 -0.18563803129343137
0.04460892444074036 0.03663790070720013 0.3791380963651393
0.1755392302763254 -0.09737302430259424 0.0632809391362021
0.04468912316322749 -0.0370158838563871 -0.384380728012303
0.009289559092902064 -0.0010345939814808691 -0.316135796151811
0.022336104824516603 0.15894589365358847 0.0008367314616688076
0.19476373826057397 -0.05687494997898761 -0.34296720997727337
-0.129204512512796 -0.07729502707026585 0.3988895973765367
-0.1307013019400676 -0.009541359896098944 0.03444360702673101
0.09824343548111891 0.03427393883749069 -0.18742824922193552
-0.02630746107378385 -0.04874314159865176 0.42387568040733087
-0.11139621514459974 -0.009338392513122018 0.3854840578373909
0.10010187933704694 0.12103774395096423 0.007833214799023339
-0.005810416014241905 0.033652303716032395 0.3836240936265342
-0.07554947668088044 0.05822751082735464 0.29838634477270903
-0.0390341621372803 0.1276767538357162 -0.13181480619753216
-0.12424758531224679 0.016420410910166633 0.35405927168369644
0.05638274305269543 0.004388702093436586 -0.2851175148971685
-0.07476896446937656 0.0021661332320930815 -0.265765107054546
0.020931296870429283 0.1570368979962823 0.00689496576367038
0.03209868391021273 0.05915416715637653 0.21660493280483983
0.1259944739940582 0.017061050468233224 0.3513019179761947
0.14115222258849147 -0.05901142874249542 0.035412833293755545
-0.10889371093201562 0.1309375350689725 -0.008856481430406946
0.12064396491135061 0.007467230779619027 0.047653400868811056
-0.11809394873847143 -0.0009256985597151657 -0.11920555255227516
-0.16693078975707853 -0.08290399649084663 0.08320899136369082
0.0813068716201465 0.01542799923047991 -0.21012961888367693
0.14195763061195227 -0.07017919587101103 -0.05013487792115137
0.041142325159015954 0.11172937090020707 -0.15181070426371257
-0.03860884284598601 0.008621560259208627 0.41451922613195463
0.10998475650647375 0.043854455420479055 -0.06827461266379678
0.13725023166407035 -0.038893142104557354 0.048846119310349476
0.1088579834599662 0.13156639187634195 -0.014684952093813888
0.025325502703005997 0.06276463002322594 0.25663055683436353
-0.11846700582909282 0.0011459750749582553 -0.06115783124271157
-0.10109942134584361 0.0683614366043774 -0.168418491371361
-0.11846130449811032 -0.0005400985409322878 -0.10395088133113942
0.14170183089520422 -0.07381227401742435 -0.11156823961248793
-0.14337308018176595 -0.06823542209471163 0.00878723751676122
0.13334786065091708 -0.0064008767465733585 0.3659210808371481
0.11117348401632443 0.04890963555829331 0.027197975525441336
0.13266788190907122 -0.04305340332248561 0.3828604953636117
-0.07772605480563181 0.058356740996291234 0.29131403373328735
0.1067338575802538 0.12184562255118414 -0.09459556732195967
-0.1378264453132605 -0.0210158586314729 -0.3385135202581126
0.12927977095053922 0.018440202432899316 0.3455946956183489
0.05910664895176653 -0.011026556617039468 0.41303117874552286
0.1865302561443836 -0.09837968930973717 -0.17775537107703065
0.07923424776364266 -0.026771542302669954 0.4112753588472798
0.11307525798771943 -0.0006446229422780447 -0.18877319320070662
-0.1425653916259122 -0.0688063153704257 -0.017043212632540827
-0.13972023742127998 -0.052286138715541663 0.0358839532772759
0.14950030145743004 -0.022105763070960294 0.09297727178036945
-0.04114232429024171 0.11172937090020707 -0.15181070426371257
0.10925574631817843 0.09404213179320586 -0.0887366895599794
0.02855359630529594 0.0615677306056337 0.2373997773860342
0.1944910245952445 -0.017325957219600674 -0.3050961189260354
-0.10109410010359329 0.12922523533056246 -0.05254007941830088
-0.08988813405749495 0.015765327980277688 -0.2005207856901422
0.005607829588771421 0.00663160570195101 0.4211012227068816
0.047985252648575234 -0.056484028717954396 -0.40384792265203984
-0.10954252239782379 0.04443561109196159 -0.05573434512342798
0.05044176612456722 -0.07027934925193689 0.4288208248571829
-0.020935286933342775 -0.01491163359287917 0.421319013550413
0.019042065827195778 0.0074907962810133455 0.41931860655302083
0.04491223524900922 0.042257322567915506 0.14385537933507667
0.03530568258786743 -0.007640916235266526 -0.3428936628075992
-0.11459523195887894 0.02443078094057527 0.026662620546184852
0.1381730871057706 -0.0821151223272351 -0.3813061902578083
-0.18855422777439584 0.009053721147681937 0.24060753624115325
-0.14904381402132383 -0.004051738337418426 0.3476638986762632
-0.13715729910028138 -0.009180465644906877 -0.31915370068521276
0.09980712052525183 0.08552225281732806 0.05250637380111271
0.1468605852125338 -0.1020990475983523 0.00039829910911476363
0.11395744393507783 -0.0008827485329803708 -0.18121645907213868
0.0878105699162472 5.9871522792520615e-05 -0.24553963539413698
-0.008518548230928099 0.06366772085085351 0.11832614950601655
-0.030435604793844027 -0.07967096173503851 -0.42283886611037214
0.14609926748200436 0.014253525048085525 0.1340264747656175
-0.03280849874875939 0.1622579868656872 -0.04964000239187061
-0.10058383098065979 0.13007283320329371 -0.03673256913622901
0.09618715544009823 -0.0009053638125442742 -0.2289217759350861
0.08000905864416404 0.05833735647095073 0.2837417159667005
-0.10998475563769951 0.043854455420479055 -0.06827461266379678
0.012084921673620465 0.007027658160868505 0.42029733503834954
0.018944002934296825 0.06230054168125068 0.29548436730261796
0.13933406813817312 -0.07683264912758532 0.39021673268596185
0.09969005319574455 0.05414687819881528 0.07712015991874985
-0.08000905777538979 0.05833735647095073 0.2837417159667005
0.11768421395397019 0.0027647729852552927 -0.031112577142415374
-0.08781056904747295 5.9871522792520615e-05 -0.24553963539413698
0.11185289262507202 0.019905824584133286 -0.09974995061886935
0.041853091088167274 0.04150854776554752 -0.20971304163322246
-0.09780918323584446 0.03642904194887461 0.10741798298157065
-0.0788974882781689 -0.032329959921872625 0.4119247404461862
0.11314804497992932 0.04226758496368399 -0.10419679874085114
0.07746797542526501 -0.04497171115372983 0.4141035991033306
-0.1858658601717823 -0.011827213531348163 0.14620945889774978
-0.11782408573863323 -0.0010705123666706062 -0.12693503700961276
-0.10512247053145977 0.01735352874763532 -0.1676900513161639
-0.16010914723652056 -0.09492753339983509 -0.16937498466585793
-0.18084184731000574 0.01800234021344352 0.185681483688873
0.1950174474892951 -0.010652929393319827 -0.28673327209760824
-0.13122639452355558 -0.04830261875807082 -0.15935432533102079
0.19283611825539165 -0.017525693848354174 0.2648743013463224
0.11862493356608224 -4.8643810241000285e-05 -0.08909245261328724
0.02660830217406788 -0.0035891703503718175 -0.32182382402868237
0.14337308105054022 -0.06823542209471163 0.00878723751676122
0.10916927613161055 -0.0014929809924736637 -0.1943021539431663
0.19459573904095637 -0.047204162322109694 -0.3379236225457902
-0.1815930926891328 0.020241252890270206 0.1960121053847919
0.12826018292650262 -0.03603164408444201 -0.16252008438123544
0.13540490086940207 -0.03241300930985097 0.048647903036524665
-0.011632615213568096 0.052281972834440416 0.3428002832594609
-0.029523961969742718 0.0037748587909877396 -0.3014888868134094
-0.1136613539439459 -0.037466289004004366 0.3973648714274508
-0.15550608264561838 -0.09901937864597336 0.037783826805010065
-0.14105035793949658 0.0262871343084764 0.3166258528075482
-0.18424288128543143 0.019834367902485994 0.21663552994777924
0.19347656776909217 -0.07966944138010988 -0.3558227611209743
0.14996381966630706 -0.10036318235854796 0.026253835114739797
-0.06540623872991959 -0.009716010668529451 0.4118183156011796
0.13840950229717813 -0.04577749926592278 0.03599455909833635
-0.11130936486929968 0.04910880205394852 0.032754872789715325
-0.07923424689486841 -0.026771542302669954 0.4112753588472798
-0.19464134882004208 -0.010240723163285281 -0.2507413397382014
-0.031716503821245086 0.1627376588456813 -0.04396090660020509
-0.16906441785509507 -0.07206595633748544 0.3487754681734841
0.10986597877767174 0.045814953100993816 -0.030356770698502317
0.04429383088177435 -0.06954349746646259 0.4300631448782691
-0.18076202867625077 0.01182323769461302 0.170615716567624
-0.01896585716762214 -0.04886191932745382 0.4237268756686877
0.038657875161209734 0.02096190112645785 -0.2249158307424175
-0.15523317893592284 0.043574520069238454 0.239250809511685
0.14363230156587778 -0.0682504355996322 0.015367333648027379
-0.04171074698919668 -0.023702895923523842 -0.36952438978247776
0.057272530774697177 0.015268552007336123 -0.22625089241415225
-0.193243952596232 -0.022539634358728328 0.26861475455957273
-0.02637872771106507 0.16240318076137483 -0.01818784984946019
0.06020434521026334 -0.08327363278287854 -0.41482564541447225
-0.10002624081057156 0.11139945388068656 0.02523671766746228
-0.11051916039512556 0.04691740046864268 -0.011261112794458197
0.1757045688748178 -0.06990268131835992 0.3361426490268328
0.20841310472140454 -0.08519308088031928 0.11445380550270443
-0.05628068835933448 -0.07096635963532781 0.42754904795935383
0.13732301865628024 -0.005939829114455425 0.36182562474805424
0.09190640609407322 0.03766927148193386 0.1109953781287216
-0.10070945030664082 0.0627446753647872 -0.17238699782391126
0.172579479318945 -0.09123326096754296 -0.37101832854425815
-0.10031130735969643 0.12930486391995133 -0.023365608603398105
0.11365109241695165 0.021129140168611116 -0.025802737554049604
0.11205338943128983 0.020020991469979738 -0.09193893712848206
0.13782644618203477 -0.0210158586314729 -0.3385135202581126
0.11715722092682139 0.003554407326331166 -0.018039995332647427
-0.007547991653340984 0.03999522447842668 0.3712092553677803
0.1075050576178196 0.10494649743033013 -0.04464544640683693
0.03280849961753364 0.1622579868656872 -0.04964000239187061
0.14709605018211094 -0.05588995002957817 -0.18462604504403812
-0.009849238882242956 0.08170198097032272 0.10491984978940644
-0.10654153181300333 0.0789417765973297 0.027939338597532067
0.13862349225338788 -0.044594663131420686 0.049100208627802774
-0.12054685137150782 0.015233963932708955 0.35938583517627753
-0.19447353964479058 -0.028726528696568276 -0.32297796346390584
0.13122639539232986 -0.04830261875807082 -0.15935432533102079
-0.04002961452682432 0.12018653523527745 -0.1417767418232496
0.12303662348033863 -0.04144999900584129 0.3907294723856545
-0.1482775551372762 -0.10085729771036439 0.02080659344969584
0.022279661647789883 0.016047733908277406 -0.2370286885034651
0.1669307906258528 -0.08290399649084663 0.08320899136369082
0.18856411095020645 -0.05010880041332594 -0.20378023661283584
-0.16995268522216816 -0.027499602269134865 0.33683688109613485
-0.1554511598238203 -0.07466329268874511 0.3706182173892615
0.05294255993785659 0.059491115817442125 0.11095470863437978
0.14190194761268987 0.0008306914716261493 -0.2526039645701832
-0.11708386293273901 -0.07696644036130791 0.40653090124801167
0.151484174594973 0.039258422471121934 0.2733071400025341
-0.08728623664144927 0.05707052072663987 0.2583975893502055
-0.1934765669003179 -0.07966944138010988 -0.3558227611209743
0.1479734850203173 0.03423650009737228 0.2902754412726424
0.1799436985046706 -0.08106664755955385 0.10006497641344395
-0.12492946449775347 -0.017461078763885862 -0.11976751374278327
-0.18112748399222886 0.008811794669657952 0.16572302436281094
0.02254097265115434 0.0030813868991499682 -0.3044950085961141
0.030607595813923617 0.16301151277720727 -0.03842035315141426
-0.03865787429243549 0.02096190112645785 -0.2249158307424175
0.035595690290510455 0.004258331658303499 -0.2986061038242927
-0.10978958007373202 0.0187748705615719 -0.13845837714707013
0.13750204044913067 -0.01643768985252761 -0.33218960393232666
-0.1112652745763684 0.04310130959769118 -0.08613498218829985
-0.11424688063584837 0.030098284025909722 0.08322039402565581
-0.11545461258230737 -0.0011839688532223058 -0.16586182451444312
-0.09262116208613805 0.010568184700999267 0.3864874920903104
-0.10849537794070514 0.018238185271752833 -0.15015028663724328
0.046274853353826056 -0.04585579754474911 -0.39336735595128125
0.14256539249468647 -0.0688063153704257 -0.017043212632540827
-0.11834936836648731 0.0014696206303979886 -0.054653752857878685
0.15483731739014572 -0.0949682028941769 -0.1670927418735643
-0.023745092885883504 -0.06700469477995656 0.43360842252755194
-0.10229137960991772 0.1248952644937219 -0.0784296333654548
0.18950293011865768 -0.04004272047499488 -0.2109395879719237
-0.17936330214187812 -0.0973939291828634 0.06744462115271985
-0.04240916003455259 0.046144490031782115 -0.20629452357611716
-0.15428808830339089 0.04292247784920686 0.2523032466186481
0.10024441261160937 0.056580776395243365 -0.17628442768354635
-0.12895175350590526 -0.0029128024514815665 0.033809048888379066
0.19525177219267573 -0.009264085165983482 -0.2805262330569635
0.04614866389474678 0.039949423786200644 0.1370350671250813
-0.03743569897415416 0.14018813463244034 -0.11214483421918447
0.023745093754657758 -0.06700469477995656 0.43360842252755194
0.09985292121747788 0.09054702585656899 0.048078910204471435
-0.11025138788331429 0.019012996152274197 -0.13268121846250563
0.004688584990026781 0.028739276764048444 0.39188057111102065
0.14742843777839054 -0.10334041739760803 -0.023723082056000683
-0.015643121471022745 0.1461194192978983 0.030770999652172365
0.18667602017316945 -0.09089631230647736 -0.18078980947028178
-0.023669835316914543 0.16045446583155726 -0.005255330737495595
-0.09865792137477222 -0.08837309325799017 -0.40276504985409756
0.04402795881362389 0.06851651280710136 -0.18966279087834226
0.03704515867062734 0.14449511010098487 -0.10327451343224917
0.11661388408418938 0.02812106244117965 0.06971774181544149
0.11101080603895716 0.048351285210740724 0.015432138776861754
-0.053550701040548716 0.045469262399088384 0.1227030613012797
-0.14591378331193283 -0.033968332401876244 -0.20237922954607018
-0.12670561914316741 0.003922143174702242 0.03287821158330335
-0.0349335748503022 0.056383130254516745 0.20022386862592872
0.03589748074385064 0.05528619417348429 0.19469965899262107
0.10610918174893821 0.09793443045495676 -0.008390302600404742
0.18176964477399837 0.0050922463366767645 0.16086016912347295
-0.11205338856251558 0.020020991469979738 -0.09193893712848206
0.09479812116839582 -0.07515702795182937 0.4163713985238019
-0.044608923571966115 0.03663790070720013 0.3791380963651393
0.08986399929177662 0.010352484345494795 0.38839971850184
-0.1419019467439156 0.0008306914716261493 -0.2526039645701832
0.0173033499219002 0.002491299142461517 -0.3065957590187983
0.0074385269672512895 0.05325519003315268 0.1247669431169437
0.04407584999387686 0.07878175924108766 -0.1817748094196912
-0.10609796826256504 0.08966008880005849 0.010186344139866035
0.014691380154452125 0.14262868438168136 0.036660284512725946
0.10609796913133929 0.08966008880005849 0.010186344139866035
-0.1333478597821428 -0.0064008767465733585 0.3659210808371481
0.10882890667195547 0.13200235365213692 -0.020307414664386583
-0.10839009336189502 0.13022942976094637 -0.062226070624465446
-0.1950174466205208 -0.010652929393319827 -0.28673327209760824
-0.06733879988862007 0.05640612562281283 0.3237274306793468
0.04171074785797093 -0.023702895923523842 -0.36952438978247776
-0.04287761939694778 0.05059475895235341 -0.20301093701893086
0.14437784561402234 -0.006494568619052399 -0.2339564312813634
0.17095992123118361 -0.09737606501245158 0.05828942386102576
-0.1125410424058852 0.020337415339508308 -0.061893683028185875
-0.0338142135340719 -0.005215189946580018 -0.3368314375739098
0.14417050721062555 0.0294973637403545 0.30574885355913994
0.008692819783400684 0.04365661923538641 0.36318254152188856
0.023845247135583628 0.06299686423857967 0.2655428774262032
0.010887832211662127 0.09934512978439264 0.08898348942713012
-0.11386489146002106 0.04195705246950396 -0.10989128812616938
0.014030405849214611 0.04774428350547086 0.12705127639726427
-0.1411522217197172 -0.05901142874249542 0.035412833293755545
-0.18667601930439517 -0.09089631230647736 -0.18078980947028178
0.07052470451041377 0.015249927659459928 -0.2187671353221603
0.14820647941313533 -0.10418079358442812 -0.040657935517678365
0.10142971932287054 0.07348408249215119 -0.1643905010322267
0.16762977380430696 -0.031929916531267394 0.341364498073702
-0.11749131805362147 -0.0011790276997041271 -0.13470785158241733
0.13505293870341592 0.02159626922044372 0.33339023647284916
0.1583837353056251 -0.0012588463334591016 0.333097568149081
0.1369313372177827 -0.03836120792389036 0.03592158206176038
-0.043804465770335754 0.06290355245483278 -0.1938794952729972
0.14081451374996154 -0.057796095021393074 0.05032371425664668
-0.0387540367416736 0.05167136028621497 0.17843642232068158
0.11351083967478222 -0.09032712943005806 -0.3976435442325203
-0.13419982867529398 -0.02501515227132864 0.03545236252190086
-0.1421275294064564 -0.07622450715611895 -0.14087840210477412
-0.09761723842610037 -0.014958004418203497 0.40023549157713817
-0.17237137986930956 -0.07110281149017558 0.34265470927504116
0.09347066127130438 -0.0006438627648137352 -0.23464382175348647
-0.010887831342887873 0.09934512978439264 0.08898348942713012
-0.19528711957599293 -0.008248868162366807 -0.26226791062988214
0.15368678879787778 0.04225105110383476 0.2581140431560093
0.16685230230266043 0.005239340676025189 0.3085702522180117
0.15532155043492582 0.03759021302564325 0.18490952347384287
0.19477305043451204 -0.01248590730419269 -0.2929247275002342
0.06671203443805179 0.043235861008878135 0.12015114555351393
-0.1536867879291035 0.04225105110383476 0.2581140431560093
0.04128067745752455 0.015521881147325028 -0.23239882765694514
0.17301316056234697 -0.0950419401082172 -0.17284063372575198
-0.15577176466940276 0.04308211511671678 0.2239444462229746
-0.18839383032942159 -0.06012185797351981 0.3064774836587031
-0.025325501834231743 0.06276463002322594 0.25663055683436353
0.03043560566261828 -0.07967096173503851 -0.42283886611037214
-0.10197419556292478 0.08245968785789659 -0.15620529018502147
0.12931644951319327 -0.006866865532209471 0.3698502481059191
-0.14165659946730214 -0.07308991538194196 -0.10120550041870091
0.010221156575442114 0.04833855223821315 0.35252751409306554
-0.06809973753041737 -0.08427953761255715 -0.4125251583630346
0.03777245845962791 0.1373849802327125 -0.1170149111444336
-0.12182451964468546 -0.012073130941059884 -0.12116909094264722
0.1431455979443386 -0.06830079735664427 0.0026049042437072817
-0.031732277503629995 0.019973100289726736 0.4050563470115718
0.19231539669232353 -0.012551662654857493 0.2610785452225418
-0.1521500891849544 -0.0032906106512550493 0.3431991863838696
-0.14906338859103038 -0.09375628997166408 -0.16408129884860925
-0.14867797861661358 -0.012628820667487273 0.10010507577468751
0.02499444541728899 0.1615947320280567 -0.011540478012600566
-0.19364722674106064 -0.014194786244013186 -0.2399386478369317
