0.48825321 0.53488320 0.35251415 -0.00032050 0.00007045 -0.00012070
0.47650644 0.53488320 0.35367087 -0.00054347 0.00007852 -0.00026872
0.46500093 0.53488320 0.35603276 -0.00059958 0.00009765 -0.00045626
0.45370594 0.53488320 0.35945910 -0.00047176 0.00013261 -0.00064293
0.44246659 0.53488320 0.36301911 -0.00045263 0.00016529 -0.00078032
0.43205628 0.53488320 0.36858261 -0.00048301 0.00018190 -0.00081963
0.42164713 0.53488320 0.37414613 -0.00057596 0.00019808 -0.00084501
0.41200086 0.53488320 0.38085333 -0.00067374 0.00020728 -0.00082151
0.40287736 0.53488320 0.38834113 -0.00073670 0.00021233 -0.00079567
0.39395732 0.53488320 0.39603356 -0.00079644 0.00021572 -0.00078104
0.38646951 0.53488320 0.40515825 -0.00080448 0.00021122 -0.00071518
0.37898168 0.53488320 0.41428173 -0.00083833 0.00020617 -0.00064894
0.37275586 0.53488320 0.42424971 -0.00084407 0.00019446 -0.00054159
0.36719233 0.53488320 0.43465883 -0.00081534 0.00017807 -0.00046470
0.36202857 0.53488320 0.44523352 -0.00075713 0.00015882 -0.00044262
0.35860342 0.53488320 0.45652968 -0.00060456 0.00012380 -0.00048456
0.35517591 0.53488320 0.46782351 -0.00041238 0.00009082 -0.00061308
0.35338172 0.53488320 0.47944373 -0.00022694 0.00007084 -0.00050037
0.35222381 0.53488320 0.49119052 -0.00011547 0.00007176 -0.00024421
0.35164547 0.53488320 0.50293726 -0.00010633 0.00007904 0.00008632
0.35280216 0.53488320 0.51468289 -0.00014720 0.00007041 0.00039418
0.35396007 0.53488320 0.52642846 -0.00032225 0.00008776 0.00057874
0.35688964 0.53488320 0.53782278 -0.00050784 0.00010464 0.00056120
0.36031482 0.53488320 0.54911780 -0.00068596 0.00014217 0.00044934
0.36440939 0.53488320 0.56013602 -0.00079343 0.00016992 0.00045329
0.36997411 0.53488320 0.57054514 -0.00082780 0.00018663 0.00050047
0.37553880 0.53488320 0.58095425 -0.00085149 0.00020237 0.00060512
0.38272500 0.53488320 0.59028000 -0.00081628 0.00020904 0.00068444
0.39021277 0.53488320 0.59940469 -0.00079743 0.00021390 0.00074704
0.39831442 0.53488320 0.60791439 -0.00076369 0.00021500 0.00079588
0.40743795 0.53488320 0.61540216 -0.00069987 0.00021029 0.00080911
0.41656262 0.53488320 0.62288880 -0.00063219 0.00020513 0.00084968
0.42685109 0.53488320 0.62863445 -0.00052140 0.00019067 0.00083468
0.43726143 0.53488320 0.63419908 -0.00045899 0.00017400 0.00080377
0.44805846 0.53488320 0.63882828 -0.00044168 0.00015060 0.00072297
0.45935345 0.53488320 0.64225346 -0.00051516 0.00011393 0.00055883
0.47064844 0.53488320 0.64567864 -0.00061214 0.00009520 0.00037023
0.48238102 0.53488320 0.64690751 -0.00045676 0.00006457 0.00018302
0.49412662 0.53488320 0.64806420 -0.00016808 0.00007511 0.00010888
0.50587219 0.53488320 0.64806420 0.00016804 0.00007511 0.00010887
0.51761895 0.53488320 0.64690751 0.00045677 0.00006457 0.00018302
0.52935153 0.53488320 0.64567983 0.00061216 0.00009521 0.00037027
0.54064775 0.53488320 0.64225346 0.00051513 0.00011394 0.00055887
0.55194151 0.53488320 0.63882828 0.00044166 0.00015060 0.00072296
0.56273860 0.53488320 0.63419908 0.00045900 0.00017400 0.00080376
0.57314891 0.53488320 0.62863559 0.00052144 0.00019068 0.00083469
0.58343738 0.53488320 0.62289000 0.00063222 0.00020513 0.00084970
0.59256208 0.53488320 0.61540216 0.00069987 0.00021029 0.00080910
0.60168439 0.53488320 0.60791439 0.00076366 0.00021500 0.00079585
0.60978717 0.53488320 0.59940469 0.00079744 0.00021389 0.00074703
0.61727500 0.53488320 0.59028000 0.00081628 0.00020904 0.00068443
0.62446237 0.53488320 0.58095425 0.00085151 0.00020238 0.00060515
0.63002592 0.53488320 0.57054514 0.00082779 0.00018663 0.00050049
0.63558942 0.53488320 0.56013602 0.00079340 0.00016992 0.00045326
0.63968521 0.53488320 0.54911780 0.00068597 0.00014217 0.00044932
0.64311033 0.53488320 0.53782278 0.00050785 0.00010464 0.00056118
0.64603996 0.53488320 0.52642965 0.00032228 0.00008777 0.00057876
0.64719778 0.53488320 0.51468289 0.00014720 0.00007041 0.00039419
0.64835447 0.53488320 0.50293726 0.00010633 0.00007903 0.00008633
0.64777613 0.53488320 0.49119052 0.00011547 0.00007175 -0.00024421
0.64661831 0.53488320 0.47944373 0.00022695 0.00007084 -0.00050037
0.64482415 0.53488320 0.46782351 0.00041238 0.00009082 -0.00061308
0.64139658 0.53488320 0.45652968 0.00060456 0.00012380 -0.00048456
0.63797140 0.53488320 0.44523352 0.00075713 0.00015882 -0.00044261
0.63280767 0.53488320 0.43465883 0.00081535 0.00017807 -0.00046470
0.62724417 0.53488320 0.42424971 0.00084407 0.00019446 -0.00054159
0.62101835 0.53488320 0.41428173 0.00083834 0.00020617 -0.00064893
0.61353052 0.53488320 0.40515825 0.00080448 0.00021122 -0.00071518
0.60604274 0.53488320 0.39603356 0.00079643 0.00021572 -0.00078105
0.59712261 0.53488320 0.38834113 0.00073669 0.00021233 -0.00079568
0.58799911 0.53488320 0.38085333 0.00067374 0.00020728 -0.00082152
0.57835287 0.53488320 0.37414730 0.00057594 0.00019807 -0.00084499
0.56794369 0.53488320 0.36858261 0.00048302 0.00018190 -0.00081964
0.55753344 0.53488320 0.36301911 0.00045264 0.00016529 -0.00078033
0.54629403 0.53488320 0.35945910 0.00047178 0.00013261 -0.00064293
0.53499907 0.53488320 0.35603276 0.00059959 0.00009766 -0.00045626
0.52349353 0.53488320 0.35367087 0.00054347 0.00007852 -0.00026872
0.51174676 0.53488320 0.35251415 0.00032049 0.00007045 -0.00012070
0.50000000 0.31242415 0.23244913 0.00000000 0.00001237 -0.00187697
0.48823667 0.31242415 0.23360702 -0.00017711 0.00000430 -0.00178953
0.47647452 0.31242415 0.23476610 -0.00035898 -0.00000062 -0.00173724
0.46471235 0.31242415 0.23592396 -0.00048634 -0.00002667 -0.00172573
0.45295021 0.31242415 0.23708421 -0.00032645 -0.00005178 -0.00178373
0.44144115 0.31242415 0.23952061 -0.00019224 -0.00006994 -0.00177493
0.43013081 0.31242415 0.24295169 -0.00020075 -0.00008402 -0.00170151
0.41882044 0.31242415 0.24638158 -0.00035853 -0.00009572 -0.00164422
0.40751010 0.31242415 0.24981384 -0.00053428 -0.00010559 -0.00163543
0.39630970 0.31242415 0.25351101 -0.00064886 -0.00011388 -0.00167081
0.38588640 0.31242415 0.25908399 -0.00066693 -0.00012033 -0.00156351
0.37546310 0.31242415 0.26465580 -0.00073469 -0.00012592 -0.00148743
0.36503860 0.31242415 0.27022758 -0.00083650 -0.00013068 -0.00145597
0.35461408 0.31242415 0.27579820 -0.00092665 -0.00013466 -0.00149827
0.34507546 0.31242415 0.28269464 -0.00094259 -0.00013757 -0.00144161
0.33593774 0.31242415 0.29019308 -0.00097927 -0.00013971 -0.00133546
0.32680243 0.31242415 0.29769033 -0.00108420 -0.00014124 -0.00124763
0.31766471 0.31242415 0.30518883 -0.00119096 -0.00014218 -0.00123380
0.30893862 0.31242415 0.31309646 -0.00125507 -0.00014241 -0.00124388
0.30143899 0.31242415 0.32223296 -0.00122744 -0.00014173 -0.00114076
0.29394174 0.31242415 0.33136949 -0.00128421 -0.00014046 -0.00102855
0.28644329 0.31242415 0.34050721 -0.00138638 -0.00013858 -0.00095070
0.27894601 0.31242415 0.34964371 -0.00149900 -0.00013610 -0.00095080
0.27301350 0.31242415 0.35982695 -0.00147070 -0.00013255 -0.00087832
0.26744169 0.31242415 0.37025025 -0.00146617 -0.00012814 -0.00078212
0.26186991 0.31242415 0.38067356 -0.00152487 -0.00012293 -0.00068895
0.25629809 0.31242415 0.39109805 -0.00161380 -0.00011688 -0.00065492
0.25152937 0.31242415 0.40185490 -0.00165807 -0.00010958 -0.00060610
0.24809831 0.31242415 0.41316408 -0.00162836 -0.00010044 -0.00045958
0.24466605 0.31242415 0.42447561 -0.00166710 -0.00008965 -0.00027432
0.24123617 0.31242415 0.43578595 -0.00173378 -0.00007677 -0.00017993
0.23780508 0.31242415 0.44709632 -0.00181818 -0.00006105 -0.00024552
0.23650409 0.31242415 0.45883125 -0.00174483 -0.00003920 -0.00043419
0.23534621 0.31242415 0.47059226 -0.00172567 -0.00001474 -0.00042911
0.23418714 0.31242415 0.48235556 -0.00175980 0.00000338 -0.00026141
0.23302928 0.31242415 0.49411890 -0.00182936 0.00001220 -0.00008496
0.23302928 0.31242415 0.50588107 -0.00182937 0.00001221 0.00008487
0.23418714 0.31242415 0.51764441 -0.00175981 0.00000341 0.00026129
0.23534621 0.31242415 0.52940536 -0.00172567 -0.00001469 0.00042894
0.23650409 0.31242415 0.54116869 -0.00174486 -0.00003914 0.00043402
0.23780508 0.31242415 0.55290365 -0.00181822 -0.00006097 0.00024539
0.24123617 0.31242415 0.56421286 -0.00173380 -0.00007666 0.00017978
0.24466605 0.31242415 0.57552439 -0.00166715 -0.00008953 0.00027417
0.24809831 0.31242415 0.58683473 -0.00162838 -0.00010030 0.00045944
0.25152937 0.31242415 0.59814513 -0.00165813 -0.00010942 0.00060602
0.25629809 0.31242415 0.60890192 -0.00161386 -0.00011670 0.00065485
0.26186872 0.31242415 0.61932522 -0.00152496 -0.00012273 0.00068893
0.26744169 0.31242415 0.62974972 -0.00146620 -0.00012791 0.00078209
0.27301350 0.31242415 0.64017302 -0.00147072 -0.00013230 0.00087836
0.27894601 0.31242415 0.65035510 -0.00149896 -0.00013583 0.00095084
0.28644329 0.31242415 0.65949279 -0.00138640 -0.00013828 0.00095074
0.29394174 0.31242415 0.66862929 -0.00128413 -0.00014014 0.00102856
0.30143899 0.31242415 0.67776585 -0.00122733 -0.00014139 0.00114081
0.30893862 0.31242415 0.68690354 -0.00125501 -0.00014204 0.00124405
0.31766471 0.31242415 0.69480997 -0.00119080 -0.00014178 0.00123388
0.32680243 0.31242415 0.70230848 -0.00108404 -0.00014082 0.00124768
0.33593774 0.31242415 0.70980573 -0.00097911 -0.00013926 0.00133549
0.34507546 0.31242415 0.71730536 -0.00094245 -0.00013710 0.00144176
0.35461408 0.31242415 0.72420061 -0.00092639 -0.00013416 0.00149835
0.36503741 0.31242415 0.72977358 -0.00083627 -0.00013015 0.00145632
0.37546310 0.31242415 0.73534417 -0.00073432 -0.00012536 0.00148762
0.38588640 0.31242415 0.74091595 -0.00066651 -0.00011975 0.00156371
0.39630970 0.31242415 0.74648660 -0.00064834 -0.00011327 0.00167081
0.40751010 0.31242415 0.75018615 -0.00053382 -0.00010496 0.00163560
0.41882044 0.31242415 0.75361723 -0.00035799 -0.00009507 0.00164425
0.43013081 0.31242415 0.75704831 -0.00020017 -0.00008335 0.00170163
0.44144115 0.31242415 0.76047933 -0.00019160 -0.00006928 0.00177503
0.45294905 0.31242415 0.76291579 -0.00032574 -0.00005116 0.00178383
0.46471235 0.31242415 0.76407361 -0.00048564 -0.00002612 0.00172554
0.47647452 0.31242415 0.76523393 -0.00035839 -0.00000014 0.00173724
0.48823667 0.31242415 0.76639181 -0.00017677 0.00000477 0.00178940
0.50000000 0.31242415 0.76755089 -0.00000002 0.00001283 0.00187693
0.51176214 0.31242415 0.76639181 0.00017676 0.00000477 0.00178939
0.52352548 0.31242415 0.76523393 0.00035841 -0.00000014 0.00173723
0.53528762 0.31242415 0.76407480 0.00048565 -0.00002612 0.00172564
0.54704982 0.31242415 0.76291579 0.00032577 -0.00005116 0.00178379
0.55855882 0.31242415 0.76047933 0.00019157 -0.00006928 0.00177502
0.56986922 0.31242415 0.75704944 0.00020017 -0.00008335 0.00170171
0.58117956 0.31242415 0.75361723 0.00035797 -0.00009507 0.00164423
0.59249109 0.31242415 0.75018615 0.00053379 -0.00010497 0.00163563
0.60369027 0.31242415 0.74648780 0.00064839 -0.00011327 0.00167089
0.61411357 0.31242415 0.74091595 0.00066653 -0.00011975 0.00156369
0.62453812 0.31242415 0.73534417 0.00073437 -0.00012536 0.00148766
0.63496137 0.31242415 0.72977358 0.00083629 -0.00013015 0.00145624
0.64538473 0.31242415 0.72420061 0.00092637 -0.00013416 0.00149830
0.65492451 0.31242415 0.71730536 0.00094250 -0.00013710 0.00144175
0.66406107 0.31242415 0.70980573 0.00097906 -0.00013926 0.00133546
0.67319757 0.31242415 0.70230848 0.00108405 -0.00014082 0.00124772
0.68233407 0.31242415 0.69480997 0.00119074 -0.00014178 0.00123385
0.69106257 0.31242415 0.68690234 0.00125504 -0.00014204 0.00124406
0.69855988 0.31242415 0.67776585 0.00122726 -0.00014139 0.00114078
0.70605826 0.31242415 0.66862929 0.00128414 -0.00014014 0.00102858
0.71355677 0.31242415 0.65949279 0.00138639 -0.00013828 0.00095078
0.72105396 0.31242415 0.65035510 0.00149897 -0.00013583 0.00095084
0.72698653 0.31242415 0.64017302 0.00147071 -0.00013230 0.00087838
0.73255825 0.31242415 0.62974972 0.00146618 -0.00012791 0.00078211
0.73813128 0.31242415 0.61932641 0.00152501 -0.00012273 0.00068896
0.74370193 0.31242415 0.60890192 0.00161388 -0.00011670 0.00065481
0.74847060 0.31242415 0.59814513 0.00165814 -0.00010942 0.00060600
0.75190169 0.31242415 0.58683592 0.00162842 -0.00010030 0.00045945
0.75533271 0.31242415 0.57552439 0.00166705 -0.00008953 0.00027415
0.75876385 0.31242415 0.56421286 0.00173381 -0.00007666 0.00017978
0.76219493 0.31242415 0.55290365 0.00181823 -0.00006097 0.00024539
0.76349592 0.31242415 0.54116869 0.00174486 -0.00003914 0.00043406
0.76465380 0.31242415 0.52940655 0.00172568 -0.00001470 0.00042899
0.76581287 0.31242415 0.51764441 0.00175981 0.00000341 0.00026129
0.76697069 0.31242415 0.50588107 0.00182937 0.00001221 0.00008485
0.76697069 0.31242415 0.49411890 0.00182936 0.00001220 -0.00008496
0.76581287 0.31242415 0.48235556 0.00175980 0.00000338 -0.00026141
0.76465380 0.31242415 0.47059342 0.00172567 -0.00001474 -0.00042907
0.76349592 0.31242415 0.45883125 0.00174483 -0.00003920 -0.00043418
0.76219493 0.31242415 0.44709632 0.00181817 -0.00006105 -0.00024554
0.75876385 0.31242415 0.43578595 0.00173378 -0.00007676 -0.00017994
0.75533390 0.31242415 0.42447561 0.00166711 -0.00008965 -0.00027431
0.75190169 0.31242415 0.41316524 0.00162833 -0.00010044 -0.00045955
0.74847060 0.31242415 0.40185490 0.00165806 -0.00010958 -0.00060611
0.74370193 0.31242415 0.39109805 0.00161381 -0.00011688 -0.00065493
0.73813128 0.31242415 0.38067478 0.00152494 -0.00012293 -0.00068894
0.73255825 0.31242415 0.37025025 0.00146618 -0.00012814 -0.00078210
0.72698653 0.31242415 0.35982695 0.00147069 -0.00013255 -0.00087836
0.72105396 0.31242415 0.34964371 0.00149900 -0.00013610 -0.00095083
0.71355677 0.31242415 0.34050721 0.00138638 -0.00013858 -0.00095073
0.70605826 0.31242415 0.33137068 0.00128416 -0.00014046 -0.00102851
0.69855988 0.31242415 0.32223296 0.00122737 -0.00014173 -0.00114073
0.69106257 0.31242415 0.31309766 0.00125509 -0.00014241 -0.00124390
0.68233407 0.31242415 0.30518883 0.00119090 -0.00014217 -0.00123375
0.67319757 0.31242415 0.29769033 0.00108427 -0.00014124 -0.00124760
0.66406226 0.31242415 0.29019308 0.00097932 -0.00013971 -0.00133543
0.65492451 0.31242415 0.28269464 0.00094265 -0.00013757 -0.00144156
0.64538592 0.31242415 0.27579820 0.00092664 -0.00013466 -0.00149826
0.63496256 0.31242415 0.27022642 0.00083656 -0.00013068 -0.00145613
0.62453812 0.31242415 0.26465580 0.00073470 -0.00012592 -0.00148749
0.61411357 0.31242415 0.25908399 0.00066690 -0.00012033 -0.00156352
0.60369027 0.31242415 0.25351220 0.00064876 -0.00011388 -0.00167072
0.59249109 0.31242415 0.24981384 0.00053428 -0.00010560 -0.00163548
0.58117956 0.31242415 0.24638158 0.00035856 -0.00009572 -0.00164421
0.56986922 0.31242415 0.24295169 0.00020079 -0.00008402 -0.00170150
0.55855882 0.31242415 0.23952061 0.00019225 -0.00006994 -0.00177493
0.54704982 0.31242415 0.23708421 0.00032645 -0.00005178 -0.00178373
0.53528762 0.31242415 0.23592396 0.00048633 -0.00002667 -0.00172573
0.52352548 0.31242415 0.23476610 0.00035897 -0.00000062 -0.00173724
0.51176333 0.31242415 0.23360702 0.00017711 0.00000430 -0.00178953
0.50000000 0.95454550 0.35135627 -0.00000000 0.00105646 -0.00103494
0.48825321 0.95454550 0.35251415 0.00025841 0.00104663 -0.00099818
0.47650644 0.95454550 0.35367087 0.00040935 0.00106200 -0.00111947
0.46500093 0.95454550 0.35603276 0.00031582 0.00110985 -0.00129196
0.45370594 0.95454550 0.35945910 0.00006357 0.00113550 -0.00144666
0.44246659 0.95454550 0.36301911 -0.00020126 0.00112693 -0.00158783
0.43205628 0.95454550 0.36858261 -0.00040018 0.00111172 -0.00152104
0.42164713 0.95454550 0.37414613 -0.00067234 0.00109340 -0.00149553
0.41200086 0.95454550 0.38085333 -0.00090037 0.00107971 -0.00138259
0.40287736 0.95454550 0.38834113 -0.00105154 0.00107117 -0.00127619
0.39395732 0.95454550 0.39603356 -0.00122987 0.00106668 -0.00120696
0.38646951 0.95454550 0.40515825 -0.00129127 0.00107116 -0.00100885
0.37898168 0.95454550 0.41428173 -0.00143565 0.00107847 -0.00083350
0.37275586 0.95454550 0.42424971 -0.00151574 0.00109147 -0.00054721
0.36719233 0.95454550 0.43465883 -0.00154828 0.00110527 -0.00029137
0.36202857 0.95454550 0.44523352 -0.00156335 0.00111249 -0.00011004
0.35860342 0.95454550 0.45652968 -0.00137131 0.00110233 0.00003953
0.35517591 0.95454550 0.46782351 -0.00122269 0.00103590 0.00027142
0.35338172 0.95454550 0.47944373 -0.00100160 0.00098663 0.00036306
0.35222381 0.95454550 0.49119052 -0.00092521 0.00098417 0.00018130
0.35164547 0.95454550 0.50293726 -0.00094134 0.00098844 -0.00005522
0.35280216 0.95454550 0.51468289 -0.00094796 0.00097441 -0.00029259
0.35396007 0.95454550 0.52642846 -0.00113840 0.00101410 -0.00034024
0.35688964 0.95454550 0.53782278 -0.00127519 0.00108103 -0.00011241
0.36031482 0.95454550 0.54911780 -0.00147023 0.00111082 0.00001096
0.36440939 0.95454550 0.56013602 -0.00157165 0.00110914 0.00020651
0.36997411 0.95454550 0.57054514 -0.00152376 0.00109778 0.00041067
0.37553880 0.95454550 0.58095425 -0.00150560 0.00108249 0.00071588
0.38272500 0.95454550 0.59028000 -0.00135134 0.00107279 0.00092033
0.39021277 0.95454550 0.59940469 -0.00125862 0.00106628 0.00109352
0.39831442 0.95454550 0.60791439 -0.00114409 0.00106513 0.00124552
0.40743795 0.95454550 0.61540216 -0.00096153 0.00107103 0.00131982
0.41656262 0.95454550 0.62288880 -0.00078799 0.00107942 0.00148468
0.42685109 0.95454550 0.62863445 -0.00047909 0.00109444 0.00151457
0.43726143 0.95454550 0.63419908 -0.00024809 0.00110755 0.00155469
0.44805846 0.95454550 0.63882828 -0.00004909 0.00111285 0.00151639
0.45935345 0.95454550 0.64225346 0.00006019 0.00109423 0.00131894
0.47064844 0.95454550 0.64567864 0.00030859 0.00102566 0.00120803
0.48238102 0.95454550 0.64690751 0.00033966 0.00097114 0.00096926
0.49412662 0.95454550 0.64806420 0.00011650 0.00098869 0.00092497
0.50587219 0.95454550 0.64806420 -0.00011651 0.00098869 0.00092496
0.51761895 0.95454550 0.64690751 -0.00033967 0.00097114 0.00096925
0.52935153 0.95454550 0.64567983 -0.00030857 0.00102566 0.00120816
0.54064775 0.95454550 0.64225346 -0.00006023 0.00109423 0.00131899
0.55194151 0.95454550 0.63882828 0.00004902 0.00111285 0.00151636
0.56273860 0.95454550 0.63419908 0.00024808 0.00110755 0.00155465
0.57314891 0.95454550 0.62863559 0.00047917 0.00109444 0.00151461
0.58343738 0.95454550 0.62289000 0.00078808 0.00107942 0.00148473
0.59256208 0.95454550 0.61540216 0.00096155 0.00107103 0.00131979
0.60168439 0.95454550 0.60791439 0.00114400 0.00106514 0.00124544
0.60978717 0.95454550 0.59940469 0.00125862 0.00106628 0.00109351
0.61727500 0.95454550 0.59028000 0.00135134 0.00107279 0.00092033
0.62446237 0.95454550 0.58095425 0.00150569 0.00108249 0.00071596
0.63002592 0.95454550 0.57054514 0.00152374 0.00109778 0.00041071
0.63558942 0.95454550 0.56013602 0.00157154 0.00110914 0.00020644
0.63968521 0.95454550 0.54911780 0.00147025 0.00111082 0.00001092
0.64311033 0.95454550 0.53782278 0.00127520 0.00108104 -0.00011244
0.64603996 0.95454550 0.52642965 0.00113846 0.00101411 -0.00034020
0.64719778 0.95454550 0.51468289 0.00094796 0.00097441 -0.00029258
0.64835447 0.95454550 0.50293726 0.00094134 0.00098844 -0.00005522
0.64777613 0.95454550 0.49119052 0.00092520 0.00098417 0.00018129
0.64661831 0.95454550 0.47944373 0.00100161 0.00098663 0.00036307
0.64482415 0.95454550 0.46782351 0.00122270 0.00103590 0.00027142
0.64139658 0.95454550 0.45652968 0.00137131 0.00110233 0.00003953
0.63797140 0.95454550 0.44523352 0.00156335 0.00111249 -0.00011004
0.63280767 0.95454550 0.43465883 0.00154828 0.00110527 -0.00029137
0.62724417 0.95454550 0.42424971 0.00151575 0.00109147 -0.00054720
0.62101835 0.95454550 0.41428173 0.00143566 0.00107847 -0.00083350
0.61353052 0.95454550 0.40515825 0.00129128 0.00107116 -0.00100886
0.60604274 0.95454550 0.39603356 0.00122986 0.00106668 -0.00120699
0.59712261 0.95454550 0.38834113 0.00105154 0.00107117 -0.00127621
0.58799911 0.95454550 0.38085333 0.00090037 0.00107971 -0.00138260
0.57835287 0.95454550 0.37414730 0.00067229 0.00109340 -0.00149544
0.56794369 0.95454550 0.36858261 0.00040018 0.00111172 -0.00152105
0.55753344 0.95454550 0.36301911 0.00020127 0.00112693 -0.00158785
0.54629403 0.95454550 0.35945910 -0.00006355 0.00113550 -0.00144667
0.53499907 0.95454550 0.35603276 -0.00031580 0.00110985 -0.00129196
0.52349353 0.95454550 0.35367087 -0.00040935 0.00106200 -0.00111948
0.51174676 0.95454550 0.35251415 -0.00025841 0.00104663 -0.00099818
0.50000000 0.52736109 0.34218901 -0.00000000 0.00034807 -0.00017756
0.50000000 0.51983780 0.33302411 -0.00000000 0.00061327 -0.00022795
0.50000000 0.51231569 0.32385683 0.00000000 0.00084764 -0.00028989
0.50000000 0.50479358 0.31468958 0.00000000 0.00095301 -0.00048075
0.50000000 0.49632296 0.30647206 0.00000000 0.00095713 -0.00064469
0.50000000 0.48715568 0.29894996 0.00000000 0.00089694 -0.00077021
0.50000000 0.47798842 0.29142785 0.00000000 0.00081761 -0.00093354
0.50000000 0.46882352 0.28390574 0.00000000 0.00078578 -0.00109366
0.50000000 0.45945755 0.27668053 0.00000000 0.00080530 -0.00121641
0.50000000 0.44899994 0.27109098 0.00000000 0.00076006 -0.00121014
0.50000000 0.43854114 0.26550025 0.00000000 0.00069663 -0.00126170
0.50000000 0.42808354 0.25991070 0.00000000 0.00063969 -0.00135875
0.50000000 0.41762590 0.25432119 0.00000000 0.00062172 -0.00148353
0.50000000 0.40651780 0.25029993 0.00000000 0.00053597 -0.00150372
0.50000000 0.39517078 0.24685822 0.00000000 0.00038166 -0.00152907
0.50000000 0.38382256 0.24341533 0.00000000 0.00022883 -0.00160060
0.50000000 0.37247556 0.23997360 0.00000000 0.00020644 -0.00168661
0.50000000 0.36098900 0.23723324 0.00000000 0.00033040 -0.00173376
0.50000000 0.34918782 0.23606944 0.00000000 0.00052550 -0.00168574
0.50000000 0.33738661 0.23490801 0.00000000 0.00041441 -0.00170657
0.50000000 0.32558542 0.23374540 0.00000000 0.00022777 -0.00176805
0.50000000 0.31378540 0.23258279 -0.00000000 0.00003668 -0.00186338
0.50000000 0.30198422 0.23347692 0.00000000 -0.00015342 -0.00180616
0.50000000 0.29018307 0.23463953 0.00000000 -0.00035066 -0.00175752
0.50000000 0.27838188 0.23580214 0.00000000 -0.00050238 -0.00174692
0.50000000 0.26658186 0.23696476 0.00000000 -0.00037546 -0.00180411
0.50000000 0.25499004 0.23918000 0.00000000 -0.00023220 -0.00181703
0.50000000 0.24364184 0.24262172 -0.00000000 -0.00022582 -0.00174336
0.50000000 0.23229481 0.24606341 0.00000000 -0.00038146 -0.00168471
0.50000000 0.22094779 0.24950632 0.00000000 -0.00056845 -0.00167249
0.50000000 0.20963390 0.25303084 0.00000000 -0.00070154 -0.00172617
0.50000000 0.19917627 0.25862035 0.00000000 -0.00072070 -0.00161257
0.50000000 0.18871866 0.26421109 -0.00000000 -0.00078779 -0.00153208
0.50000000 0.17826106 0.26980060 0.00000000 -0.00089590 -0.00149532
0.50000000 0.16780226 0.27539018 0.00000000 -0.00098869 -0.00153804
0.50000000 0.15814061 0.28216952 -0.00000000 -0.00101068 -0.00149543
0.50000000 0.14897333 0.28969160 0.00000000 -0.00104123 -0.00138614
0.50000000 0.13980608 0.29721373 0.00000000 -0.00114844 -0.00129292
0.50000000 0.13064000 0.30473703 0.00000000 -0.00126133 -0.00127415
0.50000000 0.12178969 0.31257489 0.00000000 -0.00133889 -0.00129464
0.50000000 0.11426760 0.32174215 0.00000000 -0.00130484 -0.00118745
0.50000000 0.10674430 0.33090824 0.00000000 -0.00135950 -0.00107203
0.50000000 0.09922221 0.34007433 0.00000000 -0.00146567 -0.00098894
0.50000000 0.09170011 0.34924161 0.00000000 -0.00158232 -0.00098987
0.50000000 0.08566350 0.35940117 0.00000000 -0.00155906 -0.00092263
0.50000000 0.08007398 0.36985996 0.00000000 -0.00155048 -0.00082459
0.50000000 0.07448445 0.38031757 0.00000000 -0.00161068 -0.00072733
0.50000000 0.06889372 0.39077517 0.00000000 -0.00170418 -0.00069098
0.50000000 0.06404693 0.40154031 0.00000000 -0.00175681 -0.00064426
0.50000000 0.06060523 0.41288853 0.00000000 -0.00172368 -0.00049367
0.50000000 0.05716350 0.42423552 0.00000000 -0.00176368 -0.00030105
0.50000000 0.05372059 0.43558255 0.00000000 -0.00183442 -0.00020262
0.50000000 0.05028005 0.44693074 0.00000000 -0.00192389 -0.00027288
0.50000000 0.04894124 0.45869765 0.00000000 -0.00185091 -0.00046747
0.50000000 0.04777979 0.47049761 0.00000000 -0.00183087 -0.00047078
0.50000000 0.04661717 0.48229879 0.00000000 -0.00186698 -0.00028438
0.50000000 0.04545456 0.49410000 0.00000000 -0.00194335 -0.00009724
0.50000000 0.04545456 0.50589997 0.00000000 -0.00194334 0.00009729
0.50000000 0.04661717 0.51770115 0.00000000 -0.00186697 0.00028443
0.50000000 0.04777979 0.52950120 0.00000000 -0.00183084 0.00047085
0.50000000 0.04894124 0.54130238 0.00000000 -0.00185090 0.00046753
0.50000000 0.05028005 0.55306923 0.00000000 -0.00192387 0.00027297
0.50000000 0.05372059 0.56441629 0.00000000 -0.00183436 0.00020275
0.50000000 0.05716350 0.57576448 0.00000000 -0.00176364 0.00030118
0.50000000 0.06060523 0.58711147 0.00000000 -0.00172363 0.00049380
0.50000000 0.06404693 0.59845853 0.00000000 -0.00175673 0.00064434
0.50000000 0.06889372 0.60922486 0.00000000 -0.00170412 0.00069112
0.50000000 0.07448445 0.61968243 0.00000000 -0.00161062 0.00072746
0.50000000 0.08007398 0.63014007 0.00000000 -0.00155040 0.00082475
0.50000000 0.08566350 0.64059764 0.00000000 -0.00155893 0.00092271
0.50000000 0.09170011 0.65075839 0.00000000 -0.00158223 0.00099002
0.50000000 0.09922221 0.65992451 0.00000000 -0.00146548 0.00098906
0.50000000 0.10674430 0.66909176 0.00000000 -0.00135939 0.00107218
0.50000000 0.11426760 0.67825782 0.00000000 -0.00130473 0.00118757
0.50000000 0.12178969 0.68742394 0.00000000 -0.00133870 0.00129469
0.50000000 0.13064000 0.69526297 0.00000000 -0.00126119 0.00127428
0.50000000 0.13980608 0.70278627 0.00000000 -0.00114825 0.00129308
0.50000000 0.14897333 0.71030837 0.00000000 -0.00104106 0.00138628
0.50000000 0.15814061 0.71783048 0.00000000 -0.00101049 0.00149556
0.50000000 0.16780226 0.72460860 0.00000000 -0.00098839 0.00153808
0.50000000 0.17826106 0.73019934 0.00000000 -0.00089567 0.00149544
0.50000000 0.18871866 0.73578888 0.00000000 -0.00078756 0.00153220
0.50000000 0.19917627 0.74137843 0.00000000 -0.00072040 0.00161256
0.50000000 0.20963390 0.74696910 0.00000000 -0.00070129 0.00172625
0.50000000 0.22094779 0.75049365 0.00000000 -0.00056815 0.00167258
0.50000000 0.23229481 0.75393534 0.00000000 -0.00038114 0.00168468
0.50000000 0.24364184 0.75737828 0.00000000 -0.00022554 0.00174342
0.50000000 0.25499004 0.76081997 0.00000000 -0.00023195 0.00181707
0.50000000 0.26658186 0.76303524 -0.00000000 -0.00037532 0.00180412
0.50000000 0.27838188 0.76419783 -0.00000000 -0.00050233 0.00174692
0.50000000 0.29018307 0.76536047 -0.00000002 -0.00035059 0.00175752
0.50000000 0.30198422 0.76652187 -0.00000002 -0.00015323 0.00180603
0.50000000 0.31378540 0.76741725 -0.00000002 0.00003719 0.00186334
0.50000000 0.32558542 0.76625341 -0.00000002 0.00022871 0.00176782
0.50000000 0.33738661 0.76509202 -0.00000001 0.00041580 0.00170635
0.50000000 0.34918782 0.76392937 -0.00000000 0.00052721 0.00168530
0.50000000 0.36098900 0.76276678 -0.00000000 0.00033226 0.00173332
0.50000000 0.37247556 0.76002640 0.00000000 0.00020840 0.00168604
0.50000000 0.38382256 0.75658345 0.00000000 0.00023098 0.00159975
0.50000000 0.39517078 0.75314182 0.00000000 0.00038426 0.00152803
0.50000000 0.40651780 0.74970007 0.00000000 0.00053909 0.00150227
0.50000000 0.41762590 0.74567878 0.00000000 0.00062511 0.00148175
0.50000000 0.42808354 0.74008924 0.00000000 0.00064285 0.00135705
0.50000000 0.43854114 0.73449862 0.00000000 0.00069884 0.00126034
0.50000000 0.44899994 0.72890902 0.00000000 0.00076150 0.00120921
0.50000000 0.45945755 0.72331947 0.00000000 0.00080745 0.00121465
0.50000000 0.46882352 0.71609426 -0.00000000 0.00079123 0.00108896
0.50000000 0.47798961 0.70857215 -0.00000000 0.00082716 0.00092519
0.50000000 0.48715568 0.70105004 -0.00000000 0.00090715 0.00076090
0.50000000 0.49632296 0.69352794 -0.00000000 0.00096450 0.00063798
0.50000000 0.50479358 0.68531042 -0.00000000 0.00095866 0.00047576
0.50000000 0.51231569 0.67614317 -0.00000000 0.00085154 0.00028681
0.50000000 0.51983780 0.66697592 -0.00000000 0.00060826 0.00023663
0.50000000 0.52736109 0.65780979 -0.00000000 0.00034511 0.00018707
0.50000000 0.53488320 0.64864367 0.00000000 0.00008519 0.00011395
0.50000000 0.54687363 0.64864367 -0.00000000 -0.00000419 0.00036862
0.50000000 0.55886400 0.64864367 -0.00000000 -0.00015301 0.00057399
0.50000000 0.57085443 0.64864367 -0.00000000 -0.00033334 0.00072351
0.50000000 0.58284485 0.64864367 -0.00000000 -0.00032434 0.00081620
0.50000000 0.59483528 0.64864367 -0.00000000 -0.00024638 0.00087171
0.50000000 0.60682565 0.64864367 -0.00000000 -0.00016155 0.00090795
0.50000000 0.61881495 0.64864367 -0.00000000 -0.00006878 0.00093341
0.50000000 0.63080537 0.64864367 -0.00000000 0.00000367 0.00095243
0.50000000 0.64279574 0.64864367 -0.00000000 0.00004550 0.00096738
0.50000000 0.65478617 0.64864367 -0.00000000 0.00007445 0.00097965
0.50000000 0.66677779 0.64864367 -0.00000000 0.00010749 0.00099008
0.50000000 0.67876822 0.64864367 0.00000000 0.00014928 0.00099923
0.50000000 0.69075859 0.64864367 -0.00000000 0.00019673 0.00100749
0.50000000 0.70274788 0.64864367 -0.00000000 0.00024413 0.00101514
0.50000000 0.71473825 0.64864367 -0.00000000 0.00028642 0.00102243
0.50000000 0.72672868 0.64864367 -0.00000000 0.00032127 0.00102958
0.50000000 0.73871911 0.64864367 -0.00000000 0.00035051 0.00103682
0.50000000 0.75070953 0.64864367 -0.00000000 0.00038035 0.00104436
0.50000000 0.76269996 0.64864367 -0.00000000 0.00041881 0.00105245
0.50000000 0.77469039 0.64864367 -0.00000000 0.00046925 0.00106135
0.50000000 0.78667963 0.64864367 -0.00000000 0.00052283 0.00107136
0.50000000 0.79867005 0.64864367 -0.00000000 0.00055808 0.00108281
0.50000000 0.81066042 0.64864367 -0.00000000 0.00055423 0.00109601
0.50000000 0.82265085 0.64864367 -0.00000000 0.00051571 0.00111129
0.50000000 0.83464128 0.64864367 -0.00000000 0.00049069 0.00112889
0.50000000 0.84663177 0.64864367 -0.00000000 0.00055262 0.00114889
0.50000000 0.85862333 0.64864367 -0.00000000 0.00072638 0.00117090
0.50000000 0.87061375 0.64864367 -0.00000000 0.00091922 0.00119364
0.50000000 0.88260299 0.64864367 -0.00000000 0.00094802 0.00121390
0.50000000 0.89459336 0.64864367 -0.00000000 0.00064649 0.00122453
0.50000000 0.90658379 0.64864367 -0.00000000 -0.00005959 0.00121059
0.50000000 0.91857421 0.64864367 -0.00000000 -0.00088645 0.00114009
0.50000000 0.93056464 0.64864367 -0.00000001 -0.00052067 0.00103366
0.50000000 0.94255501 0.64864367 -0.00000000 0.00010867 0.00097671
0.50000000 0.95454550 0.64864367 0.00000000 0.00099034 0.00097008
0.50000000 0.95454550 0.63675147 0.00000001 0.00100211 -0.00023026
0.50000000 0.95454550 0.62486041 -0.00000000 0.00104570 -0.00121971
0.50000000 0.95454550 0.61296815 0.00000001 0.00112633 -0.00189015
0.50000000 0.95454550 0.60107702 0.00000001 0.00118758 -0.00116180
0.50000000 0.95454550 0.58918601 0.00000000 0.00120584 -0.00031816
0.50000000 0.95454550 0.57729489 0.00000000 0.00120706 0.00012865
0.50000000 0.95454550 0.56540269 0.00000000 0.00120238 0.00023909
0.50000000 0.95454550 0.55351156 0.00000000 0.00119666 0.00014181
0.50000000 0.95454550 0.54161930 -0.00000000 0.00119179 0.00001915
0.50000000 0.95454550 0.52972823 0.00000000 0.00118830 -0.00004905
0.50000000 0.95454550 0.51783717 -0.00000000 0.00118621 -0.00005077
0.50000000 0.95454550 0.50594616 -0.00000000 0.00118536 -0.00001558
0.50000000 0.95454550 0.49405387 -0.00000000 0.00118566 0.00002251
0.50000000 0.95454550 0.48216280 -0.00000000 0.00118715 0.00005741
0.50000000 0.95454550 0.47027054 -0.00000000 0.00119000 0.00005660
0.50000000 0.95454550 0.45837948 -0.00000000 0.00119445 -0.00000678
0.50000000 0.95454550 0.44648838 -0.00000000 0.00120068 -0.00012076
0.50000000 0.95454550 0.43459734 -0.00000000 0.00120844 -0.00020823
0.50000000 0.95454550 0.42270508 -0.00000000 0.00121643 -0.00008953
0.50000000 0.95454550 0.41081402 -0.00000000 0.00122100 0.00035221
0.50000000 0.95454550 0.39892176 -0.00000000 0.00121378 0.00113789
0.50000000 0.95454550 0.38703185 -0.00000000 0.00117302 0.00183811
0.50000000 0.95454550 0.37513962 -0.00000000 0.00110449 0.00119443
0.50000000 0.95454550 0.36324853 -0.00000000 0.00106708 0.00016512
0.50000000 0.94255501 0.35135627 -0.00000000 0.00016491 -0.00104795
0.50000000 0.93056464 0.35135627 -0.00000000 -0.00045540 -0.00109866
0.50000000 0.91857421 0.35135627 -0.00000000 -0.00077090 -0.00118906
0.50000000 0.90658379 0.35135627 -0.00000000 -0.00002940 -0.00123708
0.50000000 0.89459336 0.35135627 0.00000000 0.00061835 -0.00123893
0.50000000 0.88260299 0.35135627 0.00000000 0.00091167 -0.00122213
0.50000000 0.87061375 0.35135627 0.00000000 0.00089022 -0.00119851
0.50000000 0.85862333 0.35135627 0.00000000 0.00071170 -0.00117381
0.50000000 0.84663177 0.35135627 0.00000000 0.00055065 -0.00115061
0.50000000 0.83464128 0.35135627 0.00000000 0.00049279 -0.00112985
0.50000000 0.82265085 0.35135627 0.00000000 0.00051485 -0.00111175
0.50000000 0.81066042 0.35135627 0.00000000 0.00054933 -0.00109613
0.50000000 0.79867005 0.35135627 0.00000000 0.00055163 -0.00108270
0.50000000 0.78667963 0.35135627 0.00000000 0.00051740 -0.00107109
0.50000000 0.77469039 0.35135627 0.00000000 0.00046583 -0.00106096
0.50000000 0.76269996 0.35135627 0.00000000 0.00041691 -0.00105196
0.50000000 0.75070953 0.35135627 0.00000000 0.00037895 -0.00104381
0.50000000 0.73871911 0.35135627 0.00000000 0.00034899 -0.00103622
0.50000000 0.72672868 0.35135627 0.00000000 0.00031966 -0.00102895
0.50000000 0.71473825 0.35135627 0.00000000 0.00028520 -0.00102176
0.50000000 0.70274788 0.35135627 0.00000000 0.00024366 -0.00101444
0.50000000 0.69075859 0.35135627 0.00000000 0.00019689 -0.00100676
0.50000000 0.67876822 0.35135627 0.00000000 0.00014953 -0.00099849
0.50000000 0.66677779 0.35135627 0.00000000 0.00010735 -0.00098931
0.50000000 0.65478617 0.35135627 0.00000000 0.00007408 -0.00097885
0.50000000 0.64279574 0.35135627 0.00000000 0.00004610 -0.00096655
0.50000000 0.63080537 0.35135627 0.00000000 0.00000741 -0.00095155
0.50000000 0.61881495 0.35135627 0.00000000 -0.00006085 -0.00093246
0.50000000 0.60682565 0.35135627 0.00000000 -0.00015269 -0.00090691
0.50000000 0.59483528 0.35135627 0.00000000 -0.00024104 -0.00087052
0.50000000 0.58284485 0.35135627 0.00000000 -0.00031886 -0.00081479
0.50000000 0.57085443 0.35135627 0.00000000 -0.00032714 -0.00072196
0.50000000 0.55886400 0.35135627 -0.00000000 -0.00015737 -0.00057054
0.50000000 0.54687363 0.35135627 -0.00000000 -0.00000628 -0.00036159
0.35135689 0.53488320 0.49999940 -0.00011222 0.00008470 0.00000144
0.35135689 0.54687363 0.49999940 -0.00036714 -0.00000399 -0.00000049
0.35135689 0.55886400 0.49999940 -0.00057293 -0.00015390 0.00000179
0.35135689 0.57085443 0.49999940 -0.00072346 -0.00033191 0.00000022
0.35135689 0.58284485 0.49999940 -0.00081624 -0.00032442 0.00000064
0.35135689 0.59483528 0.49999940 -0.00087183 -0.00024535 0.00000084
0.35135689 0.60682565 0.49999940 -0.00090812 -0.00015886 0.00000088
0.35135689 0.61881495 0.49999940 -0.00093360 -0.00006667 0.00000089
0.35135689 0.63080537 0.49999940 -0.00095263 0.00000487 0.00000088
0.35135689 0.64279574 0.49999940 -0.00096759 0.00004632 0.00000087
0.35135689 0.65478617 0.49999940 -0.00097987 0.00007522 0.00000086
0.35135689 0.66677779 0.49999940 -0.00099031 0.00010836 0.00000085
0.35135689 0.67876822 0.49999940 -0.00099947 0.00015027 0.00000084
0.35135689 0.69075859 0.49999940 -0.00100774 0.00019774 0.00000084
0.35135689 0.70274788 0.49999940 -0.00101541 0.00024504 0.00000084
0.35135689 0.71473825 0.49999940 -0.00102272 0.00028720 0.00000084
0.35135689 0.72672868 0.49999940 -0.00102990 0.00032195 0.00000085
0.35135689 0.73871911 0.49999940 -0.00103715 0.00035115 0.00000086
0.35135689 0.75070953 0.49999940 -0.00104472 0.00038099 0.00000087
0.35135689 0.76269996 0.49999940 -0.00105283 0.00041944 0.00000089
0.35135689 0.77469039 0.49999940 -0.00106177 0.00046982 0.00000091
0.35135689 0.78667963 0.49999940 -0.00107182 0.00052325 0.00000092
0.35135689 0.79867005 0.49999940 -0.00108330 0.00055828 0.00000094
0.35135689 0.81066042 0.49999940 -0.00109654 0.00055427 0.00000095
0.35135689 0.82265085 0.49999940 -0.00111186 0.00051578 0.00000096
0.35135689 0.83464128 0.49999940 -0.00112951 0.00049106 0.00000096
0.35135689 0.84663177 0.49999940 -0.00114955 0.00055316 0.00000095
0.35135689 0.85862333 0.49999940 -0.00117161 0.00072654 0.00000093
0.35135689 0.87061375 0.49999940 -0.00119442 0.00091865 0.00000088
0.35135689 0.88260299 0.49999940 -0.00121477 0.00094637 0.00000078
0.35135689 0.89459336 0.49999940 -0.00122557 0.00064325 0.00000058
0.35135689 0.90658379 0.49999940 -0.00121191 -0.00006595 0.00000005
0.35135689 0.91857421 0.49999940 -0.00114096 -0.00087199 -0.00000106
0.35135689 0.93056464 0.49999940 -0.00103744 -0.00052377 0.00002267
0.35135689 0.94255501 0.49999940 -0.00098193 0.00010035 -0.00002978
0.35135689 0.95454550 0.49999940 -0.00096828 0.00098859 -0.00001038
0.36324912 0.95454550 0.49999940 0.00022403 0.00100049 -0.00000840
0.37513903 0.95454550 0.49999940 0.00122156 0.00104436 0.00000126
0.38703129 0.95454550 0.49999940 0.00190418 0.00112535 0.00000489
0.39892235 0.95454550 0.49999940 0.00116636 0.00118709 0.00000096
0.41081461 0.95454550 0.49999940 0.00032181 0.00120571 0.00000149
0.42270568 0.95454550 0.49999940 -0.00012596 0.00120717 0.00000197
0.43459672 0.95454550 0.49999940 -0.00023757 0.00120266 0.00000243
0.44648781 0.95454550 0.49999940 -0.00014106 0.00119705 0.00000286
0.45838004 0.95454550 0.49999940 -0.00001879 0.00119222 0.00000322
0.47027114 0.95454550 0.49999940 0.00004936 0.00118872 0.00000347
0.48216340 0.95454550 0.49999940 0.00005208 0.00118653 0.00000352
0.49405447 0.95454550 0.49999940 0.00001830 0.00118549 0.00000351
0.50594550 0.95454550 0.49999940 -0.00001830 0.00118549 0.00000351
0.51783657 0.95454550 0.49999940 -0.00005208 0.00118653 0.00000352
0.52972883 0.95454550 0.49999940 -0.00004936 0.00118872 0.00000347
0.54161996 0.95454550 0.49999940 0.00001879 0.00119222 0.00000322
0.55351216 0.95454550 0.49999940 0.00014106 0.00119705 0.00000286
0.56540328 0.95454550 0.49999940 0.00023757 0.00120266 0.00000243
0.57729435 0.95454550 0.49999940 0.00012596 0.00120717 0.00000197
0.58918542 0.95454550 0.49999940 -0.00032182 0.00120571 0.00000149
0.60107768 0.95454550 0.49999940 -0.00116636 0.00118709 0.00000096
0.61296874 0.95454550 0.49999940 -0.00190417 0.00112535 0.00000490
0.62486100 0.95454550 0.49999940 -0.00122156 0.00104436 0.00000125
0.63675082 0.95454550 0.49999940 -0.00022403 0.00100049 -0.00000841
0.64864308 0.95454550 0.49999940 0.00096827 0.00098859 -0.00001038
0.64864308 0.94255501 0.49999940 0.00098193 0.00010035 -0.00002979
0.64864308 0.93056464 0.49999940 0.00103744 -0.00052378 0.00002267
0.64864308 0.91857421 0.49999940 0.00114096 -0.00087199 -0.00000106
0.64864308 0.90658379 0.49999940 0.00121191 -0.00006595 0.00000005
0.64864308 0.89459336 0.49999940 0.00122557 0.00064325 0.00000058
0.64864308 0.88260299 0.49999940 0.00121477 0.00094637 0.00000078
0.64864308 0.87061375 0.49999940 0.00119442 0.00091864 0.00000088
0.64864308 0.85862333 0.49999940 0.00117161 0.00072653 0.00000093
0.64864308 0.84663177 0.49999940 0.00114955 0.00055316 0.00000095
0.64864308 0.83464128 0.49999940 0.00112951 0.00049106 0.00000096
0.64864308 0.82265085 0.49999940 0.00111186 0.00051578 0.00000096
0.64864308 0.81066042 0.49999940 0.00109654 0.00055427 0.00000095
0.64864308 0.79867005 0.49999940 0.00108330 0.00055828 0.00000094
0.64864308 0.78667963 0.49999940 0.00107182 0.00052324 0.00000092
0.64864308 0.77469039 0.49999940 0.00106177 0.00046982 0.00000091
0.64864308 0.76269996 0.49999940 0.00105283 0.00041944 0.00000089
0.64864308 0.75070953 0.49999940 0.00104472 0.00038099 0.00000087
0.64864308 0.73871911 0.49999940 0.00103715 0.00035115 0.00000086
0.64864308 0.72672868 0.49999940 0.00102990 0.00032195 0.00000085
0.64864308 0.71473825 0.49999940 0.00102272 0.00028720 0.00000084
0.64864308 0.70274788 0.49999940 0.00101541 0.00024504 0.00000084
0.64864308 0.69075859 0.49999940 0.00100774 0.00019774 0.00000084
0.64864308 0.67876822 0.49999940 0.00099947 0.00015027 0.00000084
0.64864308 0.66677779 0.49999940 0.00099031 0.00010836 0.00000085
0.64864308 0.65478617 0.49999940 0.00097987 0.00007522 0.00000086
0.64864308 0.64279574 0.49999940 0.00096759 0.00004632 0.00000087
0.64864308 0.63080537 0.49999940 0.00095263 0.00000487 0.00000088
0.64864308 0.61881495 0.49999940 0.00093360 -0.00006667 0.00000089
0.64864308 0.60682565 0.49999940 0.00090812 -0.00015886 0.00000089
0.64864308 0.59483528 0.49999940 0.00087183 -0.00024536 0.00000084
0.64864308 0.58284485 0.49999940 0.00081624 -0.00032442 0.00000064
0.64864308 0.57085443 0.49999940 0.00072346 -0.00033191 0.00000022
0.64864308 0.55886400 0.49999940 0.00057293 -0.00015390 0.00000179
0.64864308 0.54687363 0.49999940 0.00036714 -0.00000399 -0.00000049
0.64864308 0.53488320 0.49999940 0.00011222 0.00008470 0.00000144
0.65781033 0.52736109 0.49999940 0.00018621 0.00034508 0.00000004
0.66697645 0.51983780 0.49999940 0.00023399 0.00061043 0.00000092
0.67614251 0.51231569 0.49999940 0.00028696 0.00085162 0.00000036
0.68530983 0.50479358 0.49999940 0.00047674 0.00095786 0.00000029
0.69352853 0.49632296 0.49999940 0.00064030 0.00096255 0.00000045
0.70105070 0.48715568 0.49999940 0.00076274 0.00090556 0.00000046
0.70857269 0.47798842 0.49999940 0.00092570 0.00082675 0.00000043
0.71609485 0.46882352 0.49999940 0.00108888 0.00079149 0.00000039
0.72332013 0.45945755 0.49999940 0.00121451 0.00080769 0.00000035
0.72890961 0.44899994 0.49999940 0.00120929 0.00076137 0.00000032
0.73449916 0.43854114 0.49999940 0.00126072 0.00069814 0.00000028
0.74008870 0.42808354 0.49999940 0.00135745 0.00064185 0.00000025
0.74567944 0.41762590 0.49999940 0.00148209 0.00062446 0.00000021
0.74969947 0.40651780 0.49999940 0.00150220 0.00053930 0.00000018
0.75314236 0.39517078 0.49999940 0.00152779 0.00038546 0.00000015
0.75658411 0.38382256 0.49999940 0.00159947 0.00023246 0.00000012
0.76002574 0.37247556 0.49999940 0.00168580 0.00020951 0.00000009
0.76276731 0.36098900 0.49999940 0.00173389 0.00032992 0.00000006
0.76392996 0.34918782 0.49999940 0.00168719 0.00051999 0.00000002
0.76509255 0.33738661 0.49999940 0.00170783 0.00041721 -0.00000002
0.76625401 0.32558542 0.49999940 0.00176910 0.00022803 -0.00000004
0.76741660 0.31378540 0.49999940 0.00186656 0.00003906 -0.00000006
0.76652253 0.30198422 0.49999940 0.00180771 -0.00015348 -0.00000006
0.76536101 0.29018307 0.49999940 0.00175838 -0.00034598 -0.00000006
0.76419729 0.27838188 0.49999940 0.00174829 -0.00049539 -0.00000004
0.76303577 0.26658186 0.49999940 0.00180474 -0.00037261 -0.00000002
0.76082063 0.25499004 0.49999940 0.00181664 -0.00023520 -0.00000001
0.75737768 0.24364184 0.49999940 0.00174271 -0.00022901 0.00000000
0.75393599 0.23229481 0.49999940 0.00168444 -0.00038274 0.00000001
0.75049424 0.22094779 0.49999940 0.00167271 -0.00056803 0.00000001
0.74696857 0.20963390 0.49999940 0.00172644 -0.00070026 0.00000002
0.74137902 0.19917627 0.49999940 0.00161287 -0.00071954 0.00000002
0.73578954 0.18871866 0.49999940 0.00153233 -0.00078724 0.00000003
0.73019880 0.17826106 0.49999940 0.00149530 -0.00089571 0.00000003
0.72460926 0.16780226 0.49999940 0.00153800 -0.00098859 0.00000003
0.71782988 0.15814061 0.49999940 0.00149548 -0.00101047 0.00000003
0.71030784 0.14897333 0.49999940 0.00138634 -0.00104087 0.00000003
0.70278573 0.13980608 0.49999940 0.00129321 -0.00114800 0.00000004
0.69526243 0.13064000 0.49999940 0.00127442 -0.00126092 0.00000004
0.68742448 0.12178969 0.49999940 0.00129485 -0.00133854 0.00000004
0.67825723 0.11426760 0.49999940 0.00118765 -0.00130456 0.00000004
0.66909230 0.10674430 0.49999940 0.00107233 -0.00135930 0.00000004
0.65992510 0.09922221 0.49999940 0.00098919 -0.00146540 0.00000004
0.65075785 0.09170011 0.49999940 0.00099012 -0.00158207 0.00000004
0.64059830 0.08566350 0.49999940 0.00092287 -0.00155884 0.00000004
0.63014066 0.08007398 0.49999940 0.00082491 -0.00155032 0.00000004
0.61968303 0.07448445 0.49999940 0.00072766 -0.00161054 0.00000004
0.60922420 0.06889372 0.49999940 0.00069124 -0.00170401 0.00000004
0.59845906 0.06404693 0.49999940 0.00064451 -0.00175667 0.00000004
0.58711094 0.06060523 0.49999940 0.00049394 -0.00172355 0.00000004
0.57576507 0.05716350 0.49999940 0.00030139 -0.00176359 0.00000004
0.56441689 0.05372059 0.49999940 0.00020293 -0.00183433 0.00000004
0.55306983 0.05028005 0.49999940 0.00027316 -0.00192383 0.00000004
0.54130298 0.04894124 0.49999940 0.00046771 -0.00185088 0.00000003
0.52950180 0.04777979 0.49999940 0.00047102 -0.00183083 0.00000002
0.51770061 0.04661717 0.49999940 0.00028452 -0.00186696 0.00000002
0.50589937 0.04545456 0.49999940 0.00009730 -0.00194334 0.00000002
0.49410060 0.04545456 0.49999940 -0.00009730 -0.00194334 0.00000002
0.48229939 0.04661717 0.49999940 -0.00028452 -0.00186696 0.00000002
0.47049820 0.04777979 0.49999940 -0.00047102 -0.00183083 0.00000002
0.45869702 0.04894124 0.49999940 -0.00046771 -0.00185088 0.00000003
0.44693014 0.05028005 0.49999940 -0.00027317 -0.00192383 0.00000003
0.43558314 0.05372059 0.49999940 -0.00020293 -0.00183433 0.00000004
0.42423493 0.05716350 0.49999940 -0.00030139 -0.00176359 0.00000004
0.41288909 0.06060523 0.49999940 -0.00049394 -0.00172355 0.00000004
0.40154091 0.06404693 0.49999940 -0.00064451 -0.00175667 0.00000004
0.39077577 0.06889372 0.49999940 -0.00069124 -0.00170401 0.00000004
0.38031697 0.07448445 0.49999940 -0.00072766 -0.00161054 0.00000004
0.36985937 0.08007398 0.49999940 -0.00082491 -0.00155032 0.00000004
0.35940176 0.08566350 0.49999940 -0.00092287 -0.00155884 0.00000004
0.34924218 0.09170011 0.49999940 -0.00099012 -0.00158206 0.00000004
0.34007493 0.09922221 0.49999940 -0.00098919 -0.00146540 0.00000004
0.33090767 0.10674430 0.49999940 -0.00107233 -0.00135930 0.00000004
0.32174274 0.11426760 0.49999940 -0.00118765 -0.00130456 0.00000004
0.31257549 0.12178969 0.49999940 -0.00129486 -0.00133854 0.00000004
0.30473757 0.13064000 0.49999940 -0.00127442 -0.00126092 0.00000004
0.29721433 0.13980608 0.49999940 -0.00129321 -0.00114799 0.00000004
0.28969222 0.14897333 0.49999940 -0.00138634 -0.00104087 0.00000003
0.28217012 0.15814061 0.49999940 -0.00149548 -0.00101047 0.00000003
0.27539077 0.16780226 0.49999940 -0.00153799 -0.00098859 0.00000003
0.26980123 0.17826106 0.49999940 -0.00149530 -0.00089571 0.00000003
0.26421052 0.18871866 0.49999940 -0.00153233 -0.00078724 0.00000003
0.25862098 0.19917627 0.49999940 -0.00161287 -0.00071954 0.00000002
0.25303143 0.20963390 0.49999940 -0.00172644 -0.00070026 0.00000002
0.24950574 0.22094779 0.49999940 -0.00167271 -0.00056803 0.00000001
0.24606402 0.23229481 0.49999940 -0.00168443 -0.00038274 0.00000001
0.24262232 0.24364184 0.49999940 -0.00174271 -0.00022901 -0.00000000
0.23917942 0.25499004 0.49999940 -0.00181664 -0.00023520 -0.00000001
0.23696418 0.26658186 0.49999940 -0.00180474 -0.00037261 -0.00000002
0.23580274 0.27838188 0.49999940 -0.00174828 -0.00049539 -0.00000004
0.23463894 0.29018307 0.49999940 -0.00175839 -0.00034598 -0.00000005
0.23347752 0.30198422 0.49999940 -0.00180770 -0.00015348 -0.00000005
0.23258339 0.31378540 0.49999940 -0.00186656 0.00003906 -0.00000005
0.23374599 0.32558542 0.49999940 -0.00176910 0.00022803 -0.00000003
0.23490742 0.33738661 0.49999940 -0.00170783 0.00041721 -0.00000001
0.23607002 0.34918782 0.49999940 -0.00168719 0.00051999 0.00000002
0.23723264 0.36098900 0.49999940 -0.00173389 0.00032992 0.00000006
0.23997420 0.37247556 0.49999940 -0.00168581 0.00020952 0.00000009
0.24341592 0.38382256 0.49999940 -0.00159946 0.00023246 0.00000012
0.24685763 0.39517078 0.49999940 -0.00152779 0.00038546 0.00000015
0.25030053 0.40651780 0.49999940 -0.00150220 0.00053930 0.00000018
0.25432059 0.41762590 0.49999940 -0.00148208 0.00062446 0.00000021
0.25991133 0.42808354 0.49999940 -0.00135745 0.00064185 0.00000025
0.26550084 0.43854114 0.49999940 -0.00126072 0.00069814 0.00000028
0.27109039 0.44899994 0.49999940 -0.00120930 0.00076135 0.00000032
0.27667990 0.45945755 0.49999940 -0.00121450 0.00080770 0.00000035
0.28390515 0.46882352 0.49999940 -0.00108887 0.00079149 0.00000039
0.29142725 0.47798961 0.49999940 -0.00092575 0.00082680 0.00000043
0.29894936 0.48715568 0.49999940 -0.00076274 0.00090555 0.00000046
0.30647266 0.49632296 0.49999940 -0.00064023 0.00096251 0.00000045
