0.49102178 0.95454544 0.15373716 -0.00021137 0.00242827 0.00013727
0.48444751 0.94386214 0.12967022 -0.00050843 0.00184689 -0.00095100
0.48014668 0.93062449 0.11609123 -0.00069502 0.00061835 -0.00186165
0.47703704 0.91697747 0.11200688 -0.00083154 -0.00061116 -0.00207546
0.47646064 0.90008968 0.11458466 -0.00066827 -0.00160247 -0.00171172
0.47955176 0.88988620 0.13194741 -0.00035004 -0.00185277 -0.00087506
0.48847619 0.86880279 0.20196502 0.00003019 -0.00100516 -0.00071986
0.49122712 0.88067979 0.19244561 0.00005599 -0.00092659 -0.00078043
0.49244055 0.87582856 0.23018804 0.00011451 -0.00077497 -0.00025063
0.48617053 0.85041952 0.27865836 -0.00009957 -0.00049314 -0.00080536
0.48501277 0.80265558 0.33657631 -0.00016280 0.00030543 -0.00115247
0.48447102 0.76918054 0.36612156 -0.00024422 0.00021459 -0.00110683
0.48777112 0.72138184 0.39174953 -0.00026753 0.00028279 -0.00110428
0.49024498 0.68191767 0.40695140 -0.00016779 0.00062955 -0.00101256
0.49751318 0.61554778 0.41350958 -0.00010470 0.00067209 -0.00101806
0.50127220 0.57835084 0.40802750 0.00010152 0.00035924 -0.00141285
0.48951271 0.60179800 0.41507801 -0.00045701 0.00036294 -0.00097728
0.48400098 0.49581671 0.39148733 -0.00059927 0.00092112 -0.00182251
0.48241523 0.44675395 0.38620931 -0.00047564 0.00061386 -0.00189742
0.48310667 0.40295425 0.38699725 -0.00018129 -0.00026329 -0.00168854
0.48186108 0.34434736 0.39974505 -0.00033973 -0.00093631 -0.00143549
0.48450068 0.29916725 0.42264923 -0.00045946 -0.00117918 -0.00110113
0.48537272 0.26902702 0.44723940 -0.00032676 -0.00131402 -0.00034585
0.48200208 0.25330690 0.47620207 -0.00022309 -0.00085820 0.00026965
0.48177326 0.23045956 0.53769356 0.00002318 -0.00025790 -0.00009370
0.49631584 0.27383372 0.65364331 -0.00005070 -0.00000183 0.00082409
0.49193710 0.22802900 0.66068143 -0.00015586 -0.00003443 0.00032261
0.49229088 0.20494543 0.67035419 -0.00010675 -0.00005232 0.00029284
0.49257660 0.18740825 0.68303394 -0.00011142 -0.00024308 0.00041779
0.49366510 0.17324169 0.69992298 -0.00005154 -0.00014086 0.00048797
0.49341398 0.15859894 0.72795916 -0.00002717 0.00010643 0.00017873
0.49747235 0.14760141 0.77601767 -0.00000861 0.00019853 0.00036990
0.49411410 0.06611498 0.77611041 -0.00009281 -0.00091499 0.00065262
0.49302435 0.06881645 0.82784617 -0.00006312 -0.00090857 -0.00017453
0.49185050 0.06705876 0.87809020 -0.00003906 -0.00069764 0.00031793
0.49595585 0.95393938 0.15713994 -0.00027974 0.00229884 0.00019053
0.49525580 0.95227325 0.19044551 -0.00014190 0.00189497 -0.00033226
0.50047439 0.93190467 0.28434944 -0.00001933 0.00173751 -0.00038925
0.49421924 0.90437436 0.36180100 -0.00012368 0.00179108 -0.00016334
0.48769075 0.88361502 0.40427467 -0.00041901 0.00142338 0.00046379
0.48137125 0.84701174 0.46073925 -0.00045649 0.00186436 0.00001705
0.48073548 0.82998174 0.47658801 -0.00061208 0.00145075 0.00030773
0.48446357 0.80907148 0.48149985 -0.00034891 0.00037122 0.00015556
0.49387413 0.81427151 0.49361807 0.00008780 0.00099762 0.00059689
0.48835745 0.80192447 0.51529521 -0.00029453 0.00142103 0.00037917
0.48684964 0.78196663 0.54413176 -0.00032201 0.00144449 0.00089241
0.48517975 0.73038304 0.59314632 0.00005540 0.00151165 0.00108274
0.48491010 0.68552452 0.62129021 -0.00023224 0.00161765 0.00109852
0.48800367 0.63412023 0.64254558 -0.00056548 0.00076426 0.00155813
0.49135578 0.58826852 0.65153927 -0.00028630 0.00058018 0.00158935
0.49562934 0.55693340 0.65242362 0.00003249 -0.00022927 0.00139755
0.50595522 0.44677988 0.63319063 0.00024946 0.00000200 -0.00044160
0.50420624 0.36571652 0.62282276 0.00008112 -0.00073832 0.00035267
0.50338614 0.33410183 0.62665969 0.00004072 -0.00027314 0.00065434
0.49352038 0.28446388 0.65146756 -0.00012575 0.00009169 0.00088443
0.49877486 0.06316492 0.76802212 -0.00004567 -0.00098699 0.00050318
0.49339914 0.07026362 0.68947339 0.00007893 -0.00057233 0.00062395
0.49516055 0.07654848 0.56742686 -0.00000326 -0.00051217 0.00012270
0.49253082 0.07460650 0.51151395 0.00003273 -0.00047233 -0.00015193
0.48930985 0.06293361 0.43070289 -0.00008393 -0.00125039 -0.00108054
0.49027961 0.15992121 0.44463566 -0.00000467 0.00040008 0.00015264
0.49615997 0.16602916 0.49449626 0.00000088 -0.00025613 -0.00032281
0.49783972 0.18678236 0.53336179 0.00001144 -0.00020361 -0.00008216
0.49899751 0.20298366 0.54132271 0.00000797 -0.00014617 -0.00007047
0.49851510 0.21705496 0.54023790 0.00001239 -0.00017683 -0.00010448
0.49787313 0.23140334 0.53012604 0.00001693 -0.00027464 -0.00004780
0.49375293 0.24104892 0.51148796 0.00006904 -0.00045908 0.00020679
0.49609193 0.16714115 0.44809908 0.00000017 0.00024666 -0.00005952
0.49135453 0.15249841 0.41769910 -0.00011087 0.00070361 -0.00037874
0.49056906 0.12748398 0.40626612 -0.00009867 -0.00015146 -0.00121192
0.49084985 0.09763565 0.41042590 -0.00017867 -0.00035227 -0.00185807
0.49718788 0.06220382 0.43136218 0.00001970 -0.00132261 -0.00101610
0.49160683 0.48100451 0.40122810 -0.00005845 0.00044794 -0.00093058
0.45250502 0.47679400 0.41767803 -0.00116881 -0.00017899 -0.00079609
0.42212856 0.47665295 0.45054075 -0.00070030 -0.00047342 -0.00064153
0.39964983 0.47988260 0.49786443 -0.00066587 -0.00066311 0.00029294
0.39550367 0.48523971 0.55231649 -0.00025433 -0.00016180 0.00005659
0.40169448 0.48835436 0.58023775 -0.00051314 -0.00039267 0.00038317
0.41668111 0.48972112 0.60057783 -0.00054732 -0.00040860 0.00073372
0.45256564 0.48650014 0.62470043 -0.00079445 0.00014093 0.00057035
0.51804864 0.47259584 0.66013968 0.00092134 -0.00000590 0.00154660
0.50839317 0.48100451 0.40122810 0.00084136 0.00021419 -0.00112669
0.54749376 0.47679400 0.41767803 0.00089244 -0.00029635 -0.00133009
0.57787150 0.47665295 0.45054075 0.00083703 -0.00056398 -0.00057398
0.60034901 0.47988260 0.49786443 0.00067022 -0.00068937 0.00029048
0.60449642 0.48523971 0.55231649 0.00025820 -0.00015241 0.00006048
0.59830433 0.48835436 0.58023775 0.00052020 -0.00038210 0.00038391
0.58331895 0.48972112 0.60057783 0.00056786 -0.00038904 0.00073309
0.54743439 0.48650014 0.62470043 0.00075600 0.00016204 0.00061801
0.48195016 0.47259584 0.66013968 -0.00086636 0.00002754 0.00157905
0.48422238 0.13957125 0.40473112 -0.00018725 0.00029886 -0.00114763
0.43421704 0.12507692 0.40234753 -0.00037687 -0.00048454 -0.00130741
0.41531926 0.11743765 0.40700334 -0.00017147 -0.00028102 -0.00143032
0.38927075 0.10937287 0.42601368 -0.00098906 0.00021519 -0.00097259
0.36870432 0.10504855 0.45526585 -0.00181261 0.00034200 -0.00024447
0.36022022 0.10478386 0.48203051 -0.00156547 0.00005150 -0.00085990
0.35706732 0.10356302 0.52309531 -0.00156949 0.00002011 0.00021259
0.37008104 0.09680320 0.65274900 -0.00132474 -0.00078786 0.00046805
0.51577765 0.13957125 0.40473112 0.00036321 0.00024578 -0.00122321
0.56578302 0.12507692 0.40234753 0.00030649 -0.00048287 -0.00130970
0.58468080 0.11743765 0.40700334 0.00016658 -0.00027639 -0.00143018
0.61072934 0.10937287 0.42601368 0.00099655 0.00021123 -0.00097029
0.63129568 0.10504855 0.45526585 0.00180675 0.00034295 -0.00025726
0.63977855 0.10478386 0.48203051 0.00156477 0.00005582 -0.00086590
0.64293271 0.10356302 0.52309531 0.00156875 0.00002228 0.00020722
0.62991774 0.09680320 0.65274900 0.00132406 -0.00078698 0.00046729
0.37099513 0.12208232 0.64230311 -0.00069507 0.00081214 -0.00017354
0.35451058 0.13501687 0.76016140 -0.00130786 0.00020786 -0.00016898
0.35995924 0.13744497 0.79093498 -0.00152653 0.00044503 0.00034963
0.37461931 0.13868685 0.82217610 -0.00120437 0.00068737 0.00123532
0.39136118 0.13658407 0.83952647 -0.00049479 0.00046238 0.00146152
0.41676518 0.12841292 0.85421753 0.00003206 0.00059472 0.00131107
0.46848121 0.10586246 0.87065387 -0.00018849 0.00145704 0.00068065
0.50117946 0.08857143 0.87650818 0.00004418 0.00103859 0.00049654
0.62900370 0.12208232 0.64230311 0.00069357 0.00081597 -0.00017559
0.64548826 0.13501687 0.76016140 0.00130341 0.00021050 -0.00017496
0.64004081 0.13744497 0.79093498 0.00152721 0.00044689 0.00033524
0.62537950 0.13868685 0.82217610 0.00120417 0.00068758 0.00122586
0.60863888 0.13658407 0.83952647 0.00048552 0.00045432 0.00145814
0.58323359 0.12841292 0.85421753 -0.00001598 0.00060017 0.00130207
0.53151882 0.10586246 0.87065387 0.00013032 0.00138223 0.00077820
0.49882063 0.08857143 0.87650818 -0.00002630 0.00103597 0.00049156
0.49274975 0.15560433 0.76405525 -0.00001134 0.00034571 0.00029618
0.45050865 0.16677380 0.76269096 -0.00021226 0.00064222 0.00058328
0.40877464 0.16183722 0.76288885 -0.00055801 0.00060088 0.00057713
0.39428777 0.14544913 0.76150972 -0.00006300 0.00028383 0.00010989
0.38409665 0.10905621 0.76305580 -0.00017646 0.00017021 -0.00014418
0.50725031 0.15560433 0.76405525 0.00006399 0.00034668 0.00029411
0.54949015 0.16677380 0.76269096 0.00016676 0.00063167 0.00057896
0.59122539 0.16183722 0.76288885 0.00055782 0.00060079 0.00056917
0.60571104 0.14544913 0.76150972 0.00005882 0.00028730 0.00010274
0.61590338 0.10905621 0.76305580 0.00017531 0.00017010 -0.00015039
0.49450001 0.18241477 0.50212568 0.00002836 -0.00027860 -0.00025214
0.45844477 0.19428557 0.50474179 0.00025727 -0.00016916 -0.00016429
0.42589253 0.18884803 0.50668252 -0.00022057 -0.00006459 -0.00012032
0.41114584 0.17553993 0.50758421 -0.00062289 -0.00021280 -0.00009383
0.37520191 0.11875498 0.51433659 -0.00054938 0.00052749 0.00001459
0.50550002 0.18241477 0.50212568 -0.00000943 -0.00026444 -0.00024598
0.54155529 0.19428557 0.50474179 -0.00023127 -0.00010317 -0.00018123
0.57410628 0.18884803 0.50668252 0.00022029 -0.00003235 -0.00013856
0.58885419 0.17553993 0.50758421 0.00063309 -0.00019951 -0.00010544
0.62479693 0.11875498 0.51433659 0.00055712 0.00053327 0.00000936
0.41660070 0.12936041 0.41672561 -0.00023524 -0.00000436 -0.00088330
0.41444227 0.16160591 0.43327200 -0.00078158 0.00032833 -0.00069919
0.41457957 0.17940161 0.45085496 -0.00072039 0.00021842 -0.00079894
0.41453257 0.19405921 0.49488965 -0.00065526 0.00017943 -0.00024193
0.41168764 0.19626960 0.52458829 -0.00071375 0.00008877 0.00008052
0.40720499 0.18838543 0.59616691 -0.00072216 -0.00002734 -0.00017576
0.40785685 0.17777751 0.66148537 -0.00042909 0.00010527 0.00042743
0.41158497 0.16737124 0.72244501 -0.00059257 0.00042095 0.00024968
0.42296842 0.15157937 0.79010129 -0.00014388 0.00051665 0.00059839
0.42501181 0.13984832 0.81611389 0.00048119 0.00034445 0.00039495
0.42204195 0.12783651 0.83373153 0.00040921 0.00016439 0.00076060
0.41781041 0.11364275 0.84339064 0.00041520 0.00055030 0.00065496
0.40626612 0.10007241 0.84091681 -0.00003491 0.00031693 0.00020704
0.58339936 0.12936041 0.41672561 0.00023430 0.00000137 -0.00088817
0.58555657 0.16160591 0.43327200 0.00080355 0.00035006 -0.00071406
0.58542049 0.17940161 0.45085496 0.00073805 0.00026234 -0.00081922
0.58546627 0.19405921 0.49488965 0.00065097 0.00021505 -0.00026843
0.58831245 0.19626960 0.52458829 0.00071134 0.00009980 0.00006350
0.59279507 0.18838543 0.59616691 0.00072172 -0.00002870 -0.00018222
0.59214324 0.17777751 0.66148537 0.00042181 0.00010151 0.00043365
0.58841509 0.16737124 0.72244501 0.00058286 0.00042034 0.00024601
0.57703161 0.15157937 0.79010129 0.00014223 0.00052199 0.00058558
0.57498825 0.13984832 0.81611389 -0.00047906 0.00034941 0.00038312
0.57795811 0.12783651 0.83373153 -0.00039385 0.00017316 0.00074934
0.58218843 0.11364275 0.84339064 -0.00039044 0.00056330 0.00064521
0.59373266 0.10007241 0.84091681 0.00005450 0.00031934 0.00020201
0.49527806 0.15768485 0.76830047 -0.00001003 0.00046964 0.00029615
0.49946010 0.14849693 0.80683696 -0.00000315 0.00066836 0.00058515
0.50046080 0.13195673 0.84229720 -0.00002216 0.00042697 0.00114793
0.50097781 0.10070817 0.87108678 0.00004573 0.00160961 0.00047200
0.49757996 0.07636665 0.88510364 -0.00000605 0.00014741 0.00114775
0.49413016 0.06618550 0.88799310 -0.00004225 -0.00068928 0.00132125
0.48778349 0.24425504 0.51683891 0.00001712 -0.00044042 0.00017325
0.46597397 0.25229013 0.52116692 -0.00014342 -0.00041641 0.00003430
0.44413844 0.26253191 0.53736329 -0.00031911 -0.00041867 -0.00029908
0.42896503 0.27206367 0.55729026 -0.00063316 -0.00047415 -0.00037856
0.42526540 0.27906096 0.57721221 -0.00078022 -0.00044344 -0.00005826
0.42667797 0.28281260 0.58953202 -0.00079038 -0.00042603 0.00021433
0.43136099 0.28495246 0.60159332 -0.00070725 -0.00037834 0.00047278
0.44958588 0.28673735 0.62511843 -0.00059602 -0.00014652 0.00069453
0.46723935 0.28461975 0.63800853 -0.00073686 0.00001825 0.00056980
0.49678585 0.27659455 0.65143406 -0.00004118 -0.00000052 0.00079177
0.51221657 0.24425504 0.51683891 0.00008798 -0.00042369 0.00004254
0.53402483 0.25229013 0.52116692 0.00015822 -0.00040711 -0.00015210
0.55586159 0.26253191 0.53736329 0.00033667 -0.00042106 -0.00035942
0.57103378 0.27206367 0.55729026 0.00065301 -0.00047771 -0.00039087
0.57473469 0.27906096 0.57721221 0.00079853 -0.00044744 -0.00006398
0.57332087 0.28281260 0.58953202 0.00080752 -0.00043170 0.00020574
0.56863785 0.28495246 0.60159332 0.00071681 -0.00038512 0.00047252
0.55041414 0.28673735 0.62511843 0.00054688 -0.00016703 0.00074651
0.53276074 0.28461975 0.63800853 0.00079953 -0.00000055 0.00060105
0.50321293 0.27659455 0.65143406 0.00013083 -0.00000195 0.00079436
0.44448724 0.26391232 0.59783548 -0.00029641 -0.00051768 0.00020261
0.45457935 0.25415418 0.60741305 -0.00015507 -0.00053908 0.00011187
0.46043375 0.24045643 0.61492991 -0.00016995 -0.00031376 -0.00002513
0.46232995 0.22341402 0.62176889 -0.00013775 -0.00011589 -0.00007948
0.45755169 0.20765677 0.62582105 -0.00002836 -0.00007502 -0.00004472
0.44740519 0.19499804 0.62631583 -0.00000050 -0.00017807 0.00002093
0.43350086 0.18750845 0.62355250 -0.00008781 -0.00028561 0.00006434
0.42842078 0.18687019 0.62211889 -0.00018465 -0.00026899 0.00003152
0.41554067 0.19434990 0.61924183 -0.00056635 0.00004665 0.00001190
0.55551279 0.26391232 0.59783548 0.00029889 -0.00053018 0.00020694
0.54542065 0.25415418 0.60741305 0.00014684 -0.00054700 0.00012795
0.53956628 0.24045643 0.61492991 0.00016458 -0.00031244 -0.00000917
0.53766882 0.22341402 0.62176889 0.00014346 -0.00011452 -0.00007234
0.54244709 0.20765677 0.62582105 0.00003512 -0.00007899 -0.00003960
0.55259359 0.19499804 0.62631583 0.00000321 -0.00018272 0.00002543
0.56649798 0.18750845 0.62355250 0.00008855 -0.00029128 0.00006480
0.57157803 0.18687019 0.62211889 0.00018524 -0.00027421 0.00003053
0.58445817 0.19434990 0.61924183 0.00056678 0.00004304 0.00000862
0.49532259 0.20284264 0.53593957 0.00001065 -0.00013272 -0.00004914
0.47942927 0.20510747 0.53234756 0.00003973 -0.00012875 -0.00005449
0.46666789 0.20710759 0.53471750 0.00009889 -0.00011237 -0.00006019
0.45726597 0.20828389 0.54068816 0.00010077 -0.00009762 -0.00004581
0.44817948 0.20833339 0.55442917 -0.00000241 -0.00010175 -0.00002816
0.44238076 0.20827399 0.57452559 -0.00006367 -0.00007778 -0.00014113
0.44096327 0.20925984 0.59803343 0.00003000 0.00006198 -0.00016563
0.44376984 0.21157043 0.62191856 -0.00013743 0.00007459 0.00003863
0.45044187 0.21491261 0.63517219 -0.00021820 0.00007723 0.00013861
0.50467622 0.20284264 0.53593957 0.00000773 -0.00012794 -0.00005328
0.52056950 0.20510747 0.53234756 -0.00001745 -0.00012315 -0.00007777
0.53333217 0.20710759 0.53471750 -0.00007020 -0.00012321 -0.00008995
0.54273409 0.20828389 0.54068816 -0.00006953 -0.00011743 -0.00006922
0.55182058 0.20833339 0.55442917 0.00002615 -0.00012235 -0.00003431
0.55761927 0.20827399 0.57452559 0.00007194 -0.00008778 -0.00014930
0.55903679 0.20925984 0.59803343 -0.00002563 0.00005448 -0.00017462
0.55623019 0.21157043 0.62191856 0.00013968 0.00006975 0.00004157
0.54955822 0.21491261 0.63517219 0.00022097 0.00007557 0.00014856
0.45035401 0.21431145 0.62686998 -0.00011984 0.00005454 0.00004804
0.44923830 0.21682860 0.63407630 -0.00023438 0.00009650 0.00014684
0.45107886 0.21790844 0.64081758 -0.00032771 0.00009412 0.00019237
0.46316487 0.21948059 0.65822238 -0.00054262 0.00008411 0.00027665
0.48475426 0.21797772 0.67292088 -0.00029041 0.00013457 0.00055183
0.50568682 0.21209982 0.67993671 0.00014756 0.00015432 0.00063411
0.54964602 0.21431145 0.62686998 0.00012293 0.00005152 0.00005457
0.55076176 0.21682860 0.63407630 0.00023626 0.00009515 0.00015655
0.54892117 0.21790844 0.64081758 0.00032980 0.00009450 0.00020575
0.53683513 0.21948059 0.65822238 0.00054205 0.00008639 0.00029767
0.51524454 0.21797772 0.67292088 0.00034118 0.00013220 0.00055965
0.49431202 0.21209982 0.67993671 -0.00007265 0.00016525 0.00062774
0.49454829 0.06449215 0.43668962 0.00000293 -0.00112964 -0.00063935
0.46339619 0.07280181 0.43367523 -0.00107265 -0.00041124 -0.00089436
0.43687397 0.08606542 0.42969972 0.00016358 -0.00026164 -0.00089646
0.42520109 0.09549823 0.42761430 0.00065103 -0.00048924 -0.00051738
0.42022616 0.10214179 0.42636994 0.00043132 -0.00036172 -0.00053316
0.41442370 0.11953299 0.42240682 -0.00008086 -0.00013204 -0.00063418
0.41280454 0.12443496 0.41873190 -0.00026129 -0.00002845 -0.00083969
0.50545180 0.06449215 0.43668962 0.00012006 -0.00111623 -0.00065871
0.53660387 0.07280181 0.43367523 0.00106750 -0.00041595 -0.00098318
0.56312609 0.08606542 0.42969972 -0.00020762 -0.00025375 -0.00094851
0.57479900 0.09549823 0.42761430 -0.00063091 -0.00048477 -0.00053503
0.57977390 0.10214179 0.42636994 -0.00041667 -0.00036192 -0.00054271
0.58557510 0.11953299 0.42240682 0.00009018 -0.00012574 -0.00063871
0.58719546 0.12443496 0.41873190 0.00026779 -0.00002244 -0.00084181
0.49185917 0.06108439 0.53518134 0.00004373 -0.00071616 -0.00010644
0.46060815 0.05481194 0.53402978 0.00028556 -0.00095958 -0.00014083
0.42196897 0.04672737 0.52618885 0.00062482 -0.00152046 -0.00002289
0.38257775 0.04545455 0.51723224 -0.00097231 -0.00184508 -0.00019425
0.50814086 0.06108439 0.53518134 -0.00020956 -0.00071770 -0.00010791
0.53939062 0.05481194 0.53402978 -0.00016736 -0.00106736 -0.00005833
0.57802987 0.04672737 0.52618885 -0.00059613 -0.00152836 -0.00001528
0.61742109 0.04545455 0.51723224 0.00097904 -0.00183812 -0.00019632
0.50005382 0.06370667 0.66713071 -0.00000141 -0.00081346 -0.00010331
0.45712498 0.05417863 0.67139071 0.00075510 -0.00114988 0.00018084
0.42102024 0.04734829 0.66982108 0.00036396 -0.00173175 0.00033676
0.40163633 0.04726543 0.66715425 -0.00080719 -0.00190890 0.00027850
0.54287386 0.05417863 0.67139071 -0.00079652 -0.00111706 0.00021709
0.57897979 0.04734829 0.66982108 -0.00033341 -0.00173130 0.00033876
0.59836370 0.04726543 0.66715425 0.00081863 -0.00190720 0.00027866
0.39847472 0.06769082 0.66917539 -0.00062827 -0.00058470 0.00067832
0.38113174 0.07901245 0.66203952 -0.00138818 -0.00079826 0.00072166
0.36890966 0.09345482 0.65330559 -0.00153796 -0.00104854 0.00049165
0.36178866 0.11489328 0.64472628 -0.00161817 0.00023094 -0.00000657
0.36333358 0.11897761 0.64440709 -0.00143161 0.00052761 -0.00002265
0.36847180 0.12032217 0.64488333 -0.00095326 0.00067761 0.00000752
0.60152531 0.06769082 0.66917539 0.00063373 -0.00058284 0.00067946
0.61886823 0.07901245 0.66203952 0.00138740 -0.00079877 0.00072238
0.63108915 0.09345482 0.65330559 0.00153743 -0.00104825 0.00049090
0.63821137 0.11489328 0.64472628 0.00161831 0.00023383 -0.00000897
0.63666648 0.11897761 0.64440709 0.00143135 0.00053086 -0.00002491
0.63152701 0.12032217 0.64488333 0.00095206 0.00068128 0.00000568
0.49816379 0.06010475 0.77535838 -0.00006150 -0.00106386 0.00062949
0.39133766 0.05725982 0.76535529 -0.00063970 -0.00149096 0.00017166
0.50183624 0.06010475 0.77535838 -0.00003368 -0.00106490 0.00062112
0.60866117 0.05725982 0.76535529 0.00064872 -0.00148785 0.00016721
0.39177802 0.06459850 0.77211136 -0.00055869 -0.00104544 0.00025666
0.37805554 0.07661033 0.77237982 -0.00136174 -0.00030541 0.00019876
0.36739069 0.09385065 0.76996660 -0.00169094 -0.00010533 0.00010944
0.36980274 0.10760405 0.76707339 -0.00099123 -0.00023420 -0.00016624
0.37858862 0.11755887 0.76566827 -0.00034443 0.00003198 -0.00022796
0.60822207 0.06459850 0.77211136 0.00056897 -0.00104437 0.00025008
0.62194449 0.07661033 0.77237982 0.00136204 -0.00030805 0.00019348
0.63260931 0.09385065 0.76996660 0.00168430 -0.00011295 0.00010453
0.63019609 0.10760405 0.76707339 0.00098760 -0.00023569 -0.00017252
0.62141019 0.11755887 0.76566827 0.00034162 0.00003461 -0.00023579
0.39977849 0.06243636 0.66668046 -0.00065870 -0.00093687 0.00041816
0.39163578 0.06655038 0.74560153 -0.00065645 -0.00077563 -0.00030367
0.38664845 0.06572659 0.78158134 -0.00089324 -0.00107220 0.00052996
0.60022157 0.06243636 0.66668046 0.00066678 -0.00093463 0.00041896
0.60836303 0.06655038 0.74560153 0.00066146 -0.00077402 -0.00030065
0.61335033 0.06572659 0.78158134 0.00090140 -0.00107217 0.00052024
0.39130798 0.06313027 0.77688348 -0.00058435 -0.00120468 0.00040330
0.38902089 0.06947943 0.81332463 -0.00085432 -0.00098811 0.00091410
0.38941178 0.07729063 0.83169925 -0.00104003 -0.00039655 0.00034335
0.39130056 0.08371772 0.83938670 -0.00108113 -0.00003542 0.00029209
0.39517215 0.09033281 0.84428126 -0.00101213 0.00013644 0.00039867
0.40416583 0.09803517 0.84623688 -0.00041421 0.00045062 0.00034696
0.41602552 0.10485560 0.84381616 0.00048198 0.00065965 0.00031726
0.42525795 0.10652917 0.84193981 0.00050543 0.00049720 0.00020642
0.60869086 0.06313027 0.77688348 0.00059526 -0.00120358 0.00039509
0.61097789 0.06947943 0.81332463 0.00086685 -0.00098664 0.00089843
0.61058831 0.07729063 0.83169925 0.00104682 -0.00038944 0.00034205
0.60869950 0.08371772 0.83938670 0.00108538 -0.00002873 0.00029106
0.60482788 0.09033281 0.84428126 0.00102149 0.00013958 0.00039431
0.59583420 0.09803517 0.84623688 0.00043366 0.00045294 0.00034169
0.58397329 0.10485560 0.84381616 -0.00045172 0.00067140 0.00030865
0.57474208 0.10652917 0.84193981 -0.00046134 0.00051980 0.00019347
0.38852486 0.07943919 0.83812881 -0.00127833 -0.00025755 0.00033256
0.39782783 0.07064340 0.86347598 -0.00168368 -0.00052883 0.00091778
0.40858912 0.06836619 0.87262177 -0.00139258 -0.00071957 0.00133552
0.42479041 0.06790360 0.88063461 -0.00073344 -0.00071838 0.00162921
0.44291019 0.06825859 0.88580006 -0.00035953 -0.00066939 0.00179281
0.46808416 0.06794441 0.88752061 -0.00024751 -0.00059456 0.00151549
0.48990482 0.06719854 0.88639998 -0.00002861 -0.00061603 0.00118148
0.50869375 0.06507842 0.88184190 0.00011218 -0.00085541 0.00073173
0.61147517 0.07943919 0.83812881 0.00128297 -0.00025118 0.00033166
0.60217100 0.07064340 0.86347598 0.00171941 -0.00052036 0.00090333
0.59140968 0.06836619 0.87262177 0.00144353 -0.00071692 0.00132404
0.57520968 0.06790360 0.88063461 0.00072529 -0.00072518 0.00164427
0.55708987 0.06825859 0.88580006 0.00023266 -0.00069356 0.00183898
0.53191465 0.06794441 0.88752061 0.00038125 -0.00063262 0.00158389
0.51009399 0.06719854 0.88639998 0.00011068 -0.00063599 0.00121827
0.49130505 0.06507842 0.88184190 -0.00004041 -0.00083504 0.00069542
0.38786682 0.06218524 0.53990644 -0.00055560 -0.00101788 0.00028857
0.39246574 0.06524048 0.59605306 -0.00057826 -0.00119753 -0.00060275
0.39936903 0.06273941 0.66860026 -0.00070158 -0.00090057 0.00054872
0.61213195 0.06218524 0.53990644 0.00056710 -0.00101701 0.00028346
0.60753435 0.06524048 0.59605306 0.00058786 -0.00119599 -0.00060858
0.60063100 0.06273941 0.66860026 0.00070917 -0.00089832 0.00054961
0.49859178 0.06485455 0.43589801 0.00003448 -0.00112850 -0.00068405
0.45355767 0.05621338 0.44531843 -0.00056569 -0.00123598 -0.00040252
0.42349780 0.05316559 0.44631419 0.00071004 -0.00127557 -0.00061493
0.39430010 0.04924451 0.44284582 -0.00091461 -0.00191509 -0.00089219
0.50140703 0.06485455 0.43589801 0.00008009 -0.00112388 -0.00068955
0.54644239 0.05621338 0.44531843 0.00026912 -0.00119313 -0.00058505
0.57650220 0.05316559 0.44631419 -0.00065291 -0.00129072 -0.00064078
0.60569870 0.04924451 0.44284582 0.00092481 -0.00190768 -0.00090219
0.36430085 0.11690082 0.50877911 -0.00115888 0.00045092 -0.00018107
0.35851699 0.10708702 0.51526678 -0.00148183 0.00013305 0.00000027
0.36314186 0.08661955 0.52581280 -0.00155385 -0.00030053 0.00018636
0.37419260 0.07174918 0.53469771 -0.00103651 -0.00093156 0.00042852
0.38842592 0.05819246 0.53842831 -0.00056284 -0.00121517 0.00024815
0.63569790 0.11690082 0.50877911 0.00116098 0.00045646 -0.00018622
0.64148307 0.10708702 0.51526678 0.00148203 0.00013632 -0.00000457
0.63685697 0.08661955 0.52581280 0.00155344 -0.00029950 0.00018211
0.62580621 0.07174918 0.53469771 0.00104231 -0.00092972 0.00042346
0.61157286 0.05819246 0.53842831 0.00057431 -0.00121330 0.00024339
0.39045942 0.07258289 0.43227625 -0.00082022 -0.00068068 -0.00144094
0.38581973 0.09457920 0.42387629 -0.00109769 0.00007654 -0.00143215
0.38698983 0.10991959 0.42228806 -0.00115516 0.00018346 -0.00116559
0.39067221 0.12008838 0.42515031 -0.00107221 0.00027907 -0.00085722
0.40192208 0.12416654 0.43827662 -0.00042638 0.00018961 -0.00005973
0.60954064 0.07258289 0.43227625 0.00081857 -0.00068745 -0.00144018
0.61418033 0.09457920 0.42387629 0.00109732 0.00007113 -0.00142679
0.61301017 0.10991959 0.42228806 0.00116030 0.00018023 -0.00116128
0.60932660 0.12008838 0.42515031 0.00108204 0.00027999 -0.00085476
0.59807801 0.12416654 0.43827662 0.00044387 0.00019314 -0.00006425
0.39169517 0.06260581 0.43662038 -0.00092571 -0.00121217 -0.00121625
0.38698739 0.06171398 0.53651106 -0.00058875 -0.00107186 0.00024312
0.60830492 0.06260581 0.43662038 0.00092945 -0.00121303 -0.00122044
0.61301267 0.06171398 0.53651106 0.00060000 -0.00107073 0.00023855
0.39524511 0.47504127 0.55387133 -0.00009382 -0.00000791 0.00004916
0.35529479 0.45047459 0.55246496 -0.00123081 0.00092307 0.00001056
0.34791401 0.43736687 0.55095714 -0.00164121 0.00088396 -0.00046513
0.34693438 0.41971341 0.55048341 -0.00172523 -0.00008826 -0.00081022
0.37420002 0.38204521 0.56148219 0.00004171 -0.00154449 0.00004327
0.42224604 0.34269479 0.58722514 -0.00068113 -0.00036980 0.00051093
0.43549973 0.32548419 0.59743971 -0.00044313 -0.00018799 0.00061990
0.44352493 0.30145556 0.60657692 -0.00038327 -0.00021624 0.00062668
0.44084451 0.27317443 0.60942304 -0.00051440 -0.00038827 0.00046408
0.60475367 0.47504127 0.55387133 0.00009640 -0.00000103 0.00005092
0.64470530 0.45047459 0.55246496 0.00124192 0.00093360 0.00000414
0.65208483 0.43736687 0.55095714 0.00165549 0.00089116 -0.00047724
0.65306443 0.41971341 0.55048341 0.00174161 -0.00009041 -0.00082583
0.62580007 0.38204521 0.56148219 -0.00003332 -0.00156179 0.00004312
0.57775277 0.34269479 0.58722514 0.00069465 -0.00038394 0.00050715
0.56449908 0.32548419 0.59743971 0.00046000 -0.00019943 0.00061180
0.55647510 0.30145556 0.60657692 0.00038611 -0.00023125 0.00063243
0.55915427 0.27317443 0.60942304 0.00050872 -0.00039623 0.00047876
0.49092281 0.76222026 0.54889274 -0.00013896 0.00079052 0.00040474
0.46361265 0.74999446 0.56350452 -0.00052226 0.00131502 0.00051985
0.42905536 0.72907060 0.56607616 -0.00081001 0.00154194 0.00058321
0.39296916 0.69705027 0.55866319 -0.00128435 0.00186045 0.00025728
0.37751868 0.66597241 0.54586220 -0.00212213 0.00076339 -0.00070209
0.38236248 0.63376033 0.51955396 -0.00145399 0.00060138 -0.00083813
0.40077174 0.60024816 0.48544937 -0.00082989 0.00066268 -0.00102597
0.44482496 0.54217929 0.43566549 -0.00068195 0.00077716 -0.00092435
0.48459962 0.48415002 0.39787111 -0.00054068 0.00063713 -0.00122753
0.50907600 0.76222026 0.54889274 0.00044135 0.00078675 0.00044907
0.53638738 0.74999446 0.56350452 0.00025826 0.00126442 0.00085643
0.57094473 0.72907060 0.56607616 0.00071508 0.00147052 0.00076137
0.60702962 0.69705027 0.55866319 0.00125486 0.00186271 0.00029647
0.62248015 0.66597241 0.54586220 0.00212190 0.00075602 -0.00071337
0.61763626 0.63376033 0.51955396 0.00145056 0.00059676 -0.00084512
0.59922832 0.60024816 0.48544937 0.00083520 0.00066780 -0.00102955
0.55517507 0.54217929 0.43566549 0.00066863 0.00078844 -0.00099773
0.51540041 0.48415002 0.39787111 0.00118629 0.00026229 -0.00153460
0.48696095 0.63955283 0.40929165 -0.00050549 0.00052664 -0.00125081
0.46430904 0.65700591 0.42145687 -0.00104327 0.00053013 -0.00078010
0.44468763 0.68170244 0.44210985 -0.00086203 0.00057243 -0.00057597
0.43348601 0.70844728 0.46829566 -0.00044488 0.00076319 -0.00008463
0.43016362 0.72691095 0.48850828 -0.00029490 0.00060681 -0.00022947
0.43568528 0.74975705 0.51027209 -0.00061157 0.00057247 -0.00049379
0.46466902 0.76920527 0.53756368 -0.00081343 0.00089299 0.00009703
0.47649899 0.77165192 0.54270929 -0.00055702 0.00098647 0.00044213
0.51303911 0.63955283 0.40929165 0.00058722 0.00055511 -0.00126966
0.53569102 0.65700591 0.42145687 0.00097511 0.00061182 -0.00087873
0.55531240 0.68170244 0.44210985 0.00085428 0.00061734 -0.00061816
0.56651402 0.70844728 0.46829566 0.00046582 0.00077170 -0.00009578
0.56983644 0.72691095 0.48850828 0.00031940 0.00061237 -0.00024261
0.56431478 0.74975705 0.51027209 0.00062750 0.00062023 -0.00049333
0.53532982 0.76920527 0.53756368 0.00075364 0.00115479 0.00009963
0.52350104 0.77165192 0.54270929 0.00087492 0.00113672 0.00037900
0.41339833 0.48399910 0.44469625 -0.00108181 -0.00027259 -0.00116744
0.38766149 0.50426990 0.47631961 -0.00156841 0.00001297 -0.00058460
0.37121654 0.53240258 0.51439351 -0.00154239 -0.00005622 -0.00057207
0.36842847 0.55134374 0.53601754 -0.00172094 0.00060388 0.00031387
0.38050216 0.58027792 0.57152104 -0.00141485 0.00033791 0.00059093
0.39640537 0.59821218 0.59625471 -0.00096286 -0.00009029 0.00098296
0.42016923 0.61573821 0.61594415 -0.00045376 0.00038594 0.00151455
0.46812621 0.63262606 0.63307434 -0.00141281 0.00052202 0.00095879
0.51172924 0.64043725 0.64296728 0.00104048 0.00098713 0.00165643
0.58660048 0.48399910 0.44469625 0.00121674 -0.00031388 -0.00116757
0.61233735 0.50426990 0.47631961 0.00159828 0.00002743 -0.00060795
0.62878227 0.53240258 0.51439351 0.00155738 -0.00003032 -0.00056800
0.63157153 0.55134374 0.53601754 0.00172643 0.00062492 0.00031575
0.61949790 0.58027792 0.57152104 0.00142434 0.00035128 0.00058755
0.60359347 0.59821218 0.59625471 0.00098266 -0.00008853 0.00097734
0.57982957 0.61573821 0.61594415 0.00037320 0.00043727 0.00157526
0.53187257 0.63262606 0.63307434 0.00153235 0.00066023 0.00100085
0.48826960 0.64043725 0.64296728 -0.00051243 0.00085301 0.00172859
0.45418724 0.73542726 0.50158513 -0.00009337 0.00032710 -0.00046001
0.43101713 0.72248274 0.51793611 -0.00007631 0.00089241 -0.00096551
0.39678636 0.68982905 0.55136657 -0.00088086 0.00150761 -0.00030060
0.38272989 0.66276383 0.57127988 -0.00177613 0.00058679 0.00099763
0.38281152 0.64257592 0.58368260 -0.00172379 0.00071753 0.00114208
0.39313492 0.61431581 0.59603083 -0.00125652 0.00019505 0.00116146
0.43418244 0.56622022 0.59585029 0.00023556 0.00018531 0.00027511
0.54581279 0.73542726 0.50158513 0.00009254 0.00034484 -0.00045476
0.56898296 0.72248274 0.51793611 0.00009170 0.00086743 -0.00094109
0.60321373 0.68982905 0.55136657 0.00084787 0.00150730 -0.00027160
0.61726892 0.66276383 0.57127988 0.00174911 0.00059302 0.00102608
0.61718726 0.64257592 0.58368260 0.00170137 0.00073479 0.00115954
0.60686511 0.61431581 0.59603083 0.00126157 0.00020437 0.00116290
0.56581765 0.56622022 0.59585029 -0.00029826 0.00020452 0.00034613
0.41825321 0.57439262 0.60649151 -0.00004197 -0.00015774 0.00086756
0.40777150 0.54968745 0.60927218 -0.00033257 0.00043257 0.00112995
0.39460191 0.52578378 0.60001373 -0.00106056 0.00011929 0.00115447
0.38486356 0.50042677 0.57724684 -0.00111050 -0.00030774 0.00050052
0.38523096 0.47783917 0.54996759 -0.00021718 0.00021658 0.00000096
0.58174682 0.57439262 0.60649151 -0.00000704 -0.00016285 0.00092290
0.59222734 0.54968745 0.60927218 0.00031452 0.00044614 0.00117787
0.60539693 0.52578378 0.60001373 0.00106624 0.00013250 0.00117173
0.61513644 0.50042677 0.57724684 0.00112041 -0.00029618 0.00050291
0.61476785 0.47783917 0.54996759 0.00022262 0.00022566 0.00000368
0.48735550 0.29516333 0.43640268 -0.00034183 -0.00086291 -0.00051539
0.46343455 0.32377598 0.44632408 -0.00142466 -0.00037941 0.00040860
0.42615598 0.37159809 0.48761031 -0.00064094 -0.00061483 -0.00061466
0.40794834 0.38553458 0.50999254 -0.00106584 -0.00022328 -0.00007751
0.38681915 0.39452460 0.53181815 -0.00064567 -0.00055639 -0.00049732
0.34078929 0.39859283 0.57204556 -0.00210466 -0.00113780 0.00098810
0.51264328 0.29516333 0.43640268 0.00103392 -0.00100543 -0.00075711
0.53656423 0.32377598 0.44632408 0.00124090 -0.00045557 -0.00048425
0.57384282 0.37159809 0.48761031 0.00065321 -0.00057103 -0.00074286
0.59205168 0.38553458 0.50999254 0.00110063 -0.00019891 -0.00010573
0.61318094 0.39452460 0.53181815 0.00066884 -0.00055564 -0.00051144
0.65921068 0.39859283 0.57204556 0.00212140 -0.00115032 0.00099015
0.35818055 0.40236300 0.57663459 -0.00069448 -0.00088348 0.00147090
0.39432237 0.41664088 0.58565676 0.00003364 -0.00001481 0.00120659
0.44432276 0.42208707 0.60410923 -0.00060157 -0.00021604 0.00053173
0.48498556 0.41780359 0.62977052 -0.00050038 0.00000421 0.00008213
0.50165814 0.40866145 0.65150833 0.00008349 -0.00029994 0.00113986
0.64181828 0.40236300 0.57663459 0.00070069 -0.00089240 0.00148009
0.60567647 0.41664088 0.58565676 -0.00001782 -0.00001427 0.00120958
0.55567729 0.42208707 0.60410923 0.00059255 -0.00019622 0.00054193
0.51501447 0.41780359 0.62977052 0.00051940 0.00001383 0.00009854
0.49834067 0.40866145 0.65150833 -0.00006742 -0.00031001 0.00114194
0.49507889 0.73297065 0.39319181 0.00002191 0.00024842 -0.00089632
0.47024632 0.74051964 0.40188122 -0.00069157 0.00024373 -0.00073175
0.45001015 0.75158769 0.41538230 -0.00054290 -0.00015561 -0.00103600
0.43676510 0.76799059 0.43383110 -0.00093236 0.00018457 -0.00057751
0.43483302 0.77900916 0.44532463 -0.00108934 0.00059573 -0.00009488
0.43793526 0.78925711 0.45592141 -0.00106266 0.00103476 0.00043631
0.44810405 0.80091023 0.46655405 -0.00108623 0.00091198 0.00043758
0.47486749 0.81274384 0.47862276 -0.00094207 0.00047613 0.00019576
0.50666147 0.81701016 0.49026597 0.00077999 0.00114207 0.00049967
0.50492114 0.73297065 0.39319181 0.00035715 0.00028775 -0.00094015
0.52975374 0.74051964 0.40188122 0.00074514 0.00023304 -0.00096907
0.54998869 0.75158769 0.41538230 0.00047560 -0.00021919 -0.00117872
0.56323373 0.76799059 0.43383110 0.00095824 0.00016128 -0.00061724
0.56516582 0.77900916 0.44532463 0.00112590 0.00061297 -0.00010947
0.56206357 0.78925711 0.45592141 0.00106701 0.00115303 0.00045876
0.55189604 0.80091023 0.46655405 0.00098096 0.00132157 0.00047931
0.52513134 0.81274384 0.47862276 0.00105622 0.00110869 0.00017346
0.49333853 0.81701016 0.49026597 0.00010563 0.00098380 0.00061732
0.48726150 0.87970012 0.20602216 0.00015828 -0.00093605 -0.00064709
0.45052594 0.89281654 0.21094264 -0.00060764 -0.00100335 -0.00063719
0.44146171 0.90424579 0.21461387 -0.00115015 -0.00028988 -0.00032873
0.44003186 0.91369963 0.21694919 -0.00126352 0.00038161 -0.00009486
0.45270294 0.93092263 0.22073790 -0.00056295 0.00169653 0.00016904
0.49065071 0.94248784 0.22837470 0.00002136 0.00165115 0.00015548
0.51273727 0.87970012 0.20602216 -0.00017478 -0.00101395 -0.00065061
0.54947287 0.89281654 0.21094264 0.00039158 -0.00125511 -0.00064435
0.55853832 0.90424579 0.21461387 0.00108449 -0.00039691 -0.00025803
0.55996823 0.91369963 0.21694919 0.00123262 0.00035968 0.00001517
0.54729706 0.93092263 0.22073790 0.00044441 0.00182370 0.00031714
0.50934935 0.94248784 0.22837470 -0.00015521 0.00167298 0.00016744
0.49066553 0.86351740 0.26909935 0.00002928 -0.00056720 -0.00072730
0.46909103 0.87192106 0.27341995 -0.00027205 -0.00067869 -0.00067697
0.46018142 0.87819356 0.27697736 -0.00064840 -0.00053862 -0.00058577
0.45349583 0.88886082 0.28406990 -0.00097658 -0.00019371 -0.00044907
0.45274875 0.90001667 0.29252183 -0.00113627 0.00037526 -0.00031576
0.45577300 0.91009027 0.29895633 -0.00115330 0.00094226 -0.00011816
0.46452430 0.91928309 0.30554795 -0.00092052 0.00149195 0.00016569
0.48486558 0.92417264 0.31164849 -0.00029484 0.00166668 0.00025948
0.49645066 0.92295927 0.31418419 -0.00007689 0.00159384 0.00028457
0.50933450 0.86351740 0.26909935 0.00004909 -0.00060131 -0.00071730
0.53090781 0.87192106 0.27341995 0.00024040 -0.00081870 -0.00061627
0.53981739 0.87819356 0.27697736 0.00051635 -0.00073520 -0.00051671
0.54650426 0.88886082 0.28406990 0.00091040 -0.00028444 -0.00039377
0.54725009 0.90001667 0.29252183 0.00110971 0.00036734 -0.00026114
0.54422706 0.91009027 0.29895633 0.00113114 0.00097099 -0.00005930
0.53547454 0.91928309 0.30554795 0.00089711 0.00151380 0.00022098
0.51513445 0.92417264 0.31164849 0.00029529 0.00166420 0.00029133
0.50354815 0.92295927 0.31418419 0.00009985 0.00159211 0.00029438
0.49460021 0.82059717 0.33872855 0.00010040 0.00017648 -0.00086366
0.48977247 0.81988716 0.34340784 0.00000456 0.00022881 -0.00085709
0.46962908 0.82823521 0.35326621 -0.00048214 0.00011930 -0.00068240
0.45777068 0.84140110 0.36477828 -0.00078245 0.00007332 -0.00056832
0.45562828 0.85280555 0.37327603 -0.00099480 0.00030419 -0.00034513
0.47070026 0.87962961 0.39038768 -0.00109893 0.00113732 0.00030261
0.48850340 0.88569427 0.39395747 -0.00040791 0.00131547 0.00036816
0.50467747 0.88774633 0.39908329 0.00034638 0.00147845 0.00051597
0.50539863 0.82059717 0.33872855 0.00026386 0.00014317 -0.00087000
0.51022762 0.81988716 0.34340784 0.00035856 0.00014881 -0.00086952
0.53037095 0.82823521 0.35326621 0.00042316 -0.00024850 -0.00088679
0.54222816 0.84140110 0.36477828 0.00073427 -0.00006078 -0.00064965
0.54437053 0.85280555 0.37327603 0.00096291 0.00033934 -0.00029048
0.52929980 0.87962961 0.39038768 0.00115291 0.00126367 0.00040883
0.51149666 0.88569427 0.39395747 0.00063213 0.00134212 0.00041298
0.49532133 0.88774633 0.39908329 -0.00009227 0.00146673 0.00051340
0.49150664 0.93857545 0.11664042 -0.00021185 0.00136621 -0.00180084
0.47314072 0.93904179 0.12665461 -0.00093039 0.00151879 -0.00124495
0.45841631 0.93874621 0.14099309 -0.00142693 0.00143156 -0.00077528
0.44936571 0.93610036 0.15655364 -0.00138421 0.00105750 -0.00071538
0.44316873 0.92980069 0.17521520 -0.00136067 0.00092622 -0.00099114
0.44309694 0.90523905 0.22905007 -0.00104422 -0.00001380 0.00004074
0.45284641 0.89630586 0.27508116 -0.00091271 -0.00004333 -0.00021486
0.45545140 0.88361007 0.32818371 -0.00105508 0.00027783 -0.00005790
0.45130524 0.86912060 0.35170025 -0.00114731 0.00039361 -0.00025215
0.45978436 0.85033786 0.37764609 -0.00087152 0.00023732 -0.00031433
0.50849217 0.93857545 0.11664042 0.00040255 0.00117365 -0.00206569
0.52685809 0.93904179 0.12665461 0.00065656 0.00097731 -0.00196370
0.54158252 0.93874621 0.14099309 0.00102634 0.00097332 -0.00147418
0.55063313 0.93610036 0.15655364 0.00132926 0.00084796 -0.00080011
0.55683011 0.92980069 0.17521520 0.00146539 0.00076209 -0.00064622
0.55690181 0.90523905 0.22905007 0.00098867 -0.00006352 0.00014497
0.54715234 0.89630586 0.27508116 0.00086041 -0.00009694 -0.00011313
0.54454863 0.88361007 0.32818371 0.00101652 0.00029966 -0.00005136
0.54869360 0.86912060 0.35170025 0.00113520 0.00046422 -0.00027770
0.54021448 0.85033786 0.37764609 0.00082379 0.00027581 -0.00022316
0.46045354 0.85272270 0.37253630 -0.00084508 0.00023763 -0.00039407
0.45524979 0.84474081 0.38669294 -0.00099057 0.00035134 -0.00026404
0.44973555 0.83096880 0.40033999 -0.00104962 0.00078106 -0.00053028
0.44211856 0.78883165 0.42477059 -0.00082944 0.00081269 -0.00089643
0.43082538 0.76858437 0.42862982 -0.00121776 0.00022838 -0.00079863
0.53954649 0.85272270 0.37253630 0.00079547 0.00027597 -0.00034252
0.54474902 0.84474081 0.38669294 0.00096186 0.00036899 -0.00010896
0.55026448 0.83096880 0.40033999 0.00101496 0.00077590 -0.00033421
0.55788153 0.78883165 0.42477059 0.00081671 0.00086043 -0.00095262
0.56917471 0.76858437 0.42862982 0.00124586 0.00021190 -0.00084228
0.43326709 0.76828748 0.43205857 -0.00109778 0.00021295 -0.00065738
0.43601060 0.76656568 0.45301956 -0.00087274 0.00016132 0.00018520
0.44320458 0.75981325 0.47130755 -0.00020860 -0.00012540 0.00071964
0.45634818 0.73962778 0.49439612 -0.00007600 0.00024022 -0.00028888
0.45669699 0.73230273 0.49921146 -0.00000783 0.00034153 -0.00040566
0.45387185 0.73079860 0.49732018 -0.00001202 0.00040383 -0.00034414
0.56673175 0.76828748 0.43205857 0.00112692 0.00019282 -0.00069585
0.56398821 0.76656568 0.45301956 0.00092513 0.00010383 0.00018502
0.55679423 0.75981325 0.47130755 0.00023786 -0.00017147 0.00072765
0.54365063 0.73962778 0.49439612 0.00007603 0.00026387 -0.00028274
0.54330307 0.73230273 0.49921146 0.00000685 0.00035320 -0.00039914
0.54612821 0.73079860 0.49732018 0.00001422 0.00041329 -0.00034062
0.38807961 0.14700273 0.51296490 -0.00070387 0.00022591 -0.00010854
0.40336061 0.14912900 0.55163252 -0.00049790 -0.00010888 0.00000470
0.41426289 0.14754698 0.58504069 -0.00017219 -0.00017838 -0.00019258
0.41774735 0.14655620 0.60158092 0.00002531 -0.00015150 -0.00012866
0.42030531 0.14426169 0.63504481 0.00041744 0.00010877 -0.00007762
0.41940236 0.14299880 0.65785754 0.00041890 0.00021556 0.00022362
0.41417137 0.14288127 0.69299001 -0.00010573 0.00011209 0.00023370
0.40364632 0.14477131 0.72875828 -0.00055730 0.00004588 0.00024570
0.39648205 0.14167157 0.75337070 -0.00023444 0.00004560 0.00018760
0.39227030 0.14310393 0.75897771 -0.00005173 0.00024332 0.00005376
0.61192048 0.14700273 0.51296490 0.00071441 0.00023163 -0.00011419
0.59663820 0.14912900 0.55163252 0.00051005 -0.00010383 -0.00000186
0.58573592 0.14754698 0.58504069 0.00018086 -0.00017375 -0.00019724
0.58225149 0.14655620 0.60158092 -0.00001944 -0.00014792 -0.00012945
0.57969350 0.14426169 0.63504481 -0.00041778 0.00011201 -0.00007338
0.58059770 0.14299880 0.65785754 -0.00042452 0.00021980 0.00023083
0.58582747 0.14288127 0.69299001 0.00009531 0.00011818 0.00023482
0.59635371 0.14477131 0.72875828 0.00055129 0.00005075 0.00024329
0.60351801 0.14167157 0.75337070 0.00023077 0.00005001 0.00018183
0.60772973 0.14310393 0.75897771 0.00004752 0.00024727 0.00004698
