ply
format ascii 1.0
element vertex 788
property float x
property float y
property float z
property float nx
property float ny
property float nz
end_header
-0.237669 0.232885 -0.010163 0.000189728 -0.00181725 -0.999998 
0.361826 -0.448228 0.010163 0.00077041 -0.00338264 0.999994 
-0.417549 0.371504 0.010163 8.618e-05 -0.00126672 0.999999 
0.005869 -0.015032 -0.010163 -0.00081461 0.00379151 -0.999992 
-0.032524 0.182312 0.010163 -0.000826789 0.00314025 0.999995 
0.236085 0.029684 -0.010163 -0.00155628 -0.00183194 -0.999997 
-0.090916 0.310676 -0.010163 -1.14262e-16 4.40663e-17 -1 
-0.280404 0.48172 0.010163 -0.00558211 -0.00105194 0.999984 
0.056438 -0.479067 0.010163 -0.00197548 0.00680894 0.999975 
-0.5 -0.012232 -0.002834 -0.999974 -0.00723859 0.000525465 
-0.371895 -0.20698 -0.010163 -0.00403519 0.000683803 -0.999992 
0.128516 0.429646 -0.010163 -0.00510992 0.000375248 -0.999987 
-0.27977 -0.349244 0.010163 -0.0060993 0.005443 0.999967 
-0.122373 0.006292 0.010163 -0.00105768 -0.00393044 0.999992 
-0.442157 -0.311708 0.010163 -0.00161286 -0.000509411 0.999999 
0.032888 0.254845 0.010163 -0.000844479 -0.00436802 0.99999 
-0.190066 0.408963 -0.010163 -0.0041755 0.000647468 -0.999991 
-0.431827 -0.415587 0.010163 0.00108848 0.000124769 0.999999 
-0.160543 -0.304543 -0.010163 -0.00102577 0.000939042 -0.999999 
-0.27012 0.193441 0.010163 0.00264522 0.00117757 0.999996 
0.264491 -0.128841 -0.010163 0.00151108 0.000185985 -0.999999 
-0.363133 0.240103 -0.010163 0.000116545 0.00403723 -0.999992 
0.262576 0.17844 0.010163 -0.000479393 -0.00105289 0.999999 
0.101968 0.40845 -0.010163 0.00111677 -0.00112489 -0.999999 
-0.084336 -0.073256 -0.010163 0.00386548 -0.000135227 -0.999993 
0.278267 -0.124823 0.010163 0.00230027 0.00192261 0.999996 
-0.489543 -0.011735 -0.010163 0.0130451 -0.00888439 -0.999875 
0.275795 -0.445927 -0.010163 -0.00091153 -0.00429574 -0.99999 
0.451589 0.175814 -0.010163 0.000675038 -0.00207399 -0.999998 
0.121101 0.493992 0.010163 0.0189703 0.136277 0.990489 
-0.321301 0.122292 -0.010163 0.00954154 -0.00480945 -0.999943 
0.148213 0.154873 0.010163 0.00378997 0.00569067 0.999977 
-0.35665 -0.5 0.006677 -0.147483 -0.965662 0.213881 
0.379756 -0.466347 0.010163 0.00053726 0.00149108 0.999999 
-0.428265 0.030603 -0.010163 -4.67223e-17 -1.13202e-16 -1 
0.01437 0.267078 0.010163 0.00382764 0.00240579 0.99999 
-0.391644 -0.49459 0.010163 -0.026514 0.15702 0.98724 
-0.326738 -0.075746 -0.010163 0.00465487 0.000426829 -0.999989 
-0.056326 -0.426557 0.010163 -0.00344233 0.00311978 0.999989 
0.412371 0.486541 0.010163 0.017442 -0.00161466 0.999847 
-0.320144 0.329594 -0.010163 0.00185639 0.00643682 -0.999978 
0.224308 -0.324516 -0.010163 0.000489711 0.000553475 -1 
0.229776 0.436634 -0.010163 0.00234415 -0.000345021 -0.999997 
-0.398321 -0.171248 -0.010163 -0.00462 0.00691531 -0.999965 
-0.241004 0.175836 0.010163 0.00148294 -0.000481328 0.999999 
-0.123982 -0.369932 0.010163 -0.000136461 0.00109468 0.999999 
0.445446 -0.048305 -0.010163 -0.000130754 6.64482e-05 -1 
-0.074454 -0.493992 -0.010163 0.0232701 -0.00564278 -0.999713 
0.26921 0.405255 -0.010163 -0.00530515 -0.00373882 -0.999979 
0.165655 0.265898 -0.010163 -0.00142072 -0.00337215 -0.999993 
0.045814 -0.198489 -0.010163 -0.00895845 -0.0203402 -0.999753 
0.279278 -0.196257 0.010163 -0.00126039 -0.00147509 0.999998 
0.21161 0.32313 -0.010163 -0.00167334 -0.000934687 -0.999998 
0.056154 0.305418 0.010163 -0.000570732 -0.0011146 0.999999 
0.02342 -0.293365 -0.010163 0.00049244 0.00355133 -0.999994 
-0.001584 -0.196596 -0.010163 0.000618284 -0.000134889 -1 
0.339892 0.357874 -0.010163 -0.0017837 -0.000947814 -0.999998 
0.5 0.425809 0.003528 0.994777 -0.0258832 0.0987338 
-0.427493 -0.008873 0.010163 -0.00410659 0.00325693 0.999986 
0.494263 -0.141505 -0.010163 0.0432766 -0.0377706 -0.998349 
0.456492 0.297857 0.010163 0.000587288 -0.000602224 1 
0.461047 0.139068 0.010163 0.000148255 0.000731923 1 
-0.5 0.21782 -0.004746 -0.999839 -1.22445e-16 -0.017926 
0.29153 0.057931 -0.010163 -0.00155454 -0.000512745 -0.999999 
0.421092 -0.40928 0.010163 -0.00274869 -0.00149998 0.999995 
0.242576 -0.206362 -0.010163 0.00704902 8.60911e-05 -0.999975 
0.337662 -0.479201 -0.010163 0.00154731 0.000279322 -0.999999 
0.475398 0.253527 -0.010163 -0.000336378 -0.00479085 -0.999988 
-0.121251 -0.170806 -0.010163 -0.0028836 -0.000406519 -0.999996 
0.258365 -0.2721 -0.010163 0.00187946 -0.00153169 -0.999997 
0.185501 0.238153 -0.010163 -0.00209628 1.10205e-05 -0.999998 
0.211935 0.347228 0.010163 0.00675158 0.00186794 0.999975 
-0.23053 -0.036756 -0.010163 -0.00256746 0.000261456 -0.999997 
-0.012252 0.025786 0.010163 0.000230362 -0.00316691 0.999995 
-0.097419 -0.149525 -0.010163 0.0136915 0.00519688 -0.999893 
0.262608 0.10945 0.010163 0.00172788 0.000217399 0.999998 
0.240498 0.203677 0.010163 -0.00347036 0.00177532 0.999992 
-0.346981 -0.335271 -0.010163 -0.00126524 0.00366723 -0.999992 
-0.091472 -0.037622 -0.010163 0.00172765 -0.0033382 -0.999993 
-0.086885 0.184704 0.010163 -0.00261609 0.000415928 0.999996 
-0.091326 0.162477 -0.010163 -0.00394596 0.00402325 -0.999984 
-0.418765 -0.467033 -0.010163 -0.00436619 0.000535885 -0.99999 
0.18773 -0.345978 -0.010163 -1.1809e-16 3.24399e-17 -1 
0.248123 0.415952 -0.010163 0.00102799 0.000329173 -0.999999 
0.361857 -0.27508 -0.010163 -0.00686656 0.00260759 -0.999973 
0.5 -0.288942 -0.000723 0.999988 0.00366595 -0.00336603 
-0.49021 0.105493 0.010163 0.00408124 0.0173567 0.999841 
0.109704 0.03528 0.010163 -0.000488336 -0.000729958 1 
0.06967 0.456803 -0.010163 -0.00127021 -0.00294932 -0.999995 
0.311483 0.216244 -0.010163 0.00242469 0.00504748 -0.999984 
0.354295 -0.459602 0.010163 0.000480619 -0.00233939 0.999997 
-0.45603 0.417652 -0.010163 -0.00632764 -0.00308722 -0.999975 
0.044228 -0.44046 -0.010163 0.00198217 9.7625e-05 -0.999998 
0.380756 -0.248981 0.010163 -0.00147699 0.00297577 0.999994 
-0.399909 -0.408173 0.010163 0.00211681 -0.00327277 0.999992 
-0.123193 -0.130952 -0.010163 0.00234006 -0.00356966 -0.999991 
-0.151579 -0.04438 0.010163 -0.00312778 0.00378088 0.999988 
0.284181 0.033791 -0.010163 2.74673e-05 -1.23946e-06 -1 
-0.00144 0.5 0.003575 -0.00392244 0.999777 -0.0207458 
0.128533 -0.457322 0.010163 -0.000686988 -0.000788786 0.999999 
0.370233 -0.190809 -0.010163 5.02152e-17 1.11696e-16 -1 
0.331063 0.202051 -0.010163 0.000557362 -0.000190748 -1 
-0.109743 -0.095045 0.010163 0.00122718 -0.000818471 0.999999 
0.158379 -0.371933 -0.010163 0.00110616 -0.00454877 -0.999989 
-0.080495 0.452963 0.010163 0.00354593 -0.00404914 0.999986 
-0.494169 0.312418 -0.010163 -0.0011261 -0.01246 -0.999922 
0.011442 0.291296 -0.010163 -0.00519663 -0.00329113 -0.999981 
0.324207 0.18931 -0.010163 -2.85788e-05 -0.000907193 -1 
0.172655 -0.046691 0.010163 -0.0122235 0.0135605 0.999833 
-0.482667 -0.069466 0.010163 2.7063e-06 0.000210249 1 
0.023311 -0.035869 -0.010163 -0.00302053 0.000718687 -0.999995 
0.305778 0.217001 0.010163 -0.000766788 -1.00467e-05 1 
-0.20076 0.457782 -0.010163 0.000527615 -0.000322534 -1 
0.244544 0.25552 0.010163 0.00547949 -0.00426263 0.999976 
-0.395486 0.5 -0.003497 -0.0127586 0.999891 -0.00745982 
0.371925 0.486575 0.010163 0.00144483 -0.00875251 0.999961 
-0.122493 0.305329 -0.010163 0.00376189 -0.00495945 -0.999981 
-0.436388 -0.186341 0.010163 0.00400485 -0.00335737 0.999986 
-0.403324 0.296359 0.010163 -0.00377125 -0.00196627 0.999991 
-0.195364 0.399872 -0.010163 -0.00192868 0.000970247 -0.999998 
0.17589 0.378634 -0.010163 0.000326691 -0.000205872 -1 
-0.432554 -0.027612 0.010163 -0.00271319 -0.00127252 0.999996 
-0.395533 -0.185339 -0.010163 0.000257361 -0.000818311 -1 
-0.445148 0.360418 0.010163 -0.00181919 -0.000105287 0.999998 
-0.199943 -0.32024 -0.010163 -0.00284631 -0.00293259 -0.999992 
0.282012 -0.258511 0.010163 -0.00441498 -0.00603696 0.999972 
0.226911 -0.281722 0.010163 -0.000771288 0.000512583 1 
-0.176366 0.213773 -0.010163 0.00142913 0.000877626 -0.999999 
-0.170947 -0.32238 -0.010163 -0.00162134 0.0015538 -0.999997 
-0.369748 0.195375 0.010163 0.00263297 -0.00520764 0.999983 
0.307091 0.038079 0.010163 -0.00172108 0.00147209 0.999997 
-0.259761 -0.406425 0.010163 -0.000117997 0.000990733 1 
-0.126872 -0.402605 0.010163 6.10205e-05 0.000624332 1 
0.126987 -0.485808 -0.010163 -0.00259123 -0.00248745 -0.999994 
-0.5 -0.4334 0.000833 -0.999964 0.0060935 -0.0058332 
0.216603 0.07663 0.010163 0.000219068 -0.000769554 1 
0.297372 -0.05341 -0.010163 -0.00858527 -0.00229471 -0.999961 
0.28888 0.5 -0.006694 -0.00463799 0.999804 -0.0192351 
-0.211337 -0.377379 0.010163 0.00258999 -0.00361629 0.99999 
0.43794 0.174693 -0.010163 8.54326e-05 -0.00259579 -0.999997 
0.143958 0.086385 0.010163 0.000264593 0.000576108 1 
-0.23779 -0.434743 -0.010163 -0.00364136 0.00263074 -0.99999 
0.012677 0.155477 -0.010163 0.00434344 -0.00717193 -0.999965 
-0.322048 -0.028269 0.010163 -0.00493277 0.00318627 0.999983 
0.331896 -0.492959 -0.010163 0.00348947 0.0227193 -0.999736 
0.393856 0.078401 0.010163 -0.00436856 0.011606 0.999923 
-0.416654 0.423702 -0.010163 -0.000390059 0.000449629 -1 
-0.281278 -0.075888 -0.010163 0.000417539 0.000467244 -1 
0.390635 -0.137892 0.010163 -0.0015645 -0.00149363 0.999998 
-0.400691 0.477355 0.010163 0.000700768 0.00257009 0.999996 
0.01209 0.065352 -0.010163 -5.94342e-17 -1.07076e-16 -1 
-0.092662 -0.473942 0.010163 0.000225719 0.00228458 0.999997 
-0.144971 0.2165 0.010163 -0.00615027 -0.0025178 0.999978 
-0.313473 0.371799 -0.010163 0.00137255 0.00289869 -0.999995 
-0.232572 -0.086127 -0.010163 0.00157735 -0.00537199 -0.999984 
0.266669 0.128049 0.010163 -0.00172116 -0.00155009 0.999997 
0.489013 0.145308 -0.010163 4.06356e-17 1.15526e-16 -1 
-0.064735 -0.195873 0.010163 0.0036395 0.00219405 0.999991 
0.049995 0.139826 -0.010163 0.00059777 7.49698e-05 -1 
-0.228616 0.0228 -0.010163 -0.00611068 0.00429576 -0.999972 
0.363281 0.021317 0.010163 0.00136668 0.000978068 0.999999 
0.388369 0.121945 -0.010163 -0.00126704 -0.00133079 -0.999998 
-0.092365 -0.376364 0.010163 -0.00805509 -0.00115313 0.999967 
-0.283733 -0.109391 -0.010163 -0.000823178 -0.000971589 -0.999999 
-0.102404 -0.5 0.002521 0.00800213 -0.99978 -0.0194068 
0.278569 -0.173449 -0.010163 -0.00180484 0.00237835 -0.999996 
0.477857 -0.210074 -0.010163 -0.00447508 0.00281421 -0.999986 
-0.13232 0.038199 -0.010163 0.000636859 0.00238575 -0.999997 
-0.102529 0.007418 -0.010163 -0.0022115 -0.000528879 -0.999997 
-0.221917 0.473063 -0.010163 0.00292934 0.000146557 -0.999996 
0.064799 0.349103 0.010163 0.00349988 0.00326403 0.999989 
0.5 -0.120951 0.003778 0.999806 0.00374749 -0.0193598 
0.330497 0.273297 -0.010163 -0.000535529 0.000468646 -1 
-0.128432 -0.043027 0.010163 0.000246597 -6.01023e-05 1 
-0.003019 -0.019373 0.010163 0.00359324 -0.000787545 0.999993 
-0.115929 0.488696 0.010163 -0.021201 -0.0366188 0.999104 
-0.157006 0.243259 0.010163 -0.00216744 0.000696919 0.999997 
-0.38569 -0.173545 -0.010163 0.00189031 -0.000505853 -0.999998 
-0.425324 0.03727 -0.010163 -0.00297527 0.0120714 -0.999923 
-0.433434 -0.002694 -0.010163 0.000588644 0.00307984 -0.999995 
0.408107 -0.462209 0.010163 0.0022095 -0.00131808 0.999997 
0.07756 0.337521 -0.010163 -0.0022273 -0.00141747 -0.999997 
0.162145 -0.018559 -0.010163 -0.000157889 -0.000883832 -1 
-0.262971 -0.321009 0.010163 0.000109549 0.000845986 1 
0.383802 -0.355177 -0.010163 -1.22208e-16 7.92965e-18 -1 
0.492474 -0.36782 0.010163 0.0853843 0.0203405 0.99614 
0.214777 0.444129 0.010163 -0.00284339 0.000201241 0.999996 
-0.142028 -0.353026 0.010163 0.000329412 0.000357801 1 
-0.007037 0.087893 0.010163 0.000915072 0.000461889 0.999999 
-0.487217 -0.452335 -0.010163 -0.00263501 -0.000381802 -0.999996 
-0.290095 -0.292841 0.010163 0.00284708 0.00561191 0.99998 
0.481905 -0.138578 0.010163 0.00768593 0.00981941 0.999922 
-0.335325 -0.402557 -0.010163 0.000697225 0.00224625 -0.999997 
-0.469087 -0.301699 -0.010163 -0.00196156 0.00123109 -0.999997 
-0.479947 0.247015 -0.010163 -0.00204795 -0.00233254 -0.999995 
-0.11552 -0.4197 0.010163 0.00318679 0.000959185 0.999994 
0.053557 -0.406802 -0.010163 -0.00602369 0.00106116 -0.999981 
0.322084 -0.340681 -0.010163 -0.00359097 -0.000395881 -0.999993 
-0.27608 -0.426191 0.010163 -0.00352134 -0.00231691 0.999991 
0.007042 0.445739 -0.010163 -0.0223187 0.0150725 -0.999637 
-0.175246 -0.04922 -0.010163 -0.000206947 -0.0021243 -0.999998 
-0.475056 -0.323323 -0.010163 -8.73503e-05 -0.00124718 -0.999999 
-0.258775 0.432582 0.010163 0.0021962 -0.00246229 0.999995 
-0.191741 -0.428278 0.010163 0.00372568 -0.000577885 0.999993 
-0.043202 0.237196 0.010163 0.00349564 0.0083561 0.999959 
-0.138611 0.297676 -0.010163 -0.0044007 0.00204103 -0.999988 
-0.454961 -0.172991 0.010163 -0.000315482 0.00168282 0.999999 
0.5 0.377085 -0.004959 0.995844 -0.0258864 0.0873182 
0.461837 0.166053 0.010163 -0.00534071 -0.00206538 0.999984 
0.344434 0.364649 -0.010163 -0.000556348 -0.000684682 -1 
0.362017 -0.125847 0.010163 -0.00159448 -0.00214766 0.999996 
-0.090414 -0.023304 0.010163 0.00175348 -0.00195028 0.999997 
0.159573 0.163954 -0.010163 0.00119886 -0.00326494 -0.999994 
0.344983 0.5 0.00817 -0.0838833 0.932688 0.350795 
-0.284151 -0.144361 0.010163 -0.00301225 0.0029894 0.999991 
-0.033912 0.464263 -0.010163 0.000356655 0.000561909 -1 
-0.375096 -0.011673 0.010163 0.000730337 0.000297625 1 
-0.123596 -0.440214 -0.010163 -0.00244802 -0.00716817 -0.999971 
-0.040741 0.414547 0.010163 -0.000341962 -0.0015866 0.999999 
-0.100356 -0.048232 -0.010163 0.00113426 -0.00305313 -0.999995 
-0.224504 0.335273 0.010163 -0.00185935 0.00237937 0.999995 
0.492113 0.374062 -0.010163 -0.00601541 -0.000942246 -0.999981 
0.047842 -0.108791 -0.010163 -0.00419025 0.000392724 -0.999991 
-0.302764 -0.024052 0.010163 -0.000178367 0.00068473 1 
-0.169281 0.336134 -0.010163 0.000949685 -0.000413925 -0.999999 
0.209846 0.159016 -0.010163 -0.000916739 0.00724979 -0.999973 
-0.002848 0.002932 -0.010163 -0.000181444 0.00111254 -0.999999 
0.347577 -0.464547 -0.010163 -0.00569753 -0.00280343 -0.99998 
-0.449282 0.488696 0.010163 0.00248947 -0.00282507 0.999993 
-0.124951 -0.326674 0.010163 -0.000571794 -0.000766283 1 
0.150489 0.363922 -0.010163 0.00205109 0.00225609 -0.999995 
0.180783 -0.103896 0.010163 0.000583915 0.00280938 0.999996 
-0.186144 0.495964 0.010163 -0.0682131 -0.0399957 0.996869 
0.199516 0.012256 -0.010163 0.00642574 0.00322176 -0.999974 
-0.234397 0.293787 0.010163 0.00163513 -0.00145601 0.999998 
0.189034 0.127259 0.010163 -0.000573118 -0.0064332 0.999979 
0.175257 0.024821 0.010163 -0.00723673 0.000805748 0.999973 
-0.221672 0.386025 0.010163 0.000607799 -0.00563915 0.999984 
-0.111375 -0.20971 -0.010163 0.00257888 0.00725284 -0.99997 
-0.456774 0.25165 -0.010163 -0.000663636 0.00475412 -0.999988 
0.153786 -0.212062 0.010163 0.000673733 0.00238857 0.999997 
-0.227563 0.319504 0.010163 0.00103766 0.00145952 0.999998 
0.183743 0.369006 -0.010163 0.00307336 -0.00236053 -0.999992 
-0.323479 -0.317961 -0.010163 -0.000892275 0.00103067 -0.999999 
0.085449 -0.334349 -0.010163 0.000219835 0.00246593 -0.999997 
-0.03326 -0.233859 -0.010163 -0.00328596 0.00281521 -0.999991 
0.470494 0.157054 0.010163 0.00236899 -0.00380899 0.99999 
0.069464 0.400477 0.010163 -0.000279055 0.000869911 1 
-0.379277 -0.301542 -0.010163 0.00070069 0.000655198 -1 
0.08489 -0.045923 0.010163 -0.00100262 -0.000187293 0.999999 
0.361743 0.275407 -0.010163 -0.00203546 0.00206632 -0.999996 
-0.371901 0.120437 -0.010163 1.28291e-18 -1.22458e-16 -1 
0.386161 0.237749 0.010163 0.0013228 0.000257802 0.999999 
0.14168 -0.403559 -0.010163 6.06746e-06 -4.17729e-05 -1 
-0.444853 0.317076 0.010163 -0.000241756 -0.000535814 1 
0.05936 -0.5 0.000685 -0.0145299 -0.999414 -0.0309795 
-0.5 0.193009 0.007044 -0.998441 0.0154035 -0.0536523 
0.402246 0.071879 -0.010163 -0.011471 0.00220761 -0.999932 
0.108489 0.096982 -0.010163 -0.00114089 0.00171618 -0.999998 
-0.169196 -0.308128 -0.010163 -0.00277691 0.00229227 -0.999994 
-0.229445 0.137024 0.010163 -0.00171723 0.00181702 0.999997 
-0.192982 -0.5 0.005839 0.126417 -0.982431 0.137291 
-0.16241 -0.320736 0.010163 0.00639085 0.00117517 0.999979 
-0.359567 0.463755 0.010163 -0.000673128 0.00154199 0.999999 
-0.288374 -0.156213 0.010163 0.00281359 -0.000842457 0.999996 
0.057376 -0.169274 -0.010163 0.0023421 -0.000842024 -0.999997 
-0.5 0.329171 0.008713 -0.916785 0.324365 0.23301 
-0.161581 -0.453061 0.010163 0.00200748 -0.00221696 0.999996 
0.121473 0.417055 -0.010163 -0.000506803 -0.00322159 -0.999995 
-0.159769 0.04255 -0.010163 0.000533178 0.000487335 -1 
-0.39392 0.347997 0.010163 -0.000303952 0.000374981 1 
-0.209431 -0.358064 0.010163 0.00606081 0.000407754 0.999982 
-0.222929 0.284503 0.010163 -0.00264672 -0.00742465 0.999969 
0.36756 -0.121295 0.010163 0.00106224 -0.00204312 0.999997 
0.395991 0.051426 -0.010163 -0.000132945 -0.00273782 -0.999996 
0.482899 0.069245 -0.010163 -0.0341082 0.0136532 -0.999325 
0.07293 -0.425004 0.010163 0.00542015 0.00469518 0.999974 
0.160521 -0.2926 0.010163 0.000178228 0.00315453 0.999995 
0.018671 0.214756 -0.010163 0.000273191 -0.000605515 -1 
0.330647 0.268951 -0.010163 0.000740521 0.00268341 -0.999996 
-0.471969 -0.169562 -0.010163 -0.000479668 -0.00127776 -0.999999 
0.127715 -0.23668 0.010163 -0.000127217 -0.000543151 1 
-0.159918 -0.358054 -0.010163 0.0112991 -0.00485005 -0.999924 
0.335754 0.463282 0.010163 -1.05319e-05 1.00004e-05 1 
-0.006109 0.054067 0.010163 -0.00169399 0.000510047 0.999998 
0.162248 0.465616 0.010163 0.0054378 0.00159145 0.999984 
-0.354551 0.264337 0.010163 -0.00579696 0.00118518 0.999982 
-0.009963 -0.268627 -0.010163 -0.00133715 -0.00162043 -0.999998 
0.26221 0.467826 0.010163 0.000934552 0.00112776 0.999999 
0.153623 -0.073227 -0.010163 -0.000715636 -0.00257217 -0.999996 
-0.455203 0.296796 0.010163 -0.0049534 0.00422057 0.999979 
0.206275 0.395297 -0.010163 0.00517211 0.000614893 -0.999986 
0.13814 0.326192 -0.010163 0.000282994 0.000494872 -1 
0.288726 0.361087 -0.010163 -0.000837137 -0.000884313 -0.999999 
-0.200848 0.419473 0.010163 -0.000494134 0.000161301 1 
-0.083954 0.056969 -0.010163 0.00159428 0.00150473 -0.999998 
0.431556 0.334702 0.010163 -0.00182976 0.000541604 0.999998 
-0.188988 0.146575 0.010163 -0.00209357 0.000963124 0.999997 
-0.455788 -0.337266 -0.010163 0.000419505 -0.00563828 -0.999984 
0.191383 0.226317 0.010163 -0.00144916 -9.48844e-05 0.999999 
0.06603 0.283056 -0.010163 -0.000694252 -0.00206808 -0.999998 
-0.450105 -0.380064 0.010163 0.00109188 0.00193101 0.999998 
0.014489 0.184878 0.010163 0.00430832 0.000171769 0.999991 
0.306124 0.330436 -0.010163 0.00420441 -0.00332534 -0.999986 
-0.183931 -0.323869 0.010163 -0.00221274 0.000442615 0.999997 
-0.484838 0.229265 0.010163 -0.00184081 -0.000887411 0.999998 
0.359823 0.150313 -0.010163 -0.00189703 0.00507438 -0.999985 
-0.122579 0.109592 -0.010163 -0.00185019 0.00407977 -0.99999 
0.189787 0.403276 0.010163 0.00262651 0.000768994 0.999996 
0.302778 0.235704 0.010163 0.000402584 0.0018767 0.999998 
-0.054267 0.370365 0.010163 -0.000306208 0.00201615 0.999998 
-0.029073 -0.335934 0.010163 -0.00340241 -5.98663e-05 0.999994 
0.270076 0.404457 -0.010163 -0.00117416 0.00168256 -0.999998 
0.262481 0.262174 -0.010163 -0.00133798 -0.00216424 -0.999997 
0.172077 -0.274526 -0.010163 0.00333408 -0.00261762 -0.999991 
0.010649 -0.132513 0.010163 -0.0030561 -0.00041193 0.999995 
-0.387525 0.184859 0.010163 -0.000474867 0.00411348 0.999991 
-0.114291 -0.016636 0.010163 0.000282094 -0.000437267 1 
-0.353736 0.064942 -0.010163 -1.2202e-16 -1.04259e-17 -1 
-0.253831 -0.438503 0.010163 -0.000302839 -0.000918937 1 
0.097732 -0.457631 0.010163 0.001016 -0.0017726 0.999998 
-0.284933 -0.101468 0.010163 5.28077e-06 -4.72523e-05 1 
0.490552 0.196496 0.010163 -0.0089082 -0.00115244 0.99996 
-0.020255 0.204101 0.010163 0.000695521 0.000466896 1 
0.059534 0.122074 0.010163 -0.000713914 -0.00526694 0.999986 
0.348369 -0.091294 -0.010163 -0.00131146 0.00382262 -0.999992 
0.399798 -0.473963 -0.010163 0.00346487 0.00605992 -0.999976 
0.47562 0.107187 0.010163 0.000839789 0.00185056 0.999998 
-0.292522 -0.147605 0.010163 0.0067487 0.00147359 0.999976 
-0.020212 -0.370718 -0.010163 -6.72649e-18 -1.2228e-16 -1 
-0.437909 -0.225323 0.010163 -0.00124273 -0.00206528 0.999997 
0.278774 0.408719 -0.010163 -1.22106e-16 -9.36541e-18 -1 
-0.319959 0.036398 0.010163 -0.000787231 0.000934562 0.999999 
-0.346511 0.069013 -0.010163 0.00319637 0.000494058 -0.999995 
-0.33474 0.239793 -0.010163 0.000276897 -0.000118955 -1 
0.102255 -0.472975 -0.010163 0.000976175 -0.00190621 -0.999998 
0.229231 -0.395618 0.010163 0.000231221 -0.000433178 1 
-0.181218 -0.199349 0.010163 0.00113527 -0.00406893 0.999991 
-0.352428 -0.11223 -0.010163 0.00125253 0.00220496 -0.999997 
0.367069 0.230819 0.010163 0.000869865 0.00284884 0.999996 
0.490655 -0.063496 -0.010163 -0.00610143 0.00452485 -0.999971 
0.079487 0.112508 -0.010163 0.00103617 0.00300178 -0.999995 
0.230096 0.135939 0.010163 -0.0031968 0.00112348 0.999994 
-0.156136 -0.241606 -0.010163 -0.00432971 -0.00235585 -0.999988 
-0.328817 -0.399552 0.010163 -0.00698632 0.00123976 0.999975 
-0.039005 -0.117318 -0.010163 -8.06116e-05 -0.00268898 -0.999996 
0.205345 0.308649 0.010163 -0.000458638 -4.97954e-06 1 
-0.202617 0.467285 0.010163 -0.00645954 -0.0057091 0.999963 
-0.413047 0.300091 -0.010163 6.9893e-05 -0.00113073 -0.999999 
0.419171 -0.0952 -0.010163 -0.00113555 -0.000343842 -0.999999 
-0.465273 -0.169657 0.010163 -0.000427064 -0.000145691 1 
-0.12474 -0.164703 -0.010163 -4.03603e-17 -1.15623e-16 -1 
-0.150209 0.373701 0.010163 -0.000193299 0.00181967 0.999998 
0.289064 0.47611 -0.010163 -0.00165011 -0.00166162 -0.999997 
-0.455146 0.35629 -0.010163 -0.00118478 0.000129372 -0.999999 
-0.5 -0.195418 -0.003678 -0.997386 0.0151158 -0.0706628 
0.479992 0.251886 0.010163 0.000755729 0.000774839 0.999999 
-0.332489 -0.450475 -0.010163 0.00187034 -0.000764865 -0.999998 
-0.184911 -0.375305 -0.010163 6.91753e-06 -0.000229939 -1 
0.425463 -0.141378 0.010163 0.00207293 -0.000439515 0.999998 
-0.144729 -0.318742 -0.010163 0.00013402 0.000187095 -1 
-0.481902 -0.265875 -0.010163 -0.00201601 -0.00157082 -0.999997 
-0.300897 -0.007098 0.010163 0.000645692 -0.00624114 0.99998 
0.088841 0.465029 -0.010163 0.00565191 -0.00125072 -0.999983 
0.292501 -0.411357 0.010163 5.29733e-05 -0.00256918 0.999997 
0.022495 -0.459994 0.010163 -0.00109226 0.00720847 0.999973 
0.43935 0.101683 -0.010163 0.00175204 -0.00244715 -0.999995 
-0.035357 0.407607 0.010163 -0.000295332 0.00124431 0.999999 
0.376942 0.173476 0.010163 0.000725531 -0.000830085 0.999999 
-0.279666 0.371087 -0.010163 -0.00235734 -0.00127157 -0.999996 
-0.30704 0.302755 -0.010163 -0.00368968 -0.00232175 -0.99999 
0.069198 0.49419 -0.010163 -0.0486188 0.13149 -0.990125 
-0.104984 -0.5 -0.005567 -0.0107597 -0.99979 -0.0174363 
0.484036 0.423255 -0.010163 0.000274991 -0.000375324 -1 
-0.280773 -0.093288 -0.010163 0.00194855 -0.000583212 -0.999998 
-0.191436 0.060298 0.010163 0.00162785 4.19264e-06 0.999999 
0.189685 -0.131506 0.010163 0.0096713 8.66845e-05 0.999953 
0.335182 0.173145 -0.010163 0.00379738 -0.00328745 -0.999987 
0.023709 -0.466266 -0.010163 -0.000313029 -0.000425965 -1 
-0.099215 -0.211106 -0.010163 -0.000448179 -0.000415827 -1 
0.131186 0.5 -0.006334 0.0578914 0.994218 -0.0904409 
0.078103 -0.334421 0.010163 -0.00183422 -0.000549211 0.999998 
-0.011641 -0.07415 -0.010163 -0.00270658 -0.00100072 -0.999996 
0.0651 -0.467359 0.010163 -0.0074903 0.000537492 0.999972 
0.048683 0.284763 0.010163 0.00232218 -0.00353862 0.999991 
-0.17437 0.413102 -0.010163 -0.00056143 -0.000521572 -1 
0.297497 0.361769 -0.010163 0.00122097 -0.00168269 -0.999998 
-0.297228 0.39108 -0.010163 0.00445201 0.00536649 -0.999976 
0.310451 0.384773 -0.010163 0.000263956 -0.00251576 -0.999997 
0.249758 -0.468704 -0.010163 -0.00100043 -2.20524e-07 -0.999999 
-0.394438 0.030365 0.010163 -0.00312747 0.00176045 0.999994 
-0.172193 0.183618 -0.010163 -0.000778726 0.00470117 -0.999989 
0.197736 -0.331147 -0.010163 -0.00271548 0.00329878 -0.999991 
-0.054756 -0.162099 -0.010163 0.0021061 -0.00985243 -0.999949 
0.098839 0.175028 -0.010163 -0.000126064 -0.000565375 -1 
-0.088704 -0.470875 0.010163 0.000518928 0.00555688 0.999984 
-0.257877 -0.07025 0.010163 -0.00209669 -0.000326287 0.999998 
-0.408726 0.07831 0.010163 0.00181627 -0.00284546 0.999994 
-0.024941 -0.162706 -0.010163 -0.000333448 -0.00122109 -0.999999 
-0.329177 0.304434 -0.010163 -0.00610008 -0.00477969 -0.99997 
0.055704 0.126472 -0.010163 -0.000997942 0.00069207 -0.999999 
-0.262148 0.299129 0.010163 -4.73315e-05 -0.00293006 0.999996 
-0.415663 -0.077172 0.010163 0.000433539 0.00043154 1 
0.49165 -0.201409 -0.010163 -0.0272808 -0.00189382 -0.999626 
0.114943 0.086031 0.010163 -0.00137164 0.000663155 0.999999 
0.240473 -0.159929 0.010163 -0.00446243 -0.000964901 0.99999 
0.411378 -0.481647 0.010163 0.0030601 -0.0121409 0.999922 
-0.2039 -0.448322 0.010163 0.00170134 0.000431888 0.999998 
-0.143121 -0.09694 0.010163 -0.00294939 -0.00331397 0.99999 
0.401168 -0.435247 0.010163 -0.00146286 -0.00269439 0.999995 
-0.348781 -0.43835 0.010163 -0.0041495 -0.00117667 0.999991 
0.344502 -0.400689 -0.010163 0.00778443 -0.00355384 -0.999963 
-0.364365 0.238151 0.010163 -0.00216915 0.00283827 0.999994 
0.043012 -0.351498 -0.010163 0.000132613 0.000368112 -1 
0.370682 0.011296 0.010163 -0.00209325 0.00725428 0.999971 
0.237105 -0.354338 -0.010163 -0.00101116 0.00378951 -0.999992 
0.445354 0.218155 -0.010163 -0.00115438 0.00173066 -0.999998 
0.16839 0.195801 0.010163 0.000204402 0.000200052 1 
0.239735 -0.034145 0.010163 0.00164072 -0.000776509 0.999998 
0.292765 -0.3429 0.010163 9.25568e-05 -0.000393206 1 
-0.247095 0.167724 0.010163 -0.00784329 0.0046313 0.999959 
-0.5 -0.016628 -0.001361 -0.999991 -0.000681873 -0.00421869 
0.085113 0.332789 -0.010163 -1.05114e-16 -6.28386e-17 -1 
0.292763 0.278942 -0.010163 0.00115205 0.00140111 -0.999998 
-0.049512 0.229826 0.010163 -0.000160373 0.000689802 1 
0.181331 -0.5 -0.003452 0.0209563 -0.998976 0.0401056 
-0.177607 -0.027969 -0.010163 -0.00257221 -0.00115633 -0.999996 
-0.116577 -0.365277 0.010163 0.00462331 0.00165412 0.999988 
-0.092646 -0.163406 0.010163 -0.00260374 0.00372568 0.99999 
0.428568 0.033566 -0.010163 -0.000854874 -0.000199001 -1 
-0.374694 -0.167001 0.010163 0.00247927 6.59487e-05 0.999997 
-0.158378 0.183482 0.010163 0.000102557 -0.00346785 0.999994 
-0.330656 0.12629 -0.010163 -0.00139306 -0.0031396 -0.999994 
0.415629 0.046453 -0.010163 -0.00103952 -0.000462674 -0.999999 
-0.205327 0.062669 0.010163 -0.00383768 0.000701687 0.999992 
0.364174 0.000672 0.010163 0.000965169 0.00167626 0.999998 
-0.015914 0.433969 0.010163 -0.000176314 -0.00292238 0.999996 
-0.284618 -0.263064 -0.010163 -0.00823816 -0.00711518 -0.999941 
0.353779 0.075527 0.010163 0.00186665 0.00226665 0.999996 
0.340078 0.253073 0.010163 -0.00239695 0.00186412 0.999995 
0.341737 0.329169 0.010163 0.00114802 -0.000289156 0.999999 
-0.319675 -0.359457 -0.010163 5.8108e-06 -0.00015707 -1 
0.348648 0.215436 0.010163 0.000159909 0.0030476 0.999995 
-0.217697 -0.326283 0.010163 0.000659786 0.0115973 0.999933 
0.43588 0.072512 -0.010163 0.000514866 -0.00302065 -0.999995 
0.105555 0.369855 0.010163 -0.00101973 -3.31598e-05 0.999999 
-0.366054 -0.120333 0.010163 0.00430857 -0.000880075 0.99999 
-0.212203 0.140203 -0.010163 -0.00115957 0.00254375 -0.999996 
-0.168405 0.472638 0.010163 0.00119721 0.00111874 0.999999 
0.195763 0.234505 0.010163 0.00338618 -0.000202059 0.999994 
-0.284143 -0.109286 -0.010163 0.000837804 0.000748257 -0.999999 
0.11897 0.344568 0.010163 -6.0047e-07 1.06394e-06 1 
-0.367601 0.472456 -0.010163 0.00620157 0.00188037 -0.999979 
0.1386 0.025778 -0.010163 0.00149384 -0.00492777 -0.999987 
-0.152906 -0.49588 0.010163 -0.0189298 -0.0844393 0.996249 
0.22632 0.5 -0.001543 0.00506749 0.999849 0.0166201 
-0.053824 0.481294 0.010163 0.00196824 0.00628978 0.999978 
-0.378431 0.181868 0.010163 0.00024265 -1.48152e-05 1 
-0.5 -0.254859 -0.009514 -0.815275 0.172497 -0.552786 
-0.344695 -0.079539 -0.010163 -1.22246e-16 -7.31504e-18 -1 
-0.5 -0.209712 0.00859 -0.961911 -0.106589 0.251727 
-0.182591 -0.038353 0.010163 -2.2909e-05 -0.00669253 0.999978 
-0.18007 -0.210736 0.010163 -0.00263066 0.000773773 0.999996 
0.173541 0.380752 -0.010163 0.00111258 -0.000804398 -0.999999 
-0.035257 0.018522 -0.010163 -0.0138449 0.0235354 -0.999627 
0.148737 -0.211393 0.010163 -0.00319959 -0.000269996 0.999995 
0.256251 0.006279 -0.010163 1.15206e-16 4.15361e-17 -1 
0.366978 -0.311453 0.010163 0.00117849 -0.000857459 0.999999 
-0.47754 0.309181 0.010163 -0.000572024 -0.00364789 0.999993 
0.475702 -0.223175 -0.010163 0.000906871 0.00293297 -0.999995 
0.006161 0.296054 -0.010163 0.000223796 0.000331693 -1 
-0.063643 0.116302 0.010163 -0.00326477 -0.00546613 0.99998 
-0.355106 0.047867 -0.010163 0.000645236 -0.00110713 -0.999999 
0.219111 0.382393 -0.010163 -0.0032406 -0.000117224 -0.999995 
0.25756 -0.206619 -0.010163 0.000648076 -0.00176258 -0.999998 
0.136689 -0.312659 -0.010163 -0.00227412 0.00329811 -0.999992 
0.26587 -0.008564 -0.010163 0.00160105 0.00244703 -0.999996 
-0.288643 -0.03505 0.010163 -0.00490325 5.09979e-05 0.999988 
-0.073447 -0.186199 -0.010163 -0.00138783 -0.00146877 -0.999998 
-0.440961 0.404583 -0.010163 0.00335483 -0.000518806 -0.999994 
0.283899 0.297174 -0.010163 -0.00308199 -0.00324551 -0.99999 
0.161944 -0.068731 -0.010163 0.00274998 -0.00216981 -0.999994 
-0.038743 -0.14281 0.010163 -0.0020022 -0.00539307 0.999983 
0.358743 -0.327605 0.010163 0.00105003 0.000364202 0.999999 
0.314903 -0.13279 -0.010163 -0.00406854 -0.00725496 -0.999965 
-0.083527 -0.037802 -0.010163 -0.00413961 0.00127846 -0.999991 
-0.325522 -0.336122 0.010163 -0.00119632 0.00218231 0.999997 
-0.253815 -0.249539 0.010163 -0.00225021 0.00299379 0.999993 
0.422957 0.372752 -0.010163 0.00106242 -0.00183138 -0.999998 
-0.444222 -0.440431 -0.010163 -0.00541898 0.00257788 -0.999982 
0.413765 -0.263975 -0.010163 -0.00481986 0.00190858 -0.999987 
0.410765 0.122571 0.010163 0.0014985 0.000622211 0.999999 
0.246181 0.250649 -0.010163 -0.000543268 -0.00122156 -0.999999 
-0.128097 -0.393284 -0.010163 5.43166e-18 -1.22344e-16 -1 
-0.319475 0.205609 0.010163 -0.00299202 0.00669157 0.999973 
0.220223 0.280053 0.010163 -0.0111225 -0.00266487 0.999935 
0.495069 -0.455558 -0.010163 -0.113795 0.0393579 -0.992724 
-0.433633 0.238095 -0.010163 0.00108571 0.000593903 -0.999999 
0.060524 0.18572 0.010163 -0.000263458 -2.00181e-05 1 
-0.094221 -0.151723 0.010163 0.00113893 -0.00192634 0.999997 
-0.355285 -0.217812 -0.010163 -0.00308431 -0.00629417 -0.999975 
0.474304 -0.438477 -0.010163 -0.00795299 0.00200326 -0.999966 
-0.329236 0.208432 -0.010163 0.000620443 0.00106834 -0.999999 
-0.430382 -0.268436 -0.010163 -0.00699848 -0.0127641 -0.999894 
0.483286 -0.377278 -0.010163 -0.00379202 -0.00976102 -0.999945 
0.341157 0.438995 -0.010163 0.000938304 0.00159475 -0.999998 
0.17686 -0.42652 -0.010163 -0.00416579 0.00114105 -0.999991 
-0.329921 0.111543 -0.010163 0.00240027 -0.00299004 -0.999993 
-0.415999 -0.107134 0.010163 -0.00177076 0.000174973 0.999998 
0.028264 -0.460575 -0.010163 -0.00224639 0.000736633 -0.999997 
-0.463055 0.462159 0.010163 -0.00188125 -0.00032499 0.999998 
-0.394367 -0.266012 -0.010163 0.000250384 0.000107322 -1 
-0.351413 -0.382288 0.010163 0.00382435 -0.00157811 0.999991 
0.287579 -0.416157 0.010163 -0.0027486 0.00164986 0.999995 
-0.070394 -0.342695 0.010163 0.00192349 0.00457409 0.999988 
0.211951 -0.154425 -0.010163 -0.00198555 -0.00567967 -0.999982 
-0.005925 -0.030839 -0.010163 0.00204681 -0.000580193 -0.999998 
-0.385162 -0.009998 -0.010163 -0.000571897 0.00153738 -0.999999 
-0.003929 0.265735 0.010163 0.00124077 -0.00861862 0.999962 
-0.232823 -0.08374 0.010163 -0.00167627 -0.00131605 0.999998 
0.446635 0.302755 0.010163 0.00304065 -0.00233018 0.999993 
0.386262 0.361361 0.010163 -0.000856021 -0.000426832 1 
-0.343194 -0.185921 -0.010163 -0.000333601 6.65232e-05 -1 
-0.059406 -0.460946 0.010163 -0.000388425 -0.00140484 0.999999 
0.407656 -0.068258 0.010163 0.000326527 0.00174435 0.999998 
0.091924 -0.015895 -0.010163 -0.000871889 0.000911189 -0.999999 
-0.402857 0.025296 -0.010163 0.00570621 -0.00137472 -0.999983 
-0.138641 0.433933 -0.010163 -0.000507749 0.000203896 -1 
-0.259834 -0.056033 0.010163 0.00153619 -0.00747873 0.999971 
-0.488805 0.040857 -0.010163 0.0298158 -0.0113647 -0.999491 
0.441155 -0.109934 0.010163 0.00148241 0.00360954 0.999992 
0.417917 -0.4489 0.010163 0.000989308 -0.00250129 0.999996 
-0.38305 -0.15028 -0.010163 -0.000530207 0.000358473 -1 
-0.316728 -0.20495 -0.010163 0.00304425 -0.00116449 -0.999995 
0.310284 0.350281 0.010163 0.000286225 0.00225795 0.999997 
-0.213075 0.417453 -0.010163 -0.00377633 0.00275658 -0.999989 
0.344536 0.159146 -0.010163 5.00864e-17 -1.11754e-16 -1 
-0.369481 -0.091555 -0.010163 -1.22374e-16 -4.70616e-18 -1 
0.407284 0.497849 0.010163 0.0522858 0.411352 0.909976 
-0.373095 -0.219573 -0.010163 -0.000381125 0.00176969 -0.999998 
0.012134 0.006855 -0.010163 -3.53526e-18 -1.22414e-16 -1 
-0.324224 0.306693 0.010163 0.00272497 0.00527078 0.999982 
-0.177367 0.132862 -0.010163 0.00632051 -0.00726821 -0.999954 
0.200495 0.40507 0.010163 -0.00379007 0.00394971 0.999985 
-0.416719 -0.250523 -0.010163 0.00213737 -0.000718822 -0.999997 
-0.5 0.341241 -0.00315 -0.999912 0.00383497 0.0126749 
0.167524 -0.169852 -0.010163 -0.00811915 -0.00014833 -0.999967 
0.414256 0.351537 0.010163 -0.00175342 -0.00117142 0.999998 
0.308825 0.105345 0.010163 0.000485411 0.00170734 0.999998 
0.210003 0.356068 0.010163 -0.00116253 1.5848e-06 0.999999 
0.07809 0.230479 -0.010163 -0.000194886 -0.000388334 -1 
0.365004 0.018885 0.010163 0.00489981 0.0023324 0.999985 
-0.090991 0.117481 0.010163 -3.14414e-05 4.55417e-06 1 
-0.5 0.011437 0.004198 -0.991037 0.132546 0.0166412 
-0.287102 0.232023 -0.010163 0.00296205 -0.000807038 -0.999995 
-0.003226 0.166328 0.010163 0.000697443 0.00105241 0.999999 
-0.26653 -0.280327 -0.010163 0.00154586 0.000340979 -0.999999 
-0.426411 0.055134 0.010163 -0.000938746 0.00247813 0.999996 
-0.303274 0.26204 0.010163 0.00555142 -0.000230207 0.999985 
-0.415709 0.273687 0.010163 0.000498771 0.00126909 0.999999 
-0.403536 0.180228 -0.010163 -0.00223736 0.000763995 -0.999997 
0.128891 -0.084687 0.010163 0.000564986 0.00332591 0.999994 
-0.243961 0.436286 0.010163 -0.00117674 0.00175611 0.999998 
0.348697 0.121496 -0.010163 -0.000798187 -0.00473793 -0.999988 
0.141113 0.016516 -0.010163 -4.07719e-05 0.000173063 -1 
-0.285518 -0.098638 0.010163 -0.000529717 0.000852041 0.999999 
0.457316 -0.480684 0.010163 -0.000605301 -0.000322932 1 
0.122202 -0.200527 -0.010163 0.00310113 -0.00410805 -0.999987 
0.011377 0.247278 0.010163 0.00291275 0.00323797 0.999991 
-0.149856 -0.20204 -0.010163 -0.00509557 -9.65816e-05 -0.999987 
0.451858 -0.5 -0.004611 -0.0318786 -0.996234 0.0806302 
-0.031265 -0.121701 0.010163 -0.000268098 0.00087352 1 
0.002833 -0.203312 0.010163 -0.000385343 -0.00272216 0.999996 
-0.309241 0.488623 -0.010163 0.0159101 -0.0185891 -0.999701 
-0.153238 -0.300521 0.010163 -0.00502483 -0.000762804 0.999987 
0.328732 0.083743 0.010163 0.00180034 -0.000436118 0.999998 
0.233355 -0.414685 -0.010163 5.89985e-17 1.07316e-16 -1 
-0.434854 -0.010189 -0.010163 0.00413376 -0.000493468 -0.999991 
-0.20788 -0.5 -0.009423 0.0347732 -0.832234 -0.553333 
-0.15074 0.392102 -0.010163 0.00277025 0.00591559 -0.999979 
-0.298349 -0.205272 -0.010163 -1.153e-05 0.00183442 -0.999998 
0.227133 0.256391 -0.010163 0.00170208 0.000405031 -0.999998 
0.394826 0.080437 -0.010163 -9.54498e-17 -7.67264e-17 -1 
0.458381 0.083722 0.010163 0.00240479 0.0015812 0.999996 
-0.435902 -0.335787 0.010163 -0.00544217 -0.00422398 0.999976 
-0.15205 0.391395 0.010163 -0.000592028 0.0016606 0.999998 
0.173276 -0.112656 0.010163 0.000617583 -0.00029497 1 
0.377361 0.192434 -0.010163 0.000650791 -0.00317351 -0.999995 
0.143993 -0.208032 -0.010163 -1.78457e-18 -1.22452e-16 -1 
0.254358 0.267411 -0.010163 -0.00167464 -0.00187368 -0.999997 
0.234326 -0.475021 0.010163 0.0015708 -0.00139125 0.999998 
-0.059206 -0.100921 0.010163 0.00180227 -0.00230665 0.999996 
0.283953 0.191285 0.010163 -0.0023133 -0.000244631 0.999997 
0.360349 -0.069134 -0.010163 0.00685732 0.00208067 -0.999974 
0.107232 0.390895 0.010163 0.000578175 0.000507487 1 
-0.460775 0.221208 0.010163 -0.00338811 0.0055356 0.999979 
0.146006 0.297348 -0.010163 0.000898099 0.00181944 -0.999998 
-0.499219 0.213943 0.010163 -0.663542 0.298117 0.686177 
-0.215358 -0.306166 -0.010163 0.000774013 -1.76772e-05 -1 
0.326813 0.370065 -0.010163 -0.00215244 -0.000606575 -0.999997 
-0.426662 0.370719 -0.010163 0.00129304 -0.000633288 -0.999999 
0.388851 -0.000195 0.010163 0.00395184 -0.00340138 0.999986 
-0.168284 0.229745 -0.010163 0.0108437 -0.00523988 -0.999927 
0.056186 0.348145 0.010163 -0.00342847 -0.00127957 0.999993 
-0.042531 -0.462506 -0.010163 0.00115759 0.00137989 -0.999998 
0.105764 -0.5 -0.006619 0.0202466 -0.999633 -0.0179788 
0.303947 -0.491188 0.010163 0.00350014 0.003033 0.999989 
-0.023675 0.446098 -0.010163 -9.9273e-05 4.03339e-05 -1 
-0.333958 0.382214 -0.010163 0.00249754 -0.00204924 -0.999995 
-0.11983 -0.435065 0.010163 -7.02469e-05 2.25396e-05 1 
0.002469 -0.242776 0.010163 0.000177841 0.0103542 0.999946 
0.078578 0.007983 0.010163 -0.00411127 0.00058574 0.999991 
-0.292942 -0.195945 0.010163 -0.00325946 0.00512963 0.999982 
0.385709 -0.460062 0.010163 -0.00179131 -0.000358174 0.999998 
-0.495073 0.087539 0.010163 -0.11605 0.122085 0.985712 
-0.318633 0.189701 0.010163 -0.00150999 0.0085833 0.999962 
0.213472 0.144626 -0.010163 -0.00297698 -0.000817944 -0.999995 
0.461104 -0.053567 0.010163 0.00207133 0.00268206 0.999994 
-0.484202 0.054202 -0.010163 8.96784e-05 -0.000113059 -1 
-0.292913 -0.288748 0.010163 0.00510122 0.00295079 0.999983 
-0.418832 0.233716 0.010163 -0.00478569 -6.82472e-05 0.999989 
0.316629 -0.449492 0.010163 0.000629866 0.00035672 1 
-0.164769 0.48101 -0.010163 0.00272496 0.00158803 -0.999995 
0.197379 0.369439 0.010163 0.00142315 0.000671905 0.999999 
0.22471 -0.201954 -0.010163 -0.00118599 -0.00177671 -0.999998 
0.102318 0.007165 -0.010163 -0.00144642 0.000263801 -0.999999 
0.1167 0.442841 0.010163 0.000785569 -0.00317975 0.999995 
-0.062041 0.113786 0.010163 0.00835928 0.00381195 0.999958 
-0.47068 -0.378368 0.010163 0.00162259 0.00128868 0.999998 
0.29599 0.413918 0.010163 0.000331247 0.000112437 1 
0.162842 -0.433255 -0.010163 0.00181255 0.0074831 -0.99997 
0.047287 -0.3447 -0.010163 -9.49006e-17 -7.74046e-17 -1 
0.042086 -0.030794 -0.010163 0.00447885 -0.00471325 -0.999979 
0.274223 -0.112406 0.010163 -0.000599249 0.00456672 0.999989 
0.394651 -0.214053 -0.010163 0.00142604 0.00133721 -0.999998 
-0.355413 -0.300585 0.010163 -0.00704857 0.00213675 0.999973 
-0.321757 -0.164847 -0.010163 0.00308368 0.00242437 -0.999992 
-0.346309 -0.438131 -0.010163 -0.00949411 0.00255355 -0.999952 
0.5 -0.407525 -0.004647 0.999782 -0.0206691 -0.00300782 
-0.449363 0.161961 0.010163 0.00508842 -0.00727379 0.999961 
-0.026006 -0.425253 0.010163 0.00449951 -0.00469346 0.999979 
-0.219482 0.272233 0.010163 0.00094626 0.000289562 1 
-0.426191 -0.425105 0.010163 -0.00623435 0.000580476 0.99998 
-0.414851 -0.456079 -0.010163 -0.00114863 0.00261072 -0.999996 
-0.471744 -0.418555 0.010163 0.0020166 0.000427103 0.999998 
0.444862 0.115791 0.010163 0.00136022 -0.000528494 0.999999 
0.294831 0.145178 -0.010163 -0.00135372 -0.00237936 -0.999996 
-0.383777 0.123417 -0.010163 0.00143267 0.000596577 -0.999999 
-0.011714 0.172645 0.010163 0.00108753 0.00208847 0.999997 
-0.024427 -0.468732 0.010163 -0.0131403 -0.00502224 0.999901 
0.019951 -0.194028 0.010163 -0.000232298 -0.000385927 1 
0.018992 0.305934 -0.010163 -0.000118855 0.000158956 -1 
-0.230307 -0.068432 0.010163 -0.00171844 -0.00572429 0.999982 
-0.13465 -0.251093 0.010163 -0.00160884 -0.00143681 0.999998 
-0.011538 0.272175 0.010163 0.00113027 0.00130534 0.999999 
0.419474 -0.12295 0.010163 -4.6885e-06 0.000154223 1 
0.115764 0.348746 0.010163 0.000219948 2.91765e-05 1 
0.442203 0.5 -0.006931 -0.161788 0.985821 -0.0445066 
0.282101 0.201792 -0.010163 -1.22464e-16 4.02788e-19 -1 
0.394438 -0.131564 0.010163 -0.00113082 0.00167293 0.999998 
-0.484742 0.209972 0.010163 -0.00255106 -0.001934 0.999995 
0.003969 -0.383495 -0.010163 0.00276881 -0.00105383 -0.999996 
0.105716 0.040755 0.010163 0.000439903 -0.000355113 1 
0.180548 0.472861 0.010163 0.00244491 -0.00680565 0.999974 
-0.056535 -0.403023 0.010163 -0.000403233 -0.00049402 1 
0.292174 -0.084697 -0.010163 -1.07024e-05 -0.00211265 -0.999998 
0.052045 -0.252032 0.010163 0.000447137 4.69973e-05 1 
-0.330419 0.227705 -0.010163 -0.00200636 -0.00115496 -0.999997 
0.418293 -0.07934 0.010163 -0.000693584 -0.00229174 0.999997 
0.100339 0.003742 0.010163 4.22214e-05 -0.000246931 1 
-0.023998 -0.220285 0.010163 0.0031201 -0.00195284 0.999993 
0.129801 0.068946 0.010163 -0.00449562 -0.00226079 0.999987 
-0.191578 -0.031628 -0.010163 -0.00199857 9.99885e-05 -0.999998 
0.142871 0.268987 -0.010163 0.00104489 -0.000763757 -0.999999 
0.294879 -0.366901 0.010163 -0.00921136 -1.78427e-05 0.999958 
-0.292657 0.037632 0.010163 -0.0107985 0.0106713 0.999885 
0.074356 0.387858 0.010163 0.00011529 0.000631491 1 
0.5 0.310328 -0.00698 0.981519 0.18388 0.0529961 
-0.450071 0.42299 -0.010163 0.00192606 -0.00217567 -0.999996 
0.441965 -0.325684 0.010163 0.000233145 0.000845997 1 
0.227181 -0.173117 0.010163 0.00996383 0.0058497 0.999933 
-0.485496 0.312766 0.010163 0.0123555 0.00925639 0.999881 
0.476799 -0.30594 -0.010163 -5.02268e-17 -1.11691e-16 -1 
-0.203328 0.145165 -0.010163 0.000248345 0.00153941 -0.999999 
0.031918 -0.341231 -0.010163 -0.00242021 -0.00190363 -0.999995 
-0.452256 0.289294 0.010163 0.00190284 -0.00414243 0.99999 
0.486728 -0.069827 -0.010163 0.00115454 -0.000198443 -0.999999 
-0.14075 0.145756 -0.010163 0.00548387 0.00443769 -0.999975 
-0.010422 -0.040043 -0.010163 0.00305521 0.00258669 -0.999992 
-0.015681 0.374947 -0.010163 2.18938e-05 0.000987415 -1 
-0.457001 0.356395 -0.010163 -0.00138145 0.00243436 -0.999996 
0.072154 0.384903 0.010163 -0.000960129 0.00663541 0.999978 
0.0549 0.191284 -0.010163 0.00173563 0.00633295 -0.999978 
-0.209068 0.330091 -0.010163 0.00131049 0.000842078 -0.999999 
0.377603 0.110481 -0.010163 -0.00129799 -0.000566254 -0.999999 
0.472256 0.462008 -0.010163 -0.000163534 0.0034214 -0.999994 
0.191082 -0.498719 0.010163 0.0201949 -0.349241 0.936815 
-0.453139 0.045528 -0.010163 -0.0027022 0.000876459 -0.999996 
-0.141637 0.102933 -0.010163 -0.00483573 0.00116729 -0.999988 
0.246416 -0.301835 -0.010163 0.00205057 -0.000307229 -0.999998 
-0.308531 0.369878 0.010163 0.000852564 -0.00498233 0.999987 
0.101762 -0.140253 -0.010163 0.000158542 -0.00145848 -0.999999 
0.121469 -0.401022 -0.010163 -0.00340504 -0.00125399 -0.999993 
0.113847 -0.27242 -0.010163 -9.79223e-17 -7.35447e-17 -1 
0.027811 -0.433487 0.010163 0.00212762 0.000575645 0.999998 
-0.124828 0.016908 0.010163 -0.00271079 0.000514979 0.999996 
-0.454319 -0.287072 0.010163 -0.000641965 0.000387117 1 
0.402355 -0.45379 -0.010163 -0.00152109 -0.00568843 -0.999983 
0.332581 -0.339041 -0.010163 -0.00326335 -0.000360987 -0.999995 
0.479369 -0.050392 0.010163 -0.000101259 -1.73879e-05 1 
-0.191657 -0.228381 0.010163 0.000565733 0.0102428 0.999947 
0.224418 0.032211 -0.010163 -0.00214427 0.000377775 -0.999998 
0.136807 0.489867 0.010163 0.002505 -0.0073126 0.99997 
-0.385388 -0.018164 -0.010163 0.0011356 -0.000175806 -0.999999 
0.032122 -0.470564 0.010163 0.000304402 0.000721392 1 
0.069687 -0.20891 0.010163 -0.00262346 0.00110864 0.999996 
-0.173061 0.331591 0.010163 -0.0063661 -0.00207709 0.999978 
0.111727 0.345467 0.010163 -0.00354802 -0.000802707 0.999993 
-0.058962 -0.022209 0.010163 0.00395081 -0.00140314 0.999991 
0.305687 -0.467742 -0.010163 0.00545095 -0.00390015 -0.999978 
-0.159636 0.384076 -0.010163 -0.00184725 0.00320258 -0.999993 
0.171424 -0.5 0.007114 0.0173767 -0.999806 -0.00931917 
0.195338 0.322474 0.010163 0.0015868 0.00853418 0.999962 
0.135366 0.185776 -0.010163 -3.20621e-05 -0.00290938 -0.999996 
-0.225477 -0.008952 -0.010163 0.0080276 -0.00405925 -0.99996 
0.26682 -0.371525 0.010163 0.000259254 -0.000916668 1 
0.433331 -0.123945 -0.010163 0.000122961 -0.0021433 -0.999998 
0.170361 -0.211821 -0.010163 -0.00129644 0.00258576 -0.999996 
0.15886 -0.236135 -0.010163 -0.00114744 -0.00243921 -0.999996 
0.099478 0.268008 0.010163 0.00039841 0.00282026 0.999996 
0.125115 -0.014187 0.010163 0.00428053 -0.00164681 0.999989 
0.33091 -0.120795 0.010163 -0.000334928 0.00109301 0.999999 
-0.428301 -0.020736 -0.010163 0.000408231 0.00221807 -0.999997 
0.316762 -0.23473 0.010163 -0.00120871 -0.00609762 0.999981 
-0.331379 0.302451 0.010163 0.0108938 0.00235679 0.999938 
0.5 -0.431845 -0.006017 0.996241 -0.0580895 -0.064258 
-0.161523 0.473018 -0.010163 -1.21855e-16 1.22e-17 -1 
0.230443 0.404924 0.010163 -0.000216445 -0.00214925 0.999998 
0.268597 -0.005897 0.010163 -0.00296515 0.005629 0.99998 
-0.375935 -0.499418 0.010163 -0.166961 -0.569849 0.804609 
0.227931 0.474929 -0.010163 0.00136247 -0.00620426 -0.99998 
0.313727 -0.27162 0.010163 -0.00433011 -0.00314532 0.999986 
-0.042827 -0.344522 0.010163 -0.000842219 -0.000489003 1 
0.07546 0.368117 0.010163 -0.00584421 0.00351842 0.999977 
0.275272 0.175078 -0.010163 0.00103446 0.000192375 -0.999999 
-0.227523 0.284803 0.010163 -0.00211509 -0.00303821 0.999993 
0.296572 -0.051805 -0.010163 0.00745306 0.000918406 -0.999972 
0.301807 -0.146113 0.010163 -0.00121353 -0.000952037 0.999999 
-0.211674 0.105229 0.010163 -0.00439139 -0.0015921 0.999989 
-0.450276 0.160893 0.010163 -0.000625343 0.00219786 0.999997 
0.279629 0.154086 0.010163 -0.00161188 -0.00181435 0.999997 
0.327891 0.081524 -0.010163 0.00491706 -0.00114317 -0.999987 
0.446384 -0.383458 -0.010163 0.00300498 0.00205339 -0.999993 
0.025012 0.152453 -0.010163 0.00090739 0.00044017 -0.999999 
0.264026 -0.289762 0.010163 0.00227471 0.000694287 0.999997 
0.146084 0.449842 0.010163 -1.50887e-05 0.00142771 0.999999 
0.295688 -0.136055 -0.010163 0.00418324 0.000913695 -0.999991 
0.277355 0.016494 -0.010163 0.000173639 0.00216145 -0.999998 
-0.135781 0.00139 -0.010163 -0.000779713 0.00158579 -0.999998 
-0.2358 0.014882 0.010163 0.000562394 -0.00224597 0.999997 
-0.495415 0.345017 0.010163 -0.110916 0.0558365 0.99226 
0.172243 0.011131 -0.010163 -0.00251758 0.000128456 -0.999997 
0.033011 -0.064855 0.010163 0.000991075 -0.000279323 0.999999 
-0.235592 -0.426309 -0.010163 0.00289915 0.00357518 -0.999989 
-0.263157 -0.011088 0.010163 0.00068614 -0.00194841 0.999998 
-0.067454 0.105757 -0.010163 0.00139489 -0.00153801 -0.999998 
-0.285843 -0.43176 0.010163 -0.00564638 -0.00204406 0.999982 
0.466542 0.134373 0.010163 0.00611354 -0.00891715 0.999942 
0.071631 -0.245116 0.010163 -0.00956451 -0.00442178 0.999944 
0.442719 0.162113 0.010163 0.00228854 -0.00100334 0.999997 
-0.424647 0.059415 0.010163 -0.00132654 -0.00222864 0.999997 
0.38723 -0.37853 0.010163 -0.00349942 -0.00912478 0.999952 
-0.335092 -0.071863 -0.010163 0.00470436 0.000725799 -0.999989 
0.491706 0.221669 -0.010163 -0.0246592 -0.0567868 -0.998082 
-0.178222 -0.121375 -0.010163 0.00399911 0.000594055 -0.999992 
-0.470188 0.407097 -0.010163 1.0211e-16 -6.76106e-17 -1 
-0.037119 -0.288735 0.010163 -0.00307597 -0.00106501 0.999995 
-0.195143 0.048359 -0.010163 0.00708883 -0.00603592 -0.999957 
0.355418 -0.222602 -0.010163 -0.00059986 -0.000939799 -0.999999 
0.139847 -0.067469 -0.010163 -0.00264418 0.00500051 -0.999984 
-0.192402 -0.078935 -0.010163 -0.00267424 -0.00187702 -0.999995 
0.364119 0.341041 0.010163 -0.000304279 -0.000706722 1 
-0.14777 0.248393 0.010163 -0.000579759 -0.000335619 1 
0.033386 0.217674 0.010163 0.00347235 0.000622642 0.999994 
-0.063747 -0.259473 0.010163 0.00221309 0.00441571 0.999988 
-0.5 0.401184 0.008514 -0.812162 0.423132 0.401686 
0.094352 -0.325248 -0.010163 1.21624e-16 1.43271e-17 -1 
0.294807 -0.263519 0.010163 0.00475123 1.78657e-05 0.999989 
