0.68378699 0.27053714 0.77847922 0.00051873 -0.00038656 0.00177334
0.67306453 0.27730966 0.22152081 0.00054538 -0.00056184 -0.00174899
0.60275030 0.57087815 0.36736047 0.00006158 0.00021694 -0.00062698
0.91554344 0.67874080 0.55087745 0.00049952 -0.00030763 0.00025258
0.45944035 0.59505403 0.50393391 -0.00011212 0.00058480 -0.00016512
0.45143437 0.42366648 0.63046563 0.00010108 -0.00019780 0.00070071
0.49140233 0.36213237 0.58046180 0.00001962 -0.00040939 0.00056684
0.27867267 0.32758343 0.53342533 -0.00025859 -0.00066485 0.00017692
0.10570925 0.40379161 0.52392960 -0.00109505 0.00047675 0.00020011
0.68596816 0.27736041 0.70326865 0.00008601 -0.00087937 -0.00046373
0.43015787 0.41640368 0.62737405 0.00001389 -0.00023420 0.00067261
0.15591295 0.31065124 0.48390579 -0.00038579 -0.00071724 -0.00020829
0.66435337 0.65713233 0.62170780 -0.00031143 0.00020877 0.00056104
0.61809784 0.54946637 0.35423627 0.00012328 0.00020130 -0.00090537
0.25141370 0.49134183 0.58536935 -0.00078292 0.00083179 0.00065255
0.65400952 0.48962581 0.65549046 0.00036472 -0.00002389 0.00060364
0.72229397 0.67147511 0.39131537 -0.00000867 0.00061188 -0.00051065
0.36753878 0.51030725 0.36744267 -0.00017033 0.00057438 -0.00098791
0.45448783 0.57495433 0.57623965 -0.00031139 0.00080173 0.00027103
0.82984221 0.60065603 0.59266156 0.00101628 -0.00006017 0.00030012
0.27609938 0.38809952 0.63086718 -0.00043167 -0.00060529 0.00114701
0.06142240 0.22213189 0.66362661 -0.00043193 0.00019443 -0.00001454
0.08842536 0.34890848 0.58002698 -0.00057039 0.00044707 0.00077682
0.65202779 0.45916352 0.65536606 0.00007415 -0.00023166 0.00056014
0.13922465 0.30118507 0.57107019 -0.00026211 -0.00048093 -0.00009213
0.61859322 0.70432264 0.53322184 -0.00040328 0.00047584 0.00016729
0.83610857 0.72577566 0.59854430 0.00026161 0.00037334 0.00075174
0.92663473 0.69723749 0.50057381 0.00024268 -0.00024820 0.00001752
0.25634465 0.47908172 0.60518342 -0.00074809 0.00080021 0.00093289
0.13842468 0.24499622 0.34412107 0.00034364 -0.00025657 0.00010233
0.63983208 0.34430230 0.62522435 0.00004099 -0.00016303 0.00003062
0.62225306 0.29544967 0.26108199 -0.00027577 0.00150018 0.00018147
0.58590299 0.26879844 0.69518411 -0.00053071 0.00093590 -0.00085433
0.91663682 0.72346425 0.45044830 0.00098348 0.00032299 -0.00065452
0.09704798 0.39703569 0.52470589 -0.00107026 0.00059657 0.00025484
0.83415693 0.52058369 0.50957233 0.00121673 0.00013404 0.00022619
0.66211921 0.53528309 0.65482163 0.00029105 -0.00001372 0.00074867
0.25749898 0.37327480 0.37860355 -0.00020866 -0.00059228 -0.00108910
0.83719283 0.59860516 0.57509649 0.00099881 0.00012640 0.00013521
0.23999366 0.45003247 0.38622227 -0.00108793 0.00025451 -0.00102229
0.05777515 0.25175661 0.63943100 -0.00086609 -0.00007675 -0.00032344
0.70550007 0.30095419 0.24076399 0.00126374 0.00013435 -0.00071822
0.10714433 0.31241378 0.51067197 -0.00034755 -0.00104700 0.00034303
0.51750195 0.54211628 0.36281040 -0.00021763 0.00017213 -0.00059195
0.62113285 0.50063670 0.65635598 -0.00002651 -0.00000005 0.00072225
0.93246669 0.70646602 0.50868881 0.00041517 -0.00021667 0.00007358
0.07522706 0.29724365 0.59767878 -0.00074868 -0.00028237 -0.00029038
0.05753714 0.21595541 0.31635183 -0.00097402 -0.00123820 -0.00122808
0.74894112 0.65892541 0.62604129 0.00038806 0.00101633 0.00007307
0.91665024 0.68724078 0.46775568 0.00046462 -0.00044580 -0.00022882
0.60680985 0.29046887 0.67346114 -0.00020270 0.00003360 -0.00007281
0.67890817 0.64501566 0.37759694 0.00023468 0.00023313 -0.00093330
0.19648431 0.48056358 0.51744270 -0.00075257 0.00092349 0.00010925
0.07771004 0.31362742 0.57983518 -0.00069960 -0.00025959 0.00000692
0.60623896 0.68523210 0.54966295 -0.00044958 0.00039121 0.00029928
0.62106997 0.27999476 0.66337377 0.00021457 -0.00059356 -0.00038758
0.11951929 0.28788975 0.40467447 -0.00003603 -0.00062325 0.00007807
0.17545930 0.30660021 0.59444928 0.00002379 -0.00049792 0.00022607
0.07948741 0.27248788 0.65633845 -0.00005405 0.00032554 0.00117654
0.84804785 0.65296048 0.52045965 0.00059607 0.00021077 0.00009647
0.28021061 0.36971113 0.38736182 0.00054700 -0.00045975 -0.00084855
0.63759345 0.25301740 0.75916201 -0.00009260 -0.00073927 0.00093495
0.64606112 0.25736311 0.76444727 -0.00046595 -0.00067743 0.00089726
0.55617338 0.32359216 0.50288427 0.00008710 -0.00086622 0.00012799
0.50458705 0.44457629 0.63806331 0.00003149 -0.00024745 0.00057987
0.89595765 0.68702215 0.48388436 0.00001826 -0.00005873 0.00017286
0.63436437 0.33323753 0.32257864 0.00003026 0.00039238 -0.00068214
0.74065948 0.43358186 0.36350393 0.00006377 0.00075270 -0.00072354
0.08451849 0.29983488 0.41270736 0.00000907 -0.00049338 0.00033917
0.46893528 0.60035193 0.50428373 -0.00010085 0.00055610 -0.00023882
0.05071875 0.20471369 0.67103517 -0.00114674 -0.00100275 0.00048867
0.62557733 0.52793562 0.66175455 0.00009870 0.00003766 0.00105621
0.63281119 0.34828100 0.37329394 0.00005627 -0.00006184 -0.00008266
0.72003019 0.31684750 0.73351592 -0.00007813 0.00111989 0.00066867
0.89753509 0.78365386 0.51506144 0.00083623 0.00091002 0.00014640
0.74370480 0.65194941 0.37758660 0.00011618 0.00023656 -0.00107811
0.16054206 0.30090660 0.57824737 -0.00013759 -0.00048831 0.00000536
0.71923965 0.39929184 0.49560398 0.00028723 -0.00046896 0.00004390
0.70571393 0.76800352 0.52097100 -0.00020042 0.00113709 0.00023363
0.95452887 0.73947477 0.50486434 0.00157851 -0.00031112 -0.00016446
0.54010379 0.45713839 0.64582354 -0.00001478 -0.00015680 0.00070914
0.91799462 0.73649317 0.45394316 0.00094127 0.00051937 -0.00078150
0.84348834 0.63698143 0.51093209 0.00060632 0.00033900 0.00013805
0.29410422 0.52890450 0.51450503 -0.00058424 0.00077442 0.00006926
0.46977881 0.50849265 0.65247065 0.00005119 0.00012268 0.00112974
0.71590370 0.38361013 0.57440567 0.00024887 -0.00027702 -0.00009194
0.63524878 0.41489974 0.37227073 -0.00015340 -0.00012988 -0.00041414
0.74083191 0.32995278 0.27743432 0.00097315 0.00018914 -0.00054742
0.82202446 0.79486680 0.51987332 0.00041113 0.00118722 0.00014626
0.73069471 0.40314570 0.57491010 0.00017241 -0.00030834 -0.00009036
0.86803567 0.71498179 0.58452767 0.00041594 -0.00030675 0.00041962
0.44450828 0.57743102 0.48284522 0.00008365 0.00041875 -0.00030116
0.13280112 0.32111007 0.37343630 -0.00036018 0.00022998 -0.00054604
0.59348089 0.25041541 0.24338621 -0.00062615 -0.00067305 -0.00156952
0.49216411 0.61778319 0.52202445 -0.00017038 0.00067477 0.00008061
0.24947239 0.49638620 0.57570243 -0.00079655 0.00089243 0.00051608
0.67458403 0.26397303 0.72058719 0.00035863 -0.00095973 -0.00089549
0.65857530 0.36295524 0.49524030 0.00043689 -0.00046002 0.00005691
0.65212572 0.52742499 0.65548277 0.00024964 0.00000059 0.00073586
0.60976988 0.37402046 0.39115459 -0.00009530 -0.00006097 -0.00026591
0.46542096 0.53808320 0.35729557 -0.00017953 0.00044279 -0.00058421
0.83425933 0.55999351 0.51402652 0.00073145 0.00048161 0.00017848
0.39660341 0.56986439 0.50413573 -0.00021090 0.00080734 0.00005939
0.57829589 0.67051709 0.51930410 -0.00014689 0.00051498 -0.00013486
0.83914220 0.72575682 0.43358862 0.00084663 0.00009346 -0.00045756
0.63503134 0.47641611 0.65717304 0.00009111 -0.00019126 0.00066725
0.72362173 0.44311225 0.36295998 0.00017944 0.00054272 -0.00063246
0.49390379 0.45148745 0.36129221 0.00014966 -0.00024297 -0.00078641
0.62528402 0.33050302 0.35992000 0.00003793 0.00001799 0.00001899
0.69104958 0.34011698 0.29143256 -0.00053014 0.00068924 -0.00001434
0.65038162 0.27133217 0.22674774 -0.00058959 -0.00032390 -0.00100130
0.64357901 0.46648201 0.65612018 0.00005021 -0.00020114 0.00060387
0.09288871 0.31928152 0.63472193 -0.00028892 0.00071551 0.00100270
0.67100149 0.29773277 0.32590246 0.00025435 -0.00072122 -0.00000615
0.23746395 0.47123367 0.40752128 -0.00109338 0.00058629 -0.00065928
0.80526698 0.60854745 0.62454653 0.00073080 -0.00007243 0.00089461
0.67566603 0.54650551 0.65261441 0.00040266 0.00011594 0.00073167
0.07616222 0.32648614 0.56105423 -0.00071078 -0.00045394 0.00060901
0.62856609 0.32299432 0.64684039 0.00000195 -0.00010237 0.00013110
0.44248930 0.57482362 0.46801007 0.00003255 0.00043677 -0.00044445
0.58943927 0.67914730 0.52151620 -0.00029177 0.00042786 -0.00004936
0.57735401 0.24299024 0.27350008 -0.00079732 -0.00147061 0.00005047
0.57909048 0.26247281 0.30498165 -0.00037560 -0.00021294 0.00098460
0.61509472 0.69801140 0.48323146 -0.00041090 0.00055352 -0.00006007
0.82794672 0.68553627 0.58513850 0.00063307 0.00020697 0.00022240
0.10731500 0.28752503 0.33715138 -0.00014654 0.00034584 -0.00094034
0.27596644 0.39857635 0.63507718 -0.00040072 -0.00048098 0.00128437
0.43235791 0.58520114 0.50245309 -0.00012025 0.00080562 0.00004748
0.73145384 0.64132082 0.64807743 0.00021334 0.00027481 0.00089954
0.46028522 0.49910590 0.65889466 -0.00037338 -0.00006683 0.00135137
0.09449088 0.25513747 0.61365873 -0.00001031 -0.00090482 -0.00052554
0.22652721 0.49932963 0.51550430 -0.00058866 0.00092382 0.00008239
0.45656252 0.32142359 0.52314752 0.00004542 -0.00077625 0.00055651
0.48288399 0.39856288 0.60745305 0.00016825 -0.00038836 0.00040397
0.12114842 0.27875733 0.39341700 -0.00014497 -0.00057623 0.00022108
0.67704862 0.29661524 0.67804396 0.00030543 -0.00040064 -0.00004842
0.09653640 0.22483946 0.67053080 0.00053425 0.00021620 0.00069999
0.50543272 0.62518048 0.52274221 -0.00020060 0.00057916 0.00002503
0.47905093 0.61275429 0.52081376 -0.00032369 0.00071369 0.00008075
0.23578721 0.50533003 0.51518816 -0.00052350 0.00099679 0.00002379
0.81087124 0.79291028 0.51929826 0.00042874 0.00115208 0.00014479
0.66228724 0.67800593 0.41630605 0.00009910 0.00035283 -0.00009069
0.83252060 0.50977403 0.50898403 0.00133974 -0.00005031 0.00026111
0.71334034 0.66049927 0.39173669 0.00009093 0.00032859 -0.00033626
0.19263540 0.31483340 0.48755336 -0.00022874 -0.00065141 -0.00005671
0.08360445 0.29387355 0.64861822 -0.00022939 0.00042130 0.00126917
0.48933062 0.37338668 0.58869994 0.00001564 -0.00026689 0.00059819
0.73072171 0.67895865 0.39332134 -0.00005420 0.00078219 -0.00052102
0.74185604 0.78003627 0.51710463 0.00024786 0.00128835 0.00001755
0.12593743 0.31068987 0.51055074 -0.00042702 -0.00087065 0.00056523
0.71159214 0.38492933 0.41580433 0.00014630 -0.00050522 -0.00006579
0.61248547 0.70118612 0.52165306 -0.00047645 0.00046324 0.00001905
0.66058266 0.24850465 0.74103183 0.00078777 -0.00161315 -0.00105021
0.14319886 0.27869758 0.33667254 0.00020905 0.00025094 -0.00091507
0.80922377 0.60011613 0.41841936 0.00067807 0.00008207 -0.00078879
0.59348804 0.23743273 0.72445762 -0.00035135 -0.00135325 0.00024824
0.62853020 0.72001469 0.52939707 -0.00059390 0.00070792 0.00019481
0.68491930 0.36723176 0.67668164 -0.00012052 -0.00001560 0.00073738
0.78079557 0.62160921 0.63930029 0.00054732 0.00022322 0.00095387
0.56885219 0.65840030 0.51860476 0.00002216 0.00046011 -0.00015545
0.11293364 0.23916468 0.33033034 -0.00002756 0.00048166 0.00015963
0.61198831 0.70029765 0.51002896 -0.00047119 0.00046074 -0.00013033
0.23469844 0.48638833 0.43303120 -0.00091292 0.00083865 -0.00034460
0.17076372 0.33010641 0.37859544 -0.00020536 -0.00002611 -0.00070617
0.55608219 0.63483173 0.50332123 0.00011718 0.00005624 -0.00059587
0.75167567 0.35577938 0.67957467 0.00079098 -0.00024343 0.00069540
0.32152084 0.54041666 0.51352072 -0.00052998 0.00079260 0.00018854
0.59893149 0.24008909 0.73362911 -0.00007342 -0.00112395 0.00097074
0.11489964 0.24875347 0.33525902 -0.00014034 0.00041435 0.00007592
0.17426541 0.34802634 0.61384332 -0.00023748 -0.00006562 0.00078857
0.89296621 0.67919540 0.50506514 0.00008020 0.00014951 0.00006702
0.85869485 0.77111983 0.46067071 0.00042842 0.00068615 -0.00081981
0.72849023 0.32372287 0.33567944 -0.00007552 -0.00097566 0.00045679
0.89290828 0.68970448 0.47382006 0.00006486 -0.00017398 0.00024990
0.67380470 0.46658108 0.64234829 0.00048581 -0.00000166 0.00018566
0.08091035 0.28291166 0.65259963 -0.00017054 0.00035062 0.00124441
0.49509957 0.59785908 0.50523269 0.00023068 0.00010721 -0.00037689
0.69815671 0.29661706 0.23399593 0.00118601 0.00019472 -0.00101590
0.36539581 0.31958380 0.49698651 -0.00027890 -0.00072009 -0.00012905
0.07245886 0.31692427 0.42429134 -0.00067824 0.00009796 0.00031872
0.14471255 0.25297564 0.34830952 0.00032516 -0.00027823 -0.00006771
0.80406415 0.47428095 0.49604946 0.00092269 0.00010001 -0.00016732
0.84333068 0.80064440 0.52001482 0.00032440 0.00144527 0.00011694
0.48177803 0.53228086 0.36392525 -0.00016939 0.00020363 -0.00017066
0.49885035 0.34069234 0.55303484 0.00017279 -0.00053315 0.00057652
0.11312991 0.32991418 0.39161494 -0.00017078 0.00039183 -0.00047786
0.50636494 0.32810313 0.52933890 0.00016956 -0.00063170 0.00052292
0.66796964 0.45133319 0.36101016 -0.00001227 -0.00002145 -0.00058867
0.67942607 0.36626467 0.40961933 0.00028648 -0.00038410 -0.00009934
0.82247502 0.60174614 0.60437763 0.00094939 -0.00018006 0.00047224
0.46661037 0.47121403 0.64567035 -0.00019648 -0.00029933 0.00074199
0.44346800 0.58755922 0.50290656 -0.00009277 0.00068351 -0.00001369
0.64462286 0.69361544 0.41644171 -0.00031135 0.00087723 -0.00058507
0.34436810 0.54879487 0.51056409 -0.00038923 0.00078223 0.00015322
0.12330756 0.21611397 0.66446161 0.00038732 -0.00079258 0.00038886
0.64299822 0.52137959 0.65699339 0.00016686 0.00005218 0.00077728
0.15398829 0.28945646 0.39348888 -0.00011453 -0.00059416 0.00003713
0.64709234 0.35620293 0.49468166 0.00043252 -0.00051674 0.00004389
0.85344499 0.79763454 0.51771241 0.00051859 0.00126141 0.00014854
0.12872045 0.30446577 0.36069170 -0.00018869 0.00031194 -0.00049057
0.59847105 0.48633179 0.65304655 0.00006849 0.00002225 0.00070669
0.23573825 0.50569612 0.49117723 -0.00054103 0.00102600 -0.00030359
0.54372627 0.62656391 0.50424671 0.00011147 -0.00000932 -0.00061032
0.77096874 0.65957582 0.61086899 0.00021629 0.00085513 0.00015927
0.90826970 0.68773580 0.46060902 0.00046528 -0.00045552 -0.00007481
0.35741279 0.55424285 0.50895268 -0.00031283 0.00081388 0.00012901
0.15371385 0.27862391 0.36969298 0.00020573 -0.00029293 -0.00000584
0.12379401 0.34434855 0.60657364 -0.00030999 0.00034672 0.00058648
0.89603627 0.74476862 0.58499521 0.00052060 0.00049832 0.00113827
0.81027877 0.67462873 0.59636229 0.00050738 0.00049123 0.00037634
0.63670409 0.61108518 0.37562871 0.00008417 0.00044629 -0.00068833
0.26571468 0.49275410 0.59601778 -0.00015788 0.00109356 0.00087840
0.07807925 0.32079652 0.51108569 -0.00065114 -0.00142525 -0.00018762
0.56859350 0.64188361 0.50413430 0.00018315 0.00008952 -0.00052214
0.16012345 0.29217032 0.59778070 0.00006829 -0.00038613 0.00005109
0.76814884 0.70852995 0.40681565 0.00021999 0.00081795 -0.00066094
0.83661562 0.57615131 0.47462144 0.00098297 0.00016052 -0.00018452
0.28461289 0.47885662 0.38557774 -0.00086675 0.00031901 -0.00071834
0.69667000 0.41189903 0.65589470 -0.00009413 0.00007592 0.00055825
0.70062482 0.64720398 0.38817298 0.00013707 -0.00003287 -0.00041075
0.47743174 0.43583748 0.37188175 -0.00036450 -0.00032519 -0.00061743
0.88251013 0.67557961 0.50882226 0.00041017 0.00023133 -0.00001731
0.67012608 0.36996895 0.49655804 0.00038127 -0.00044798 0.00009965
0.83676255 0.71171319 0.59904152 0.00042263 0.00021950 0.00068313
0.06095977 0.26488349 0.63105446 -0.00088246 -0.00019042 -0.00017064
0.83299226 0.57923216 0.46211004 0.00103375 0.00000521 -0.00016146
0.75506735 0.40295750 0.64316666 0.00080104 0.00028052 0.00028404
0.61517149 0.68694478 0.50620240 -0.00011448 0.00007243 -0.00011182
0.77059323 0.42761973 0.38455048 0.00107080 0.00069217 -0.00005040
0.50361258 0.34789380 0.43680239 -0.00006590 -0.00059069 -0.00046335
0.60405827 0.33691442 0.49158651 0.00022256 -0.00071170 -0.00013122
0.11212064 0.21525739 0.30616072 0.00022243 -0.00074478 -0.00128923
0.92019641 0.74623156 0.45822304 0.00084481 0.00054834 -0.00092838
0.14919299 0.30012593 0.57513243 -0.00022123 -0.00047097 -0.00006920
0.74817944 0.40027958 0.41918790 0.00029166 -0.00059801 0.00021944
0.75546128 0.39426076 0.64985341 0.00089544 0.00029571 0.00029246
0.92147517 0.69773698 0.48750085 0.00020738 -0.00023062 0.00005598
0.07078212 0.32847729 0.51328939 -0.00101652 -0.00122290 -0.00021207
0.27636620 0.37846765 0.62607682 -0.00044111 -0.00064237 0.00107083
0.48414633 0.48666668 0.34984165 -0.00004291 -0.00016411 -0.00084485
0.67782658 0.34370175 0.69742501 -0.00003500 0.00010960 0.00060335
0.24223858 0.43785867 0.37839916 -0.00092910 0.00006390 -0.00119185
0.63849217 0.30906165 0.27477345 -0.00044631 0.00065180 -0.00011521
0.70719254 0.28329480 0.76346004 0.00132658 0.00006454 0.00105289
0.28212988 0.52428794 0.51416743 -0.00049111 0.00081009 -0.00002706
0.62949187 0.33874613 0.36569181 0.00004690 -0.00001445 -0.00003303
0.52857012 0.32156822 0.50606674 -0.00004291 -0.00086964 0.00010523
0.51871693 0.44897574 0.64090693 -0.00000196 -0.00022928 0.00062852
0.37123948 0.40562198 0.62593979 -0.00027501 -0.00022245 0.00080721
0.23892285 0.46141699 0.39582813 -0.00113576 0.00042390 -0.00083452
0.92344975 0.70063001 0.52148455 0.00014080 -0.00003767 -0.00010253
0.11958489 0.24389489 0.35359803 -0.00020514 -0.00033923 0.00063304
0.75554889 0.32554153 0.33012328 0.00074336 -0.00155360 0.00051325
0.89914989 0.69270581 0.54840839 0.00020558 -0.00009798 -0.00015499
0.62029290 0.36689129 0.39080152 -0.00003900 -0.00009016 -0.00019330
0.66619855 0.29138875 0.67687166 0.00041573 -0.00042262 -0.00002717
0.67793167 0.26143706 0.77788991 0.00038298 -0.00110450 0.00168055
0.45973590 0.50873601 0.37208211 -0.00012480 -0.00017494 0.00031250
0.71813381 0.32125738 0.33727354 0.00003366 -0.00081636 0.00030412
0.35885325 0.40315962 0.62470686 -0.00037158 -0.00026886 0.00077161
0.60968721 0.67649680 0.50676757 -0.00005620 -0.00007510 -0.00007287
0.65592659 0.66092151 0.61473405 -0.00030321 0.00022008 0.00054237
0.06680787 0.31036869 0.39988458 -0.00072431 0.00031620 0.00000373
0.51639235 0.63318825 0.52288312 -0.00020298 0.00061824 -0.00000731
0.63680464 0.40314615 0.63435543 0.00003900 -0.00009308 0.00037790
0.68003869 0.43704909 0.36016753 -0.00001820 -0.00008729 -0.00058660
0.74162245 0.41203266 0.49684182 0.00030147 -0.00052788 0.00007238
0.28773594 0.31936818 0.48769322 -0.00024607 -0.00070025 -0.00010372
0.70025206 0.38762614 0.57192403 0.00014615 -0.00016484 0.00005704
0.68473160 0.59176481 0.64382470 0.00022147 0.00076126 0.00053852
0.13123445 0.24665543 0.65192813 0.00017732 0.00012715 0.00024652
0.79733026 0.46510753 0.49612850 0.00087821 0.00006662 -0.00009700
0.38021737 0.31982902 0.49962181 -0.00024683 -0.00071365 -0.00004987
0.73377866 0.65758872 0.37691644 -0.00004883 0.00041014 -0.00113399
0.45535746 0.56036812 0.60539675 -0.00035944 0.00084208 0.00050349
0.06990715 0.37300712 0.51969683 -0.00153791 0.00062812 -0.00000824
0.67921716 0.35814962 0.32128188 -0.00009389 0.00023011 -0.00057078
0.39423808 0.31934753 0.50229764 -0.00011075 -0.00076028 0.00004029
0.88174742 0.68406248 0.56140280 0.00004094 -0.00011752 0.00016632
0.09503660 0.31636059 0.55183017 -0.00000966 -0.00081343 0.00041347
0.13483539 0.34504923 0.61005282 -0.00035498 0.00025019 0.00065756
0.46229616 0.54610622 0.36407390 -0.00012516 0.00047504 -0.00047843
0.63875008 0.28064427 0.66754019 0.00057710 -0.00065761 -0.00020690
0.59832644 0.28747156 0.32632154 0.00008489 -0.00003454 0.00031755
0.40825835 0.51860917 0.36853546 0.00056239 0.00043022 -0.00058882
0.62579155 0.40746218 0.37460101 -0.00013028 -0.00007268 -0.00041714
0.15789826 0.28897002 0.37752238 0.00007767 -0.00042513 -0.00009178
0.85871911 0.71362120 0.43874055 0.00053629 -0.00017023 -0.00028834
0.13168046 0.31334758 0.36604217 -0.00026304 0.00029807 -0.00052390
0.68784744 0.37201628 0.41304153 0.00028900 -0.00039820 -0.00012230
0.61444926 0.31178898 0.34541333 0.00007780 0.00004595 0.00012216
0.55343378 0.56316596 0.36309606 -0.00011856 0.00050557 -0.00079100
0.68988758 0.29107121 0.22791153 0.00093101 0.00004439 -0.00137367
0.86846417 0.79513139 0.54425901 0.00083605 0.00117926 0.00084776
0.21401347 0.31649309 0.48997787 -0.00029976 -0.00066253 0.00001179
0.27259231 0.42886335 0.63749772 -0.00039941 0.00024803 0.00144069
0.78506577 0.45177728 0.49746776 0.00057820 -0.00016266 0.00002449
0.94355303 0.70855868 0.50483644 0.00097415 -0.00023562 0.00006203
0.72055477 0.66314763 0.38244614 0.00006511 0.00047534 -0.00086667
0.86502582 0.78815717 0.55243927 0.00060281 0.00097256 0.00100407
0.68309438 0.55441892 0.65152657 0.00047266 0.00017436 0.00073067
0.38653624 0.56615335 0.50519109 -0.00024398 0.00082689 0.00007030
0.53213018 0.64555734 0.52451485 -0.00028879 0.00072868 0.00006282
0.50053221 0.41069394 0.38618636 0.00017606 -0.00035596 -0.00052298
0.73839295 0.39534414 0.41782871 0.00014505 -0.00062878 0.00013809
0.65529913 0.49563470 0.36473104 0.00051062 -0.00020760 -0.00036831
0.44847712 0.57942486 0.51033562 0.00001235 0.00032199 0.00006649
0.07771992 0.26230168 0.65934205 0.00007612 0.00033309 0.00105116
0.07403138 0.25221837 0.66414946 0.00009211 0.00076867 0.00094808
0.81937623 0.67948198 0.58883512 0.00056086 0.00030769 0.00026411
0.22483476 0.31623435 0.49007156 -0.00023711 -0.00069957 0.00001225
0.49787819 0.42816314 0.37366989 0.00018982 -0.00036102 -0.00062779
0.23213774 0.49630600 0.47277084 -0.00064059 0.00080134 -0.00020483
0.45169178 0.58024144 0.54283834 -0.00028653 0.00046399 0.00026388
0.75575864 0.63196737 0.64834511 0.00013968 0.00030905 0.00097326
0.09954309 0.23924015 0.63311744 -0.00015901 -0.00047316 -0.00078088
0.13697210 0.42861095 0.52145433 -0.00086400 0.00054091 0.00006712
0.49999186 0.35699123 0.42623577 -0.00012610 -0.00045007 -0.00057426
0.50387335 0.33277267 0.53965193 0.00024598 -0.00055514 0.00064134
0.90558058 0.69153571 0.48005816 0.00004117 -0.00020551 0.00015955
0.76815110 0.36641294 0.32925680 0.00111969 0.00008980 -0.00060219
0.62772572 0.69480699 0.44959947 -0.00042572 0.00066740 -0.00014195
0.71839696 0.33347514 0.63705623 0.00026111 -0.00095653 -0.00016688
0.83500493 0.61587691 0.52042770 0.00061391 0.00085305 0.00003331
0.20327884 0.31619844 0.48817492 -0.00026666 -0.00063734 -0.00004284
0.92153943 0.69403625 0.55569565 0.00064257 -0.00020413 0.00026867
0.94008547 0.76663899 0.52839148 0.00091114 0.00098603 0.00054087
0.24744980 0.50041389 0.56576282 -0.00080968 0.00092363 0.00042352
0.08398356 0.32281780 0.55381864 -0.00032297 -0.00071330 0.00062207
0.64212865 0.71079415 0.50337994 0.00002379 0.00016945 -0.00033308
0.86381626 0.79502445 0.51615471 0.00088406 0.00109958 0.00009934
0.80537617 0.72767115 0.41788039 0.00080743 0.00079750 -0.00068025
0.67825061 0.30674440 0.33492756 0.00027736 -0.00063614 0.00004125
0.15761352 0.44650602 0.52177924 -0.00073544 0.00073800 0.00015848
0.45333886 0.57978284 0.55355722 -0.00031164 0.00062604 0.00011480
0.60593891 0.24446575 0.74193060 0.00004962 -0.00074110 0.00138542
0.63381547 0.35984254 0.58413595 0.00006589 -0.00025334 0.00006387
0.68098462 0.31014189 0.34538051 0.00032204 -0.00066698 0.00013378
0.75368214 0.41462874 0.58306652 0.00042008 -0.00054400 -0.00028260
0.27561790 0.33130255 0.43686751 0.00002397 -0.00077760 -0.00027576
0.59060752 0.58969009 0.38086104 -0.00026128 0.00063882 -0.00020079
0.05385396 0.19819269 0.67999780 -0.00090622 -0.00142819 0.00118292
0.68097562 0.43876019 0.65169364 0.00027161 -0.00026193 0.00044922
0.27898079 0.35845056 0.61204803 -0.00031817 -0.00079579 0.00084548
0.67894632 0.66786563 0.63114434 -0.00010872 0.00071554 0.00075254
0.75097769 0.34410149 0.68903553 0.00084897 -0.00013930 0.00054493
0.13251500 0.24394965 0.63047999 -0.00005230 -0.00050714 -0.00039145
0.64267707 0.72921669 0.52472568 -0.00057148 0.00065071 0.00006336
0.10218959 0.32702062 0.39250880 0.00014288 0.00057647 -0.00054968
0.88800746 0.78898054 0.51509875 0.00111489 0.00096327 0.00008618
0.72092271 0.36241311 0.60434258 0.00031879 -0.00052985 -0.00032013
0.32662922 0.31907219 0.49161622 -0.00043199 -0.00073746 -0.00018814
0.44841781 0.55054349 0.41234532 -0.00000382 -0.00024633 0.00009319
0.70595825 0.65940559 0.38296852 0.00009075 0.00034668 -0.00078084
0.75284940 0.78093904 0.51655555 0.00034384 0.00116722 0.00000435
0.12936503 0.24163064 0.34905788 0.00006674 -0.00034447 0.00048366
0.26092836 0.50267947 0.57714558 -0.00033136 0.00113944 0.00057834
0.83836740 0.57486182 0.54341012 0.00076757 0.00013982 0.00035334
0.16463260 0.29924825 0.38610998 -0.00004007 -0.00055410 -0.00020612
0.06598591 0.28939670 0.34610146 -0.00050397 0.00088965 -0.00122994
0.70472395 0.33766136 0.36832574 0.00028432 -0.00050478 0.00031091
0.67654109 0.63500416 0.38139868 0.00035312 0.00011092 -0.00065528
0.73771876 0.32290673 0.66642988 0.00037634 -0.00111180 -0.00049712
0.74818659 0.34813458 0.29703724 0.00046914 0.00060202 -0.00079232
0.25683466 0.51549244 0.51660615 -0.00047494 0.00098248 -0.00000977
0.46425316 0.52605188 0.64653319 -0.00014566 0.00074805 0.00096382
0.88698059 0.73870081 0.59034747 0.00038412 0.00030872 0.00113048
0.16971044 0.45355594 0.52155536 -0.00067263 0.00059780 0.00020115
0.16705631 0.29969609 0.59429967 0.00003985 -0.00042130 0.00011449
0.78161758 0.66437203 0.60917205 0.00035148 0.00083446 0.00030298
0.92909390 0.70944762 0.54996520 0.00084328 -0.00010841 0.00029599
0.26185861 0.35373431 0.39281785 -0.00012379 -0.00077583 -0.00075561
0.13252671 0.23483340 0.65216213 0.00041682 -0.00013235 -0.00004385
0.79351372 0.72072214 0.41481978 0.00076753 0.00084225 -0.00059924
0.64652729 0.51128286 0.36270577 0.00054007 -0.00020897 -0.00036699
0.88327998 0.69393969 0.46593437 0.00009152 -0.00019397 0.00031404
0.50873405 0.32506946 0.51845175 0.00007619 -0.00069513 0.00031572
0.62777692 0.39633906 0.63178843 0.00007995 0.00000589 0.00040636
0.12831576 0.42154780 0.52266967 -0.00094804 0.00046806 0.00013309
0.77081466 0.37325463 0.33831155 0.00117234 -0.00004964 -0.00040554
0.92839998 0.76445061 0.47804099 0.00060664 0.00096241 -0.00083353
0.14832520 0.26874676 0.61375481 0.00011206 -0.00047205 -0.00001558
0.58485329 0.59720373 0.38790259 -0.00043425 0.00087713 0.00002299
0.75163347 0.69639975 0.40261772 0.00005008 0.00085192 -0.00052178
0.88990420 0.68842840 0.54095495 0.00006054 -0.00001676 -0.00028782
0.79339558 0.44343886 0.49656457 0.00112995 -0.00061757 -0.00001935
0.27391288 0.32498503 0.49744865 -0.00014772 -0.00048109 0.00014780
0.12401678 0.33247036 0.38923889 -0.00036968 0.00031691 -0.00048180
0.29653195 0.48268431 0.38220224 -0.00086795 0.00023551 -0.00072815
0.25899968 0.47205848 0.61313814 -0.00070948 0.00077911 0.00102531
0.17396313 0.30566460 0.57937390 -0.00009820 -0.00052972 0.00012462
0.29979378 0.31880000 0.48829919 -0.00039972 -0.00072067 -0.00015095
0.87319666 0.67135739 0.51239210 0.00070237 0.00028507 -0.00000050
0.72036880 0.28767145 0.75007713 0.00126353 -0.00045739 0.00081507
0.58450341 0.27008435 0.31132254 -0.00004643 0.00008617 0.00089203
0.28180516 0.33908477 0.59052217 -0.00018769 -0.00102928 0.00031800
0.80072188 0.78934431 0.52056426 0.00043121 0.00103249 0.00023740
0.72820950 0.31715333 0.66935933 0.00008539 -0.00095605 -0.00050275
0.70506084 0.33697101 0.70050496 -0.00047153 0.00034604 0.00031968
0.44380668 0.56445056 0.43660474 -0.00011752 0.00018498 0.00011226
0.60910064 0.68331826 0.55990928 -0.00052237 0.00042563 0.00042788
0.94524193 0.73872870 0.51287341 0.00104636 -0.00038751 0.00010019
0.79366684 0.61503339 0.63409531 0.00064110 0.00010825 0.00103341
0.48639199 0.38604012 0.59802103 0.00004990 -0.00022029 0.00057202
0.74129820 0.40857822 0.57631332 0.00022582 -0.00043030 -0.00016894
0.05875887 0.22472447 0.65213203 -0.00049534 0.00026160 -0.00104048
0.92515165 0.71227145 0.51982808 0.00013042 -0.00004552 0.00005006
0.90748048 0.68401128 0.51834142 -0.00014888 -0.00006126 -0.00018029
0.58371776 0.24859044 0.24942614 -0.00083714 -0.00077233 -0.00162594
0.50556630 0.34199268 0.44557416 -0.00004642 -0.00066554 -0.00039851
0.27792525 0.32660109 0.52078593 -0.00022246 -0.00053292 0.00049616
0.86380142 0.66731852 0.51635939 0.00072986 0.00026351 0.00005973
0.75565803 0.34969318 0.30471709 0.00076080 0.00022901 -0.00079806
0.11579617 0.20420972 0.67419279 0.00046849 -0.00120951 0.00079693
0.60290253 0.68722647 0.53865707 -0.00040167 0.00037923 0.00012138
0.83158541 0.80180734 0.52032042 0.00031098 0.00150732 0.00012175
0.90797371 0.77918780 0.51526958 0.00016743 0.00109933 0.00010426
0.35335141 0.31735504 0.49566513 -0.00031728 -0.00083151 -0.00014048
0.94301587 0.77018821 0.50823975 0.00098411 0.00116844 -0.00010058
0.04664935 0.22108397 0.32666606 -0.00147393 -0.00105208 -0.00060121
0.27848804 0.33770403 0.42111707 0.00018546 -0.00080910 -0.00032462
0.73897690 0.65066481 0.62827277 0.00031772 0.00063647 0.00008421
0.07969580 0.34427759 0.56582618 -0.00066781 0.00005498 0.00098342
0.60587287 0.25268906 0.24056858 -0.00031335 -0.00060660 -0.00118212
0.45886767 0.55333507 0.37148783 -0.00006866 0.00051106 -0.00042752
0.86827737 0.73040795 0.59125119 0.00034701 0.00018209 0.00081164
0.95354974 0.72815037 0.50621623 0.00142735 -0.00039314 -0.00000139
0.48089814 0.40714416 0.61438191 0.00025761 -0.00047502 0.00033986
0.76219827 0.44894803 0.61985856 0.00073892 0.00052546 0.00062107
0.91703385 0.68886280 0.53576314 0.00020537 -0.00016790 0.00008269
0.73901510 0.30380642 0.72385663 0.00121368 -0.00028901 0.00025368
0.57345480 0.23795870 0.71193349 -0.00146030 -0.00109330 -0.00026581
0.55605960 0.46415395 0.64546865 0.00014923 -0.00003512 0.00062967
0.85233730 0.76454812 0.45471978 0.00043396 0.00067865 -0.00073049
0.11944610 0.26763329 0.34604844 -0.00023745 0.00006715 -0.00027767
0.09168854 0.22227068 0.31456104 0.00018042 -0.00024167 -0.00091593
0.93033636 0.76509607 0.51899731 0.00044454 0.00083921 0.00021260
0.76845658 0.42710218 0.49812722 0.00052077 -0.00062928 0.00009719
0.07191850 0.22338821 0.66624260 0.00018058 0.00042599 0.00016339
0.41894129 0.41298106 0.62619853 0.00005016 -0.00024218 0.00068548
0.11804738 0.26822931 0.38120151 -0.00027342 -0.00055176 0.00038301
0.45794731 0.54659623 0.63268983 -0.00037505 0.00112753 0.00075633
0.71341264 0.31899989 0.65140623 0.00022069 -0.00093181 -0.00010151
0.28060409 0.34662178 0.60141355 -0.00023004 -0.00099384 0.00055094
0.89220935 0.69802934 0.57324237 0.00012091 -0.00027228 0.00050183
0.65345663 0.69020760 0.41103464 -0.00019813 0.00085381 -0.00053854
0.55563694 0.65875876 0.52849901 -0.00022844 0.00069716 0.00019316
0.84313083 0.71588820 0.43621981 0.00076699 -0.00014563 -0.00032330
0.12273533 0.28483003 0.33609357 -0.00019614 0.00041652 -0.00098962
0.92522305 0.75409961 0.55879670 0.00104539 0.00060255 0.00061953
0.60858768 0.49255931 0.65345705 -0.00000399 -0.00005722 0.00065237
0.58899504 0.48126128 0.65237010 0.00012096 0.00004897 0.00073919
0.15498139 0.28312051 0.60125548 0.00008679 -0.00039734 -0.00003727
0.05763143 0.28747204 0.63738412 -0.00137375 0.00047979 0.00064142
0.65902227 0.47666842 0.66400260 0.00033044 0.00002527 0.00088875
0.48174044 0.43627158 0.63502109 0.00001762 -0.00026476 0.00063214
0.65391660 0.35876450 0.40015584 0.00019326 -0.00030554 -0.00006587
0.11328486 0.34480894 0.60054982 -0.00029933 0.00043373 0.00054353
0.45418867 0.53234559 0.38982099 0.00009327 -0.00024843 0.00048483
0.69200224 0.31380033 0.34276190 0.00034299 -0.00065323 0.00012977
0.63392508 0.31340191 0.68517578 0.00016442 0.00039584 0.00068591
0.14538810 0.34553346 0.61204088 -0.00034816 0.00015406 0.00071825
0.47337574 0.49651992 0.65193886 0.00010953 -0.00009772 0.00100484
0.24745746 0.42293429 0.37256357 -0.00062889 -0.00018546 -0.00130027
0.64706725 0.61632878 0.37581512 0.00022518 0.00039220 -0.00073147
0.94638276 0.77090383 0.51872611 0.00112931 0.00118364 0.00025773
0.88262773 0.71304584 0.43592381 0.00027929 0.00001120 -0.00057491
0.92408580 0.75712019 0.46795523 0.00072481 0.00072148 -0.00097874
0.90306658 0.69222075 0.44925925 0.00044608 -0.00035830 -0.00027167
0.63305277 0.52665371 0.34743455 0.00025337 0.00003249 -0.00102082
0.93662244 0.75622422 0.51863652 0.00064059 0.00042662 0.00021926
0.69883001 0.67089927 0.38937768 0.00007283 0.00065334 -0.00054076
0.50623828 0.60163069 0.50533962 0.00034643 0.00005013 -0.00044129
0.13003248 0.30382708 0.56570488 -0.00019005 -0.00055199 0.00001112
0.64188564 0.29878920 0.34105191 0.00047760 -0.00056789 0.00009712
0.84480572 0.75790316 0.44527680 0.00050167 0.00071357 -0.00071860
0.84698778 0.58127451 0.50700766 0.00109590 0.00061269 0.00004635
0.66687542 0.44019973 0.36340150 -0.00010054 -0.00012658 -0.00050778
0.33811256 0.31771931 0.49381340 -0.00036113 -0.00080566 -0.00015027
0.86010748 0.77496827 0.56625241 0.00021092 0.00080822 0.00099465
0.78073269 0.43469402 0.49754202 0.00079241 -0.00064449 0.00005022
0.27968061 0.37910861 0.38161024 0.00059158 -0.00042052 -0.00094230
0.81800628 0.59350216 0.42931613 0.00079602 0.00007155 -0.00067548
0.61439401 0.29786664 0.66471857 -0.00011926 -0.00008619 -0.00002478
0.69544643 0.76460111 0.52183092 -0.00029091 0.00116679 0.00025539
0.58823907 0.56794685 0.64283520 -0.00039771 0.00079584 0.00058669
0.44735509 0.52807939 0.36419922 -0.00007588 0.00020206 -0.00029822
0.69139767 0.45264280 0.36949354 0.00021322 0.00022358 -0.00037622
0.18836789 0.32498142 0.38342261 -0.00015631 -0.00033756 -0.00067217
0.66473073 0.30426860 0.34889480 0.00032140 -0.00071966 0.00017694
0.76386607 0.35922000 0.31928578 0.00094981 0.00001973 -0.00085057
0.69118023 0.33372626 0.70103270 -0.00024923 0.00025423 0.00032128
0.90156370 0.68577248 0.49317840 -0.00002018 -0.00001189 0.00015398
0.93727952 0.76279140 0.53803265 0.00087917 0.00077165 0.00078275
0.65812254 0.41112539 0.63864809 -0.00015843 -0.00028522 0.00025581
0.84185249 0.54950732 0.51100260 0.00120391 0.00029418 0.00011521
0.49379802 0.35352501 0.57202059 0.00005316 -0.00051042 0.00053103
0.75449556 0.36912903 0.66971326 0.00094159 -0.00015381 0.00066890
0.56967509 0.24379244 0.28108785 -0.00126094 -0.00136475 0.00040709
0.06349753 0.30643493 0.39037076 -0.00083589 0.00041966 -0.00016665
0.05043582 0.26577550 0.36036921 -0.00108402 0.00014785 0.00024504
0.04902540 0.25687125 0.35425153 -0.00112578 0.00021885 0.00040041
0.74266678 0.44017860 0.63988817 0.00012426 0.00058895 0.00096848
0.79022491 0.78692418 0.52011251 0.00049370 0.00102157 0.00023482
0.63567686 0.35028112 0.49314332 0.00035360 -0.00058908 -0.00001271
0.25744060 0.50733602 0.56238508 -0.00044338 0.00112549 0.00040247
0.26199380 0.46331495 0.62222165 -0.00065488 0.00074287 0.00117234
0.68406278 0.38432297 0.34344506 -0.00011429 0.00000685 -0.00052707
0.56659603 0.56878144 0.36822599 -0.00002919 0.00048796 -0.00059970
0.49572605 0.34719762 0.56343883 0.00009253 -0.00054477 0.00052429
0.25992134 0.36224020 0.38628426 -0.00015985 -0.00068973 -0.00088586
0.12598011 0.29381469 0.35570642 -0.00016422 0.00024637 -0.00049109
0.63182253 0.36492932 0.38728949 0.00001773 -0.00009639 -0.00017456
0.47098303 0.53152984 0.36388347 -0.00014234 0.00024025 -0.00018242
0.63753235 0.66978669 0.60260296 -0.00033276 0.00038390 0.00068712
0.50634569 0.53862846 0.36153612 0.00011914 0.00031439 -0.00050905
0.64716655 0.33334357 0.31171510 -0.00010226 0.00027735 -0.00063971
0.73581660 0.32488981 0.26931968 0.00112451 0.00024587 -0.00048576
0.76608545 0.42735103 0.59509379 0.00081325 -0.00031640 -0.00014763
0.10752568 0.26977670 0.65979028 -0.00003503 0.00033282 0.00097735
0.25180131 0.40137687 0.37167740 -0.00039224 -0.00043363 -0.00124432
0.38604394 0.40776673 0.62623626 -0.00007925 -0.00020211 0.00079287
0.64644152 0.31758544 0.28396204 -0.00053227 0.00032006 -0.00038757
0.89296174 0.70513380 0.43232822 0.00041433 -0.00006663 -0.00070262
0.44629326 0.57876015 0.49544173 0.00011195 0.00040276 -0.00009375
0.60019225 0.68863147 0.50941432 -0.00043212 0.00039629 -0.00010808
0.48687625 0.47655550 0.35258695 0.00001807 -0.00020353 -0.00083420
0.93378013 0.76699829 0.48710579 0.00066384 0.00105605 -0.00069217
0.09503931 0.27507505 0.65743309 0.00013749 0.00018070 0.00113686
0.33182067 0.54389364 0.51246125 -0.00038776 0.00080348 0.00018002
0.09488122 0.29508042 0.41153681 0.00035063 -0.00075851 0.00024945
0.49679428 0.36921301 0.41736564 -0.00015635 -0.00029780 -0.00060279
0.73081243 0.32779995 0.71675670 0.00008600 0.00092241 0.00043803
0.72548890 0.32192665 0.72521847 0.00001245 0.00108360 0.00046057
0.81391525 0.60458714 0.61378139 0.00083009 -0.00015748 0.00063390
0.68806344 0.37593165 0.67094219 -0.00020483 0.00007138 0.00066075
0.45050463 0.56958812 0.39295572 -0.00019520 0.00063118 -0.00022239
0.62308401 0.69601345 0.46222070 -0.00040652 0.00064183 0.00001889
0.48585930 0.40436068 0.39142856 -0.00022356 -0.00038935 -0.00049748
0.08861490 0.31037676 0.64051700 -0.00021453 0.00068225 0.00111346
0.05268615 0.27545598 0.36651197 -0.00109146 -0.00001101 -0.00000359
0.13552397 0.23197941 0.33540815 0.00076617 -0.00016273 0.00037370
0.57783598 0.47396317 0.65062910 0.00021771 0.00004201 0.00073751
0.63095337 0.70104772 0.50519192 -0.00002661 0.00011394 -0.00020744
0.08748613 0.38936800 0.52377564 -0.00106109 0.00077484 0.00020533
0.81432354 0.49471948 0.49459445 0.00079041 0.00001262 -0.00040502
0.11865062 0.24447608 0.62666792 -0.00031785 -0.00057984 -0.00056509
0.66514212 0.74836963 0.52169627 -0.00074322 0.00084279 0.00009687
0.60875744 0.56294358 0.36237788 0.00014111 0.00012177 -0.00076595
0.75639015 0.40746489 0.41824600 0.00044812 -0.00048072 0.00033878
0.52822590 0.45224735 0.64545971 -0.00006359 -0.00022035 0.00074032
0.72690421 0.63482809 0.63626343 0.00017333 0.00004075 0.00035946
0.67930520 0.37556916 0.49581242 0.00035919 -0.00043599 0.00006344
0.24782847 0.50086576 0.51270682 -0.00027772 0.00054301 -0.00005887
0.83810461 0.62775284 0.52148229 0.00065448 0.00057814 0.00002975
0.47536346 0.44607845 0.36753112 -0.00039526 -0.00027753 -0.00063472
0.23345920 0.49046764 0.44537428 -0.00084811 0.00085172 -0.00024287
0.66781694 0.32618922 0.71309727 -0.00023471 0.00031517 0.00049804
0.69077104 0.43724930 0.35946730 0.00006730 0.00002181 -0.00061778
0.27407411 0.32556084 0.47523192 -0.00010822 -0.00050221 -0.00030177
0.07115268 0.28849524 0.60910463 -0.00081752 -0.00034651 -0.00028341
0.06305739 0.36065462 0.52565098 -0.00173094 0.00022122 0.00038508
0.67114478 0.67389029 0.41155928 0.00025000 0.00030014 -0.00003080
0.13348925 0.28738803 0.40102321 -0.00021947 -0.00056608 0.00011249
0.05817941 0.35388973 0.51689047 -0.00192398 0.00000052 -0.00011765
0.49567240 0.44142914 0.36608124 0.00016881 -0.00028812 -0.00072962
0.12552062 0.28869599 0.58380938 -0.00020229 -0.00052358 -0.00031217
0.66101515 0.31771439 0.72104710 -0.00027691 0.00048553 0.00038766
0.70583159 0.42676020 0.64493233 -0.00002842 0.00010153 0.00047252
0.60394466 0.55056643 0.65215808 -0.00014696 0.00045502 0.00082066
0.68641102 0.42981175 0.64923853 0.00009112 -0.00010321 0.00043609
0.82865822 0.73272651 0.42988211 0.00083645 0.00042755 -0.00056740
0.07286759 0.22783674 0.31776580 -0.00015315 -0.00011960 -0.00107397
0.64055300 0.52023381 0.36082286 0.00044313 -0.00010381 -0.00045777
0.65835476 0.32283756 0.69771338 -0.00003227 0.00016544 0.00055572
0.86821395 0.70161146 0.57827663 0.00049985 -0.00036106 0.00016563
0.76117194 0.42089161 0.58792692 0.00062047 -0.00051175 -0.00028422
0.93342835 0.68810368 0.50537407 0.00055884 -0.00030635 -0.00002213
0.47031596 0.45647532 0.64033198 -0.00012472 -0.00012275 0.00067865
0.06569848 0.33809257 0.51715428 -0.00136626 -0.00082598 -0.00007837
0.06179073 0.26382658 0.37029487 -0.00039928 -0.00052570 0.00055357
0.04545455 0.23312567 0.33765262 -0.00152153 -0.00042521 0.00005722
0.74414277 0.30802408 0.71535927 0.00129114 -0.00028335 -0.00000056
0.23694831 0.47941446 0.41775149 -0.00099745 0.00076436 -0.00052170
0.93149519 0.69162202 0.48727375 0.00053286 -0.00029921 -0.00007297
0.06393322 0.23580630 0.32296312 -0.00035272 0.00019753 -0.00097670
0.82750386 0.57004404 0.55555242 0.00049796 -0.00020216 0.00036770
0.59672338 0.55768883 0.64825976 -0.00029661 0.00063223 0.00069501
0.48955408 0.39285892 0.40006602 -0.00019264 -0.00033651 -0.00050440
0.40754417 0.41103372 0.62557912 0.00004551 -0.00021967 0.00069725
0.39111146 0.51482451 0.36826506 0.00024996 0.00047330 -0.00076658
0.68236858 0.75903684 0.52067709 -0.00045900 0.00112739 0.00011183
0.27892914 0.34471956 0.41084912 0.00028164 -0.00074830 -0.00044342
0.74356288 0.63606691 0.65015930 0.00011952 0.00029937 0.00098827
0.56779170 0.32628939 0.50112563 0.00009744 -0.00082905 0.00012324
0.90520954 0.71146345 0.57555777 0.00047828 -0.00037800 0.00069511
0.63340181 0.51137537 0.65850347 0.00006593 0.00009609 0.00080798
0.91792589 0.77507204 0.51650739 0.00025031 0.00111133 0.00009737
0.63284755 0.33063820 0.64037693 0.00001418 -0.00017044 0.00013332
0.51037323 0.32582945 0.48012510 -0.00013000 -0.00077781 -0.00052634
0.18151273 0.31326449 0.48590440 -0.00017909 -0.00067211 -0.00011334
0.70275390 0.34281734 0.28982726 -0.00091958 0.00095340 0.00013521
0.83206022 0.60560364 0.51817000 0.00056032 0.00085326 0.00001445
0.64699090 0.30262911 0.73700815 -0.00031867 0.00096284 0.00024079
0.42172435 0.52209288 0.36793000 0.00054628 0.00030845 -0.00038250
0.82266229 0.57222879 0.56648958 0.00038988 -0.00044285 0.00031272
0.70265645 0.37750643 0.57555735 0.00018291 -0.00024988 -0.00006947
0.80947030 0.48367265 0.49478945 0.00083273 0.00000538 -0.00034288
0.93469954 0.71034056 0.53799045 0.00085451 0.00004124 0.00037161
0.48247206 0.41550922 0.38321781 -0.00026978 -0.00043166 -0.00052052
0.64151192 0.42339393 0.36988568 -0.00020996 -0.00019922 -0.00041603
0.86953956 0.78596884 0.47479948 0.00063099 0.00101930 -0.00072261
0.08939958 0.31628960 0.50987411 -0.00046213 -0.00123550 -0.00001704
0.69315302 0.27693728 0.77357429 0.00079246 -0.00006945 0.00153310
0.61412990 0.34106201 0.49234724 0.00020279 -0.00068017 -0.00005824
0.47810474 0.48423851 0.64930409 0.00016444 -0.00022112 0.00084205
0.47815299 0.50884026 0.34645000 -0.00005700 -0.00008914 -0.00097108
0.60761338 0.36572570 0.60136414 -0.00009266 -0.00014074 0.00015500
0.93152797 0.68806642 0.51695347 0.00059476 -0.00024252 -0.00013736
0.47955325 0.42644083 0.37665597 -0.00032502 -0.00039221 -0.00057179
0.65688735 0.36271268 0.57741284 0.00019033 -0.00027348 0.00009237
0.10288490 0.22151563 0.31144291 0.00020001 -0.00031891 -0.00103745
0.68415982 0.37298512 0.33454394 -0.00012029 0.00012639 -0.00053074
0.24456660 0.50696951 0.50064802 -0.00042284 0.00087529 -0.00019123
0.69841135 0.32943895 0.35967299 0.00031572 -0.00050716 0.00024434
0.12016296 0.26567715 0.66132736 -0.00005153 0.00054714 0.00101881
0.07241751 0.27097327 0.60861456 -0.00044215 -0.00083182 -0.00062800
0.56869769 0.46851188 0.64883560 0.00023366 -0.00000361 0.00071235
0.47662365 0.42761958 0.62679148 0.00014839 -0.00027940 0.00046413
0.76914871 0.43524617 0.60197818 0.00095165 -0.00003478 0.00006606
0.10929313 0.23494613 0.34653533 -0.00015049 -0.00012964 0.00102661
0.08132717 0.31019756 0.41104543 -0.00018066 -0.00001387 0.00018269
0.60157889 0.68934065 0.52591288 -0.00042394 0.00037954 0.00000290
0.10337540 0.34650949 0.59483016 -0.00035831 0.00056362 0.00058392
0.13021035 0.22108938 0.32696071 0.00069657 -0.00063906 -0.00002513
0.73100644 0.77642179 0.51714933 0.00017209 0.00123637 -0.00000122
0.18236612 0.46142942 0.52190119 -0.00053003 0.00058043 0.00025596
0.83846802 0.57499027 0.48931313 0.00093711 0.00042038 -0.00004257
0.07860793 0.38083249 0.52267194 -0.00121101 0.00076456 0.00017199
0.51885998 0.60823345 0.50550783 0.00030312 0.00000974 -0.00049744
0.87180960 0.67071378 0.56424236 0.00049043 0.00013338 0.00016665
0.84198993 0.69826692 0.57809424 0.00053031 -0.00004082 0.00011316
0.69515902 0.65718085 0.64159191 0.00021155 0.00034059 0.00088203
0.58651519 0.58088106 0.37082714 -0.00006766 0.00060365 -0.00055682
0.70569146 0.61289847 0.64041376 0.00012877 -0.00012094 0.00046038
0.77193445 0.39755583 0.36086825 0.00113000 0.00015916 -0.00011086
0.65686405 0.62341571 0.37753630 0.00031936 0.00037636 -0.00071342
0.87858212 0.71219778 0.58524543 0.00038511 -0.00039035 0.00056254
0.88101119 0.70131272 0.57993132 0.00027253 -0.00040871 0.00040134
0.47188312 0.31893072 0.51872826 0.00005934 -0.00091678 0.00028101
0.11549656 0.26015151 0.37232733 -0.00033183 -0.00057354 0.00045759
0.08936769 0.32325932 0.38963863 0.00003782 0.00072874 -0.00061882
0.62470776 0.53968674 0.34966245 0.00014159 0.00019866 -0.00097347
0.44929683 0.57970876 0.52127832 -0.00010471 0.00029644 0.00017209
0.77107382 0.62625980 0.64142299 0.00030813 0.00033384 0.00086665
0.65319568 0.73851717 0.52311486 -0.00074679 0.00064011 0.00008773
0.66810077 0.35972530 0.40428144 0.00026161 -0.00036940 -0.00005760
0.61873966 0.70381463 0.54587692 -0.00043167 0.00063583 0.00038728
0.21986069 0.48571950 0.51530105 -0.00050127 0.00042794 0.00011257
0.68111217 0.28449947 0.22299318 0.00069103 -0.00020435 -0.00171003
0.51780254 0.32221413 0.50702643 -0.00004009 -0.00081961 0.00007329
0.45525411 0.56041569 0.38032877 -0.00007948 0.00052933 -0.00036378
0.08322177 0.24858819 0.36605832 0.00067661 -0.00078419 0.00074538
0.66820812 0.41383871 0.64233613 -0.00012175 -0.00025678 0.00028187
0.10199913 0.24763010 0.62666655 -0.00015820 -0.00060509 -0.00056163
0.57677144 0.57542145 0.36940643 -0.00003918 0.00058202 -0.00057689
0.69318265 0.60050064 0.64668226 0.00028190 0.00059147 0.00065170
0.61201572 0.68146634 0.57149333 -0.00054610 0.00046774 0.00061776
0.76395637 0.41136068 0.41149458 0.00068824 -0.00030645 0.00047141
0.68678021 0.67672002 0.39206278 0.00020207 0.00072026 -0.00061419
0.27580070 0.41389424 0.63816702 -0.00032571 -0.00013954 0.00143930
0.44514027 0.58012694 0.41189569 -0.00028053 0.00086066 -0.00015259
0.25341383 0.48607841 0.59453464 -0.00077106 0.00078917 0.00079954
0.33212116 0.40070000 0.62381393 -0.00017969 -0.00023671 0.00075419
0.59730327 0.37134027 0.61071312 -0.00004934 -0.00015340 0.00027004
0.70703715 0.30944794 0.66490495 0.00016611 -0.00072697 -0.00015023
0.84033161 0.73815602 0.59364569 0.00014430 0.00053797 0.00077355
0.15719758 0.33140448 0.38072178 -0.00037430 0.00011602 -0.00062689
0.09891742 0.32686254 0.62677801 -0.00031484 0.00063436 0.00091178
0.48367283 0.59959424 0.51596540 -0.00005355 0.00025197 -0.00007269
0.07896007 0.32122460 0.57186925 -0.00064672 -0.00028070 0.00025357
0.65589601 0.33509886 0.30517796 -0.00017670 0.00028227 -0.00055604
0.91791195 0.75199932 0.56646264 0.00099184 0.00064798 0.00075703
0.72957945 0.34596422 0.29435077 -0.00035624 0.00078311 -0.00021175
0.73894721 0.33569175 0.70385301 0.00032604 0.00053283 0.00042883
0.13075204 0.26314700 0.66043437 0.00013928 0.00050529 0.00100812
0.70565504 0.31820533 0.34070337 0.00025218 -0.00069685 0.00019092
0.61726332 0.36328179 0.59324908 -0.00004338 -0.00017319 0.00009057
0.60598248 0.59215063 0.37196666 -0.00014286 0.00053016 -0.00065790
0.12234052 0.27878651 0.35015607 -0.00021734 0.00010539 -0.00042276
0.68151647 0.35549417 0.68658215 -0.00002095 -0.00000430 0.00071566
0.11299741 0.27244923 0.60209543 -0.00020189 -0.00072777 -0.00029656
0.69260997 0.32351670 0.35260850 0.00032033 -0.00051502 0.00017030
0.14787243 0.26155248 0.35432923 0.00028537 -0.00028082 -0.00011409
0.63667977 0.33825833 0.63369691 0.00002780 -0.00016752 0.00010507
0.43084285 0.32141504 0.50140929 0.00008732 -0.00069607 -0.00023336
0.14456929 0.33280408 0.38227096 -0.00048404 0.00021770 -0.00057363
0.69340140 0.42154542 0.64586437 -0.00004166 -0.00003024 0.00039916
0.65830183 0.43158334 0.36193138 -0.00014272 -0.00021914 -0.00053252
0.92618877 0.68030077 0.50705272 0.00038102 -0.00028756 -0.00006093
0.05214711 0.21540834 0.66963065 -0.00110124 -0.00024120 0.00049112
0.14257812 0.25418165 0.63390082 0.00020555 -0.00030973 0.00005363
0.94534206 0.72914082 0.51938188 0.00107300 -0.00056088 0.00026857
0.08324736 0.31530729 0.40158734 -0.00010259 0.00032099 -0.00011133
0.85290819 0.71836978 0.58387232 0.00023382 -0.00003524 0.00038273
0.76493955 0.32854331 0.32350975 0.00129669 -0.00150600 0.00020765
0.66238111 0.68642735 0.40493813 -0.00006207 0.00082498 -0.00055387
0.82373941 0.58753949 0.44330812 0.00089531 0.00001323 -0.00035305
0.61651361 0.53701103 0.66044700 0.00006466 0.00012959 0.00110725
0.81750184 0.57473022 0.57579136 0.00027766 -0.00060437 0.00027887
0.64896810 0.42610535 0.36247039 -0.00020320 -0.00021188 -0.00052769
0.61301780 0.69939750 0.49462861 -0.00043263 0.00051685 -0.00022638
