4.652359999999999829e-01 -3.186900000000000149e-02 -1.016300000000000016e-02 9.320286102592945099e-03 5.803807172924280167e-03 -9.999397993087768555e-01
1.185879999999999990e-01 -3.121280000000000165e-01 1.016300000000000016e-02 -1.591188716702163219e-03 -1.624553836882114410e-02 9.998667836189270020e-01
4.406229999999999869e-01 -3.722699999999999898e-01 -1.016300000000000016e-02 1.008479762822389603e-02 -7.939023897051811218e-03 -9.999176859855651855e-01
3.159020000000000161e-01 -4.284689999999999888e-01 -1.016300000000000016e-02 1.084770262241363525e-02 1.550856139510869980e-02 -9.998209476470947266e-01
2.158740000000000103e-01 -1.168239999999999973e-01 1.016300000000000016e-02 -1.178665831685066223e-02 2.109281718730926514e-02 9.997079968452453613e-01
7.384000000000000286e-02 -4.824140000000000095e-01 1.016300000000000016e-02 -1.388123072683811188e-02 -1.644844189286231995e-02 9.997683167457580566e-01
3.167539999999999800e-01 -4.252110000000000056e-01 -1.016300000000000016e-02 3.812694456428289413e-03 1.145015284419059753e-02 -9.999271035194396973e-01
1.723439999999999972e-01 -1.229210000000000025e-01 -1.016300000000000016e-02 1.080756541341543198e-03 2.983307093381881714e-02 -9.995542764663696289e-01
2.976750000000000229e-01 -3.075399999999999801e-01 1.016300000000000016e-02 -2.922748681157827377e-03 -1.017061807215213776e-02 9.999440312385559082e-01
4.171199999999999908e-01 -1.883269999999999944e-01 1.016300000000000016e-02 3.405982255935668945e-02 -2.293583238497376442e-03 9.994171261787414551e-01
1.743099999999999858e-02 -2.164999999999999824e-03 1.016300000000000016e-02 -3.069257177412509918e-02 1.203143596649169922e-01 9.922612309455871582e-01
4.153899999999999815e-01 -1.535529999999999951e-01 -1.016300000000000016e-02 -5.270499270409345627e-03 -5.944243166595697403e-03 -9.999684095382690430e-01
8.885200000000000042e-02 -2.106740000000000002e-01 -1.016300000000000016e-02 4.230333492159843445e-03 8.728640154004096985e-03 -9.999529123306274414e-01
7.566199999999999315e-02 -3.768500000000000183e-01 -1.016300000000000016e-02 -3.068782575428485870e-02 3.144945576786994934e-02 -9.990341663360595703e-01
4.259539999999999993e-01 -3.456299999999999928e-01 1.016300000000000016e-02 -1.108433585613965988e-02 -1.991324685513973236e-02 9.997402429580688477e-01
4.410370000000000124e-01 -1.693320000000000103e-01 -1.016300000000000016e-02 -7.101593073457479477e-03 6.434320937842130661e-03 -9.999541640281677246e-01
3.558169999999999944e-01 -2.412600000000000022e-01 1.016300000000000016e-02 -9.335997514426708221e-03 1.483130175620317459e-02 9.998464584350585938e-01
3.185230000000000006e-01 -3.528819999999999735e-01 1.016300000000000016e-02 1.303574815392494202e-02 -5.197703139856457710e-04 9.999149441719055176e-01
3.334610000000000074e-01 -2.563790000000000235e-01 1.016300000000000016e-02 -1.445257477462291718e-02 -2.799630863592028618e-03 9.998916387557983398e-01
3.806019999999999959e-01 -3.610129999999999728e-01 -1.016300000000000016e-02 -8.519617840647697449e-03 8.347939699888229370e-03 -9.999288916587829590e-01
1.233069999999999999e-01 -1.766399999999999915e-01 1.016300000000000016e-02 -1.347457431256771088e-02 -1.602210453711450100e-03 9.999079108238220215e-01
1.636019999999999974e-01 -1.490090000000000026e-01 -1.016300000000000016e-02 9.887345135211944580e-03 1.718079671263694763e-02 -9.998034238815307617e-01
4.141969999999999819e-01 -2.398240000000000094e-01 -1.016300000000000016e-02 -7.320503238588571548e-03 2.322104573249816895e-02 -9.997035264968872070e-01
2.886360000000000037e-01 -4.942860000000000031e-01 1.016300000000000016e-02 -9.845875948667526245e-02 5.633608996868133545e-02 9.935452342033386230e-01
3.886120000000000130e-01 -4.658089999999999731e-01 1.016300000000000016e-02 9.379724040627479553e-03 -1.790921948850154877e-02 9.997956752777099609e-01
1.435799999999999924e-02 -9.714299999999999324e-02 1.016300000000000016e-02 -2.591557428240776062e-02 5.059939622879028320e-02 9.983827471733093262e-01
3.050550000000000206e-01 -2.096079999999999888e-01 -1.016300000000000016e-02 1.549236010760068893e-02 -6.401365622878074646e-03 -9.998595118522644043e-01
2.038590000000000124e-01 -3.059140000000000192e-01 1.016300000000000016e-02 -1.259866636246442795e-02 -2.630615606904029846e-03 9.999171495437622070e-01
4.148990000000000178e-01 -5.000000000000000000e-01 9.707999999999999616e-03 1.422352045774459839e-01 -6.184319853782653809e-01 7.728590965270996094e-01
3.620760000000000089e-01 -1.189869999999999955e-01 1.016300000000000016e-02 -1.048567518591880798e-02 2.129517029970884323e-03 9.999427795410156250e-01
3.564890000000000003e-01 -2.415099999999999886e-02 1.016300000000000016e-02 -1.701091416180133820e-02 4.043655097484588623e-02 9.990372657775878906e-01
3.885299999999999865e-01 -4.015889999999999738e-01 -1.016300000000000016e-02 -6.618619896471500397e-03 -6.868362892419099808e-03 -9.999544620513916016e-01
1.685439999999999994e-01 -8.296699999999999908e-02 1.016300000000000016e-02 -1.307579223066568375e-02 -1.908354926854372025e-03 9.999126791954040527e-01
3.974539999999999740e-01 -5.563400000000000289e-02 1.016300000000000016e-02 -2.466169185936450958e-02 1.383131183683872223e-02 9.996002316474914551e-01
4.404939999999999967e-01 -4.196420000000000150e-01 1.016300000000000016e-02 2.577657811343669891e-03 -1.192617230117321014e-02 9.999255537986755371e-01
3.434150000000000258e-01 -3.393880000000000230e-01 -1.016300000000000016e-02 -1.582731492817401886e-02 8.199648931622505188e-03 -9.998411536216735840e-01
6.949500000000000122e-02 -1.588150000000000117e-01 -1.016300000000000016e-02 -4.924019798636436462e-02 2.799096144735813141e-02 -9.983946681022644043e-01
1.389300000000000083e-02 -1.970580000000000109e-01 1.016300000000000016e-02 -2.296794764697551727e-02 3.643582761287689209e-02 9.990720152854919434e-01
4.820740000000000025e-01 -1.521899999999999920e-01 -1.016300000000000016e-02 -1.296660304069519043e-02 4.947588220238685608e-02 -9.986911416053771973e-01
3.710129999999999817e-01 -1.725430000000000019e-01 1.016300000000000016e-02 -9.851671056821942329e-04 -1.047622063197195530e-04 9.999995231628417969e-01
1.002750000000000030e-01 -4.805719999999999992e-01 1.016300000000000016e-02 -3.094843961298465729e-02 6.112356483936309814e-02 9.976502656936645508e-01
3.141100000000000142e-02 -4.142739999999999756e-01 -1.016300000000000016e-02 2.690503001213073730e-02 1.823615981265902519e-03 -9.996363520622253418e-01
2.281169999999999864e-01 -4.950700000000000239e-02 1.016300000000000016e-02 -1.667889580130577087e-02 3.129749745130538940e-02 9.993709325790405273e-01
4.035090000000000066e-01 -4.413569999999999993e-01 1.016300000000000016e-02 -7.648222614079713821e-03 -1.630511833354830742e-03 9.999694824218750000e-01
2.641140000000000154e-01 -5.166099999999999859e-02 -1.016300000000000016e-02 4.235399886965751648e-03 4.906238988041877747e-03 -9.999789595603942871e-01
2.716669999999999918e-01 -2.965139999999999998e-01 -1.016300000000000016e-02 4.137734882533550262e-03 -8.227975107729434967e-03 -9.999575614929199219e-01
1.712039999999999951e-01 -8.801299999999999402e-02 1.016300000000000016e-02 -1.597204059362411499e-02 1.437855139374732971e-02 9.997690320014953613e-01
1.748879999999999879e-01 -4.350990000000000135e-01 1.016300000000000016e-02 -2.037525735795497894e-02 2.725182101130485535e-03 9.997887015342712402e-01
1.540439999999999865e-01 -2.230810000000000015e-01 -1.016300000000000016e-02 -3.596460819244384766e-02 8.788745035417377949e-04 -9.993526935577392578e-01
4.073860000000000259e-01 -1.283779999999999921e-01 1.016300000000000016e-02 3.380066249519586563e-03 2.184957638382911682e-02 9.997555613517761230e-01
8.243000000000000327e-03 -1.224309999999999982e-01 -1.016300000000000016e-02 -5.619153007864952087e-02 -5.467265378683805466e-03 -9.984050393104553223e-01
4.279999999999999950e-03 -1.608739999999999892e-01 1.016300000000000016e-02 -2.043258398771286011e-01 -8.573291450738906860e-02 9.751414060592651367e-01
2.695839999999999903e-01 -4.359049999999999869e-01 -1.016300000000000016e-02 -8.205115795135498047e-03 1.983438059687614441e-02 -9.997696876525878906e-01
5.786999999999999783e-02 -1.383459999999999968e-01 -1.016300000000000016e-02 -1.455676276236772537e-02 1.777540147304534912e-02 -9.997360706329345703e-01
2.275500000000000092e-02 -1.873100000000000112e-02 1.016300000000000016e-02 -6.632883846759796143e-02 1.139518339186906815e-02 9.977327585220336914e-01
2.878439999999999888e-01 -1.813390000000000002e-01 1.016300000000000016e-02 -6.146053317934274673e-03 -4.939730279147624969e-03 9.999689459800720215e-01
4.041250000000000120e-01 -9.784500000000000142e-02 -1.016300000000000016e-02 -7.250030990689992905e-03 1.877625100314617157e-02 -9.997974634170532227e-01
5.000000000000000000e-01 -3.455500000000000238e-02 -9.001000000000000320e-03 7.801731228828430176e-01 -1.643601655960083008e-01 -6.035856604576110840e-01
4.117709999999999981e-01 -3.080220000000000180e-01 1.016300000000000016e-02 -1.074210368096828461e-02 9.527176618576049805e-03 9.998969435691833496e-01
3.685660000000000047e-01 -1.393739999999999979e-01 -1.016300000000000016e-02 -1.423552539199590683e-02 7.574861519969999790e-04 -9.998983144760131836e-01
3.587119999999999753e-01 -1.294760000000000078e-01 -1.016300000000000016e-02 -1.370926201343536377e-02 3.972444683313369751e-03 -9.998981356620788574e-01
3.171399999999999775e-01 -1.825600000000000001e-01 -1.016300000000000016e-02 8.126297034323215485e-03 1.106989569962024689e-03 -9.999664425849914551e-01
3.906470000000000220e-01 -4.452099999999999808e-02 -1.016300000000000016e-02 -1.338350493460893631e-02 4.977197851985692978e-03 -9.998980164527893066e-01
3.152800000000000047e-01 -4.888270000000000115e-01 1.016300000000000016e-02 -1.316333375871181488e-02 -1.511542778462171555e-02 9.997990727424621582e-01
3.383900000000000241e-01 -3.657050000000000023e-01 1.016300000000000016e-02 -1.743024587631225586e-02 -5.458590108901262283e-03 9.998332262039184570e-01
1.709600000000000009e-02 -4.746330000000000271e-01 -1.016300000000000016e-02 -7.049319334328174591e-03 1.451086252927780151e-02 -9.998698830604553223e-01
3.505099999999999882e-02 -3.622099999999999764e-01 -1.016300000000000016e-02 -3.587010875344276428e-02 -5.765606835484504700e-02 -9.976918697357177734e-01
7.169699999999999684e-02 -3.258769999999999722e-01 1.016300000000000016e-02 -4.170800000429153442e-02 1.455102115869522095e-02 9.990238547325134277e-01
1.564570000000000127e-01 -4.916170000000000262e-01 1.016300000000000016e-02 8.100932836532592773e-02 9.613016247749328613e-02 9.920668005943298340e-01
2.311719999999999886e-01 -9.167699999999999461e-02 1.016300000000000016e-02 3.011498227715492249e-02 1.007915288209915161e-02 9.994956254959106445e-01
4.687410000000000188e-01 -2.089139999999999886e-01 -1.016300000000000016e-02 -4.417065065354108810e-03 7.262778934091329575e-03 -9.999638795852661133e-01
4.368099999999999761e-01 -1.337499999999999974e-02 -1.016300000000000016e-02 -2.255947701632976532e-02 -1.254716794937849045e-02 -9.996667504310607910e-01
3.084470000000000267e-01 -1.956299999999999983e-01 1.016300000000000016e-02 -1.216901093721389771e-02 7.668683305382728577e-03 9.998965263366699219e-01
2.150130000000000097e-01 -2.571649999999999769e-01 1.016300000000000016e-02 7.043595425784587860e-03 -8.871339261531829834e-03 9.999358654022216797e-01
2.553110000000000102e-01 -1.499790000000000012e-01 -1.016300000000000016e-02 -6.532725412398576736e-03 1.409752387553453445e-02 -9.998792409896850586e-01
1.304069999999999951e-01 -2.452880000000000060e-01 1.016300000000000016e-02 -3.184479475021362305e-02 4.095286130905151367e-02 9.986534118652343750e-01
4.789200000000000124e-01 -1.108890000000000015e-01 1.016300000000000016e-02 -7.431422360241413116e-03 6.567588075995445251e-03 9.999507665634155273e-01
2.728400000000000269e-01 -4.911070000000000157e-01 -1.016300000000000016e-02 -4.506581276655197144e-02 -8.873576670885086060e-02 -9.950351715087890625e-01
4.227700000000000208e-02 -3.336870000000000114e-01 1.016300000000000016e-02 -2.461061812937259674e-02 -3.407025709748268127e-03 9.996913671493530273e-01
1.885729999999999906e-01 -3.579879999999999729e-01 -1.016300000000000016e-02 -1.094720605760812759e-02 -4.698481876403093338e-03 -9.999290704727172852e-01
4.971579999999999888e-01 -3.186060000000000003e-01 1.016300000000000016e-02 3.903757333755493164e-01 2.519295737147331238e-02 9.203108549118041992e-01
2.190599999999999839e-02 -2.748979999999999757e-01 -1.016300000000000016e-02 -5.925690382719039917e-02 -1.143338624387979507e-02 -9.981772303581237793e-01
4.292090000000000072e-01 -1.118480000000000030e-01 -1.016300000000000016e-02 -1.226481981575489044e-02 1.341251470148563385e-02 -9.998348355293273926e-01
9.353300000000000503e-02 -2.555700000000000194e-01 -1.016300000000000016e-02 -1.136317197233438492e-02 -5.771399475634098053e-03 -9.999187588691711426e-01
4.907050000000000023e-01 -2.603400000000000158e-01 -1.016300000000000016e-02 5.442106723785400391e-02 6.830148631706833839e-04 -9.985178112983703613e-01
2.628320000000000101e-01 -2.076300000000000021e-02 1.016300000000000016e-02 1.613434217870235443e-02 -3.058123402297496796e-02 9.994021058082580566e-01
6.260799999999999699e-02 -4.368509999999999893e-01 -1.016300000000000016e-02 2.191948733525350690e-04 2.538666874170303345e-02 -9.996776580810546875e-01
4.545199999999999935e-02 -1.141059999999999991e-01 1.016300000000000016e-02 1.189606823027133942e-02 -1.398232183419167995e-03 9.999282956123352051e-01
4.055130000000000123e-01 -3.185120000000000173e-01 1.016300000000000016e-02 -1.290564984083175659e-02 -1.706496812403202057e-02 9.997710585594177246e-01
1.336090000000000055e-01 -5.000000000000000000e-01 -4.414999999999999654e-03 3.496966790407896042e-03 -9.963339567184448242e-01 -8.547700196504592896e-02
9.176299999999999735e-02 -2.731979999999999964e-01 1.016300000000000016e-02 -2.886952459812164307e-02 9.525219909846782684e-03 9.995377659797668457e-01
4.050830000000000264e-01 -1.313120000000000120e-01 1.016300000000000016e-02 1.365676894783973694e-02 1.994609087705612183e-02 9.997077584266662598e-01
1.451250000000000040e-01 -3.625400000000000150e-02 -1.016300000000000016e-02 -3.466473147273063660e-02 -2.096145786345005035e-02 -9.991791844367980957e-01
7.451000000000000678e-02 -7.766099999999999393e-02 1.016300000000000016e-02 -4.556884523481130600e-03 -4.294419661164283752e-03 9.999804496765136719e-01
1.179700000000000019e-02 -9.438100000000000656e-02 1.016300000000000016e-02 -6.511196494102478027e-02 -1.765511743724346161e-02 9.977217912673950195e-01
8.485800000000000287e-02 -3.541159999999999863e-01 -1.016300000000000016e-02 8.784499368630349636e-04 -3.999756008852273226e-04 -9.999995827674865723e-01
2.553199999999999914e-01 -7.391699999999999660e-02 -1.016300000000000016e-02 -5.674668587744235992e-03 1.235440280288457870e-02 -9.999075531959533691e-01
4.481299999999999867e-02 -3.710660000000000069e-01 1.016300000000000016e-02 -2.598743187263607979e-03 3.689926350489258766e-03 9.999898076057434082e-01
5.401999999999999857e-02 -3.524120000000000030e-01 -1.016300000000000016e-02 -4.312999173998832703e-02 1.191553752869367599e-02 -9.989984035491943359e-01
1.952059999999999906e-01 -1.317069999999999907e-01 -1.016300000000000016e-02 -1.474940800108015537e-03 1.040173787623643875e-02 -9.999448060989379883e-01
3.414719999999999978e-01 -1.820720000000000116e-01 -1.016300000000000016e-02 -7.020235527306795120e-03 4.763427656143903732e-03 -9.999639987945556641e-01
4.850639999999999952e-01 -4.621279999999999832e-01 -1.016300000000000016e-02 -3.207880631089210510e-02 6.039490178227424622e-02 -9.976589679718017578e-01
1.353709999999999913e-01 -4.150899999999999729e-02 -1.016300000000000016e-02 -7.356488611549139023e-03 -1.142061874270439148e-02 -9.999076724052429199e-01
2.557200000000000029e-01 -4.087109999999999910e-01 1.016300000000000016e-02 -2.887469157576560974e-02 -1.786528527736663818e-02 9.994233846664428711e-01
8.869699999999999807e-02 -3.233900000000000108e-01 -1.016300000000000016e-02 -4.530071467161178589e-02 7.978731766343116760e-03 -9.989415407180786133e-01
4.623369999999999980e-01 -4.648419999999999774e-01 1.016300000000000016e-02 1.968836039304733276e-02 8.356218226253986359e-03 9.997712373733520508e-01
6.617900000000000171e-02 -5.000000000000000000e-01 -1.969999999999999963e-03 -1.538640707731246948e-01 -9.879974126815795898e-01 1.367208641022443771e-02
1.606839999999999935e-01 -2.361250000000000016e-01 1.016300000000000016e-02 -8.925016969442367554e-03 1.546592637896537781e-02 9.998405575752258301e-01
3.570160000000000000e-01 -9.981700000000000295e-02 1.016300000000000016e-02 -1.198259182274341583e-02 5.318152718245983124e-03 9.999141097068786621e-01
8.214699999999999780e-02 -5.000000000000000000e-01 -3.256999999999999913e-03 9.002143889665603638e-02 -9.954974055290222168e-01 2.968250773847103119e-02
1.644789999999999863e-01 -9.126599999999999990e-02 -1.016300000000000016e-02 1.826386898756027222e-03 -3.048638580366969109e-03 -9.999937415122985840e-01
3.205000000000000210e-02 -2.772300000000000111e-02 -1.016300000000000016e-02 5.314718000590801239e-03 -4.934526048600673676e-03 -9.999736547470092773e-01
4.900309999999999944e-01 -1.805009999999999948e-01 1.016300000000000016e-02 7.802241295576095581e-02 2.546550892293453217e-02 9.966263175010681152e-01
3.988630000000000231e-01 -2.759639999999999871e-01 -1.016300000000000016e-02 -1.227091532200574875e-02 -5.564143881201744080e-03 -9.999092817306518555e-01
1.709179999999999866e-01 -3.449169999999999736e-01 -1.016300000000000016e-02 -8.110740222036838531e-03 1.222407678142189980e-03 -9.999663233757019043e-01
4.755499999999999727e-01 -4.040190000000000170e-01 -1.016300000000000016e-02 -6.794829387217760086e-03 -3.733837045729160309e-03 -9.999699592590332031e-01
3.963289999999999869e-01 -4.809570000000000234e-01 1.016300000000000016e-02 1.989636197686195374e-02 3.007568232715129852e-02 9.993496537208557129e-01
9.836699999999999611e-02 -2.899120000000000030e-01 1.016300000000000016e-02 -1.664775609970092773e-02 -1.173339411616325378e-02 9.997925758361816406e-01
1.255870000000000042e-01 -1.858130000000000059e-01 1.016300000000000016e-02 -3.474285826086997986e-02 1.443308778107166290e-02 9.992920160293579102e-01
4.234809999999999963e-01 -7.121800000000000352e-02 1.016300000000000016e-02 -3.764727618545293808e-03 -3.939151763916015625e-03 9.999852180480957031e-01
4.739000000000000157e-03 -1.364120000000000055e-01 1.016300000000000016e-02 -1.299606263637542725e-01 -1.923449151217937469e-02 9.913325905799865723e-01
4.009220000000000006e-01 -8.887899999999999967e-02 -1.016300000000000016e-02 4.969652742147445679e-03 2.506208547856658697e-04 -9.999876022338867188e-01
1.332389999999999963e-01 -3.339710000000000178e-01 -1.016300000000000016e-02 8.401818573474884033e-03 1.059838663786649704e-02 -9.999085068702697754e-01
3.083270000000000177e-01 -3.689399999999999902e-01 -1.016300000000000016e-02 5.668147932738065720e-03 5.591985303908586502e-03 -9.999682903289794922e-01
2.087380000000000069e-01 -2.752890000000000059e-01 -1.016300000000000016e-02 9.203354828059673309e-03 -2.167348517104983330e-03 -9.999552369117736816e-01
4.954899999999999860e-01 -1.671200000000000116e-02 -1.016300000000000016e-02 1.567212045192718506e-01 -1.512313932180404663e-01 -9.759956598281860352e-01
2.569569999999999910e-01 -2.476869999999999905e-01 1.016300000000000016e-02 -1.922600530087947845e-02 4.215844906866550446e-03 9.998062849044799805e-01
8.455899999999999528e-02 -4.855990000000000029e-01 1.016300000000000016e-02 1.314689405262470245e-02 9.335005283355712891e-02 9.955465197563171387e-01
2.392249999999999932e-01 -3.243599999999999955e-02 -1.016300000000000016e-02 1.755616255104541779e-02 -3.246272727847099304e-02 -9.993187785148620605e-01
1.527570000000000039e-01 -2.539900000000000144e-02 -1.016300000000000016e-02 -2.946322038769721985e-02 1.547337137162685394e-02 -9.994460940361022949e-01
4.714399999999999841e-02 -1.570890000000000064e-01 1.016300000000000016e-02 -1.091860421001911163e-02 8.900387212634086609e-03 9.999006986618041992e-01
3.753659999999999775e-01 -4.261000000000000031e-03 1.016300000000000016e-02 3.778325393795967102e-02 1.904254853725433350e-01 9.809743762016296387e-01
1.326019999999999976e-01 -2.372690000000000077e-01 -1.016300000000000016e-02 2.516336971893906593e-03 2.728419145569205284e-03 -9.999930858612060547e-01
4.614610000000000101e-01 -2.346830000000000027e-01 -1.016300000000000016e-02 5.268230568617582321e-03 2.352167852222919464e-02 -9.997094273567199707e-01
1.900930000000000120e-01 -6.283199999999999896e-02 -1.016300000000000016e-02 -1.959893293678760529e-02 8.428270928561687469e-03 -9.997724294662475586e-01
2.841799999999999882e-01 -1.647319999999999895e-01 -1.016300000000000016e-02 1.873856037855148315e-02 1.616751030087471008e-02 -9.996936917304992676e-01
4.278379999999999961e-01 -2.722799999999999873e-02 1.016300000000000016e-02 9.641070850193500519e-03 -2.092897333204746246e-02 9.997345209121704102e-01
3.131709999999999772e-01 -1.878489999999999882e-01 -1.016300000000000016e-02 1.327391620725393295e-02 1.441668719053268433e-03 -9.999108314514160156e-01
3.606440000000000201e-01 -3.757599999999999829e-02 1.016300000000000016e-02 -5.130690522491931915e-03 1.863953890278935432e-03 9.999850988388061523e-01
8.627300000000000246e-02 -4.134309999999999929e-01 -1.016300000000000016e-02 -2.513379603624343872e-02 8.589159697294235229e-04 -9.996836781501770020e-01
4.192679999999999740e-01 -1.817400000000000126e-01 1.016300000000000016e-02 1.332235708832740784e-02 9.213752113282680511e-03 9.998688101768493652e-01
2.277450000000000030e-01 -5.474099999999999799e-02 -1.016300000000000016e-02 6.613255245611071587e-04 1.531517878174781799e-02 -9.998825192451477051e-01
4.634329999999999838e-01 -2.814369999999999927e-01 1.016300000000000016e-02 6.646518129855394363e-03 5.990179255604743958e-03 9.999600052833557129e-01
3.194400000000000017e-01 -1.205399999999999944e-01 -1.016300000000000016e-02 -9.881417499855160713e-04 3.002515994012355804e-02 -9.995486736297607422e-01
6.106000000000000316e-02 -4.067660000000000164e-01 -1.016300000000000016e-02 -3.799976035952568054e-02 -1.695353421382606030e-03 -9.992762804031372070e-01
2.511099999999999999e-01 -6.462199999999999889e-02 -1.016300000000000016e-02 -2.346224896609783173e-02 2.947344444692134857e-02 -9.992901086807250977e-01
1.029230000000000006e-01 -9.594600000000000350e-02 -1.016300000000000016e-02 -8.555013686418533325e-03 3.757423954084515572e-03 -9.999563694000244141e-01
2.056550000000000045e-01 -2.840969999999999884e-01 1.016300000000000016e-02 -3.051198320463299751e-03 3.073640726506710052e-02 9.995228648185729980e-01
4.513719999999999954e-01 -1.863859999999999961e-01 1.016300000000000016e-02 1.218479778617620468e-02 3.103596623986959457e-03 9.999209046363830566e-01
2.354870000000000019e-01 -2.616370000000000084e-01 -1.016300000000000016e-02 1.311326981522142887e-03 4.189607221633195877e-03 -9.999903440475463867e-01
2.766089999999999938e-01 -3.039959999999999885e-01 -1.016300000000000016e-02 -1.893567666411399841e-02 -4.617590748239308596e-04 -9.998205900192260742e-01
9.203899999999999582e-02 -3.464899999999999924e-02 1.016300000000000016e-02 2.731478400528430939e-02 -5.100691225379705429e-03 9.996138215065002441e-01
4.234319999999999751e-01 -2.678459999999999730e-01 -1.016300000000000016e-02 -3.376662358641624451e-02 1.240723649971187115e-04 -9.994297027587890625e-01
2.708789999999999809e-01 -8.252700000000000313e-02 1.016300000000000016e-02 -7.230423856526613235e-03 6.548237055540084839e-03 9.999524354934692383e-01
8.882199999999999818e-02 -3.836120000000000085e-01 -1.016300000000000016e-02 -1.359327789396047592e-02 -1.159731112420558929e-02 -9.998403191566467285e-01
2.843510000000000204e-01 -4.205079999999999929e-01 1.016300000000000016e-02 -1.409537903964519501e-02 8.831419982016086578e-03 9.998616576194763184e-01
4.954500000000000015e-01 -2.991909999999999847e-01 -1.016300000000000016e-02 2.276964336633682251e-01 9.666737169027328491e-03 -9.736841320991516113e-01
7.265000000000000624e-02 -3.036460000000000270e-01 -1.016300000000000016e-02 -1.853289268910884857e-02 8.568880148231983185e-03 -9.997915029525756836e-01
4.968629999999999991e-01 -4.161329999999999751e-01 -1.016300000000000016e-02 4.463039338588714600e-01 8.796046674251556396e-02 -8.905479907989501953e-01
1.491389999999999938e-01 -9.730700000000000460e-02 1.016300000000000016e-02 -1.671873964369297028e-02 2.252527279779314995e-03 9.998576641082763672e-01
2.504259999999999819e-01 -3.329449999999999910e-01 1.016300000000000016e-02 -7.420000154525041580e-03 2.846552990376949310e-03 9.999684095382690430e-01
2.475449999999999873e-01 -2.612129999999999730e-01 -1.016300000000000016e-02 -4.398913122713565826e-03 7.407481316477060318e-03 -9.999628663063049316e-01
3.485329999999999817e-01 -4.326200000000000045e-01 1.016300000000000016e-02 3.406900446861982346e-03 1.128955464810132980e-02 9.999304413795471191e-01
1.925080000000000124e-01 -1.570060000000000067e-01 1.016300000000000016e-02 7.830363698303699493e-03 -2.068292116746306419e-03 9.999671578407287598e-01
3.457390000000000185e-01 -2.797099999999999934e-02 1.016300000000000016e-02 4.653837531805038452e-02 -9.111498482525348663e-03 9.988749623298645020e-01
1.229129999999999945e-01 -4.992389999999999883e-01 -1.016300000000000016e-02 -8.716075867414474487e-02 -5.544041991233825684e-01 -8.276708722114562988e-01
3.048409999999999731e-01 -6.189200000000000257e-02 -1.016300000000000016e-02 -9.893444366753101349e-03 1.114471722394227982e-02 -9.998889565467834473e-01
4.458699999999999886e-01 -3.041999999999999999e-03 1.016300000000000016e-02 4.681612551212310791e-02 2.194222211837768555e-01 9.745060801506042480e-01
4.926809999999999801e-01 -2.596840000000000259e-01 -1.016300000000000016e-02 1.482209265232086182e-01 3.753888979554176331e-02 -9.882415533065795898e-01
2.372229999999999894e-01 -4.272400000000000087e-01 -1.016300000000000016e-02 -7.781804539263248444e-03 1.221441314555704594e-03 -9.999690055847167969e-01
3.003149999999999986e-01 -1.248220000000000024e-01 -1.016300000000000016e-02 -1.052336581051349640e-02 1.342415623366832733e-02 -9.998545050621032715e-01
1.199790000000000023e-01 -4.208970000000000211e-01 1.016300000000000016e-02 -5.966959870420396328e-04 9.532456286251544952e-03 9.999543428421020508e-01
2.912819999999999854e-01 -2.423549999999999871e-01 1.016300000000000016e-02 -2.914841752499341965e-03 -7.083389209583401680e-04 9.999954700469970703e-01
3.940560000000000174e-01 -2.736779999999999768e-01 -1.016300000000000016e-02 -1.681643351912498474e-02 8.408124558627605438e-03 -9.998232126235961914e-01
1.599409999999999998e-01 -4.948609999999999953e-01 1.016300000000000016e-02 6.694779545068740845e-02 -1.448706537485122681e-01 9.871830940246582031e-01
1.954960000000000031e-01 -4.490730000000000000e-01 1.016300000000000016e-02 2.057058969512581825e-03 7.122525479644536972e-03 9.999725222587585449e-01
4.449969999999999759e-01 -5.588300000000000212e-02 -1.016300000000000016e-02 -1.043705828487873077e-02 -1.007940527051687241e-02 -9.998947978019714355e-01
2.327889999999999959e-01 -1.471409999999999940e-01 -1.016300000000000016e-02 -1.370653323829174042e-02 1.057508029043674469e-02 -9.998501539230346680e-01
3.523200000000000220e-01 -2.711879999999999846e-01 -1.016300000000000016e-02 4.224282223731279373e-03 -4.032853990793228149e-03 -9.999830126762390137e-01
5.000000000000000000e-01 -4.619650000000000145e-01 3.689000000000000005e-03 9.995841383934020996e-01 2.863996289670467377e-02 3.365617478266358376e-03
4.486660000000000093e-01 -3.615000000000000158e-02 -1.016300000000000016e-02 -2.602763287723064423e-02 -1.993423514068126678e-02 -9.994624257087707520e-01
2.954459999999999864e-01 -9.387099999999999611e-02 -1.016300000000000016e-02 9.309452958405017853e-03 -2.651411807164549828e-03 -9.999531507492065430e-01
3.689040000000000097e-01 -8.669999999999999929e-02 1.016300000000000016e-02 1.223026774823665619e-02 2.346118539571762085e-02 9.996499419212341309e-01
2.173619999999999997e-01 -2.454520000000000035e-01 -1.016300000000000016e-02 -1.087026204913854599e-02 -6.968521047383546829e-04 -9.999406933784484863e-01
1.128549999999999970e-01 -1.375250000000000083e-01 1.016300000000000016e-02 -2.070465125143527985e-02 2.444257959723472595e-02 9.994868636131286621e-01
4.887059999999999738e-01 -1.697539999999999882e-01 -1.016300000000000016e-02 -8.607074618339538574e-02 2.973502501845359802e-02 -9.958451986312866211e-01
4.060150000000000148e-01 -1.577870000000000106e-01 1.016300000000000016e-02 1.861041644588112831e-03 2.402514778077602386e-02 9.997096061706542969e-01
4.595310000000000228e-01 -7.970299999999999607e-02 -1.016300000000000016e-02 8.976959623396396637e-03 -6.450713612139225006e-03 -9.999389648437500000e-01
4.914799999999999724e-02 -4.944699999999999790e-02 1.016300000000000016e-02 1.808953844010829926e-02 2.087331749498844147e-02 9.996185302734375000e-01
3.533959999999999879e-01 -3.232909999999999950e-01 -1.016300000000000016e-02 -1.776876300573348999e-02 1.567948050796985626e-02 -9.997192025184631348e-01
4.957090000000000107e-01 -1.314639999999999975e-01 1.016300000000000016e-02 2.826321423053741455e-01 3.307318314909934998e-02 9.586580991744995117e-01
2.310059999999999891e-01 -4.616859999999999853e-01 -1.016300000000000016e-02 8.424691855907440186e-03 2.117542317137122154e-03 -9.999622702598571777e-01
1.941029999999999978e-01 -3.721630000000000216e-01 1.016300000000000016e-02 -2.472060499712824821e-03 -6.000424735248088837e-03 9.999789595603942871e-01
3.889200000000000296e-02 -1.223800000000000027e-01 1.016300000000000016e-02 -4.675623960793018341e-03 -1.394607219845056534e-02 9.998917579650878906e-01
6.986199999999999355e-02 -5.000000000000000000e-01 -6.232999999999999825e-03 -7.552260905504226685e-02 -9.025037288665771484e-01 -4.240084886550903320e-01
3.316609999999999836e-01 -5.379999999999999583e-04 -1.016300000000000016e-02 -1.472933311015367508e-02 2.432222366333007812e-01 -9.698587656021118164e-01
3.576969999999999872e-01 -4.843169999999999975e-01 1.016300000000000016e-02 -1.292871497571468353e-02 6.042542867362499237e-03 9.998981952667236328e-01
1.517600000000000025e-02 -1.769300000000000039e-02 1.016300000000000016e-02 4.041624069213867188e-02 3.975227102637290955e-02 9.983918666839599609e-01
5.967200000000000282e-02 -3.347260000000000235e-01 1.016300000000000016e-02 -3.429383039474487305e-02 -5.963325966149568558e-03 9.993939995765686035e-01
1.247769999999999990e-01 -4.426930000000000032e-01 -1.016300000000000016e-02 -1.640183106064796448e-02 1.252082549035549164e-02 -9.997870922088623047e-01
6.545600000000000029e-02 -4.973060000000000258e-01 1.016300000000000016e-02 -1.290201395750045776e-01 -5.750784277915954590e-01 8.078605532646179199e-01
6.525899999999999757e-02 -1.522100000000000120e-01 -1.016300000000000016e-02 -2.896713651716709137e-02 -7.809507660567760468e-04 -9.995800852775573730e-01
8.885400000000000242e-02 -2.415349999999999997e-01 -1.016300000000000016e-02 -2.393734827637672424e-02 4.314880445599555969e-02 -9.987818598747253418e-01
3.467109999999999914e-01 -5.505399999999999877e-02 1.016300000000000016e-02 -1.523732859641313553e-02 1.593272574245929718e-02 9.997569918632507324e-01
4.309359999999999857e-01 -1.168850000000000028e-01 1.016300000000000016e-02 -1.033814065158367157e-02 1.147233974188566208e-02 9.998807907104492188e-01
3.668009999999999882e-01 -1.931730000000000114e-01 -1.016300000000000016e-02 -7.369498722255229950e-03 1.145210489630699158e-02 -9.999072551727294922e-01
4.656699999999999728e-02 -7.023999999999999862e-03 1.016300000000000016e-02 -5.471967160701751709e-02 5.220916122198104858e-02 9.971358180046081543e-01
2.468789999999999873e-01 -1.284289999999999876e-01 -1.016300000000000016e-02 -8.282220922410488129e-03 1.333841495215892792e-02 -9.998767375946044922e-01
4.487149999999999750e-01 -3.439139999999999975e-01 -1.016300000000000016e-02 -8.712199516594409943e-03 -1.139786839485168457e-02 -9.998970627784729004e-01
3.817769999999999775e-01 -4.538749999999999729e-01 1.016300000000000016e-02 -1.273611211217939854e-03 -1.495567895472049713e-02 9.998873472213745117e-01
4.032729999999999926e-01 -4.907929999999999793e-01 1.016300000000000016e-02 -6.838256865739822388e-02 -6.926274392753839493e-03 9.976351261138916016e-01
4.136050000000000004e-01 -3.754750000000000032e-01 -1.016300000000000016e-02 -2.434443123638629913e-02 1.732218079268932343e-02 -9.995535612106323242e-01
2.586379999999999790e-01 -4.781560000000000255e-01 -1.016300000000000016e-02 -1.546385139226913452e-02 1.253795903176069260e-02 -9.998018145561218262e-01
7.428500000000000381e-02 -1.417090000000000016e-01 1.016300000000000016e-02 -3.367147222161293030e-02 -1.089864037930965424e-02 9.993734955787658691e-01
4.476379999999999804e-01 -4.059209999999999763e-01 1.016300000000000016e-02 1.166626717895269394e-02 -9.536409750580787659e-03 9.998864531517028809e-01
4.684490000000000043e-01 -2.248549999999999993e-01 -1.016300000000000016e-02 -2.366226911544799805e-02 1.566200703382492065e-02 -9.995973706245422363e-01
2.479999999999999913e-02 -5.939799999999999941e-02 1.016300000000000016e-02 -3.993538767099380493e-02 -1.466219592839479446e-02 9.990946650505065918e-01
9.809999999999999276e-03 -3.036369999999999902e-01 1.016300000000000016e-02 -8.826728910207748413e-02 -2.268298901617527008e-02 9.958385229110717773e-01
1.402699999999999954e-02 -2.300180000000000002e-01 1.016300000000000016e-02 -1.360560487955808640e-02 2.896396443247795105e-02 9.994878768920898438e-01
3.986709999999999976e-01 -2.390029999999999932e-01 1.016300000000000016e-02 -4.553895443677902222e-03 -1.757677644491195679e-03 9.999880790710449219e-01
2.374890000000000057e-01 -5.000000000000000000e-01 8.368999999999999703e-03 2.549237906932830811e-01 -7.021545171737670898e-01 6.648254394531250000e-01
4.050150000000000139e-01 -2.186569999999999903e-01 1.016300000000000016e-02 2.545551164075732231e-03 9.843259118497371674e-03 9.999482631683349609e-01
4.875970000000000026e-01 -4.360419999999999852e-01 1.016300000000000016e-02 6.899654865264892578e-02 -6.416563689708709717e-02 9.955512881278991699e-01
1.421930000000000138e-01 -4.856750000000000234e-01 -1.016300000000000016e-02 -6.341592222452163696e-02 -1.923397369682788849e-02 -9.978017807006835938e-01
2.732680000000000109e-01 -1.749699999999999867e-01 1.016300000000000016e-02 -9.885076433420181274e-03 1.946369931101799011e-02 9.997617006301879883e-01
2.147409999999999874e-01 -1.981090000000000073e-01 -1.016300000000000016e-02 2.762502990663051605e-02 4.460233612917363644e-04 -9.996182918548583984e-01
1.600229999999999986e-01 -4.224240000000000217e-01 -1.016300000000000016e-02 -4.925524815917015076e-03 1.511420123279094696e-02 -9.998736381530761719e-01
1.402879999999999960e-01 -4.143549999999999733e-01 -1.016300000000000016e-02 -8.281070739030838013e-03 4.250518046319484711e-03 -9.999566674232482910e-01
1.590300000000000047e-02 -1.111649999999999999e-01 -1.016300000000000016e-02 -5.157837644219398499e-02 -2.612103894352912903e-02 -9.983272552490234375e-01
4.583369999999999944e-01 -3.955910000000000259e-01 1.016300000000000016e-02 -1.728888018988072872e-03 4.408432636409997940e-03 9.999887347221374512e-01
5.699499999999999705e-02 -2.777259999999999729e-01 1.016300000000000016e-02 -2.214419096708297729e-02 -6.680977530777454376e-03 9.997324943542480469e-01
2.380599999999999938e-01 -1.150499999999999960e-02 1.016300000000000016e-02 1.402619108557701111e-02 1.447310019284486771e-02 9.997969269752502441e-01
3.218179999999999930e-01 -1.978900000000000103e-02 1.016300000000000016e-02 -1.227049995213747025e-02 1.143036317080259323e-02 9.998593926429748535e-01
2.537240000000000051e-01 -4.659739999999999993e-01 -1.016300000000000016e-02 -1.178113091737031937e-02 1.126240845769643784e-02 -9.998671412467956543e-01
4.154240000000000155e-01 -4.808899999999999841e-01 -1.016300000000000016e-02 -3.267945954576134682e-03 3.057759627699851990e-02 -9.995270967483520508e-01
8.729099999999999360e-02 -3.725399999999999823e-01 -1.016300000000000016e-02 -9.682310745120048523e-03 -2.100787125527858734e-02 -9.997324347496032715e-01
3.418660000000000032e-01 -4.098000000000000254e-02 1.016300000000000016e-02 -1.089986471924930811e-04 5.196487996727228165e-03 9.999865293502807617e-01
1.458170000000000022e-01 -3.687309999999999754e-01 1.016300000000000016e-02 -1.855043321847915649e-02 2.214065520092844963e-03 9.998254776000976562e-01
2.960809999999999831e-01 -2.318010000000000070e-01 1.016300000000000016e-02 1.189941423945128918e-03 -1.003224961459636688e-02 9.999489784240722656e-01
2.666999999999999926e-02 -2.570479999999999987e-01 1.016300000000000016e-02 -1.274300506338477135e-03 -1.119260210543870926e-02 9.999365210533142090e-01
4.817029999999999923e-01 -4.093970000000000109e-01 -1.016300000000000016e-02 -3.530169278383255005e-02 1.461228355765342712e-02 -9.992698431015014648e-01
1.782650000000000068e-01 -1.141339999999999993e-01 1.016300000000000016e-02 -9.471900761127471924e-03 2.057995088398456573e-02 9.997433423995971680e-01
2.129330000000000112e-01 -4.905600000000000238e-02 -1.016300000000000016e-02 3.924163989722728729e-03 5.451023112982511520e-03 -9.999774694442749023e-01
8.052199999999999636e-02 -1.183440000000000047e-01 -1.016300000000000016e-02 -5.877013783901929855e-03 4.639972932636737823e-03 -9.999719858169555664e-01
4.623650000000000260e-01 -3.730800000000000088e-02 1.016300000000000016e-02 -5.744671821594238281e-02 -1.348603144288063049e-02 9.982574582099914551e-01
1.857630000000000114e-01 -4.496560000000000001e-01 1.016300000000000016e-02 -3.282645717263221741e-03 -1.591322245076298714e-03 9.999933242797851562e-01
5.000000000000000000e-01 -7.980600000000000194e-02 3.585000000000000079e-03 9.860585927963256836e-01 -3.295950219035148621e-02 1.631013453006744385e-01
9.580800000000000427e-02 -2.956690000000000151e-01 1.016300000000000016e-02 -2.632492966949939728e-02 9.437505505047738552e-04 9.996531009674072266e-01
4.965300000000000269e-02 -3.972559999999999980e-01 -1.016300000000000016e-02 -5.561498180031776428e-02 2.357379533350467682e-02 -9.981740117073059082e-01
6.187999999999999751e-02 -2.098600000000000118e-02 1.016300000000000016e-02 -1.678160205483436584e-02 -1.400810107588768005e-02 9.997610449790954590e-01
3.555969999999999964e-01 -2.611000000000000040e-03 -1.016300000000000016e-02 -3.115780465304851532e-02 1.965416669845581055e-01 -9.800003170967102051e-01
2.841940000000000022e-01 -4.885959999999999748e-01 -1.016300000000000016e-02 -5.293497443199157715e-02 6.870404630899429321e-02 -9.962317347526550293e-01
4.745800000000000018e-01 -2.031600000000000072e-02 -1.016300000000000016e-02 -2.751474641263484955e-02 1.167974155396223068e-02 -9.995532035827636719e-01
2.993149999999999977e-01 -5.000000000000000000e-01 -7.323999999999999781e-03 1.684645116329193115e-01 -8.161966204643249512e-01 -5.526688694953918457e-01
3.146260000000000168e-01 -6.612600000000000422e-02 -1.016300000000000016e-02 -1.225171145051717758e-02 1.599494926631450653e-02 -9.997970461845397949e-01
1.202800000000000050e-02 -2.254919999999999980e-01 -1.016300000000000016e-02 -4.515548236668109894e-03 2.449093200266361237e-02 -9.996898770332336426e-01
2.514089999999999936e-01 -3.041690000000000227e-01 1.016300000000000016e-02 1.467000111006200314e-03 7.431745179928839207e-04 9.999986290931701660e-01
1.489250000000000018e-01 -3.711800000000000099e-01 1.016300000000000016e-02 -1.913212798535823822e-02 1.432055421173572540e-02 9.997143745422363281e-01
2.538759999999999906e-01 -4.879049999999999776e-01 1.016300000000000016e-02 2.403985522687435150e-02 4.650641605257987976e-02 9.986286759376525879e-01
2.180330000000000046e-01 -4.887940000000000063e-01 -1.016300000000000016e-02 -5.824277177453041077e-02 1.575143337249755859e-01 -9.857976436614990234e-01
3.102790000000000270e-01 -2.592320000000000180e-01 -1.016300000000000016e-02 6.759511306881904602e-03 -1.277951989322900772e-02 -9.998955130577087402e-01
3.130020000000000024e-01 -9.148799999999999988e-02 1.016300000000000016e-02 -1.680801622569561005e-02 1.043751370161771774e-02 9.998041987419128418e-01
2.786950000000000260e-01 -1.537779999999999980e-01 1.016300000000000016e-02 -1.547733414918184280e-02 2.458593249320983887e-02 9.995779395103454590e-01
1.308860000000000023e-01 -4.606169999999999987e-01 -1.016300000000000016e-02 1.778765954077243805e-02 -1.091072335839271545e-02 -9.997822046279907227e-01
3.852030000000000176e-01 -5.000000000000000000e-01 -3.511999999999999931e-03 2.577258646488189697e-01 -9.618114233016967773e-01 -9.217440336942672729e-02
4.607800000000000229e-01 -4.753249999999999975e-01 -1.016300000000000016e-02 -1.965060131624341011e-03 1.813918910920619965e-02 -9.998335242271423340e-01
2.120889999999999997e-01 -3.084839999999999804e-01 -1.016300000000000016e-02 -1.532542519271373749e-02 4.054592922329902649e-03 -9.998743534088134766e-01
1.686680000000000124e-01 -3.248210000000000264e-01 1.016300000000000016e-02 -1.618370786309242249e-02 -2.032225579023361206e-02 9.996624588966369629e-01
4.734920000000000240e-01 -2.461859999999999882e-01 1.016300000000000016e-02 -2.949046343564987183e-02 3.140379488468170166e-02 9.990716576576232910e-01
2.569290000000000185e-01 -4.178819999999999757e-01 -1.016300000000000016e-02 -1.655127480626106262e-02 4.450001288205385208e-03 -9.998531341552734375e-01
2.233070000000000055e-01 -1.025620000000000004e-01 1.016300000000000016e-02 9.115884080529212952e-03 1.023762766271829605e-02 9.999060034751892090e-01
1.875399999999999984e-02 -8.176700000000000634e-02 1.016300000000000016e-02 2.743177860975265503e-02 -4.800382256507873535e-02 9.984703660011291504e-01
7.145600000000000562e-02 -3.451319999999999943e-01 1.016300000000000016e-02 -2.477942034602165222e-02 9.193462901748716831e-04 9.996924996376037598e-01
1.416399999999999881e-01 -3.825879999999999836e-01 1.016300000000000016e-02 -1.449145283550024033e-02 8.428965695202350616e-03 9.998594522476196289e-01
4.384400000000000103e-02 -5.000000000000000000e-01 -8.809000000000000857e-03 1.795931458473205566e-01 -8.459787964820861816e-01 -5.020619630813598633e-01
2.474069999999999880e-01 -3.462300000000000100e-02 -1.016300000000000016e-02 -2.313634380698204041e-02 -2.703913114964962006e-02 -9.993666410446166992e-01
4.462960000000000260e-01 -4.200869999999999882e-01 1.016300000000000016e-02 7.257076445966959000e-03 -1.572570204734802246e-02 9.998499751091003418e-01
7.171800000000000397e-02 -4.144579999999999931e-01 -1.016300000000000016e-02 -1.083199679851531982e-02 1.489401515573263168e-02 -9.998304247856140137e-01
3.238699999999999912e-01 -1.877870000000000095e-01 -1.016300000000000016e-02 -2.358127851039171219e-03 4.321748390793800354e-03 -9.999878406524658203e-01
1.423400000000000012e-02 -4.669229999999999769e-01 1.016300000000000016e-02 -1.063150018453598022e-01 -1.442158711142838001e-03 9.943314790725708008e-01
7.926600000000000312e-02 -3.449699999999999989e-02 -1.016300000000000016e-02 5.028100218623876572e-03 -2.128698676824569702e-02 -9.997607469558715820e-01
1.836710000000000009e-01 -8.154300000000000437e-02 -1.016300000000000016e-02 -3.409579023718833923e-02 4.292547702789306641e-03 -9.994093179702758789e-01
4.501809999999999978e-01 -3.216999999999999860e-01 -1.016300000000000016e-02 -2.514015138149261475e-02 1.232803612947463989e-02 -9.996079206466674805e-01
3.100379999999999803e-01 -3.199380000000000002e-01 -1.016300000000000016e-02 7.935901172459125519e-03 -4.931089933961629868e-03 -9.999563694000244141e-01
1.029640000000000000e-01 -3.615220000000000100e-01 1.016300000000000016e-02 -2.683274634182453156e-02 2.542225411161780357e-03 9.996367692947387695e-01
2.784400000000000208e-01 -4.765229999999999744e-01 -1.016300000000000016e-02 -9.866065345704555511e-03 -8.015560917556285858e-03 -9.999191761016845703e-01
1.223390000000000033e-01 -2.020399999999999974e-02 1.016300000000000016e-02 -2.449615672230720520e-02 1.616106717847287655e-03 9.996986389160156250e-01
1.233810000000000046e-01 -3.681630000000000180e-01 -1.016300000000000016e-02 -1.758344937115907669e-03 2.367847785353660583e-02 -9.997180700302124023e-01
3.485409999999999897e-01 -4.656569999999999876e-01 1.016300000000000016e-02 5.761337932199239731e-03 -7.781520020216703415e-03 9.999531507492065430e-01
1.228500000000000009e-01 -2.488339999999999996e-01 1.016300000000000016e-02 -1.489957794547080994e-02 1.057309191673994064e-02 9.998331069946289062e-01
7.186199999999999533e-02 -3.471199999999999841e-01 1.016300000000000016e-02 -4.648655280470848083e-02 -2.665107836946845055e-03 9.989154338836669922e-01
2.484069999999999889e-01 -3.469180000000000041e-01 1.016300000000000016e-02 -2.389346947893500328e-03 1.383674796670675278e-03 9.999961853027343750e-01
4.356999999999999762e-03 -4.849140000000000117e-01 1.016300000000000016e-02 -3.493751883506774902e-01 1.103222221136093140e-01 9.304655194282531738e-01
4.264749999999999930e-01 -4.303130000000000011e-01 1.016300000000000016e-02 1.314880908466875553e-03 4.183504264801740646e-03 9.999904036521911621e-01
5.321900000000000241e-02 -5.676199999999999996e-02 1.016300000000000016e-02 -1.641893293708562851e-03 2.812987193465232849e-02 9.996029138565063477e-01
4.102629999999999888e-01 -1.231529999999999986e-01 1.016300000000000016e-02 -6.038549356162548065e-03 2.553106658160686493e-02 9.996559023857116699e-01
8.159299999999999886e-02 -4.328429999999999778e-01 1.016300000000000016e-02 -2.780951559543609619e-03 5.536291748285293579e-03 9.999808073043823242e-01
1.382500000000000048e-02 -1.028699999999999927e-02 -1.016300000000000016e-02 -1.215138938277959824e-02 -2.303364872932434082e-02 -9.996608495712280273e-01
5.000000000000000000e-01 -6.290999999999999717e-03 -6.498999999999999569e-03 9.257240891456604004e-01 1.400928050279617310e-01 -3.512959778308868408e-01
1.166700000000000029e-02 -2.622000000000000025e-02 -1.016300000000000016e-02 -2.440451830625534058e-02 -5.718364845961332321e-03 -9.996858239173889160e-01
3.097249999999999726e-01 -3.589700000000000113e-01 -1.016300000000000016e-02 -3.807648317888379097e-03 8.566952310502529144e-04 -9.999923706054687500e-01
1.314929999999999988e-01 -1.561579999999999913e-01 -1.016300000000000016e-02 -2.002223394811153412e-02 1.425626315176486969e-02 -9.996978640556335449e-01
3.512080000000000202e-01 -1.056549999999999989e-01 -1.016300000000000016e-02 -1.083321520127356052e-03 2.028443291783332825e-02 -9.997936487197875977e-01
2.577619999999999911e-01 -2.878020000000000023e-01 -1.016300000000000016e-02 -2.151446789503097534e-02 1.532241515815258026e-02 -9.996510744094848633e-01
2.753950000000000009e-01 -4.922200000000000186e-02 1.016300000000000016e-02 -3.433513268828392029e-02 3.251308202743530273e-02 9.988813996315002441e-01
1.422269999999999923e-01 -3.997009999999999730e-01 -1.016300000000000016e-02 -2.508935146033763885e-02 8.962353691458702087e-03 -9.996449947357177734e-01
8.423200000000000132e-02 -9.868799999999999795e-02 -1.016300000000000016e-02 -2.148661389946937561e-02 1.834883168339729309e-02 -9.996007680892944336e-01
8.928999999999999437e-02 -4.073000000000000231e-03 1.016300000000000016e-02 -6.155060231685638428e-02 5.847537890076637268e-02 9.963895678520202637e-01
2.355700000000000155e-02 -5.000000000000000000e-01 -1.490000000000000005e-03 2.607119679450988770e-01 -9.562261104583740234e-01 -1.328940838575363159e-01
2.284589999999999954e-01 -4.334140000000000215e-01 1.016300000000000016e-02 -9.675210341811180115e-03 -6.716696545481681824e-03 9.999306201934814453e-01
3.294750000000000179e-01 -4.237600000000000255e-01 1.016300000000000016e-02 -7.142319343984127045e-03 2.900854311883449554e-02 9.995536804199218750e-01
3.737240000000000006e-01 -2.378989999999999994e-01 1.016300000000000016e-02 3.769290167838335037e-03 -1.130266580730676651e-02 9.999289512634277344e-01
2.525089999999999835e-01 -2.682860000000000245e-01 -1.016300000000000016e-02 -1.297693350352346897e-03 1.263191550970077515e-02 -9.999193549156188965e-01
