-4.558749999999999747e-01 1.221349999999999936e-01 1.016300000000000016e-02 8.292170763015747070e-01 3.754695877432823181e-02 5.576642155647277832e-01
-1.320389999999999897e-01 1.710800000000000098e-01 -1.016300000000000016e-02 -1.609928160905838013e-02 -5.090409517288208008e-02 -9.985737800598144531e-01
1.136360000000000009e-01 6.583999999999999575e-02 -1.016300000000000016e-02 -1.171976476907730103e-01 -1.139118224382400513e-01 -9.865540862083435059e-01
-1.590400000000000147e-02 3.774730000000000030e-01 -1.016300000000000016e-02 -2.135024368762969971e-01 -1.346818655729293823e-01 -9.676143527030944824e-01
-5.495599999999999791e-02 -1.189260000000000039e-01 -1.016300000000000016e-02 5.182569622993469238e-01 3.985780477523803711e-01 -7.566671967506408691e-01
-5.505299999999999777e-02 1.864850000000000119e-01 1.016300000000000016e-02 1.162285134196281433e-01 4.702368676662445068e-01 8.748532533645629883e-01
-3.197079999999999922e-01 2.143589999999999940e-01 1.016300000000000016e-02 -1.589621007442474365e-01 1.694149225950241089e-01 9.726405143737792969e-01
-2.785690000000000111e-01 -2.632639999999999980e-01 1.016300000000000016e-02 1.153890788555145264e-01 -5.851033329963684082e-02 9.915956258773803711e-01
-1.217710000000000042e-01 -1.501659999999999939e-01 -1.016300000000000016e-02 3.446505665779113770e-01 -1.117114573717117310e-01 -9.320603609085083008e-01
-3.927699999999999941e-02 3.156269999999999909e-01 -1.016300000000000016e-02 -3.723903596401214600e-01 -1.213494390249252319e-01 -9.201085567474365234e-01
6.037200000000000205e-02 -5.239800000000000013e-02 -1.016300000000000016e-02 2.017451375722885132e-01 -1.375294476747512817e-01 -9.697343111038208008e-01
-1.457040000000000002e-01 -3.385489999999999888e-01 1.016300000000000016e-02 -4.159570634365081787e-01 7.834658026695251465e-02 9.060029983520507812e-01
-3.521230000000000193e-01 -3.620600000000000207e-02 1.016300000000000016e-02 4.251188635826110840e-01 -1.128956899046897888e-01 8.980693221092224121e-01
-3.651030000000000109e-01 -4.687129999999999908e-01 1.016300000000000016e-02 -2.781119048595428467e-01 4.734698832035064697e-01 8.357511162757873535e-01
3.307930000000000037e-01 -1.705639999999999934e-01 -1.016300000000000016e-02 -2.776838839054107666e-01 -7.938886992633342743e-03 -9.606397151947021484e-01
4.656750000000000056e-01 3.691490000000000049e-01 -1.016300000000000016e-02 -2.265798896551132202e-01 6.453377008438110352e-01 -7.295208573341369629e-01
4.195000000000000118e-02 3.493760000000000199e-01 -1.016300000000000016e-02 9.162944741547107697e-03 4.761432111263275146e-02 -9.988237619400024414e-01
-4.995780000000000221e-01 3.230750000000000011e-01 1.016300000000000016e-02 -9.242638945579528809e-01 -3.665753901004791260e-01 1.065771430730819702e-01
4.264049999999999785e-01 1.808929999999999982e-01 1.016300000000000016e-02 -1.463642809540033340e-02 5.965360999107360840e-01 8.024527430534362793e-01
-3.124469999999999748e-01 -1.203789999999999999e-01 -1.016300000000000016e-02 2.967261150479316711e-02 2.249142676591873169e-01 -9.739266633987426758e-01
1.744789999999999952e-01 -2.391550000000000065e-01 1.016300000000000016e-02 1.116626560688018799e-01 -3.149005174636840820e-01 9.425333738327026367e-01
1.487469999999999903e-01 -1.478400000000000027e-02 1.016300000000000016e-02 -3.688179329037666321e-02 -4.341854453086853027e-01 9.000681638717651367e-01
-6.024999999999999974e-03 -4.139669999999999739e-01 1.016300000000000016e-02 -2.261509746313095093e-02 -1.359670907258987427e-01 9.904551506042480469e-01
-2.351040000000000074e-01 -3.025410000000000044e-01 1.016300000000000016e-02 1.081948634237051010e-02 3.307134807109832764e-01 9.436691403388977051e-01
2.378560000000000119e-01 3.349679999999999880e-01 1.016300000000000016e-02 -1.707862168550491333e-01 -3.235668241977691650e-01 9.306645989418029785e-01
-1.072909999999999975e-01 -2.522340000000000138e-01 -1.016300000000000016e-02 -3.078519403934478760e-01 5.934771895408630371e-01 -7.436477541923522949e-01
3.399699999999999944e-02 3.705800000000000205e-01 1.016300000000000016e-02 -2.386519759893417358e-01 2.122872620820999146e-01 9.476177692413330078e-01
-1.507499999999999951e-01 1.506399999999999961e-01 -1.016300000000000016e-02 -1.435805559158325195e-01 8.589459955692291260e-02 -9.859040379524230957e-01
4.488759999999999972e-01 -4.536910000000000109e-01 -1.016300000000000016e-02 3.973253667354583740e-01 -5.083184242248535156e-01 -7.640321254730224609e-01
-1.434400000000000085e-02 -9.993999999999999412e-03 1.016300000000000016e-02 -5.017703771591186523e-01 -2.827838361263275146e-01 8.174715638160705566e-01
3.417410000000000170e-01 -2.671419999999999906e-01 -1.016300000000000016e-02 -6.300249099731445312e-01 1.038639917969703674e-01 -7.695978283882141113e-01
-3.331489999999999729e-01 6.637099999999999944e-02 -1.016300000000000016e-02 -3.547938764095306396e-01 1.870804280042648315e-02 -9.347573518753051758e-01
2.996949999999999892e-01 3.031139999999999946e-01 1.016300000000000016e-02 -5.364739522337913513e-02 -8.287348151206970215e-01 5.570643544197082520e-01
-4.706380000000000008e-01 3.815069999999999850e-01 -1.016300000000000016e-02 3.659548759460449219e-01 -2.878791689872741699e-01 -8.849872946739196777e-01
1.146199999999999997e-01 -1.824729999999999963e-01 -1.016300000000000016e-02 -1.422871053218841553e-01 2.068504840135574341e-01 -9.679707288742065430e-01
3.872849999999999904e-01 1.998820000000000041e-01 1.016300000000000016e-02 7.348753213882446289e-01 -2.437351942062377930e-01 6.328913569450378418e-01
-2.961730000000000196e-01 4.663030000000000230e-01 -1.016300000000000016e-02 -1.343737840652465820e-01 -7.148487567901611328e-01 -6.862469911575317383e-01
-3.887349999999999972e-01 4.767399999999999971e-01 -1.016300000000000016e-02 1.898310631513595581e-01 -4.453267157077789307e-01 -8.750132322311401367e-01
-3.156370000000000009e-01 -2.123450000000000060e-01 -1.016300000000000016e-02 1.715217530727386475e-02 2.525927126407623291e-01 -9.674206972122192383e-01
4.667620000000000102e-01 -9.485799999999999788e-02 1.016300000000000016e-02 -2.696295976638793945e-01 -2.076428197324275970e-02 9.627401828765869141e-01
4.496700000000000141e-01 -2.347499999999999865e-01 -1.016300000000000016e-02 2.033849358558654785e-01 2.359638512134552002e-01 -9.502397775650024414e-01
3.517810000000000104e-01 3.082130000000000147e-01 -1.016300000000000016e-02 4.786200225353240967e-01 -3.982313275337219238e-01 -7.825180888175964355e-01
-1.729259999999999964e-01 -2.959229999999999916e-01 -1.016300000000000016e-02 2.948618726804852486e-03 2.334982603788375854e-01 -9.723527431488037109e-01
2.179810000000000081e-01 -4.140389999999999904e-01 1.016300000000000016e-02 1.127784028649330139e-01 -2.695388197898864746e-01 9.563628435134887695e-01
1.368159999999999932e-01 -4.063959999999999795e-01 -1.016300000000000016e-02 3.399674221873283386e-02 3.280515968799591064e-01 -9.440479278564453125e-01
-2.152940000000000131e-01 -8.501799999999999635e-02 1.016300000000000016e-02 -3.731935285031795502e-03 -2.305105924606323242e-01 9.730626940727233887e-01
-3.341239999999999766e-01 3.536190000000000166e-01 -1.016300000000000016e-02 -4.728254973888397217e-01 -3.339280784130096436e-01 -8.154312372207641602e-01
4.638240000000000141e-01 1.765120000000000022e-01 1.016300000000000016e-02 -4.807114005088806152e-01 1.604925394058227539e-01 8.620664477348327637e-01
3.430849999999999733e-01 2.626069999999999793e-01 1.016300000000000016e-02 -5.051742792129516602e-01 7.147424668073654175e-02 8.600525856018066406e-01
2.317200000000000162e-02 -1.685999999999999999e-02 1.016300000000000016e-02 -2.632015757262706757e-02 3.238478302955627441e-02 9.991288185119628906e-01
-2.460660000000000069e-01 -1.429429999999999867e-01 1.016300000000000016e-02 1.327338367700576782e-01 1.724483370780944824e-01 9.760344624519348145e-01
3.684080000000000132e-01 4.966519999999999824e-01 1.016300000000000016e-02 -6.957838535308837891e-01 3.485941886901855469e-01 6.279863715171813965e-01
-1.131169999999999953e-01 -1.773839999999999861e-01 1.016300000000000016e-02 -4.801241159439086914e-01 -2.719385921955108643e-01 8.339845538139343262e-01
1.574850000000000139e-01 -1.534369999999999901e-01 1.016300000000000016e-02 5.006525665521621704e-02 -8.969948627054691315e-03 9.987056851387023926e-01
-3.238940000000000152e-01 9.070200000000000484e-02 -1.016300000000000016e-02 -3.495095968246459961e-01 2.302096933126449585e-01 -9.082106351852416992e-01
7.164099999999999635e-02 -1.711340000000000083e-01 -1.016300000000000016e-02 4.263848662376403809e-01 1.591278910636901855e-01 -8.904348611831665039e-01
3.889070000000000027e-01 2.542719999999999980e-01 -1.016300000000000016e-02 7.223036289215087891e-01 -6.398274898529052734e-01 -2.624846994876861572e-01
-1.448129999999999973e-01 -3.360699999999999799e-02 1.016300000000000016e-02 -2.603078782558441162e-01 -4.871299564838409424e-01 8.336331248283386230e-01
4.980600000000000027e-01 -3.259969999999999812e-01 1.016300000000000016e-02 6.810863018035888672e-01 -7.254066467285156250e-01 -9.953173995018005371e-02
1.822350000000000081e-01 5.000000000000000000e-01 8.741999999999999771e-03 2.417684048414230347e-01 9.406897425651550293e-01 2.380141615867614746e-01
2.290299999999999975e-02 -1.437400000000000067e-01 -1.016300000000000016e-02 -2.784082889556884766e-01 1.787981390953063965e-02 -9.602963328361511230e-01
-1.905969999999999887e-01 -4.750610000000000110e-01 -1.016300000000000016e-02 -3.898170962929725647e-02 1.830277442932128906e-01 -9.823346138000488281e-01
2.966210000000000235e-01 -4.580609999999999959e-01 1.016300000000000016e-02 -1.120410785079002380e-01 8.766464591026306152e-01 4.679079353809356689e-01
-3.176849999999999952e-01 4.608000000000000290e-02 1.016300000000000016e-02 4.807379245758056641e-01 1.481091231107711792e-01 8.642653822898864746e-01
-5.000000000000000000e-01 1.355010000000000103e-01 1.902999999999999961e-03 -9.733078479766845703e-01 -1.822646260261535645e-01 1.394680291414260864e-01
4.130789999999999740e-01 -3.139040000000000163e-01 1.016300000000000016e-02 -1.955531239509582520e-01 -1.891495138406753540e-01 9.622792601585388184e-01
-3.867349999999999954e-01 -4.929419999999999913e-01 -1.016300000000000016e-02 8.001981675624847412e-02 -9.352712035179138184e-01 -3.447673916816711426e-01
-3.198079999999999812e-01 1.154450000000000059e-01 -1.016300000000000016e-02 -4.749135673046112061e-01 4.743956960737705231e-03 -8.800196647644042969e-01
-2.085789999999999866e-01 2.810909999999999798e-01 1.016300000000000016e-02 7.271303236484527588e-02 -6.793524138629436493e-03 9.973297715187072754e-01
-4.083260000000000223e-01 -2.126889999999999892e-01 -1.016300000000000016e-02 -1.067063137888908386e-01 -2.043210417032241821e-01 -9.730707406997680664e-01
5.000000000000000000e-01 8.543599999999999806e-02 4.431000000000000043e-03 5.495162010192871094e-01 7.687990069389343262e-01 3.270778357982635498e-01
2.508099999999999774e-01 -2.337269999999999903e-01 1.016300000000000016e-02 8.412694334983825684e-01 -1.728289276361465454e-01 5.122460126876831055e-01
2.675400000000000000e-02 4.991990000000000038e-01 1.016300000000000016e-02 9.543506503105163574e-01 -1.803650856018066406e-01 2.380823940038681030e-01
2.967350000000000265e-01 4.079249999999999821e-01 -1.016300000000000016e-02 -1.887741312384605408e-02 -9.250176139175891876e-03 -9.997790455818176270e-01
3.968900000000000206e-01 -3.836799999999999933e-02 1.016300000000000016e-02 1.272076815366744995e-01 1.794977188110351562e-01 9.754992723464965820e-01
4.271599999999999703e-02 1.785319999999999963e-01 1.016300000000000016e-02 -3.079923242330551147e-02 2.417387627065181732e-02 9.992332458496093750e-01
-4.553470000000000018e-01 4.661790000000000100e-01 -1.016300000000000016e-02 6.120317578315734863e-01 1.519387681037187576e-02 -7.906872630119323730e-01
-3.613959999999999950e-01 3.433450000000000113e-01 1.016300000000000016e-02 5.825443267822265625e-01 3.755744099617004395e-01 7.208231091499328613e-01
1.622319999999999873e-01 -6.541900000000000492e-02 -1.016300000000000016e-02 -1.683807186782360077e-02 8.460404723882675171e-02 -9.962723851203918457e-01
2.003679999999999906e-01 3.785490000000000244e-01 -1.016300000000000016e-02 -1.329021304845809937e-01 -4.113478362560272217e-01 -9.017372131347656250e-01
4.431359999999999744e-01 -2.882569999999999855e-01 1.016300000000000016e-02 -3.525090217590332031e-01 1.454910337924957275e-01 9.244294166564941406e-01
-4.805240000000000067e-01 -9.976999999999999758e-03 -1.016300000000000016e-02 -4.439179301261901855e-01 3.498615920543670654e-01 -8.249446153640747070e-01
-7.737900000000000333e-02 -1.182089999999999946e-01 1.016300000000000016e-02 -1.917695850133895874e-01 3.814576268196105957e-01 9.042757153511047363e-01
1.351249999999999951e-01 9.224799999999999667e-02 -1.016300000000000016e-02 -1.219799071550369263e-01 2.026324123144149780e-01 -9.716280102729797363e-01
1.580459999999999920e-01 2.890999999999999907e-03 -1.016300000000000016e-02 3.536615669727325439e-01 2.861735820770263672e-01 -8.905213475227355957e-01
5.000000000000000000e-01 -2.248960000000000126e-01 -9.416000000000000758e-03 7.132595181465148926e-01 -3.445587456226348877e-01 -6.103606820106506348e-01
-2.079590000000000050e-01 4.920200000000000268e-02 1.016300000000000016e-02 -3.948483467102050781e-01 3.779579326510429382e-02 9.179685711860656738e-01
-4.685679999999999845e-01 3.382120000000000126e-01 1.016300000000000016e-02 2.671076357364654541e-01 5.770641937851905823e-02 9.619373679161071777e-01
-1.580229999999999968e-01 4.098859999999999726e-01 -1.016300000000000016e-02 -3.912455141544342041e-01 -1.342014372348785400e-01 -9.104487895965576172e-01
-5.909699999999999676e-02 -4.760340000000000127e-01 -1.016300000000000016e-02 -5.306379199028015137e-01 -2.702271044254302979e-01 -8.033683896064758301e-01
-5.000000000000000000e-01 4.264999999999999694e-03 6.144000000000000156e-03 -9.164986610412597656e-01 3.781985342502593994e-01 -1.303692907094955444e-01
-2.218209999999999904e-01 -3.538229999999999986e-01 -1.016300000000000016e-02 -4.958142638206481934e-01 1.895252019166946411e-01 -8.474953770637512207e-01
2.068500000000000061e-01 -3.143929999999999780e-01 -1.016300000000000016e-02 7.713664323091506958e-02 -1.834359467029571533e-01 -9.800006151199340820e-01
-1.479399999999999986e-02 -3.969940000000000135e-01 -1.016300000000000016e-02 9.524060040712356567e-02 3.970171511173248291e-01 -9.128562808036804199e-01
3.968740000000000046e-01 -3.928209999999999757e-01 -1.016300000000000016e-02 2.285093218088150024e-01 -3.179684877395629883e-01 -9.201518893241882324e-01
4.377220000000000000e-01 4.204979999999999829e-01 -1.016300000000000016e-02 -4.555479884147644043e-01 1.085643749684095383e-02 -8.901450037956237793e-01
2.412340000000000040e-01 -3.942539999999999933e-01 1.016300000000000016e-02 -6.348474323749542236e-02 -3.388523757457733154e-01 9.386951923370361328e-01
4.420939999999999870e-01 1.578670000000000073e-01 1.016300000000000016e-02 6.511116623878479004e-01 -2.646919190883636475e-01 7.113310694694519043e-01
3.018399999999999903e-02 1.295830000000000037e-01 1.016300000000000016e-02 3.041544854640960693e-01 -2.852936089038848877e-01 9.088990688323974609e-01
-2.104340000000000099e-01 -2.986539999999999750e-01 1.016300000000000016e-02 -9.756083041429519653e-02 1.547652333974838257e-01 9.831223487854003906e-01
-2.289490000000000136e-01 -1.904190000000000049e-01 1.016300000000000016e-02 -1.457886993885040283e-01 1.439407616853713989e-01 9.787884354591369629e-01
-3.302919999999999745e-01 -1.187379999999999963e-01 1.016300000000000016e-02 3.710161894559860229e-02 9.219215810298919678e-02 9.950498342514038086e-01
5.841999999999999971e-03 4.994230000000000058e-01 -1.016300000000000016e-02 6.035147309303283691e-01 7.972655296325683594e-01 -1.173247117549180984e-02
4.776980000000000115e-01 -1.415359999999999951e-01 -1.016300000000000016e-02 -1.155195012688636780e-01 -2.338872551918029785e-01 -9.653765559196472168e-01
5.996800000000000047e-02 -1.883579999999999977e-01 1.016300000000000016e-02 1.989935785531997681e-01 -2.811015546321868896e-01 9.388202428817749023e-01
-3.874440000000000106e-01 1.380270000000000108e-01 1.016300000000000016e-02 3.229095041751861572e-01 6.929139792919158936e-02 9.438898563385009766e-01
-2.231750000000000123e-01 4.128069999999999795e-01 1.016300000000000016e-02 -2.245299816131591797e-01 3.444562852382659912e-01 9.115570187568664551e-01
7.250800000000000300e-02 -3.402169999999999916e-01 -1.016300000000000016e-02 2.085619866847991943e-01 1.854733079671859741e-01 -9.602611660957336426e-01
-4.171860000000000013e-01 -1.029219999999999996e-01 -1.016300000000000016e-02 -1.785677522420883179e-01 2.267178297042846680e-01 -9.574511647224426270e-01
2.060980000000000034e-01 2.592249999999999832e-01 -1.016300000000000016e-02 -2.192213088274002075e-01 -4.614809751510620117e-01 -8.596379160881042480e-01
-2.147500000000000103e-02 -1.688199999999999978e-01 1.016300000000000016e-02 -2.534365057945251465e-01 6.885495036840438843e-02 9.648984074592590332e-01
2.407920000000000060e-01 2.415899999999999992e-02 1.016300000000000016e-02 -8.673506975173950195e-02 2.020504139363765717e-02 9.960265159606933594e-01
-2.130710000000000104e-01 3.546170000000000155e-01 -1.016300000000000016e-02 -1.611649692058563232e-01 1.190357729792594910e-01 -9.797225594520568848e-01
4.688370000000000037e-01 4.242890000000000272e-01 -1.016300000000000016e-02 1.936199218034744263e-01 -1.538214683532714844e-01 -9.689428806304931641e-01
3.075249999999999928e-01 -4.971940000000000248e-01 -1.016300000000000016e-02 -2.034838348627090454e-01 -8.277390599250793457e-01 -5.229172110557556152e-01
4.699579999999999869e-01 1.404330000000000023e-01 1.016300000000000016e-02 -4.794918298721313477e-01 8.443146944046020508e-01 2.392077296972274780e-01
4.391209999999999836e-01 4.466939999999999800e-01 -1.016300000000000016e-02 -5.940290689468383789e-01 -5.335808545351028442e-02 -8.026720285415649414e-01
2.361360000000000126e-01 -6.699199999999999600e-02 1.016300000000000016e-02 4.491652827709913254e-03 1.418980862945318222e-02 9.998891949653625488e-01
-1.219300000000000071e-02 -5.000000000000000000e-01 -1.010899999999999993e-02 -6.762943416833877563e-02 -8.918322324752807617e-01 -4.472824335098266602e-01
2.381429999999999936e-01 -4.741079999999999739e-01 1.016300000000000016e-02 2.215730100870132446e-01 -2.874240279197692871e-01 9.318222403526306152e-01
3.096860000000000168e-01 -3.197139999999999982e-01 1.016300000000000016e-02 -6.849759072065353394e-02 7.264519575983285904e-03 9.976248145103454590e-01
3.185919999999999863e-01 4.451579999999999981e-01 -1.016300000000000016e-02 -3.631631731986999512e-01 -2.919268012046813965e-01 -8.848114013671875000e-01
4.491140000000000132e-01 5.500900000000000234e-02 1.016300000000000016e-02 -1.350529640913009644e-01 9.588461518287658691e-01 2.497492879629135132e-01
3.686320000000000152e-01 3.241510000000000224e-01 1.016300000000000016e-02 1.007716879248619080e-01 -6.800660490989685059e-01 7.261922955513000488e-01
1.585799999999999987e-01 2.061800000000000022e-01 1.016300000000000016e-02 -2.064867913722991943e-01 -6.151428222656250000e-01 7.608958482742309570e-01
-5.000000000000000000e-01 -4.007240000000000246e-01 -5.673000000000000091e-03 -5.395306944847106934e-01 -5.249364376068115234e-01 -6.582919359207153320e-01
1.179010000000000058e-01 4.416229999999999878e-01 -1.016300000000000016e-02 -1.810974031686782837e-01 3.663546741008758545e-01 -9.126818180084228516e-01
-5.367100000000000343e-02 -3.183400000000000118e-01 1.016300000000000016e-02 -4.119901359081268311e-01 8.117880672216415405e-02 9.075649380683898926e-01
-3.411939999999999973e-01 3.172849999999999837e-01 1.016300000000000016e-02 2.899828851222991943e-01 5.715843439102172852e-01 7.675945162773132324e-01
2.082469999999999877e-01 3.270200000000000190e-02 1.016300000000000016e-02 3.738489151000976562e-01 -2.416138499975204468e-01 8.954662084579467773e-01
3.227539999999999853e-01 3.260299999999999865e-01 1.016300000000000016e-02 6.473968178033828735e-02 -5.275252461433410645e-01 8.470690250396728516e-01
1.902749999999999997e-01 9.408900000000000596e-02 1.016300000000000016e-02 -2.940073013305664062e-01 1.083587482571601868e-01 9.496410489082336426e-01
-3.868670000000000164e-01 3.338229999999999809e-01 1.016300000000000016e-02 -4.750063121318817139e-01 -4.771414026618003845e-02 8.786878585815429688e-01
-2.999399999999999844e-01 -2.045440000000000036e-01 1.016300000000000016e-02 -2.413388639688491821e-01 4.952552542090415955e-02 9.691763520240783691e-01
3.975049999999999972e-01 -1.548619999999999997e-01 1.016300000000000016e-02 8.566799014806747437e-02 -5.286840200424194336e-01 8.444846272468566895e-01
-2.848780000000000201e-01 -1.202990000000000032e-01 -1.016300000000000016e-02 1.362083405256271362e-01 6.016235351562500000e-01 -7.870809435844421387e-01
-4.759450000000000069e-01 -2.836730000000000085e-01 -1.016300000000000016e-02 2.900472283363342285e-01 1.783257722854614258e-01 -9.402513504028320312e-01
2.064249999999999974e-01 4.184539999999999926e-01 -1.016300000000000016e-02 -3.099892437458038330e-01 3.913553953170776367e-01 -8.664568662643432617e-01
4.141199999999999742e-02 3.187969999999999970e-01 -1.016300000000000016e-02 -1.346618980169296265e-01 -1.051275879144668579e-01 -9.852991104125976562e-01
-4.642430000000000168e-01 -1.673800000000000010e-01 1.016300000000000016e-02 6.138896942138671875e-01 2.650852799415588379e-01 7.435516715049743652e-01
1.853170000000000095e-01 -4.142489999999999783e-01 -1.016300000000000016e-02 -4.105213098227977753e-03 -1.291467994451522827e-01 -9.916170239448547363e-01
-2.308949999999999891e-01 -9.182400000000000284e-02 -1.016300000000000016e-02 -1.311368402093648911e-02 -1.838351041078567505e-02 -9.997450709342956543e-01
-1.618499999999999939e-01 -4.130389999999999895e-01 -1.016300000000000016e-02 1.857153922319412231e-01 -2.074155062437057495e-01 -9.604627490043640137e-01
1.313620000000000065e-01 2.594330000000000247e-01 -1.016300000000000016e-02 -1.172317415475845337e-01 -3.958340585231781006e-01 -9.108085036277770996e-01
4.181369999999999809e-01 -5.695100000000000162e-02 1.016300000000000016e-02 3.156874701380729675e-02 -2.034701220691204071e-02 9.992944598197937012e-01
9.967000000000000165e-03 -3.221559999999999979e-01 -1.016300000000000016e-02 -2.167075872421264648e-01 -1.616162955760955811e-01 -9.627658128738403320e-01
4.164450000000000096e-01 1.547860000000000069e-01 1.016300000000000016e-02 1.688446998596191406e-01 -4.415108561515808105e-01 8.812262415885925293e-01
-2.646009999999999751e-01 -5.000000000000000000e-01 -4.479999999999999608e-03 -7.485156655311584473e-01 -4.014481902122497559e-01 -5.277913212776184082e-01
-6.930000000000000396e-03 -1.630020000000000080e-01 -1.016300000000000016e-02 2.987986803054809570e-01 1.238301172852516174e-01 -9.462480545043945312e-01
3.991100000000000203e-02 4.746500000000000163e-01 1.016300000000000016e-02 -2.114350944757461548e-01 -8.861088156700134277e-01 -4.124394953250885010e-01
-3.784959999999999991e-01 -2.811400000000000010e-01 -1.016300000000000016e-02 4.998927712440490723e-01 -2.707538306713104248e-01 -8.226783275604248047e-01
-3.829069999999999974e-01 1.844159999999999966e-01 -1.016300000000000016e-02 2.466200739145278931e-01 3.215668499469757080e-01 -9.142063260078430176e-01
-1.289270000000000138e-01 3.431119999999999726e-01 -1.016300000000000016e-02 1.975780576467514038e-01 1.719045639038085938e-02 -9.801364541053771973e-01
-3.613169999999999993e-01 -1.694080000000000030e-01 -1.016300000000000016e-02 2.386004775762557983e-01 -1.375463902950286865e-01 -9.613276124000549316e-01
-4.866579999999999795e-01 -9.642699999999999882e-02 1.016300000000000016e-02 -5.780108571052551270e-01 4.938867688179016113e-02 8.145331144332885742e-01
1.638519999999999976e-01 -2.155239999999999934e-01 -1.016300000000000016e-02 3.237592428922653198e-02 3.156074583530426025e-01 -9.483373761177062988e-01
-3.402000000000000076e-03 3.661090000000000177e-01 1.016300000000000016e-02 1.618668138980865479e-01 -4.178826510906219482e-01 8.939649462699890137e-01
2.278320000000000067e-01 -3.193700000000000011e-02 -1.016300000000000016e-02 -2.626440525054931641e-01 3.032217621803283691e-01 -9.160102009773254395e-01
1.683560000000000056e-01 4.335640000000000049e-01 1.016300000000000016e-02 -1.515797972679138184e-01 -9.635268151760101318e-02 9.837376475334167480e-01
-4.441970000000000085e-01 -4.162779999999999814e-01 1.016300000000000016e-02 3.859661221504211426e-01 -2.632033526897430420e-01 8.841686248779296875e-01
-2.662180000000000102e-01 3.551980000000000137e-01 1.016300000000000016e-02 -2.240798994898796082e-02 1.833684444427490234e-01 9.827888011932373047e-01
-2.780440000000000134e-01 -4.110199999999999965e-01 1.016300000000000016e-02 2.142543643712997437e-01 5.493774414062500000e-01 8.076381683349609375e-01
3.594629999999999770e-01 -2.994629999999999792e-01 -1.016300000000000016e-02 -1.892052888870239258e-01 -3.165328502655029297e-01 -9.295204281806945801e-01
-3.433339999999999725e-01 8.629100000000000659e-02 1.016300000000000016e-02 -5.075426101684570312e-01 -1.080978382378816605e-02 8.615588545799255371e-01
-6.987300000000000455e-02 -3.700120000000000076e-01 -1.016300000000000016e-02 1.838522404432296753e-01 2.978909313678741455e-01 -9.367279410362243652e-01
4.670130000000000114e-01 -3.007270000000000221e-01 1.016300000000000016e-02 1.521694660186767578e-01 -6.019030213356018066e-01 7.839370369911193848e-01
4.292039999999999744e-01 1.821499999999999855e-02 -1.016300000000000016e-02 -3.145228922367095947e-01 -1.106544435024261475e-01 -9.427783489227294922e-01
4.610159999999999814e-01 -4.201980000000000159e-01 -1.016300000000000016e-02 6.215959191322326660e-01 -1.603122364031150937e-04 -7.833380699157714844e-01
2.072469999999999868e-01 3.526110000000000078e-01 1.016300000000000016e-02 -4.855338037014007568e-01 2.935924232006072998e-01 8.234441876411437988e-01
1.796810000000000074e-01 -4.278710000000000013e-01 1.016300000000000016e-02 -2.623898088932037354e-01 -4.174139201641082764e-01 8.700098991394042969e-01
1.012040000000000023e-01 3.595820000000000127e-01 1.016300000000000016e-02 -1.533244252204895020e-01 -3.598115965723991394e-02 9.875206351280212402e-01
-2.916960000000000108e-01 -8.709400000000000475e-02 1.016300000000000016e-02 1.994649022817611694e-01 -4.817407727241516113e-01 8.533110022544860840e-01
-2.572400000000000034e-02 -1.828660000000000008e-01 -1.016300000000000016e-02 -6.019935011863708496e-02 -5.839818120002746582e-01 -8.095315694808959961e-01
-3.952160000000000117e-01 4.388020000000000254e-01 1.016300000000000016e-02 5.231789126992225647e-02 2.862607836723327637e-01 9.567223191261291504e-01
2.136299999999999866e-01 3.390549999999999953e-01 -1.016300000000000016e-02 -3.715701103210449219e-01 -8.912079781293869019e-02 -9.241174459457397461e-01
-4.996200000000000085e-01 -3.180760000000000254e-01 -1.016300000000000016e-02 -6.779861450195312500e-01 -4.149990081787109375e-01 -6.067211627960205078e-01
3.242510000000000114e-01 -5.795000000000000151e-02 1.016300000000000016e-02 8.274814486503601074e-02 4.999995827674865723e-01 8.620632886886596680e-01
-2.785000000000000149e-03 -6.511699999999999433e-02 1.016300000000000016e-02 5.018177628517150879e-01 -2.427482604980468750e-01 8.302121758460998535e-01
8.498100000000000098e-02 -4.511939999999999840e-01 -1.016300000000000016e-02 -3.005339801311492920e-01 4.396715462207794189e-01 -8.463854193687438965e-01
-5.000000000000000000e-01 -3.710550000000000237e-01 4.550000000000000225e-03 -9.564366340637207031e-01 2.649008333683013916e-01 -1.227051913738250732e-01
-5.752800000000000274e-02 -8.667999999999999317e-02 -1.016300000000000016e-02 2.364529371261596680e-01 -5.434617996215820312e-01 -8.054434657096862793e-01
-6.395900000000000196e-02 3.511130000000000084e-01 -1.016300000000000016e-02 2.258392870426177979e-01 -2.980628907680511475e-01 -9.274454712867736816e-01
-2.157689999999999886e-01 9.000400000000000067e-02 1.016300000000000016e-02 1.388002634048461914e-01 9.358936548233032227e-02 9.858881831169128418e-01
7.141599999999999338e-02 -3.810470000000000246e-01 -1.016300000000000016e-02 -3.960322737693786621e-01 2.120117396116256714e-01 -8.934257030487060547e-01
-8.970100000000000295e-02 4.110309999999999797e-01 -1.016300000000000016e-02 -3.735287487506866455e-01 4.561145603656768799e-01 -8.077349662780761719e-01
3.089740000000000264e-01 2.191710000000000047e-01 1.016300000000000016e-02 -2.047389596700668335e-01 -4.320176243782043457e-01 8.783180713653564453e-01
-1.771899999999999864e-02 -3.780859999999999776e-01 1.016300000000000016e-02 -2.220973372459411621e-01 -4.908151924610137939e-02 9.737883806228637695e-01
-1.781699999999999950e-02 4.753149999999999875e-01 -1.016300000000000016e-02 -4.491963386535644531e-01 2.351530641317367554e-02 -8.931235671043395996e-01
-1.213479999999999975e-01 6.107800000000000035e-02 1.016300000000000016e-02 4.372255802154541016e-01 5.845175981521606445e-01 6.835005879402160645e-01
3.198070000000000079e-01 3.650000000000000033e-03 1.016300000000000016e-02 1.487525999546051025e-01 3.165293633937835693e-01 9.368467330932617188e-01
1.044970000000000065e-01 -2.714659999999999851e-01 -1.016300000000000016e-02 -8.778883516788482666e-02 5.597124993801116943e-02 -9.945654273033142090e-01
4.153120000000000145e-01 -1.879790000000000072e-01 -1.016300000000000016e-02 2.935687601566314697e-01 3.878353238105773926e-01 -8.737282752990722656e-01
-3.515800000000000175e-02 4.333350000000000257e-01 -1.016300000000000016e-02 3.321148753166198730e-01 2.696590125560760498e-02 -9.428534507751464844e-01
-4.366630000000000233e-01 -5.327699999999999797e-02 -1.016300000000000016e-02 -4.082008600234985352e-01 -4.009521305561065674e-01 -8.201276659965515137e-01
5.902000000000000302e-02 4.765630000000000144e-01 -1.016300000000000016e-02 -2.581496238708496094e-01 2.136915475130081177e-01 -9.421755075454711914e-01
-3.909380000000000077e-01 2.781000000000000139e-01 -1.016300000000000016e-02 3.824778795242309570e-01 -2.083469033241271973e-01 -9.001678824424743652e-01
2.052009999999999945e-01 -3.700789999999999913e-01 -1.016300000000000016e-02 3.995887935161590576e-01 -1.840759366750717163e-01 -8.980227112770080566e-01
1.937900000000000039e-02 -2.662789999999999879e-01 1.016300000000000016e-02 -4.604777693748474121e-01 2.018416374921798706e-01 8.644189238548278809e-01
-4.551499999999999990e-01 2.036560000000000037e-01 -1.016300000000000016e-02 2.399279326200485229e-01 4.779600501060485840e-01 -8.449785709381103516e-01
1.089419999999999972e-01 1.710750000000000048e-01 -1.016300000000000016e-02 -6.335045099258422852e-01 -3.134891763329505920e-02 -7.731037139892578125e-01
1.904230000000000089e-01 -2.689759999999999929e-01 1.016300000000000016e-02 6.755079030990600586e-01 5.424778163433074951e-02 7.353544831275939941e-01
-5.000000000000000000e-01 3.835250000000000048e-01 -9.698999999999999289e-03 -8.743214011192321777e-01 -1.426947712898254395e-01 -4.638968110084533691e-01
-2.436059999999999892e-01 -1.188290000000000041e-01 -1.016300000000000016e-02 -4.604654610157012939e-01 5.821570381522178650e-02 -8.857665657997131348e-01
1.546000000000000065e-03 1.457670000000000077e-01 1.016300000000000016e-02 -4.979693591594696045e-01 5.319244265556335449e-01 6.848962903022766113e-01
1.508490000000000109e-01 2.900929999999999898e-01 1.016300000000000016e-02 6.469368189573287964e-02 -1.616377532482147217e-01 9.847273826599121094e-01
1.799560000000000048e-01 -6.021900000000000169e-02 1.016300000000000016e-02 8.683171868324279785e-02 4.989659786224365234e-01 8.622605204582214355e-01
2.103949999999999987e-01 8.411000000000000421e-02 -1.016300000000000016e-02 2.407350540161132812e-01 1.596186161041259766e-01 -9.573758244514465332e-01
-7.987900000000000555e-02 -2.978939999999999921e-01 1.016300000000000016e-02 3.267516195774078369e-01 9.839096665382385254e-02 9.399747848510742188e-01
4.379620000000000180e-01 3.855819999999999803e-01 -1.016300000000000016e-02 -4.984966218471527100e-01 2.683731615543365479e-01 -8.243039250373840332e-01
-3.485909999999999842e-01 -1.213029999999999942e-01 -1.016300000000000016e-02 9.618957526981830597e-03 4.695755988359451294e-02 -9.988506436347961426e-01
-8.312700000000000644e-02 1.257119999999999904e-01 1.016300000000000016e-02 -7.242473959922790527e-02 -2.524144053459167480e-01 9.649049639701843262e-01
-1.417700000000000071e-01 -4.371760000000000090e-01 1.016300000000000016e-02 -3.771591484546661377e-01 5.876253917813301086e-02 9.242823719978332520e-01
4.544969999999999843e-01 -3.817150000000000265e-01 -1.016300000000000016e-02 -6.155275180935859680e-02 -2.421837300062179565e-01 -9.682759046554565430e-01
-5.000000000000000000e-01 -2.211410000000000042e-01 -2.549000000000000050e-03 -7.191616296768188477e-01 3.587637543678283691e-01 -5.950589776039123535e-01
-2.374320000000000042e-01 -3.216959999999999820e-01 -1.016300000000000016e-02 -3.603380173444747925e-02 -2.462607026100158691e-01 -9.685335159301757812e-01
1.283299999999999996e-01 7.658299999999999830e-02 1.016300000000000016e-02 -1.645079404115676880e-01 6.977398693561553955e-02 9.839048385620117188e-01
9.977099999999999858e-02 7.409999999999999920e-03 -1.016300000000000016e-02 -1.267511993646621704e-01 -1.477281302213668823e-01 -9.808723330497741699e-01
-4.521689999999999876e-01 -1.816500000000000059e-01 -1.016300000000000016e-02 2.995620369911193848e-01 9.063509851694107056e-02 -9.497619867324829102e-01
-4.552289999999999948e-01 2.643880000000000119e-01 1.016300000000000016e-02 4.235010743141174316e-01 -3.879648819565773010e-02 9.050644636154174805e-01
3.340130000000000043e-01 -3.140040000000000053e-01 -1.016300000000000016e-02 2.410619333386421204e-02 5.408534407615661621e-01 -8.407713174819946289e-01
-2.792789999999999995e-01 -1.493609999999999938e-01 1.016300000000000016e-02 -1.033821851015090942e-01 -6.186657771468162537e-02 9.927157759666442871e-01
5.000000000000000000e-01 2.488599999999999979e-01 1.975999999999999892e-03 5.240722894668579102e-01 7.826935052871704102e-01 3.357664644718170166e-01
2.697060000000000013e-01 -1.214729999999999976e-01 1.016300000000000016e-02 3.317424058914184570e-01 7.180052995681762695e-02 9.406336545944213867e-01
-3.394900000000000001e-02 4.985040000000000027e-01 -1.016300000000000016e-02 -1.408169865608215332e-01 4.709799885749816895e-01 -8.708320260047912598e-01
1.495430000000000093e-01 -9.235599999999999365e-02 1.016300000000000016e-02 4.917179644107818604e-01 -2.538100779056549072e-01 8.329429030418395996e-01
2.256610000000000005e-01 1.489989999999999926e-01 1.016300000000000016e-02 -5.753814056515693665e-02 -3.137844800949096680e-01 9.477492570877075195e-01
-2.399999999999999790e-03 -4.769369999999999998e-01 -1.016300000000000016e-02 -6.232563853263854980e-01 6.198275089263916016e-01 -4.768284559249877930e-01
-4.256610000000000116e-01 2.676080000000000125e-01 -1.016300000000000016e-02 6.739891320466995239e-02 -3.935515284538269043e-01 -9.168285727500915527e-01
4.277420000000000111e-01 2.971799999999999997e-01 1.016300000000000016e-02 4.846552014350891113e-01 5.258762240409851074e-01 6.989731788635253906e-01
-2.457630000000000092e-01 2.209969999999999990e-01 -1.016300000000000016e-02 -1.590504944324493408e-01 -6.198430806398391724e-02 -9.853227138519287109e-01
-1.667790000000000106e-01 -8.725499999999999923e-02 1.016300000000000016e-02 1.697067916393280029e-01 -3.388804197311401367e-01 9.253970384597778320e-01
-3.596420000000000172e-01 3.717500000000000249e-01 1.016300000000000016e-02 2.334475964307785034e-01 -5.177774429321289062e-01 8.230484127998352051e-01
8.197899999999999632e-02 2.605819999999999803e-01 -1.016300000000000016e-02 1.730086207389831543e-01 1.130525767803192139e-01 -9.784105420112609863e-01
-4.029889999999999861e-01 -1.155309999999999948e-01 1.016300000000000016e-02 1.363569349050521851e-01 -3.373970687389373779e-01 9.314343929290771484e-01
4.801610000000000045e-01 -2.686629999999999852e-01 1.016300000000000016e-02 -2.152573019266128540e-01 -5.428419113159179688e-01 8.117800951004028320e-01
-3.036829999999999807e-01 -3.341819999999999791e-01 -1.016300000000000016e-02 3.872991725802421570e-02 4.921685531735420227e-02 -9.980369210243225098e-01
3.602279999999999927e-01 1.332000000000000024e-02 -1.016300000000000016e-02 -1.999684721231460571e-01 3.171245753765106201e-02 -9.792889356613159180e-01
-7.241699999999999526e-02 -8.235599999999999865e-02 1.016300000000000016e-02 1.947562396526336670e-02 -2.879401743412017822e-01 9.574503302574157715e-01
9.274300000000000599e-02 -4.344339999999999868e-01 1.016300000000000016e-02 2.451416552066802979e-01 4.749504104256629944e-02 9.683231115341186523e-01
-1.516899999999999915e-01 4.576999999999999819e-02 1.016300000000000016e-02 -6.103089451789855957e-01 -2.012361735105514526e-01 7.661768198013305664e-01
-2.705540000000000167e-01 4.932899999999999785e-02 1.016300000000000016e-02 -6.165618896484375000e-01 2.417571842670440674e-01 7.492695450782775879e-01
-5.000000000000000000e-01 2.465009999999999979e-01 -6.139000000000000359e-03 -9.880358576774597168e-01 -6.659603118896484375e-02 -1.391043066978454590e-01
-4.125940000000000163e-01 4.805579999999999852e-01 1.016300000000000016e-02 -3.961431086063385010e-01 -4.522854685783386230e-01 7.990673184394836426e-01
-2.571820000000000217e-01 -3.957649999999999779e-01 1.016300000000000016e-02 -6.427742838859558105e-01 5.705639487132430077e-04 7.660554051399230957e-01
-1.285290000000000044e-01 -4.757299999999999723e-02 -1.016300000000000016e-02 -3.060690462589263916e-01 -2.154075205326080322e-01 -9.273194670677185059e-01
4.616160000000000263e-01 -1.110099999999999976e-01 -1.016300000000000016e-02 -5.467479228973388672e-01 5.626715347170829773e-02 -8.354044556617736816e-01
-3.081220000000000070e-01 1.012890000000000040e-01 1.016300000000000016e-02 1.030206084251403809e-01 -2.507662400603294373e-02 9.943630695343017578e-01
3.482569999999999832e-01 2.011509999999999965e-01 -1.016300000000000016e-02 -4.291900396347045898e-01 -6.504791975021362305e-01 -6.266359686851501465e-01
5.000000000000000000e-01 3.662349999999999772e-01 1.013599999999999918e-02 7.590302228927612305e-01 6.197262406349182129e-01 1.995306164026260376e-01
-3.797000000000000028e-03 -4.585020000000000207e-01 1.016300000000000016e-02 2.610008977353572845e-02 -1.091576181352138519e-02 9.995996952056884766e-01
-3.515039999999999831e-01 -3.498729999999999896e-01 1.016300000000000016e-02 -1.760476268827915192e-02 -2.892748825252056122e-02 9.994264245033264160e-01
1.137090000000000045e-01 -6.510000000000000162e-03 1.016300000000000016e-02 -1.255810111761093140e-01 -5.284860380925238132e-04 9.920832514762878418e-01
1.495009999999999950e-01 -3.149899999999999922e-02 -1.016300000000000016e-02 2.587292194366455078e-01 -4.856769144535064697e-01 -8.349713087081909180e-01
3.066690000000000249e-01 1.676529999999999965e-01 1.016300000000000016e-02 5.523519515991210938e-01 3.241592645645141602e-01 7.680027484893798828e-01
-2.035039999999999905e-01 -4.593189999999999773e-01 1.016300000000000016e-02 3.320416212081909180e-01 6.113184690475463867e-01 7.183580398559570312e-01
-1.040770000000000028e-01 -4.131050000000000000e-01 -1.016300000000000016e-02 1.608494520187377930e-01 8.367896825075149536e-02 -9.834253191947937012e-01
1.219060000000000005e-01 2.718010000000000148e-01 1.016300000000000016e-02 -1.848937422037124634e-01 7.473905384540557861e-02 9.799124598503112793e-01
3.726000000000000145e-03 1.094259999999999955e-01 1.016300000000000016e-02 -1.299440413713455200e-01 -3.332880511879920959e-02 9.909610152244567871e-01
2.034160000000000135e-01 4.408159999999999856e-01 1.016300000000000016e-02 4.848662018775939941e-01 -4.545562267303466797e-01 7.471836805343627930e-01
3.272039999999999949e-01 2.714230000000000254e-01 -1.016300000000000016e-02 -9.965360760688781738e-01 -6.004666909575462341e-02 -5.753472819924354553e-02
-7.916099999999999526e-02 2.188500000000000167e-02 -1.016300000000000016e-02 3.071863949298858643e-01 2.254404276609420776e-01 -9.245610237121582031e-01
-3.004569999999999741e-01 3.227140000000000009e-01 -1.016300000000000016e-02 -2.165227234363555908e-01 1.767590343952178955e-01 -9.601427912712097168e-01
1.110239999999999977e-01 -1.473039999999999905e-01 -1.016300000000000016e-02 -6.356351971626281738e-01 2.339370734989643097e-02 -7.716349959373474121e-01
-1.678119999999999890e-01 -1.283330000000000026e-01 1.016300000000000016e-02 -4.828530848026275635e-01 -4.272750578820705414e-03 8.756909966468811035e-01
9.703000000000000513e-02 7.958999999999999408e-02 1.016300000000000016e-02 1.336656361818313599e-01 1.533536314964294434e-01 9.790894985198974609e-01
-1.987260000000000137e-01 3.936410000000000187e-01 -1.016300000000000016e-02 1.636398881673812866e-01 -1.473272889852523804e-01 -9.754571914672851562e-01
2.766979999999999995e-01 2.613599999999999951e-02 -1.016300000000000016e-02 3.304305672645568848e-01 -1.825717985630035400e-01 -9.260038137435913086e-01
8.141999999999999932e-03 1.832390000000000130e-01 1.016300000000000016e-02 2.238695919513702393e-01 -3.597135543823242188e-01 9.058082103729248047e-01
-8.458300000000000540e-02 -4.168299999999999783e-02 1.016300000000000016e-02 -1.092242002487182617e-01 7.398004531860351562e-01 6.639016270637512207e-01
-4.022410000000000152e-01 2.519830000000000125e-01 -1.016300000000000016e-02 -4.025220572948455811e-01 1.554609984159469604e-01 -9.021130204200744629e-01
-3.244040000000000257e-01 1.611499999999999877e-01 -1.016300000000000016e-02 4.627943634986877441e-01 4.095395207405090332e-01 -7.861925363540649414e-01
3.183509999999999951e-01 -3.637050000000000005e-01 -1.016300000000000016e-02 4.137193411588668823e-02 -2.995968163013458252e-01 -9.531685113906860352e-01
3.721419999999999728e-01 -2.749920000000000142e-01 -1.016300000000000016e-02 4.202515482902526855e-01 -1.444963961839675903e-01 -8.958289623260498047e-01
1.710299999999999876e-01 1.310399999999999933e-02 1.016300000000000016e-02 1.008184850215911865e-01 7.059623003005981445e-01 7.010369896888732910e-01
1.117499999999999917e-02 4.322770000000000223e-01 -1.016300000000000016e-02 -1.414324641227722168e-01 2.694835662841796875e-01 -9.525626301765441895e-01
-3.116499999999999826e-01 -4.222910000000000275e-01 1.016300000000000016e-02 -2.672486305236816406e-01 -9.469337761402130127e-02 9.589636921882629395e-01
-1.869220000000000048e-01 1.377899999999999958e-02 -1.016300000000000016e-02 2.449088990688323975e-01 5.701396614313125610e-02 -9.678682684898376465e-01
3.792579999999999840e-01 -4.680509999999999948e-01 1.016300000000000016e-02 -1.396305114030838013e-01 7.777286171913146973e-01 6.128960251808166504e-01
-2.526199999999999973e-02 1.783379999999999965e-01 1.016300000000000016e-02 -2.640399634838104248e-01 -5.524175167083740234e-01 7.906439900398254395e-01
-1.342510000000000092e-01 1.529240000000000044e-01 1.016300000000000016e-02 4.967262744903564453e-01 1.146804168820381165e-01 8.602972626686096191e-01
-4.122569999999999846e-01 1.535070000000000046e-01 1.016300000000000016e-02 1.470365971326828003e-01 5.281611084938049316e-01 8.363168835639953613e-01
3.286689999999999889e-01 -2.245129999999999904e-01 -1.016300000000000016e-02 -3.762533366680145264e-01 -1.943927630782127380e-02 -9.263128638267517090e-01
-6.563399999999999790e-02 4.007339999999999791e-01 -1.016300000000000016e-02 3.767054975032806396e-01 7.917442172765731812e-02 -9.229433536529541016e-01
-2.455739999999999867e-01 -4.049200000000000021e-01 -1.016300000000000016e-02 -1.239911913871765137e-01 -4.048905074596405029e-01 -9.059193730354309082e-01
-5.000000000000000000e-01 -3.419539999999999802e-01 7.629000000000000364e-03 -9.280281662940979004e-01 2.992812991142272949e-01 -2.217980921268463135e-01
4.994190000000000018e-01 -2.501209999999999822e-01 1.016300000000000016e-02 6.642583012580871582e-01 -5.176980495452880859e-01 5.392119884490966797e-01
-5.000000000000000000e-01 1.626229999999999898e-01 -7.920999999999999222e-03 -6.654385328292846680e-01 6.716274619102478027e-01 -3.257424235343933105e-01
-2.338899999999999868e-01 -1.684199999999999933e-02 -1.016300000000000016e-02 -3.024289906024932861e-01 -1.179921254515647888e-01 -9.458406567573547363e-01
-4.996129999999999738e-01 4.189499999999999891e-01 1.016300000000000016e-02 -8.160325884819030762e-01 5.652652978897094727e-01 1.206898838281631470e-01
1.222339999999999954e-01 2.168579999999999952e-01 1.016300000000000016e-02 -3.584097623825073242e-01 5.757002830505371094e-01 7.349228858947753906e-01
1.554400000000000052e-02 9.395000000000000573e-03 1.016300000000000016e-02 1.923236846923828125e-01 6.511713564395904541e-02 9.791686534881591797e-01
2.318439999999999945e-01 -2.366900000000000115e-01 -1.016300000000000016e-02 -3.453150019049644470e-02 -1.797952204942703247e-01 -9.830977320671081543e-01
1.196200000000000041e-02 3.717869999999999786e-01 -1.016300000000000016e-02 1.150784417986869812e-01 -3.605753779411315918e-01 -9.256037473678588867e-01
1.711759999999999948e-01 -5.000000000000000000e-01 -6.355999999999999671e-03 -2.900512516498565674e-01 -8.696164488792419434e-01 -3.995466232299804688e-01
-6.923500000000000487e-02 -1.591100000000000153e-02 1.016300000000000016e-02 -5.477390885353088379e-01 -4.231377840042114258e-01 7.217590808868408203e-01
3.591770000000000240e-01 -3.324409999999999865e-01 -1.016300000000000016e-02 4.133940041065216064e-01 1.437154263257980347e-01 -8.991391658782958984e-01
-4.428679999999999839e-01 -1.531530000000000113e-01 -1.016300000000000016e-02 3.405872285366058350e-01 1.379073411226272583e-01 -9.300440549850463867e-01
2.423170000000000046e-01 -1.537080000000000113e-01 -1.016300000000000016e-02 -2.716613709926605225e-01 1.598363220691680908e-01 -9.490270614624023438e-01
4.304600000000000093e-02 1.434630000000000072e-01 -1.016300000000000016e-02 -2.439461350440979004e-01 -9.833472967147827148e-02 -9.647904038429260254e-01
7.340900000000000203e-02 -2.165580000000000005e-01 1.016300000000000016e-02 -9.524009376764297485e-02 3.453526794910430908e-01 9.336277842521667480e-01
-1.556579999999999908e-01 4.395879999999999788e-01 -1.016300000000000016e-02 3.450890630483627319e-02 3.580874204635620117e-01 -9.330500960350036621e-01
7.498499999999999610e-02 -1.559979999999999978e-01 1.016300000000000016e-02 4.994502663612365723e-01 3.199547231197357178e-01 8.050952553749084473e-01
1.046809999999999963e-01 -3.062699999999999867e-01 1.016300000000000016e-02 3.195551633834838867e-01 -3.151691257953643799e-01 8.936178088188171387e-01
-7.565600000000000103e-02 2.774110000000000187e-01 1.016300000000000016e-02 -1.185624375939369202e-01 -5.863402485847473145e-01 8.013414740562438965e-01
9.542000000000000481e-02 4.785920000000000174e-01 1.016300000000000016e-02 8.039825558662414551e-01 4.148018360137939453e-01 4.260884225368499756e-01
-1.736820000000000030e-01 -1.550980000000000136e-01 1.016300000000000016e-02 -6.962540745735168457e-02 2.515808045864105225e-01 9.653285741806030273e-01
2.009330000000000005e-01 1.663020000000000054e-01 1.016300000000000016e-02 -3.049829304218292236e-01 -7.156608253717422485e-02 9.496650695800781250e-01
3.437950000000000172e-01 -6.383099999999999885e-02 -1.016300000000000016e-02 2.202327102422714233e-01 1.911859959363937378e-01 -9.565277695655822754e-01
2.810250000000000248e-01 -2.508799999999999919e-01 1.016300000000000016e-02 -2.965983152389526367e-01 6.637473106384277344e-01 6.866359710693359375e-01
2.545510000000000272e-01 -9.579100000000000115e-02 1.016300000000000016e-02 1.119341999292373657e-01 5.623208731412887573e-02 9.921233057975769043e-01
1.540710000000000135e-01 2.442890000000000061e-01 -1.016300000000000016e-02 -1.605423092842102051e-01 1.735697835683822632e-01 -9.716479778289794922e-01
3.286310000000000064e-01 -3.914569999999999994e-01 1.016300000000000016e-02 2.022820860147476196e-01 2.895816266536712646e-01 9.355342984199523926e-01
3.697949999999999848e-01 -1.684470000000000134e-01 1.016300000000000016e-02 3.136960566043853760e-01 4.804292619228363037e-01 8.190131783485412598e-01
