4.433309999999999751e-01 3.644620000000000082e-01 -1.016300000000000016e-02 -2.728222906589508057e-01 -8.495355248451232910e-01 -4.515056312084197998e-01
-4.621689999999999965e-01 1.522500000000000069e-02 1.016300000000000016e-02 2.364910542964935303e-01 9.036870002746582031e-01 3.569618761539459229e-01
2.738309999999999911e-01 4.927429999999999866e-01 1.016300000000000016e-02 9.742480516433715820e-01 7.266869768500328064e-03 2.253618091344833374e-01
4.922100000000000086e-02 -4.956269999999999842e-01 1.016300000000000016e-02 -6.061435341835021973e-01 -7.835097312927246094e-01 -1.367570757865905762e-01
1.962839999999999863e-01 -3.580650000000000222e-01 1.016300000000000016e-02 -5.897162556648254395e-01 7.696298360824584961e-01 2.447544038295745850e-01
-4.217009999999999925e-01 -3.142610000000000126e-01 -1.016300000000000016e-02 -2.840214669704437256e-01 -3.100141882896423340e-01 -9.073163270950317383e-01
3.273760000000000003e-01 1.067599999999999938e-01 1.016300000000000016e-02 -1.681155860424041748e-01 2.674417197704315186e-01 9.487951397895812988e-01
-1.638169999999999904e-01 1.952560000000000129e-01 1.016300000000000016e-02 8.056216239929199219e-01 -1.489772051572799683e-01 5.733929276466369629e-01
-3.256209999999999938e-01 -2.978149999999999964e-01 -1.016300000000000016e-02 1.831608712673187256e-01 -3.724614679813385010e-01 -9.097936749458312988e-01
-1.141289999999999943e-01 5.919300000000000256e-02 1.016300000000000016e-02 -1.724269986152648926e-02 9.997198581695556641e-01 1.621350459754467010e-02
-2.314219999999999888e-01 -3.723029999999999951e-01 -1.016300000000000016e-02 1.060162410140037537e-01 -2.911962755024433136e-02 -9.939379096031188965e-01
-2.728900000000000076e-02 -4.743490000000000206e-01 1.016300000000000016e-02 -8.438071608543395996e-01 8.082272857427597046e-02 5.305253267288208008e-01
2.081540000000000057e-01 2.429659999999999875e-01 1.016300000000000016e-02 -9.392248988151550293e-01 2.663637995719909668e-01 2.165799885988235474e-01
4.714880000000000182e-01 7.577399999999999414e-02 -1.016300000000000016e-02 3.071764707565307617e-01 -8.967429995536804199e-01 -3.185822665691375732e-01
3.746499999999999830e-02 1.787920000000000065e-01 -1.016300000000000016e-02 -6.616677343845367432e-02 -2.464766055345535278e-01 -9.668874144554138184e-01
-3.694319999999999826e-01 2.532969999999999944e-01 -1.016300000000000016e-02 -8.420168608427047729e-02 -4.436342716217041016e-01 -8.922435641288757324e-01
-4.217290000000000205e-01 2.528090000000000059e-01 1.016300000000000016e-02 -1.055957749485969543e-01 -7.501228451728820801e-01 -6.528134346008300781e-01
4.596279999999999810e-01 -3.248219999999999996e-01 1.016300000000000016e-02 5.487410426139831543e-01 -7.617155909538269043e-01 -3.444890379905700684e-01
3.634680000000000133e-01 -4.775449999999999973e-01 1.016300000000000016e-02 -9.820765256881713867e-01 -1.521387100219726562e-01 -1.112637221813201904e-01
6.729899999999999771e-02 -1.881730000000000069e-01 1.016300000000000016e-02 -9.838498197495937347e-03 -8.967158794403076172e-01 4.424972534179687500e-01
1.773240000000000094e-01 4.327019999999999755e-01 -1.016300000000000016e-02 4.826737940311431885e-01 -7.007249593734741211e-01 -5.253670811653137207e-01
-2.146510000000000085e-01 -4.322849999999999748e-01 -1.016300000000000016e-02 -4.971294701099395752e-01 1.085197851061820984e-01 -8.608633279800415039e-01
3.049930000000000141e-01 2.347499999999999865e-01 -1.016300000000000016e-02 9.038172662258148193e-02 4.604664742946624756e-01 -8.830639123916625977e-01
-2.600500000000000034e-01 4.446109999999999784e-01 1.016300000000000016e-02 4.569993913173675537e-01 2.866298258304595947e-01 -8.420183062553405762e-01
4.259149999999999880e-01 -3.712650000000000117e-01 -1.016300000000000016e-02 -1.949543803930282593e-01 -3.994211554527282715e-01 -8.957988023757934570e-01
2.673019999999999841e-01 -3.239070000000000005e-01 -1.016300000000000016e-02 5.517200753092765808e-02 -2.872212231159210205e-01 -9.562740325927734375e-01
1.589730000000000032e-01 3.060300000000000242e-01 -1.016300000000000016e-02 1.529030650854110718e-01 -2.573329508304595947e-01 -9.541490077972412109e-01
-5.000000000000000000e-01 -1.197299999999999927e-02 1.059000000000000045e-03 -6.637276709079742432e-02 9.966115355491638184e-01 4.858034104108810425e-02
-3.105600000000000027e-02 -3.371999999999999997e-03 1.016300000000000016e-02 8.501114696264266968e-02 -8.228768706321716309e-01 -5.618245601654052734e-01
-6.187800000000000245e-02 -8.054899999999999560e-02 1.016300000000000016e-02 -4.979768693447113037e-01 6.988723278045654297e-01 5.134165287017822266e-01
-1.281509999999999871e-01 3.372879999999999767e-01 1.016300000000000016e-02 -9.696850776672363281e-01 -2.136247605085372925e-01 1.186401471495628357e-01
2.300560000000000105e-01 -3.880250000000000088e-01 -1.016300000000000016e-02 1.409072428941726685e-01 -6.131862103939056396e-02 -9.881221055984497070e-01
-3.122079999999999855e-01 -3.712739999999999929e-01 -1.016300000000000016e-02 -2.038262635469436646e-01 2.908825278282165527e-01 -9.347952604293823242e-01
-2.615469999999999740e-01 -4.080000000000000293e-02 1.016300000000000016e-02 -2.152262181043624878e-01 8.851029872894287109e-01 4.126383066177368164e-01
1.014800000000000008e-01 2.364370000000000083e-01 1.016300000000000016e-02 -8.388913869857788086e-01 -5.316331386566162109e-01 1.167370751500129700e-01
-3.144970000000000265e-01 4.001399999999999957e-01 -1.016300000000000016e-02 1.699423640966415405e-01 5.935632623732089996e-03 -9.854361414909362793e-01
-4.090719999999999912e-01 -4.357630000000000114e-01 1.016300000000000016e-02 -2.195740491151809692e-02 9.647274613380432129e-01 2.623333930969238281e-01
-2.777229999999999976e-01 4.972530000000000006e-01 1.016300000000000016e-02 5.527001619338989258e-01 2.803682088851928711e-01 -7.848033308982849121e-01
1.788299999999999959e-02 3.060999999999999832e-02 1.016300000000000016e-02 4.346426129341125488e-01 -8.543028235435485840e-01 2.850482761859893799e-01
2.641189999999999927e-01 9.840500000000000635e-02 -1.016300000000000016e-02 2.806380577385425568e-02 -3.260260522365570068e-01 -9.449441432952880859e-01
1.044360000000000011e-01 -2.400140000000000051e-01 1.016300000000000016e-02 6.648077964782714844e-01 -7.092670798301696777e-01 2.344584465026855469e-01
-3.025120000000000031e-01 -1.494139999999999913e-01 -1.016300000000000016e-02 2.831477820873260498e-01 8.354510366916656494e-02 -9.554305672645568848e-01
4.513929999999999887e-01 1.504159999999999942e-01 -1.016300000000000016e-02 -5.771335363388061523e-01 -7.213563919067382812e-01 -3.828339576721191406e-01
-8.076600000000000446e-02 -2.149079999999999879e-01 1.016300000000000016e-02 -1.629818081855773926e-01 9.065017104148864746e-01 3.894760906696319580e-01
1.373860000000000081e-01 -2.163650000000000018e-01 -1.016300000000000016e-02 -1.844754070043563843e-01 -2.420509606599807739e-02 -9.825389981269836426e-01
1.364710000000000090e-01 9.554500000000000492e-02 -1.016300000000000016e-02 2.483616322278976440e-01 1.012859717011451721e-01 -9.633575081825256348e-01
-5.896799999999999958e-02 -9.347199999999999953e-02 -1.016300000000000016e-02 -7.470872253179550171e-03 -5.940698087215423584e-02 -9.982059001922607422e-01
-5.000000000000000000e-01 -4.113840000000000274e-01 -6.947000000000000050e-03 -3.384964764118194580e-01 1.167113929986953735e-01 -9.337015748023986816e-01
-9.164300000000000224e-02 -4.723299999999999721e-02 1.016300000000000016e-02 3.971588313579559326e-01 3.345230817794799805e-01 8.546105623245239258e-01
-3.620249999999999857e-01 2.479860000000000120e-01 1.016300000000000016e-02 -2.039864808320999146e-01 -8.918989896774291992e-01 4.036157131195068359e-01
-2.982580000000000231e-01 -2.729710000000000192e-01 1.016300000000000016e-02 -1.194841489195823669e-01 7.510861009359359741e-02 9.899910092353820801e-01
1.197050000000000058e-01 1.909929999999999961e-01 -1.016300000000000016e-02 4.347485676407814026e-02 2.473796308040618896e-01 -9.679427742958068848e-01
-2.196349999999999969e-01 3.292530000000000179e-01 1.016300000000000016e-02 -9.972669482231140137e-01 4.843822866678237915e-02 5.578801780939102173e-02
2.024849999999999983e-01 -4.963230000000000142e-01 -1.016300000000000016e-02 -9.665852785110473633e-01 -2.157405018806457520e-01 -1.384518742561340332e-01
-3.191109999999999780e-01 4.238810000000000078e-01 -1.016300000000000016e-02 -5.530373193323612213e-03 -3.156277537345886230e-01 -9.488669633865356445e-01
-4.535100000000000242e-02 2.813200000000000145e-01 1.016300000000000016e-02 3.159921169281005859e-01 3.821875452995300293e-01 8.683788180351257324e-01
-3.844659999999999744e-01 -2.592200000000000060e-02 -1.016300000000000016e-02 1.989812403917312622e-01 -1.691938489675521851e-01 -9.652874469757080078e-01
1.032890000000000058e-01 -4.873520000000000074e-01 1.016300000000000016e-02 -3.713054358959197998e-01 -7.876532077789306641e-01 -4.916652739048004150e-01
-2.906880000000000019e-01 -5.000000000000000000e-01 -7.670999999999999867e-03 -4.927534759044647217e-01 4.997936263680458069e-02 -8.687324523925781250e-01
3.232169999999999765e-01 -8.887799999999999867e-02 -1.016300000000000016e-02 3.338690698146820068e-01 2.618107795715332031e-01 -9.055311083793640137e-01
-4.960780000000000189e-01 -3.581059999999999799e-01 1.016300000000000016e-02 2.741193585097789764e-02 9.293976426124572754e-01 -3.680603802204132080e-01
-4.062879999999999825e-01 -6.788500000000000090e-02 1.016300000000000016e-02 -5.128255486488342285e-01 5.446249842643737793e-01 -6.636215448379516602e-01
-3.961040000000000116e-01 -4.130260000000000042e-01 1.016300000000000016e-02 -1.660215854644775391e-01 -2.745565772056579590e-01 9.471302032470703125e-01
5.000000000000000000e-01 2.293900000000000106e-01 3.550000000000000096e-04 7.290683984756469727e-01 -6.408360600471496582e-01 -2.403922975063323975e-01
-2.747350000000000070e-01 1.225809999999999955e-01 -1.016300000000000016e-02 1.513930261135101318e-01 4.513400793075561523e-01 -8.794158101081848145e-01
-4.329760000000000275e-01 -4.012589999999999768e-01 -1.016300000000000016e-02 -2.648299336433410645e-01 2.189946472644805908e-01 -9.390988349914550781e-01
-3.669510000000000272e-01 5.000000000000000000e-01 6.464000000000000128e-03 7.470589876174926758e-01 -4.752547740936279297e-01 -4.647964835166931152e-01
3.582980000000000054e-01 2.658309999999999840e-01 -1.016300000000000016e-02 4.912176132202148438e-01 -1.654586046934127808e-01 -8.551776409149169922e-01
-2.580999999999999961e-01 4.134610000000000229e-01 1.016300000000000016e-02 7.932654023170471191e-01 7.441017776727676392e-02 -6.043121218681335449e-01
-2.819059999999999899e-01 1.198729999999999934e-01 -1.016300000000000016e-02 2.308522164821624756e-02 3.126452565193176270e-01 -9.495893716812133789e-01
1.484250000000000014e-01 4.208529999999999771e-01 1.016300000000000016e-02 -4.456947743892669678e-01 -8.908634781837463379e-01 8.785397559404373169e-02
-2.238080000000000069e-01 8.310299999999999632e-02 1.016300000000000016e-02 8.026394248008728027e-01 5.943215489387512207e-01 -5.051492527127265930e-02
-3.380279999999999951e-01 -2.750710000000000099e-01 1.016300000000000016e-02 3.720092028379440308e-02 4.719676375389099121e-01 8.808305859565734863e-01
1.538910000000000000e-01 -1.664760000000000129e-01 1.016300000000000016e-02 -1.505157500505447388e-01 -9.851293563842773438e-01 -8.285649865865707397e-02
-4.226779999999999982e-01 4.123640000000000083e-01 1.016300000000000016e-02 9.542323946952819824e-01 4.714817926287651062e-02 -2.953261733055114746e-01
3.626440000000000219e-01 2.415099999999999886e-02 1.016300000000000016e-02 6.615332961082458496e-01 6.244214773178100586e-01 4.152968525886535645e-01
-1.932939999999999936e-01 -1.568160000000000109e-01 1.016300000000000016e-02 -3.215806186199188232e-02 -3.369191884994506836e-01 9.409842491149902344e-01
3.026789999999999758e-01 2.111480000000000024e-01 -1.016300000000000016e-02 2.342654913663864136e-01 -3.667946159839630127e-01 -9.003229141235351562e-01
-1.887580000000000091e-01 4.487269999999999870e-01 1.016300000000000016e-02 7.999724149703979492e-01 4.590775817632675171e-02 5.982780456542968750e-01
-1.965550000000000075e-01 2.179480000000000028e-01 -1.016300000000000016e-02 2.116988450288772583e-01 1.987332701683044434e-01 -9.569161534309387207e-01
-2.553790000000000227e-01 -3.658000000000000140e-02 1.016300000000000016e-02 -2.992737293243408203e-01 6.442518830299377441e-01 7.038287520408630371e-01
3.428089999999999749e-01 -4.622959999999999847e-01 -1.016300000000000016e-02 -2.481957674026489258e-01 1.417893636971712112e-02 -9.686061739921569824e-01
-3.448510000000000186e-01 3.553879999999999817e-01 1.016300000000000016e-02 4.831581413745880127e-01 -8.329762220382690430e-01 -2.696456909179687500e-01
-3.234900000000000275e-02 4.113269999999999982e-01 1.016300000000000016e-02 8.849434852600097656e-01 -2.050159126520156860e-01 4.181429445743560791e-01
-3.098409999999999775e-01 5.000000000000000000e-01 7.585999999999999861e-03 5.577717423439025879e-01 7.583771347999572754e-01 -3.372756838798522949e-01
6.498299999999999910e-02 2.174929999999999919e-01 -1.016300000000000016e-02 3.484420850872993469e-02 2.470034509897232056e-01 -9.683879613876342773e-01
-2.195000000000000007e-01 1.647790000000000088e-01 -1.016300000000000016e-02 2.932587862014770508e-01 -1.725677587091922760e-02 -9.558773040771484375e-01
-6.573199999999999876e-02 -8.993500000000000105e-02 -1.016300000000000016e-02 -2.222537845373153687e-01 2.775996178388595581e-02 -9.745935797691345215e-01
3.531400000000000095e-01 3.134080000000000199e-01 -1.016300000000000016e-02 5.153709053993225098e-01 6.304568648338317871e-01 -5.804454684257507324e-01
-2.825509999999999966e-01 -1.735999999999999913e-03 -1.016300000000000016e-02 1.963859647512435913e-01 -2.082119584083557129e-01 -9.581651091575622559e-01
-7.442000000000000004e-02 8.043400000000000549e-02 -1.016300000000000016e-02 -1.812894195318222046e-01 7.563614100217819214e-02 -9.805168509483337402e-01
1.759809999999999985e-01 -3.120160000000000156e-01 1.016300000000000016e-02 -1.776604652404785156e-01 -8.585143089294433594e-01 -4.810301661491394043e-01
-1.062710000000000043e-01 -2.914039999999999964e-01 1.016300000000000016e-02 1.973038762807846069e-01 9.538843631744384766e-01 2.262202799320220947e-01
-2.641350000000000087e-01 -3.902570000000000205e-01 1.016300000000000016e-02 2.306428402662277222e-01 -3.280122280120849609e-01 9.160851240158081055e-01
1.216519999999999962e-01 -4.622040000000000037e-01 1.016300000000000016e-02 -3.182244002819061279e-01 -8.796185255050659180e-03 -9.479746222496032715e-01
-3.446190000000000087e-01 3.430670000000000108e-01 1.016300000000000016e-02 7.337297201156616211e-01 -6.522009372711181641e-01 -1.904592514038085938e-01
-4.729889999999999928e-01 -1.684430000000000094e-01 -1.016300000000000016e-02 -4.315899014472961426e-01 -3.430853411555290222e-02 -9.014172554016113281e-01
6.953199999999999659e-02 1.505400000000000071e-01 1.016300000000000016e-02 -2.878993451595306396e-01 -3.030573427677154541e-01 9.084438085556030273e-01
3.914309999999999734e-01 8.750199999999999645e-02 1.016300000000000016e-02 -4.233331084251403809e-01 -9.055963754653930664e-01 2.615774422883987427e-02
-4.864559999999999995e-01 1.467500000000000054e-02 -1.016300000000000016e-02 -2.803683578968048096e-01 9.273741841316223145e-01 -2.477312684059143066e-01
-2.942759999999999820e-01 1.943259999999999987e-01 -1.016300000000000016e-02 8.192732185125350952e-02 -2.489865571260452271e-01 -9.650354385375976562e-01
-3.794730000000000047e-01 1.901740000000000097e-01 1.016300000000000016e-02 3.775133490562438965e-01 7.060940265655517578e-01 -5.990950465202331543e-01
-3.987620000000000053e-01 -1.831399999999999972e-01 1.016300000000000016e-02 7.344242334365844727e-01 4.135001599788665771e-01 -5.381808876991271973e-01
-1.879020000000000135e-01 -3.815459999999999963e-01 1.016300000000000016e-02 -4.491409361362457275e-01 4.227564334869384766e-01 7.871146202087402344e-01
-2.010409999999999975e-01 -4.592649999999999788e-01 1.016300000000000016e-02 -7.676048874855041504e-01 2.003294378519058228e-01 6.088109612464904785e-01
1.602540000000000076e-01 -3.135560000000000014e-01 1.016300000000000016e-02 -8.855124711990356445e-01 -2.217154204845428467e-01 -4.083012044429779053e-01
1.548730000000000107e-01 4.029240000000000044e-01 1.016300000000000016e-02 -8.048778176307678223e-01 -5.928574204444885254e-01 -2.630158327519893646e-02
4.210630000000000206e-01 4.143809999999999993e-01 -1.016300000000000016e-02 -2.042283713817596436e-01 1.323943436145782471e-01 -9.699290990829467773e-01
3.515030000000000099e-01 4.802150000000000030e-01 1.016300000000000016e-02 9.173802733421325684e-01 3.823095858097076416e-01 -1.106924116611480713e-01
-3.913869999999999849e-01 -2.502670000000000172e-01 1.016300000000000016e-02 8.599517345428466797e-01 -3.169313073158264160e-01 4.000470340251922607e-01
3.813659999999999828e-01 -4.801010000000000000e-01 -1.016300000000000016e-02 -5.860488414764404297e-01 -5.460540652275085449e-01 -5.986415147781372070e-01
2.345900000000000069e-02 3.463140000000000107e-01 -1.016300000000000016e-02 4.687651097774505615e-01 -3.369286656379699707e-01 -8.165404796600341797e-01
6.080800000000000094e-02 -6.819899999999999574e-02 -1.016300000000000016e-02 1.663859486579895020e-01 4.001694917678833008e-01 -9.012103080749511719e-01
-4.075030000000000041e-01 -4.680650000000000088e-01 -1.016300000000000016e-02 -8.046957254409790039e-01 4.122151136398315430e-01 -4.272510111331939697e-01
1.646900000000000031e-01 -5.000000000000000000e-01 5.993000000000000063e-03 -5.911880135536193848e-01 -8.052533268928527832e-01 -4.542909935116767883e-02
1.574419999999999986e-01 3.421549999999999869e-01 1.016300000000000016e-02 6.466274261474609375e-01 7.577827572822570801e-01 -8.739779144525527954e-02
4.555500000000000105e-01 -3.934810000000000252e-01 1.016300000000000016e-02 -9.810532331466674805e-01 -1.917204111814498901e-01 2.788878232240676880e-02
1.448000000000000120e-01 -3.053969999999999740e-01 1.016300000000000016e-02 -1.394230723381042480e-01 5.230553746223449707e-01 -8.408176302909851074e-01
-1.128620000000000040e-01 2.844639999999999946e-01 1.016300000000000016e-02 8.974590301513671875e-01 -9.716071933507919312e-02 4.302641153335571289e-01
-2.852190000000000003e-01 -3.158000000000000251e-01 1.016300000000000016e-02 -1.027850359678268433e-01 -3.724062144756317139e-01 9.223604798316955566e-01
4.804129999999999789e-01 -2.107650000000000079e-01 1.016300000000000016e-02 -1.324452161788940430e-01 -9.909238219261169434e-01 2.298385277390480042e-02
1.402299999999999935e-01 -8.099399999999999655e-02 1.016300000000000016e-02 -9.115144014358520508e-01 1.602192372083663940e-01 3.787760734558105469e-01
-2.307710000000000039e-01 1.662289999999999879e-01 1.016300000000000016e-02 1.260613054037094116e-01 1.991359740495681763e-01 9.718298912048339844e-01
4.935629999999999740e-01 3.984489999999999976e-01 -1.016300000000000016e-02 -7.288903743028640747e-02 -9.965806007385253906e-01 -3.891232237219810486e-02
4.625690000000000079e-01 3.409209999999999741e-01 1.016300000000000016e-02 -5.682365223765373230e-02 -9.263193011283874512e-01 3.724294304847717285e-01
-1.380599999999999883e-01 9.592499999999999638e-02 1.016300000000000016e-02 -4.135705232620239258e-01 6.464770436286926270e-02 9.081740379333496094e-01
3.494499999999999829e-01 2.089459999999999928e-01 1.016300000000000016e-02 8.239351212978363037e-02 3.824037313461303711e-01 9.203144907951354980e-01
3.144069999999999920e-01 3.706220000000000070e-01 1.016300000000000016e-02 6.209470629692077637e-01 -7.614421844482421875e-01 1.860929280519485474e-01
3.041309999999999847e-01 -3.486779999999999879e-01 -1.016300000000000016e-02 -1.586977690458297729e-01 2.654971778392791748e-01 -9.509606957435607910e-01
-2.790139999999999842e-01 8.086999999999999744e-02 1.016300000000000016e-02 -5.149168968200683594e-01 -4.092532098293304443e-01 7.532413005828857422e-01
4.959470000000000267e-01 2.893089999999999828e-01 1.016300000000000016e-02 8.501614928245544434e-01 -3.578487932682037354e-01 3.862250149250030518e-01
3.056559999999999833e-01 -4.130190000000000250e-01 -1.016300000000000016e-02 -7.380842417478561401e-02 -6.996375322341918945e-01 -7.106754779815673828e-01
3.579660000000000064e-01 2.022899999999999976e-01 -1.016300000000000016e-02 2.097395509481430054e-01 4.447953701019287109e-01 -8.707275390625000000e-01
2.425450000000000106e-01 -1.317520000000000080e-01 1.016300000000000016e-02 -5.190893411636352539e-01 8.272894024848937988e-01 2.147987335920333862e-01
4.804800000000000182e-01 2.381409999999999916e-01 1.016300000000000016e-02 -1.133729070425033569e-01 -9.935364723205566406e-01 5.651425570249557495e-03
-1.754789999999999961e-01 2.530689999999999884e-01 -1.016300000000000016e-02 -3.963656425476074219e-01 -1.225274130702018738e-01 -9.098798036575317383e-01
4.334609999999999852e-01 3.573120000000000185e-01 -1.016300000000000016e-02 6.626670807600021362e-02 -9.070328474044799805e-01 -4.158128201961517334e-01
4.464870000000000227e-01 -1.783710000000000018e-01 -1.016300000000000016e-02 1.147888228297233582e-01 -5.727818012237548828e-01 -8.116308450698852539e-01
-4.565620000000000234e-01 3.535800000000000054e-02 1.016300000000000016e-02 -7.149494290351867676e-01 4.584468007087707520e-01 5.278956890106201172e-01
-4.810420000000000251e-01 -4.634800000000000031e-01 1.016300000000000016e-02 -3.703606128692626953e-01 9.156469106674194336e-01 -1.562809199094772339e-01
3.623239999999999794e-01 -3.081300000000000011e-02 1.016300000000000016e-02 -2.201629877090454102e-01 7.841364145278930664e-01 5.802226662635803223e-01
2.422930000000000084e-01 5.260900000000000298e-02 -1.016300000000000016e-02 4.176218807697296143e-01 1.045731678605079651e-01 -9.025831222534179688e-01
1.887780000000000014e-01 4.875499999999999834e-01 1.016300000000000016e-02 8.674947619438171387e-01 4.819148480892181396e-01 -1.233318224549293518e-01
-4.175170000000000270e-01 -4.392630000000000146e-01 1.016300000000000016e-02 9.337688088417053223e-01 -3.488083183765411377e-01 -8.005434274673461914e-02
-3.257269999999999888e-01 3.963659999999999961e-01 1.016300000000000016e-02 -9.464309215545654297e-01 -3.116598725318908691e-01 -8.447839319705963135e-02
2.389870000000000050e-01 1.873779999999999890e-01 -1.016300000000000016e-02 1.758339852094650269e-01 -1.754807233810424805e-01 -9.686531424522399902e-01
-3.502040000000000153e-01 -6.048800000000000010e-02 -1.016300000000000016e-02 5.751590430736541748e-02 -9.409601986408233643e-02 -9.939002990722656250e-01
-3.075240000000000196e-01 -2.338159999999999961e-01 -1.016300000000000016e-02 3.053044378757476807e-01 2.682012319564819336e-01 -9.137051701545715332e-01
-7.718999999999999473e-02 8.755699999999999594e-02 1.016300000000000016e-02 -7.133600711822509766e-01 -2.682640850543975830e-01 6.474193930625915527e-01
3.167980000000000240e-01 2.585500000000000020e-01 1.016300000000000016e-02 -4.127258658409118652e-01 1.454904824495315552e-01 8.991606235504150391e-01
-1.738550000000000095e-01 3.110129999999999839e-01 -1.016300000000000016e-02 1.475091874599456787e-01 -8.258376037701964378e-04 -9.890603423118591309e-01
3.320020000000000193e-01 4.041130000000000000e-01 1.016300000000000016e-02 -7.218633294105529785e-01 -5.909686088562011719e-01 -3.600963056087493896e-01
2.933259999999999756e-01 -2.463690000000000047e-01 1.016300000000000016e-02 -6.115468144416809082e-01 4.075362682342529297e-01 6.781774759292602539e-01
1.762140000000000095e-01 -1.031470000000000026e-01 -1.016300000000000016e-02 3.214708864688873291e-01 -1.266744136810302734e-01 -9.384082555770874023e-01
-3.737179999999999946e-01 1.732680000000000053e-01 1.016300000000000016e-02 -2.161446064710617065e-01 8.641197085380554199e-01 4.545091688632965088e-01
1.537200000000000025e-02 3.733639999999999737e-01 -1.016300000000000016e-02 7.941908389329910278e-02 1.840588301420211792e-01 -9.797014594078063965e-01
2.700080000000000258e-01 2.603820000000000023e-01 1.016300000000000016e-02 -3.125697374343872070e-02 3.765187859535217285e-01 9.258815646171569824e-01
-4.214589999999999725e-01 3.677899999999999919e-02 1.016300000000000016e-02 2.604128122329711914e-01 -7.170241475105285645e-01 -6.465768218040466309e-01
2.765349999999999753e-01 5.000000000000000000e-01 -1.069000000000000072e-03 9.111009240150451660e-01 -3.557067215442657471e-01 2.082495838403701782e-01
-3.165660000000000140e-01 -1.040630000000000027e-01 -1.016300000000000016e-02 -1.006488427519798279e-01 1.603462249040603638e-01 -9.819160103797912598e-01
-3.192820000000000102e-01 -4.105360000000000120e-01 1.016300000000000016e-02 -4.224921166896820068e-01 6.145554184913635254e-01 6.661997437477111816e-01
-4.910999999999999567e-03 -4.659749999999999726e-01 -1.016300000000000016e-02 -6.899982690811157227e-01 -3.891240106895565987e-03 -7.238005995750427246e-01
2.058510000000000062e-01 -1.989049999999999985e-01 1.016300000000000016e-02 1.015074849128723145e-01 3.508142530918121338e-01 9.309272170066833496e-01
3.825149999999999939e-01 4.791920000000000068e-01 1.016300000000000016e-02 9.996772408485412598e-01 -1.584083773195743561e-02 -1.986526697874069214e-02
-3.229719999999999813e-01 -2.277059999999999917e-01 -1.016300000000000016e-02 1.514696478843688965e-01 1.181333586573600769e-01 -9.813773036003112793e-01
-3.415230000000000210e-01 2.575209999999999999e-01 1.016300000000000016e-02 4.516845345497131348e-01 -1.952802389860153198e-01 8.705438971519470215e-01
5.000000000000000000e-01 -2.448899999999999966e-01 -9.124999999999999431e-03 -4.046203792095184326e-01 -5.310022830963134766e-01 -7.445259690284729004e-01
1.444999999999999930e-02 -1.499119999999999897e-01 1.016300000000000016e-02 -9.525629878044128418e-01 -2.956041134893894196e-02 -3.029025793075561523e-01
4.940499999999999753e-02 2.189979999999999982e-01 -1.016300000000000016e-02 3.477962687611579895e-02 2.324136793613433838e-01 -9.719949364662170410e-01
7.882200000000000317e-02 1.802680000000000116e-01 -1.016300000000000016e-02 -1.295067816972732544e-01 1.215410307049751282e-01 -9.841014742851257324e-01
-1.686970000000000136e-01 -1.698570000000000080e-01 1.016300000000000016e-02 1.293054223060607910e-01 5.201470851898193359e-01 8.442317247390747070e-01
2.827740000000000253e-01 2.501300000000000051e-02 -1.016300000000000016e-02 -2.173953950405120850e-01 1.754445433616638184e-01 -9.601866602897644043e-01
3.638850000000000140e-01 -1.958840000000000026e-01 1.016300000000000016e-02 3.905852138996124268e-01 -4.789736568927764893e-01 7.861472368240356445e-01
1.189319999999999961e-01 4.470830000000000082e-01 1.016300000000000016e-02 3.632351756095886230e-01 -9.167236685752868652e-01 1.663667261600494385e-01
-1.847759999999999958e-01 -6.092600000000000099e-02 -1.016300000000000016e-02 3.151529729366302490e-01 -1.552684009075164795e-01 -9.362533092498779297e-01
9.087900000000000145e-02 3.991879999999999873e-01 1.016300000000000016e-02 5.382215604186058044e-02 8.625112771987915039e-01 5.031674504280090332e-01
-4.151159999999999850e-01 -4.791929999999999801e-01 1.016300000000000016e-02 -9.554495811462402344e-01 2.770312726497650146e-01 1.018320694565773010e-01
-9.837000000000000258e-03 -1.409729999999999872e-01 1.016300000000000016e-02 6.689946651458740234e-01 -4.073875397443771362e-02 -7.421498894691467285e-01
-4.438520000000000243e-01 3.756840000000000179e-01 1.016300000000000016e-02 5.961552858352661133e-01 4.389832615852355957e-01 6.722295880317687988e-01
4.195349999999999913e-01 -2.213199999999999890e-02 -1.016300000000000016e-02 2.816523313522338867e-01 -3.766301572322845459e-01 -8.825087547302246094e-01
4.423730000000000162e-01 -5.758800000000000030e-02 1.016300000000000016e-02 -9.325603246688842773e-01 -3.605709075927734375e-01 -1.788435317575931549e-02
-1.170999999999999958e-01 2.980559999999999876e-01 1.016300000000000016e-02 8.809101581573486328e-01 3.827172517776489258e-02 4.717335104942321777e-01
1.114529999999999965e-01 -1.037980000000000014e-01 1.016300000000000016e-02 3.572530299425125122e-02 8.088859319686889648e-01 5.868792533874511719e-01
4.769400000000000028e-02 5.403899999999999676e-02 1.016300000000000016e-02 1.006267890334129333e-01 -5.972060561180114746e-01 7.957506179809570312e-01
3.996449999999999725e-01 -3.402729999999999921e-01 1.016300000000000016e-02 3.177473545074462891e-01 -5.174927711486816406e-01 7.945048213005065918e-01
5.000000000000000000e-01 4.419179999999999775e-01 5.800000000000000034e-05 3.345060721039772034e-02 -9.939501285552978516e-01 -1.046146601438522339e-01
1.557369999999999866e-01 2.363000000000000100e-01 1.016300000000000016e-02 8.871449232101440430e-01 4.545743763446807861e-01 7.959903776645660400e-02
1.058589999999999948e-01 -2.653510000000000035e-01 1.016300000000000016e-02 4.022272527217864990e-01 9.110091924667358398e-01 -9.096974879503250122e-02
-2.154870000000000119e-01 1.768869999999999887e-01 1.016300000000000016e-02 1.099825426936149597e-01 6.343737244606018066e-01 7.651625275611877441e-01
2.503440000000000110e-01 1.386300000000000032e-02 -1.016300000000000016e-02 2.020364999771118164e-01 3.247796893119812012e-01 -9.239585399627685547e-01
-2.825639999999999818e-01 -3.716400000000000259e-01 -1.016300000000000016e-02 5.437596514821052551e-02 4.855564236640930176e-01 -8.725125789642333984e-01
-4.109720000000000040e-01 2.897930000000000228e-01 -1.016300000000000016e-02 1.466328799724578857e-01 -1.993434727191925049e-01 -9.688968062400817871e-01
-4.574639999999999818e-01 -3.875910000000000188e-01 -1.016300000000000016e-02 -3.013502359390258789e-01 6.670368909835815430e-01 -6.813587546348571777e-01
4.524610000000000021e-01 1.074300000000000081e-02 1.016300000000000016e-02 -6.411310434341430664e-01 6.916724443435668945e-01 -3.324759304523468018e-01
-7.719199999999999673e-02 -2.494709999999999983e-01 -1.016300000000000016e-02 2.225516736507415771e-01 -2.950449287891387939e-01 -9.292035698890686035e-01
3.586719999999999908e-01 -7.291400000000000658e-02 -1.016300000000000016e-02 -3.687708377838134766e-01 -3.264098465442657471e-01 -8.703244924545288086e-01
1.660059999999999869e-01 1.471570000000000100e-01 -1.016300000000000016e-02 -4.297055900096893311e-01 -1.699986904859542847e-01 -8.868221044540405273e-01
-3.095609999999999751e-01 -2.288519999999999999e-01 1.016300000000000016e-02 8.664446473121643066e-01 -1.054935976862907410e-01 4.880006909370422363e-01
-6.179500000000000270e-02 -1.232300000000000062e-02 1.016300000000000016e-02 9.332099556922912598e-01 -5.797554273158311844e-03 -3.592846393585205078e-01
-2.752560000000000007e-01 4.272399999999999809e-02 -1.016300000000000016e-02 1.020045280456542969e-01 -9.745152294635772705e-02 -9.899991154670715332e-01
3.782530000000000059e-01 1.917619999999999880e-01 1.016300000000000016e-02 6.624164581298828125e-01 5.035402774810791016e-01 5.546634793281555176e-01
1.822390000000000121e-01 -2.510399999999999854e-01 1.016300000000000016e-02 -1.151888221502304077e-01 -3.811698555946350098e-01 9.173009991645812988e-01
-1.267000000000000071e-02 -3.333519999999999817e-01 -1.016300000000000016e-02 -2.323375344276428223e-01 4.591384232044219971e-01 -8.574445843696594238e-01
9.141900000000000026e-02 3.904730000000000145e-01 -1.016300000000000016e-02 -2.217407077550888062e-01 2.110256999731063843e-01 -9.519975185394287109e-01
1.512550000000000006e-01 7.605900000000000161e-02 1.016300000000000016e-02 8.646351695060729980e-01 -1.779686100780963898e-02 5.020849704742431641e-01
-2.366179999999999950e-01 3.430119999999999836e-01 1.016300000000000016e-02 3.065087497234344482e-01 -8.228527307510375977e-01 -4.785035550594329834e-01
-5.000000000000000000e-01 3.233900000000000108e-01 9.721999999999999739e-03 -2.770455479621887207e-01 9.523896574974060059e-01 1.272778660058975220e-01
-1.252199999999999980e-01 -8.774999999999999814e-03 -1.016300000000000016e-02 2.040880620479583740e-01 -1.983240805566310883e-02 -9.787516593933105469e-01
1.737279999999999935e-01 1.924800000000000122e-01 1.016300000000000016e-02 -4.626449644565582275e-01 8.436530232429504395e-01 2.724138200283050537e-01
-1.456810000000000049e-01 1.154690000000000022e-01 1.016300000000000016e-02 -6.861835718154907227e-01 -2.037416249513626099e-01 6.983132958412170410e-01
-2.465299999999999991e-01 -3.164810000000000123e-01 1.016300000000000016e-02 4.313374161720275879e-01 -5.271646380424499512e-01 7.321512699127197266e-01
-3.649310000000000054e-01 -2.877449999999999730e-01 -1.016300000000000016e-02 -3.556764721870422363e-01 -1.933739632368087769e-01 -9.143853783607482910e-01
2.668869999999999854e-01 3.370270000000000210e-01 1.016300000000000016e-02 9.134050607681274414e-01 -1.766617894172668457e-01 3.667176365852355957e-01
2.880750000000000255e-01 3.422399999999999748e-02 1.016300000000000016e-02 -3.316795825958251953e-02 8.829597234725952148e-01 4.682754874229431152e-01
-4.296369999999999911e-01 -9.887700000000000655e-02 -1.016300000000000016e-02 -2.735138237476348877e-01 8.180997967720031738e-01 -5.058684349060058594e-01
3.560999999999999929e-03 -3.305319999999999925e-01 1.016300000000000016e-02 5.134272575378417969e-02 8.245588541030883789e-01 5.634417533874511719e-01
9.977300000000000058e-02 -3.601260000000000017e-01 -1.016300000000000016e-02 -2.084973752498626709e-01 1.130282804369926453e-01 -9.714698195457458496e-01
4.570190000000000086e-01 2.521789999999999865e-01 1.016300000000000016e-02 3.718317151069641113e-01 -8.177293539047241211e-01 -4.393859505653381348e-01
2.601699999999999846e-02 -3.868179999999999952e-01 1.016300000000000016e-02 1.360832452774047852e-01 -2.283910475671291351e-02 9.904340505599975586e-01
9.329999999999999752e-03 4.101380000000000026e-01 1.016300000000000016e-02 -4.731197953224182129e-01 8.654931783676147461e-01 -1.645577251911163330e-01
-4.215079999999999938e-01 -3.955119999999999747e-01 1.016300000000000016e-02 8.597037196159362793e-01 1.664440780878067017e-01 4.829140007495880127e-01
-4.840829999999999855e-01 -2.266060000000000019e-01 1.016300000000000016e-02 2.264597713947296143e-01 9.735497236251831055e-01 -3.028051927685737610e-02
-6.030200000000000143e-02 -4.994410000000000238e-01 1.016300000000000016e-02 -9.250041246414184570e-01 1.576654911041259766e-01 -3.457007110118865967e-01
-5.000000000000000000e-01 -2.351930000000000132e-01 -4.230000000000000253e-03 6.748716831207275391e-01 7.334133386611938477e-01 8.156663924455642700e-02
-2.188160000000000105e-01 -5.697900000000000187e-02 1.016300000000000016e-02 1.792365163564682007e-01 -8.421807885169982910e-01 5.085329413414001465e-01
-2.074560000000000015e-01 -1.000759999999999983e-01 1.016300000000000016e-02 -4.164189100265502930e-01 8.690237402915954590e-01 2.671945691108703613e-01
-1.905280000000000029e-01 2.114880000000000093e-01 -1.016300000000000016e-02 6.118296459317207336e-02 1.332842856645584106e-01 -9.891874790191650391e-01
1.968129999999999880e-01 3.931029999999999802e-01 -1.016300000000000016e-02 4.667039215564727783e-02 5.833605527877807617e-01 -8.108713030815124512e-01
4.998969999999999803e-01 -3.084999999999999964e-01 1.016300000000000016e-02 7.621756196022033691e-01 -2.101280838251113892e-01 -6.123189926147460938e-01
-4.829149999999999832e-01 8.089100000000000457e-02 1.016300000000000016e-02 -1.210781857371330261e-01 1.607256084680557251e-01 -9.795444607734680176e-01
7.560699999999999366e-02 -1.021529999999999938e-01 -1.016300000000000016e-02 2.495174109935760498e-02 -2.816152274608612061e-01 -9.592029452323913574e-01
-1.378769999999999996e-01 -3.188630000000000075e-01 -1.016300000000000016e-02 2.175626009702682495e-01 2.395980954170227051e-01 -9.461814165115356445e-01
-2.419550000000000034e-01 6.827199999999999935e-02 -1.016300000000000016e-02 5.911183357238769531e-02 5.367143750190734863e-01 -8.416908979415893555e-01
-9.087699999999999945e-02 -4.595339999999999980e-01 -1.016300000000000016e-02 -6.782879829406738281e-01 -5.622087419033050537e-02 -7.326421737670898438e-01
2.205390000000000128e-01 -4.528840000000000088e-01 1.016300000000000016e-02 1.423913389444351196e-01 9.882987737655639648e-01 -5.468346923589706421e-02
-8.325299999999999367e-02 4.281130000000000213e-01 1.016300000000000016e-02 7.094845771789550781e-01 6.417788863182067871e-01 -2.911213338375091553e-01
-3.609789999999999943e-01 -8.622100000000000597e-02 1.016300000000000016e-02 9.255933761596679688e-01 2.685206234455108643e-01 -2.667840123176574707e-01
4.234419999999999851e-01 2.809550000000000103e-01 1.016300000000000016e-02 -8.803878881735727191e-05 1.579777747392654419e-01 9.874426722526550293e-01
1.926849999999999952e-01 -4.783970000000000167e-01 1.016300000000000016e-02 -6.442045569419860840e-01 6.598166227340698242e-01 3.868366479873657227e-01
-2.407169999999999865e-01 -4.214140000000000108e-01 -1.016300000000000016e-02 -1.255830079317092896e-01 -5.879768133163452148e-01 -7.990695238113403320e-01
-2.274229999999999863e-01 -4.817609999999999948e-01 -1.016300000000000016e-02 -7.297031879425048828e-01 1.841492205858230591e-01 -6.584999561309814453e-01
-9.991200000000000081e-02 1.862060000000000104e-01 1.016300000000000016e-02 6.197679638862609863e-01 -1.087968572974205017e-01 7.772071361541748047e-01
-6.963900000000000645e-02 2.237000000000000099e-01 -1.016300000000000016e-02 2.238926142454147339e-01 -9.091084450483322144e-02 -9.703645110130310059e-01
3.481509999999999883e-01 -1.603660000000000085e-01 1.016300000000000016e-02 2.226818799972534180e-01 9.117911458015441895e-01 3.450356721878051758e-01
-2.571769999999999889e-01 4.111090000000000022e-01 -1.016300000000000016e-02 4.485485553741455078e-01 4.537241756916046143e-01 -7.700250744819641113e-01
2.866589999999999971e-01 2.041280000000000039e-01 1.016300000000000016e-02 -4.129764139652252197e-01 -1.831783652305603027e-01 8.921301364898681641e-01
-4.195679999999999965e-01 -3.073060000000000236e-01 1.016300000000000016e-02 7.106969952583312988e-01 -5.316185951232910156e-01 4.607509970664978027e-01
4.116850000000000231e-01 -2.330339999999999911e-01 -1.016300000000000016e-02 3.793282061815261841e-02 -3.436742126941680908e-01 -9.383225440979003906e-01
4.644899999999999723e-02 -7.545999999999999756e-03 1.016300000000000016e-02 1.166295558214187622e-01 9.928309917449951172e-01 -2.615765854716300964e-02
1.485259999999999914e-01 -1.184029999999999944e-01 1.016300000000000016e-02 -2.813720330595970154e-02 3.543654680252075195e-01 9.346835613250732422e-01
1.157200000000000034e-01 -3.088299999999999934e-01 1.016300000000000016e-02 9.567034244537353516e-01 5.229629948735237122e-02 2.863278090953826904e-01
5.616199999999999665e-02 4.993310000000000248e-01 1.016300000000000016e-02 6.277248263359069824e-01 6.218407154083251953e-01 4.682687222957611084e-01
-3.232599999999999918e-01 -4.677760000000000251e-01 1.016300000000000016e-02 -9.837874174118041992e-01 -1.643304675817489624e-01 7.181848585605621338e-02
-4.529039999999999733e-01 4.591669999999999918e-01 1.016300000000000016e-02 7.393767237663269043e-01 6.206024289131164551e-01 2.611030042171478271e-01
-2.502599999999999963e-02 1.093630000000000019e-01 1.016300000000000016e-02 -8.382280915975570679e-02 -9.365501403808593750e-01 3.403638899326324463e-01
4.919100000000000139e-01 2.748439999999999772e-01 1.016300000000000016e-02 6.328564286231994629e-01 -7.665756940841674805e-01 1.088777631521224976e-01
-4.916200000000000014e-01 3.044089999999999852e-01 -1.016300000000000016e-02 -3.096982240676879883e-01 9.508178830146789551e-01 -5.693824961781501770e-03
2.148100000000000009e-01 -2.494349999999999901e-01 1.016300000000000016e-02 6.423423886299133301e-01 -4.476884603500366211e-01 6.220701336860656738e-01
2.957500000000000129e-01 7.176000000000000087e-03 -1.016300000000000016e-02 -1.707035489380359650e-02 4.992845281958580017e-02 -9.986068606376647949e-01
4.740849999999999786e-01 -4.745800000000000018e-02 -1.016300000000000016e-02 2.872719466686248779e-01 -9.188210964202880859e-01 -2.706337571144104004e-01
4.520299999999999874e-01 -1.116560000000000052e-01 -1.016300000000000016e-02 -2.083508670330047607e-01 -6.729285120964050293e-01 -7.097584605216979980e-01
2.078119999999999967e-01 -4.408360000000000056e-01 1.016300000000000016e-02 9.660433530807495117e-01 2.544208467006683350e-01 4.505791142582893372e-02
4.104929999999999968e-01 1.257600000000000037e-02 -1.016300000000000016e-02 3.053892254829406738e-01 3.694971203804016113e-01 -8.776156902313232422e-01
-4.526140000000000163e-01 1.461339999999999861e-01 1.016300000000000016e-02 -5.665547847747802734e-01 -7.538998126983642578e-01 -3.326421380043029785e-01
1.469509999999999983e-01 1.246980000000000033e-01 -1.016300000000000016e-02 2.430235296487808228e-01 2.091917097568511963e-01 -9.471950531005859375e-01
9.987200000000000244e-02 -2.909149999999999792e-01 -1.016300000000000016e-02 3.166970014572143555e-01 4.131385684013366699e-01 -8.538264632225036621e-01
-4.645000000000000240e-01 4.171199999999999908e-01 1.016300000000000016e-02 7.430259585380554199e-01 2.363908737897872925e-01 -6.261243820190429688e-01
1.200549999999999951e-01 -1.367369999999999974e-01 -1.016300000000000016e-02 -9.055610746145248413e-02 -1.341514140367507935e-01 -9.868145585060119629e-01
3.929509999999999947e-01 4.159329999999999972e-01 1.016300000000000016e-02 8.213791847229003906e-01 -5.703238248825073242e-01 -8.185856044292449951e-03
-2.261219999999999897e-01 -3.167099999999999776e-02 -1.016300000000000016e-02 1.217905879020690918e-01 5.491675734519958496e-01 -8.267902135848999023e-01
-1.560040000000000038e-01 -2.185729999999999895e-01 1.016300000000000016e-02 -2.506629824638366699e-01 -3.475708067417144775e-01 9.035278558731079102e-01
-4.560139999999999749e-01 8.562799999999999578e-02 -1.016300000000000016e-02 4.104023575782775879e-01 3.425509929656982422e-01 -8.451205492019653320e-01
-1.286450000000000093e-01 -4.582919999999999772e-01 -1.016300000000000016e-02 -7.775079607963562012e-01 -4.573786556720733643e-01 -4.316087663173675537e-01
2.493950000000000056e-01 2.455829999999999957e-01 1.016300000000000016e-02 7.859262228012084961e-01 -4.080252945423126221e-01 4.645808041095733643e-01
-5.682100000000000345e-02 4.051009999999999889e-01 1.016300000000000016e-02 8.005016446113586426e-01 -3.077258467674255371e-01 5.142974257469177246e-01
2.603509999999999991e-01 1.022969999999999990e-01 -1.016300000000000016e-02 -7.442081719636917114e-02 -3.082435429096221924e-01 -9.483920335769653320e-01
-4.877219999999999889e-01 2.371129999999999904e-01 -1.016300000000000016e-02 -4.968903064727783203e-01 8.278651833534240723e-01 -2.602674663066864014e-01
-8.935500000000000387e-02 -2.517929999999999890e-01 1.016300000000000016e-02 -4.948678910732269287e-01 -6.814847588539123535e-01 5.391514897346496582e-01
2.837580000000000102e-01 2.990410000000000013e-01 1.016300000000000016e-02 3.927199244499206543e-01 -6.745663285255432129e-02 -9.171808362007141113e-01
1.488349999999999951e-01 3.042009999999999992e-01 1.016300000000000016e-02 -4.936830103397369385e-01 -6.111822724342346191e-01 6.186544895172119141e-01
4.414129999999999998e-01 8.729399999999999660e-02 -1.016300000000000016e-02 5.992066264152526855e-01 -5.493500232696533203e-01 -5.823795795440673828e-01
1.700149999999999995e-01 -1.490630000000000011e-01 -1.016300000000000016e-02 3.491650819778442383e-01 1.474522501230239868e-01 -9.253872036933898926e-01
-2.337430000000000063e-01 1.666990000000000138e-01 1.016300000000000016e-02 3.622828423976898193e-01 5.222931504249572754e-02 9.306037425994873047e-01
3.688029999999999919e-01 3.883099999999999885e-01 1.016300000000000016e-02 -6.394508481025695801e-01 -7.684935927391052246e-01 2.280855551362037659e-02
1.301120000000000054e-01 -2.016310000000000047e-01 1.016300000000000016e-02 1.902877166867256165e-02 5.050710439682006836e-01 8.628679513931274414e-01
-4.910699999999999787e-02 -4.120770000000000266e-01 1.016300000000000016e-02 -2.255780100822448730e-01 -9.590153098106384277e-01 -1.714765131473541260e-01
-1.395450000000000024e-01 1.265590000000000048e-01 -1.016300000000000016e-02 -2.570718824863433838e-01 3.832620978355407715e-01 -8.871438503265380859e-01
4.120980000000000198e-01 -3.164420000000000011e-01 1.016300000000000016e-02 9.767408370971679688e-01 -2.056446075439453125e-01 6.072635948657989502e-02
1.226000000000000006e-01 1.318499999999999950e-01 1.016300000000000016e-02 7.580356299877166748e-02 9.456647634506225586e-01 3.161836266517639160e-01
8.173600000000000310e-02 -4.278600000000000181e-01 -1.016300000000000016e-02 -1.734673529863357544e-01 5.924327373504638672e-01 -7.867226004600524902e-01
1.584210000000000063e-01 4.811329999999999774e-01 1.016300000000000016e-02 6.953912377357482910e-01 -1.878336258232593536e-02 7.183857560157775879e-01
1.356120000000000103e-01 -4.081540000000000168e-01 1.016300000000000016e-02 8.707312345504760742e-01 -3.452686667442321777e-01 -3.501667082309722900e-01
3.224409999999999776e-01 -2.294140000000000068e-01 1.016300000000000016e-02 -1.903132535517215729e-02 7.736008763313293457e-01 6.333872675895690918e-01
-3.978099999999999692e-02 2.605560000000000098e-01 -1.016300000000000016e-02 1.912204325199127197e-01 1.750491000711917877e-02 -9.813910722732543945e-01
9.921199999999999464e-02 -4.147060000000000191e-01 -1.016300000000000016e-02 5.753416940569877625e-02 4.589728116989135742e-01 -8.865854740142822266e-01
-3.580849999999999866e-01 3.192039999999999877e-01 -1.016300000000000016e-02 -9.553875774145126343e-02 1.365487184375524521e-02 -9.953320622444152832e-01
-8.527200000000000057e-02 4.904900000000000232e-02 -1.016300000000000016e-02 -2.537321746349334717e-01 9.379594027996063232e-02 -9.627161026000976562e-01
-5.000000000000000000e-01 1.558879999999999988e-01 3.919999999999999873e-03 -2.496938258409500122e-01 2.924638390541076660e-01 -9.231022596359252930e-01
3.469039999999999901e-01 3.743690000000000073e-01 1.016300000000000016e-02 -2.369714677333831787e-01 -8.470589518547058105e-01 -4.757474064826965332e-01
-1.088200000000000001e-01 2.799320000000000142e-01 1.016300000000000016e-02 9.080206155776977539e-01 -3.910705074667930603e-02 4.170961976051330566e-01
-2.935139999999999971e-01 8.786499999999999866e-02 1.016300000000000016e-02 -7.582198977470397949e-01 -2.868895530700683594e-01 5.854887962341308594e-01
4.617930000000000090e-01 -4.683849999999999958e-01 -1.016300000000000016e-02 -2.040305584669113159e-01 -4.617345929145812988e-01 -8.632339239120483398e-01
2.280669999999999920e-01 2.360099999999999976e-01 -1.016300000000000016e-02 1.506014168262481689e-01 -3.423399925231933594e-01 -9.274278879165649414e-01
2.375140000000000029e-01 1.343660000000000132e-01 1.016300000000000016e-02 -7.520049214363098145e-01 3.842001259326934814e-01 5.356106162071228027e-01
2.911059999999999759e-01 4.615719999999999823e-01 1.016300000000000016e-02 9.706587195396423340e-01 1.462990194559097290e-01 -1.908358782529830933e-01
-4.917599999999999749e-01 1.624059999999999948e-01 -1.016300000000000016e-02 4.684664309024810791e-01 -2.871240377426147461e-01 -8.355231881141662598e-01
-2.366320000000000090e-01 2.775549999999999962e-01 1.016300000000000016e-02 3.165979385375976562e-01 8.294616937637329102e-01 4.601729512214660645e-01
8.782600000000000129e-02 3.598310000000000120e-01 1.016300000000000016e-02 -6.355897188186645508e-01 -5.996479392051696777e-01 4.862592816352844238e-01
4.702009999999999801e-01 -2.424899999999999972e-02 1.016300000000000016e-02 -9.653471708297729492e-01 -2.330888956785202026e-01 1.173643916845321655e-01
-4.285300000000000220e-02 4.418139999999999845e-01 1.016300000000000016e-02 9.614600539207458496e-01 -1.171828340739011765e-02 2.746948897838592529e-01
-4.324160000000000226e-01 2.082420000000000104e-01 -1.016300000000000016e-02 1.654446125030517578e-01 4.410414993762969971e-01 -8.821057081222534180e-01
9.223199999999999454e-02 3.837349999999999928e-01 -1.016300000000000016e-02 -2.794303894042968750e-01 1.746915429830551147e-01 -9.441406130790710449e-01
-2.730509999999999882e-01 -9.185400000000000509e-02 -1.016300000000000016e-02 -1.694011092185974121e-01 4.032323062419891357e-01 -8.992813825607299805e-01
