0.66969448 0.40281954 0.32931456 -0.00002782 0.00012228 0.00027428
0.36939365 0.57293409 0.26196456 -0.00052396 0.00037061 -0.00032918
0.33738819 0.36452499 0.49038729 0.00008653 0.00031212 -0.00001725
0.60563725 0.44062954 0.12135909 -0.00011263 0.00019150 -0.00033065
0.34392819 0.36202955 0.08894183 -0.00074587 -0.00012699 -0.00035533
0.64401269 0.44346318 0.71403819 -0.00008070 0.00004625 -0.00005674
0.33755547 0.51833498 0.44203818 -0.00045701 -0.00004771 0.00000570
0.52098453 0.37603045 0.95382637 0.00021497 -0.00012789 0.00065992
0.35216910 0.51393318 0.63522911 -0.00045176 -0.00001305 0.00010300
0.49067089 0.60927498 0.24178092 -0.00004209 0.00057666 -0.00041985
0.67075092 0.38540679 0.91445273 0.00071716 -0.00016448 0.00041917
0.45099455 0.36696500 0.95072639 -0.00014104 -0.00031411 0.00050434
0.63366908 0.59717864 0.59699094 0.00065964 0.00037643 0.00014475
0.35480547 0.43383226 0.70751637 0.00010972 0.00003638 -0.00003457
0.56798452 0.62800133 0.61194915 0.00024646 0.00060865 0.00028358
0.37445274 0.56325591 0.64810908 -0.00015607 0.00021620 0.00049098
0.60981089 0.47451681 0.83740360 -0.00004405 0.00015480 0.00025050
0.34651455 0.51452774 0.59272361 -0.00045704 -0.00007917 0.00011764
0.35226908 0.39029682 0.66391093 0.00013220 -0.00004271 0.00010509
0.34011817 0.51824039 0.36192095 -0.00047557 -0.00013874 -0.00008645
0.36040455 0.59885138 0.36114544 -0.00042590 0.00050075 0.00001579
0.32924908 0.38540679 0.91445273 -0.00071716 -0.00016448 0.00041917
0.34237635 0.55081040 0.42525092 -0.00047230 0.00029297 0.00006975
0.37287092 0.51097405 0.71936363 -0.00029420 0.00014089 0.00022481
0.55194819 0.59919041 0.23617548 0.00031790 0.00053496 -0.00033886
0.67713451 0.39475498 0.90609366 0.00080743 -0.00011010 0.00032933
0.63755363 0.58450770 0.61084545 0.00070640 0.00023643 0.00018759
0.33674547 0.51842409 0.41507816 -0.00048817 -0.00009369 -0.00005330
0.32279363 0.35306317 0.33684909 -0.00023133 -0.00043718 -0.00034050
0.61902183 0.62306589 0.44013274 0.00004379 0.00074945 -0.00004584
0.62294000 0.48331499 0.81302547 -0.00001246 0.00035486 0.00014534
0.36345091 0.60241586 0.55396360 -0.00048463 0.00040820 0.00024872
0.50000000 0.65130228 0.49867728 -0.00000000 0.00057742 -0.00002710
0.31601638 0.40866861 0.73444819 -0.00043632 -0.00022618 -0.00006623
0.64968550 0.58342588 0.42544818 0.00059478 -0.00009940 0.00006483
0.50000000 0.62937045 0.61222726 0.00000000 0.00045423 0.00033562
0.68415004 0.41932496 0.17338820 0.00076386 -0.00022509 -0.00016755
0.46018180 0.38209680 0.95046002 -0.00027834 0.00025426 0.00050737
0.34132549 0.51775134 0.52043998 -0.00045435 -0.00009613 0.00005449
0.62257361 0.56822318 0.24115001 0.00050821 0.00038531 -0.00038630
0.65273994 0.41785678 0.11807273 0.00038238 0.00018454 -0.00067017
0.63754636 0.60391498 0.53564548 0.00044309 0.00042917 0.00020518
0.52208275 0.53756225 0.66809726 0.00017751 0.00005179 -0.00014951
0.50000000 0.35045588 0.04545456 -0.00000000 -0.00049650 -0.00064225
0.35214728 0.38958681 0.68379092 0.00026860 -0.00001605 0.00003861
0.37168181 0.50655496 0.72625095 -0.00031875 0.00004206 0.00027926
0.55504996 0.36705226 0.95026177 0.00010448 -0.00027897 0.00050554
0.52055633 0.37380409 0.05219367 0.00026032 0.00017167 -0.00048568
0.46786547 0.54253316 0.17002000 -0.00029355 0.00042598 -0.00025893
0.67783272 0.34646043 0.65165275 0.00038588 -0.00051578 0.00007178
0.38234183 0.47988591 0.83942360 0.00003406 0.00029721 0.00026564
0.33606818 0.36388317 0.39997455 0.00010718 0.00025618 -0.00016630
0.50000000 0.50354224 0.87701452 -0.00000000 0.00051817 0.00046688
0.60990453 0.41409954 0.92558730 0.00016668 0.00016034 0.00041208
0.43412456 0.35133317 0.05191821 -0.00006654 -0.00036070 -0.00057683
0.64257181 0.48745045 0.21234910 0.00018825 0.00021617 -0.00014275
0.33576363 0.39765769 0.91377366 -0.00044528 0.00012429 0.00050434
0.64776635 0.51802951 0.63481456 0.00046720 -0.00000664 0.00011692
0.36181092 0.57924408 0.29012090 -0.00056040 0.00035584 -0.00025691
0.68418729 0.41242862 0.30195910 0.00042364 -0.00012325 0.00001033
0.67720640 0.35306317 0.33684909 0.00023133 -0.00043718 -0.00034050
0.35299638 0.42007500 0.65683907 -0.00010315 -0.00016690 0.00007858
0.66262090 0.52363861 0.42274821 0.00047757 0.00002598 -0.00002534
0.63262635 0.53356588 0.66128176 0.00022334 0.00018358 0.00015556
0.35997820 0.59998679 0.36955094 -0.00043070 0.00049398 0.00004600
0.64313453 0.60544407 0.43501002 0.00046298 0.00035152 -0.00000292
0.65610003 0.44824043 0.15503910 0.00025908 0.00052389 -0.00027900
0.67073452 0.41905224 0.32114729 0.00004724 0.00009279 0.00032448
0.36125910 0.60504323 0.51694638 -0.00043972 0.00043471 0.00006486
0.64679003 0.41413137 0.69607270 -0.00014231 -0.00005503 0.00002493
0.67664635 0.35162592 0.69689906 0.00015954 -0.00052715 0.00010460
0.65642726 0.36311951 0.59064549 -0.00034480 0.00016914 0.00007680
0.50000000 0.38636133 0.95370543 -0.00000000 -0.00001406 0.00076418
0.50000000 0.61616862 0.25738817 -0.00000000 0.00062608 -0.00023123
0.67596453 0.45743042 0.21276093 0.00032908 0.00038727 -0.00017278
0.64684546 0.46079588 0.64640272 0.00027445 -0.00005986 0.00000103
0.35043362 0.36107227 0.66071725 0.00048706 -0.00016090 0.00012340
0.64730090 0.40427229 0.69096273 -0.00017286 -0.00006487 0.00002591
0.31540453 0.41922408 0.29651910 -0.00045122 -0.00008249 0.00000671
0.43509001 0.40428409 0.93384731 -0.00017671 0.00063704 0.00011944
0.45613909 0.53699410 0.66845459 -0.00022604 0.00007156 -0.00002306
0.57462633 0.41284499 0.92485821 0.00009807 0.00023541 0.00015755
0.31871274 0.38608772 0.14294820 -0.00075202 -0.00027711 -0.00000059
0.64302093 0.55721503 0.27602366 0.00071382 -0.00006201 -0.00021280
0.32604182 0.34500682 0.39818549 -0.00026068 -0.00042768 -0.00011721
0.46914816 0.36641589 0.95187449 -0.00016491 -0.00045039 0.00052957
0.35239911 0.39523956 0.66275638 0.00008094 -0.00004909 0.00010314
0.43346363 0.59111136 0.23051365 -0.00030098 0.00051875 -0.00037741
0.65171641 0.42273682 0.12072455 0.00038762 0.00014946 -0.00065248
0.60916996 0.54045951 0.66688269 -0.00018591 0.00024202 0.00011927
0.33030546 0.40281954 0.32931456 0.00002781 0.00012228 0.00027428
0.50000000 0.63907957 0.57479274 0.00000000 0.00058318 -0.00004843
0.65116090 0.57803768 0.42559728 0.00061107 -0.00015749 0.00007628
0.62861729 0.47657046 0.17437455 0.00034981 0.00004004 -0.00010687
0.36553547 0.47991681 0.75512004 -0.00010784 -0.00000177 0.00006624
0.32924455 0.39619952 0.91009182 -0.00060834 0.00000982 0.00043125
0.50000000 0.65457314 0.38737729 0.00000000 0.00065014 0.00008483
0.34696543 0.44224137 0.90959638 -0.00045242 0.00015041 0.00075953
0.47516817 0.35055500 0.04667456 -0.00011589 -0.00043347 -0.00060256
0.50000000 0.44164497 0.93666637 0.00000000 -0.00021818 0.00094201
0.59669816 0.42466861 0.10594820 0.00002633 0.00011668 -0.00033958
0.66380459 0.36437318 0.44017276 -0.00006047 0.00030078 -0.00003818
0.63051093 0.47837770 0.17898548 0.00037609 0.00005981 -0.00005020
0.38794819 0.47268498 0.86480910 0.00012654 0.00027166 0.00013528
0.36000362 0.60602862 0.49824363 -0.00044912 0.00042190 -0.00000243
0.32710910 0.34499770 0.51342362 -0.00031453 -0.00044519 0.00001681
0.35690185 0.60468954 0.42249638 -0.00046007 0.00038031 0.00001017
0.39127818 0.61425042 0.61239636 -0.00038114 0.00062111 0.00034179
0.62336451 0.55410314 0.65537548 0.00005677 0.00024881 0.00037668
0.41739818 0.35200134 0.05442638 -0.00008561 -0.00040162 -0.00063331
0.35428727 0.42894861 0.70440632 0.00011760 0.00001447 -0.00002197
0.35223365 0.51802951 0.63481456 -0.00046720 -0.00000664 0.00011692
0.51385272 0.37280864 0.05147092 0.00019123 0.00010860 -0.00051138
0.53895003 0.65257406 0.43969455 0.00020580 0.00061488 0.00000905
0.68498540 0.44203773 0.27043089 0.00050890 0.00004156 0.00008450
0.64653361 0.59411865 0.42453453 0.00053612 0.00010237 0.00005316
0.64466816 0.45382863 0.90750271 0.00046870 0.00038033 0.00055246
0.55757904 0.35108775 0.05073638 0.00008028 -0.00036223 -0.00056607
0.31805634 0.45686316 0.80732000 -0.00058942 0.00031776 0.00013734
0.50000000 0.42404225 0.06518546 -0.00000000 -0.00025196 -0.00076655
0.35325816 0.44026226 0.65176642 -0.00019718 -0.00011069 0.00002207
0.67837822 0.36072135 0.33304912 0.00026410 -0.00028596 -0.00030806
0.34196272 0.36356497 0.57061273 0.00028367 0.00022279 0.00007307
0.40044361 0.40205953 0.09034003 -0.00010538 0.00026415 -0.00025414
0.59721369 0.36612320 0.94538093 0.00020965 -0.00029995 0.00056068
0.42771912 0.39496952 0.07290728 -0.00013484 0.00044682 -0.00025799
0.64643997 0.43060771 0.12357819 0.00031809 0.00017366 -0.00057927
0.35923272 0.46128771 0.72896004 -0.00005731 -0.00016328 -0.00014343
0.33890364 0.51856494 0.46178636 -0.00043402 -0.00004285 0.00005605
0.35753000 0.43288136 0.12350275 -0.00025637 0.00019890 -0.00054037
0.39962637 0.44531953 0.91438454 0.00021567 0.00008395 0.00028609
0.67050093 0.46393135 0.82935548 0.00024316 0.00057060 0.00032800
0.35499817 0.54811680 0.27426362 -0.00071261 -0.00016777 -0.00019794
0.58018363 0.41999137 0.92033911 0.00006872 0.00007549 0.00019172
0.35798454 0.60736585 0.46535546 -0.00044954 0.00039428 -0.00003600
0.37775090 0.59600770 0.62233365 -0.00042215 0.00042758 0.00044652
0.58797091 0.56981498 0.21290457 0.00010628 0.00056727 -0.00046415
0.31658998 0.38603953 0.72392094 -0.00041059 -0.00004428 0.00022600
0.65293002 0.44508952 0.14708911 0.00028006 0.00048364 -0.00029085
0.56035000 0.39833045 0.93845367 0.00021646 0.00073112 0.00015239
0.35752729 0.60385680 0.41030911 -0.00044837 0.00041994 0.00005066
0.37373635 0.48423499 0.79516542 0.00001170 0.00031443 0.00017445
0.66973543 0.38760227 0.12186091 0.00056395 0.00007716 -0.00031529
0.65170187 0.36172408 0.64070094 -0.00039856 -0.00009943 0.00020330
0.45704272 0.36681589 0.95115095 -0.00016783 -0.00035415 0.00050710
0.50000000 0.60955590 0.24190274 -0.00000000 0.00057229 -0.00043145
0.43287364 0.36699864 0.94920182 -0.00003574 -0.00022702 0.00051598
0.50851184 0.35047317 0.04560910 0.00004840 -0.00048676 -0.00063635
0.46202454 0.62990952 0.61305457 -0.00011062 0.00052820 0.00032636
0.50000000 0.44659406 0.93372178 0.00000000 -0.00013429 0.00091055
0.50000000 0.65455139 0.43987092 0.00000000 0.00059536 0.00003635
0.37909546 0.36675683 0.94013548 -0.00044672 -0.00026081 0.00054094
0.64227819 0.60744774 0.45935547 0.00045298 0.00038870 -0.00002868
0.66359454 0.36332771 0.36981454 -0.00027243 0.00024167 0.00007459
0.64785272 0.38958681 0.68379092 -0.00026860 -0.00001605 0.00003861
0.38552547 0.45925134 0.14139184 -0.00003659 0.00018532 -0.00024796
0.67322272 0.36723045 0.11708003 0.00075703 -0.00037024 -0.00010498
0.68505543 0.43803409 0.86145908 0.00078711 0.00006602 0.00036338
0.47177818 0.62992042 0.61302269 -0.00004514 0.00050592 0.00033059
0.54395819 0.60239047 0.23816729 0.00028337 0.00055700 -0.00033132
0.66211182 0.45321044 0.17114636 0.00014378 0.00051602 -0.00044499
0.64734727 0.40514228 0.66042638 0.00000476 -0.00010254 0.00009265
0.34167457 0.37602952 0.92430812 -0.00061227 -0.00022010 0.00050259
0.31575093 0.42600954 0.18023002 -0.00075238 -0.00021353 -0.00023536
0.32702452 0.34977135 0.34303364 -0.00008127 -0.00047252 -0.00027784
0.66815275 0.46411407 0.83751637 0.00019425 0.00060490 0.00040731
0.51304543 0.54412776 0.16848457 0.00016093 0.00052693 -0.00017079
0.34077635 0.51810682 0.50844997 -0.00045225 -0.00009083 0.00003090
0.61638641 0.47906771 0.82069814 -0.00003397 0.00024874 0.00014993
0.68364722 0.39368317 0.72720730 0.00041720 -0.00013217 0.00010919
0.67713904 0.37251681 0.12705001 0.00075593 -0.00036845 -0.00004311
0.39752635 0.63290131 0.43995908 -0.00024686 0.00063294 -0.00003194
0.50000000 0.52860314 0.81259543 -0.00000000 0.00055175 -0.00002441
0.56712639 0.36699864 0.94920182 0.00003574 -0.00022702 0.00051598
0.50000000 0.50930774 0.86697000 0.00000000 0.00056616 0.00036915
0.65163547 0.42138410 0.91678542 0.00008109 0.00030908 0.00088360
0.67455178 0.34554318 0.58252728 0.00032850 -0.00043285 0.00009088
0.31633639 0.40538952 0.30706090 -0.00039629 -0.00014349 0.00000018
0.63706088 0.57702953 0.28299457 0.00056336 0.00034143 -0.00027179
0.64789546 0.50983769 0.63564366 0.00043805 -0.00001790 0.00008841
0.44214636 0.64950585 0.43964547 -0.00022830 0.00060367 -0.00000131
0.34772727 0.51457316 0.60430908 -0.00046656 -0.00006756 0.00007855
0.59566092 0.44119772 0.91472363 -0.00014958 0.00002532 0.00025795
0.65262729 0.51596314 0.28940818 0.00045630 -0.00011086 -0.00012514
0.64679360 0.45564499 0.64775366 0.00025627 -0.00007103 0.00000413
0.50000000 0.63242501 0.29683727 0.00000000 0.00055558 -0.00030140
0.33730638 0.36276862 0.09781001 -0.00077462 -0.00023547 -0.00026564
0.65129906 0.48917317 0.24087365 0.00014020 0.00017458 -0.00029518
0.55766910 0.38599682 0.06290547 0.00013879 0.00063746 -0.00028349
0.66261178 0.36452499 0.49038729 -0.00008653 0.00031212 -0.00001725
0.63617635 0.60139501 0.56286001 0.00053151 0.00038950 0.00018578
0.59917271 0.35302499 0.05744094 0.00015369 -0.00043557 -0.00071177
0.53298360 0.35063225 0.04751819 0.00012703 -0.00040709 -0.00058417
0.60826182 0.48668951 0.15456183 0.00037777 -0.00007633 -0.00043665
0.35763544 0.55805409 0.63038087 -0.00056762 0.00014450 0.00025830
0.63312000 0.57409048 0.26894546 0.00053929 0.00035674 -0.00030742
0.37173364 0.39955136 0.09511910 -0.00011892 0.00041999 -0.00038587
0.35828093 0.45719773 0.72491729 -0.00001633 -0.00009108 -0.00012263
0.35247999 0.39935410 0.68849003 0.00019616 -0.00004939 0.00003127
0.38405818 0.46174955 0.14481911 -0.00009194 0.00014915 -0.00024915
0.65287906 0.51455045 0.59851640 0.00046183 -0.00007291 0.00009402
0.63691002 0.53025413 0.65833455 0.00032256 0.00013716 0.00015035
0.63878906 0.59443134 0.33656728 0.00042928 0.00049749 -0.00013731
0.67658091 0.34612045 0.62860364 0.00039444 -0.00048512 0.00018927
0.50000000 0.48243406 0.90465093 -0.00000000 0.00039952 0.00064120
0.55950272 0.59541774 0.23363183 0.00032575 0.00051942 -0.00035633
0.35241091 0.49131316 0.63890362 -0.00037609 -0.00003545 0.00003375
0.61892909 0.54474497 0.66250360 -0.00005634 0.00025287 0.00023638
0.66174638 0.52902412 0.42365363 0.00046821 0.00012591 -0.00000697
0.68429273 0.44932410 0.25474364 0.00051322 0.00010819 0.00010938
0.31866273 0.45594952 0.78904277 -0.00053049 0.00033996 0.00004566
0.35231364 0.39447045 0.68614089 0.00022615 -0.00003578 0.00003589
0.63235003 0.47998318 0.18369912 0.00038252 0.00008331 -0.00000960
0.43707818 0.38879135 0.06586821 -0.00012157 0.00062086 -0.00025913
0.36197910 0.36303043 0.07534727 -0.00055188 0.00003700 -0.00049096
0.67835999 0.45677227 0.22123002 0.00038607 0.00033695 -0.00008269
0.58911633 0.44896409 0.89152271 -0.00015224 0.00011298 -0.00017242
0.39802909 0.52195317 0.17504546 -0.00041265 0.00010213 -0.00050171
0.50000000 0.65349865 0.46566546 0.00000000 0.00057975 0.00003825
0.37767547 0.42390227 0.11003730 -0.00010191 0.00006081 -0.00052898
0.37706366 0.47077587 0.16087911 -0.00026597 0.00003568 -0.00021733
0.36408091 0.60010862 0.57146454 -0.00058586 0.00036362 0.00013921
0.38374364 0.45813864 0.90980095 0.00021017 0.00045472 0.00028632
0.68471003 0.44314227 0.85317725 0.00074273 0.00010330 0.00040434
0.37476000 0.57013863 0.24805728 -0.00050251 0.00038685 -0.00038102
0.36803725 0.39769679 0.09541002 -0.00008843 0.00052288 -0.00037123
0.43424180 0.53711230 0.66881275 -0.00010046 0.00011575 0.00005383
0.63044363 0.49749500 0.73983818 0.00029273 -0.00001385 0.00026214
0.64705819 0.38516590 0.09517001 0.00029273 0.00059158 -0.00038506
0.65915096 0.45094681 0.16305545 0.00018488 0.00052182 -0.00038309
0.44198364 0.62905228 0.61248273 -0.00021527 0.00057834 0.00029680
0.68234909 0.45594224 0.81670636 0.00061638 0.00029036 0.00019781
0.31776637 0.39206955 0.14862457 -0.00075284 -0.00024156 -0.00000263
0.64678818 0.40069047 0.10425912 0.00019881 0.00048227 -0.00056013
0.34029546 0.51834857 0.49672276 -0.00044840 -0.00008119 0.00001610
0.36834636 0.48974589 0.75378907 -0.00019840 0.00004450 0.00019186
0.37331638 0.36735681 0.93840271 -0.00048768 -0.00021543 0.00052610
0.35153729 0.36073315 0.67072451 0.00059330 -0.00017458 0.00003397
0.33825365 0.52902412 0.42365363 -0.00046821 0.00012591 -0.00000697
0.36948907 0.47837770 0.17898548 -0.00037609 0.00005981 -0.00005020
0.68312722 0.37834865 0.72078913 0.00039555 -0.00009327 0.00029474
0.60072911 0.42553043 0.92157185 0.00002952 -0.00007382 0.00037733
0.63662183 0.47519952 0.74609184 0.00011415 -0.00009601 -0.00000497
0.68381274 0.44690046 0.21136911 0.00062001 0.00007237 -0.00016376
0.34444273 0.51585495 0.31621727 -0.00045307 -0.00009412 0.00000612
0.68353367 0.40541592 0.16056637 0.00076164 -0.00019435 -0.00003334
0.68239278 0.45313954 0.78114814 0.00054515 0.00030095 0.00001410
0.37643909 0.45977497 0.90865362 0.00004567 0.00052386 0.00031011
0.35291728 0.40919045 0.69343543 0.00015459 -0.00006725 0.00002443
0.51973367 0.65408409 0.43982363 0.00015657 0.00060182 0.00002703
0.35612911 0.40207499 0.92267728 -0.00000142 0.00052921 0.00062138
0.50000000 0.63085949 0.60686815 -0.00000000 0.00048400 0.00023598
0.65235549 0.36172864 0.08484730 0.00072478 -0.00011047 -0.00041266
0.66333729 0.51816952 0.43139184 0.00047908 -0.00006339 -0.00002047
0.34394544 0.51571596 0.56278729 -0.00044903 -0.00009396 0.00015567
0.66909999 0.45079225 0.30324548 0.00013336 0.00023959 0.00026581
0.37539455 0.51909131 0.70535725 -0.00020386 0.00030665 0.00005829
0.32304364 0.38297498 0.13185546 -0.00070184 -0.00018582 -0.00011379
0.50000000 0.64367318 0.55338001 -0.00000000 0.00053862 0.00017577
0.64798725 0.38043135 0.66619641 -0.00027072 -0.00001778 0.00009580
0.66166997 0.51849586 0.45132729 0.00044140 -0.00004222 0.00002949
0.37206364 0.48452497 0.78629911 -0.00000538 0.00027219 0.00018650
0.67774910 0.46037769 0.80506814 0.00043526 0.00043519 0.00011758
0.65529275 0.48725682 0.25458002 0.00017196 0.00015014 -0.00018891
0.59751183 0.46217227 0.86941546 -0.00012844 0.00009018 0.00002940
0.50000000 0.37423500 0.95454550 -0.00000000 -0.00030810 0.00070945
0.65723175 0.36334226 0.58062911 -0.00031605 0.00019853 0.00007600
0.31592089 0.41588861 0.73853183 -0.00044649 -0.00019665 -0.00011617
0.67000818 0.44311953 0.30809727 0.00011026 0.00024175 0.00028874
0.34174091 0.51727772 0.34330001 -0.00046607 -0.00014385 -0.00011967
0.40784276 0.43651682 0.91550273 0.00008565 -0.00001436 0.00024437
0.66292995 0.36453044 0.48034728 -0.00007504 0.00031192 -0.00003054
0.61505091 0.36635497 0.94169188 0.00040022 -0.00029295 0.00055174
0.38111910 0.53319770 0.67815000 0.00002383 0.00033318 0.00002239
0.43096727 0.40614137 0.93047637 -0.00012261 0.00049743 0.00010784
0.63910455 0.35999861 0.07390002 0.00060926 -0.00014553 -0.00057083
0.35389549 0.42401138 0.70155817 0.00012566 -0.00001108 -0.00000669
0.61753452 0.61010957 0.60844725 0.00045769 0.00060041 0.00027888
0.61738086 0.56321681 0.22753000 0.00053156 0.00036457 -0.00038790
0.33047816 0.35525590 0.68626088 0.00010812 -0.00033230 -0.00005092
0.32698274 0.34505317 0.52494276 -0.00031539 -0.00044284 0.00003196
0.66395730 0.36416683 0.42007545 -0.00007182 0.00027818 -0.00013568
0.67497361 0.34566861 0.59404367 0.00033895 -0.00043997 0.00011573
0.34643453 0.37384769 0.92710185 -0.00058299 -0.00022014 0.00051648
0.68242997 0.36290500 0.71487182 0.00035459 -0.00039340 0.00031935
0.68347454 0.44571587 0.76626819 0.00052306 0.00021482 -0.00005446
0.37055910 0.50200045 0.73305541 -0.00031559 -0.00000183 0.00028292
0.58045727 0.53815502 0.66871184 -0.00011208 0.00015858 0.00006446
0.50000000 0.52738589 0.81826729 0.00000000 0.00056906 0.00001094
0.49290726 0.37220863 0.05103911 -0.00010058 0.00006893 -0.00052821
0.66500819 0.45502317 0.17932183 0.00013989 0.00050414 -0.00045660
0.65781999 0.48467588 0.26323819 0.00018704 0.00013859 -0.00010767
0.65392178 0.56719321 0.42557272 0.00059379 -0.00011314 0.00009780
0.36759090 0.48291862 0.76418370 -0.00008490 0.00009986 0.00011599
0.40666726 0.54352403 0.18785547 -0.00021655 0.00033785 -0.00053245
0.64773095 0.39029682 0.66391093 -0.00013220 -0.00004271 0.00010509
0.32999182 0.44311953 0.30809727 -0.00011026 0.00024175 0.00028874
0.60120904 0.52777410 0.17895366 0.00039436 0.00014743 -0.00051621
0.62471092 0.55869317 0.65176183 0.00010744 0.00023396 0.00043822
0.45507184 0.54114497 0.17156273 -0.00020852 0.00035768 -0.00036565
0.50000000 0.53704953 0.73763633 -0.00000000 0.00031610 -0.00036355
0.63999635 0.60602862 0.49824363 0.00044912 0.00042190 -0.00000243
0.33990273 0.36407861 0.54054546 0.00019300 0.00027372 0.00004661
0.50000000 0.53803951 0.67956460 0.00000000 0.00009812 -0.00030171
0.65403914 0.51468682 0.58678365 0.00045303 -0.00008333 0.00013705
0.47244728 0.37752315 0.95312089 -0.00024790 -0.00001027 0.00062110
0.38261908 0.56321681 0.22753000 -0.00053156 0.00036457 -0.00038790
0.33631727 0.36445591 0.45022002 0.00005752 0.00030551 -0.00001889
0.33928275 0.51857132 0.47041729 -0.00043419 -0.00004138 0.00003397
0.50000000 0.63848948 0.31292999 0.00000000 0.00057167 -0.00028612
0.46340364 0.53717047 0.66831452 -0.00023767 0.00006196 -0.00006741
0.53659636 0.53717047 0.66831452 0.00023767 0.00006196 -0.00006741
0.38252819 0.60548133 0.61635548 -0.00042333 0.00053603 0.00039110
0.43584272 0.53967768 0.17494093 0.00002376 0.00032946 -0.00051938
0.67380184 0.34531590 0.55949360 0.00031974 -0.00043158 0.00006402
0.67035091 0.41092679 0.32525000 0.00001356 0.00008092 0.00031078
0.36667544 0.43309134 0.12025728 -0.00016643 0.00015546 -0.00052073
0.38494909 0.36635497 0.94169188 -0.00040022 -0.00029295 0.00055174
0.48026636 0.65408409 0.43982363 -0.00015657 0.00060182 0.00002703
0.38609639 0.47549954 0.85646641 0.00008243 0.00025163 0.00024684
0.32077181 0.34683046 0.67471451 -0.00033855 -0.00059206 -0.00018075
0.33863088 0.39255044 0.11352637 -0.00040997 0.00035001 -0.00046424
0.37961271 0.52979767 0.68465817 -0.00002232 0.00036261 -0.00001536
0.62793636 0.48452497 0.78629911 0.00000538 0.00027219 0.00018650
0.64969820 0.44857863 0.90822911 0.00050164 0.00026348 0.00065318
0.41294819 0.41027224 0.09080549 -0.00010251 0.00016906 -0.00032069
0.35356000 0.43060771 0.12357819 -0.00031809 0.00017366 -0.00057927
0.57871276 0.58113045 0.22260728 0.00013025 0.00059208 -0.00041240
0.64945364 0.51624405 0.62563819 0.00047348 -0.00003233 0.00008823
0.56653637 0.59111136 0.23051365 0.00030098 0.00051875 -0.00037740
0.34607819 0.56719321 0.42557272 -0.00059379 -0.00011314 0.00009780
0.31856000 0.38339683 0.32084090 -0.00036364 -0.00001010 -0.00020590
0.64747179 0.40018225 0.66160184 -0.00003667 -0.00005808 0.00009645
0.62072003 0.41003954 0.09959184 0.00011922 0.00011601 -0.00049975
0.65555727 0.51585495 0.31621727 0.00045307 -0.00009412 0.00000612
0.36955637 0.49749500 0.73983818 -0.00029273 -0.00001385 0.00026214
0.64678818 0.43519226 0.65305632 0.00017612 -0.00012473 0.00003123
0.35884455 0.60685867 0.48047727 -0.00045635 0.00039655 -0.00006215
0.65160543 0.51484227 0.60984182 0.00046987 -0.00006149 0.00007188
0.64059997 0.60647136 0.48915094 0.00045657 0.00040605 -0.00003974
0.65148908 0.56892771 0.45481366 0.00056537 -0.00021408 0.00004050
0.34602183 0.48805225 0.25005639 -0.00016013 0.00015596 -0.00022973
0.34933090 0.36141136 0.65070999 0.00042704 -0.00013486 0.00019435
0.50000000 0.51886225 0.84591180 0.00000000 0.00060544 0.00018980
0.33014637 0.35416043 0.34539911 0.00004074 -0.00032183 -0.00021772
0.38668454 0.61224955 0.61045092 -0.00042052 0.00061459 0.00030775
0.62123907 0.48253408 0.82191545 -0.00001182 0.00035123 0.00016648
0.32023364 0.45835042 0.79703367 -0.00049167 0.00038583 0.00007250
0.62523997 0.57013863 0.24805728 0.00050251 0.00038685 -0.00038102
0.66387546 0.36372229 0.38992274 -0.00014550 0.00026145 -0.00010079
0.49242544 0.53784502 0.66797000 -0.00006710 0.00004894 -0.00019931
0.60872179 0.61425042 0.61239636 0.00038114 0.00062111 0.00034179
0.36202821 0.43372408 0.12236819 -0.00020827 0.00019211 -0.00052061
0.61205089 0.55712682 0.21444000 0.00051331 0.00034707 -0.00040847
0.34712094 0.51455045 0.59851640 -0.00046183 -0.00007291 0.00009402
0.50000000 0.40956500 0.94945097 0.00000000 0.00007280 0.00085199
0.50000000 0.65218681 0.48757365 0.00000000 0.00057637 -0.00000745
0.35747731 0.60588950 0.44036999 -0.00045232 0.00034785 -0.00001658
0.38383454 0.41005227 0.92660820 -0.00019402 0.00033306 0.00043499
0.64063907 0.56743681 0.62549728 0.00062603 0.00012785 0.00028415
0.33364636 0.37872228 0.34150457 0.00020609 0.00028497 0.00006620
0.36022452 0.39704770 0.09851092 -0.00009267 0.00059310 -0.00042918
0.65909094 0.51780045 0.35254544 0.00047081 -0.00014293 -0.00010757
0.37106818 0.43108499 0.11733909 -0.00013079 0.00010121 -0.00053540
0.58255273 0.54069495 0.18112183 0.00007603 0.00033702 -0.00055288
0.50000000 0.41509953 0.94774276 0.00000000 -0.00005838 0.00087597
0.58301997 0.42380682 0.91863453 0.00003988 0.00001824 0.00021052
0.50000000 0.39841226 0.05693455 0.00000000 -0.00023768 -0.00069252
0.64717638 0.47621864 0.64245546 0.00032681 -0.00003987 0.00000621
0.32286549 0.39475498 0.90609366 -0.00080743 -0.00011010 0.00032933
0.50000000 0.61286408 0.24962366 0.00000000 0.00060475 -0.00031882
0.50000000 0.46100137 0.92414540 0.00000000 0.00018376 0.00078300
0.59121639 0.36627045 0.94633275 0.00012927 -0.00027109 0.00055471
0.36737362 0.53356588 0.66128176 -0.00022334 0.00018358 0.00015556
0.38003910 0.56590319 0.23429728 -0.00052098 0.00037699 -0.00038497
0.64247000 0.43288136 0.12350275 0.00025637 0.00019890 -0.00054037
0.60967273 0.45497501 0.91114002 -0.00026683 0.00034025 0.00028325
0.63992184 0.57226586 0.28438184 0.00063462 0.00020373 -0.00024011
0.37706000 0.48331499 0.81302547 0.00001245 0.00035486 0.00014534
0.50000000 0.53340679 0.78397095 0.00000000 0.00046997 -0.00016779
0.50000000 0.62925225 0.28886548 0.00000000 0.00057043 -0.00026458
0.63981539 0.46537861 0.73300272 0.00008559 -0.00017597 -0.00012037
0.64993548 0.48949772 0.23621456 0.00013941 0.00019277 -0.00028756
0.68012726 0.38078317 0.13746913 0.00075206 -0.00031406 -0.00000841
0.64821184 0.37508589 0.67710543 -0.00046067 0.00001117 0.00002418
0.31586093 0.43795136 0.19501637 -0.00069232 -0.00008524 -0.00027621
0.65677178 0.39515862 0.10999729 0.00033272 0.00046530 -0.00052124
0.31632000 0.45219499 0.23766820 -0.00052925 0.00016535 0.00004260
0.32400820 0.34595862 0.61708182 -0.00037613 -0.00046761 0.00017639
0.39781180 0.54811043 0.19701003 -0.00035816 0.00033378 -0.00049095
0.33304638 0.38172591 0.91803366 -0.00068272 -0.00018600 0.00044942
0.50000000 0.63650405 0.58547366 0.00000000 0.00057349 -0.00004192
0.66565269 0.36337408 0.10250457 0.00078562 -0.00028820 -0.00021099
0.35218820 0.50087863 0.63702095 -0.00040780 -0.00002830 0.00005931
0.65875453 0.36375046 0.56059182 -0.00025368 0.00024334 0.00006471
0.65810817 0.53534591 0.45483726 0.00039591 0.00027489 0.00003410
0.50000000 0.65184224 0.36244366 0.00000000 0.00066651 -0.00001528
0.39579001 0.45072225 0.91257823 0.00026113 0.00021076 0.00028123
0.47282454 0.37515771 0.05320819 -0.00029669 0.00025371 -0.00045400
0.36063001 0.60554957 0.50755638 -0.00044398 0.00043060 0.00001694
0.47944364 0.37380409 0.05219367 -0.00026032 0.00017167 -0.00048568
0.50000000 0.39225042 0.95285726 -0.00000000 0.00008224 0.00078329
0.65266365 0.48884770 0.24553365 0.00015203 0.00016203 -0.00026973
0.47423729 0.54317135 0.16939546 -0.00027403 0.00046364 -0.00022031
0.67081910 0.42716315 0.31696364 0.00007270 0.00014315 0.00032090
0.50000000 0.64394408 0.32924908 0.00000000 0.00061879 -0.00019995
0.64128453 0.56533682 0.27947456 0.00068150 0.00007244 -0.00022950
0.35586545 0.48828679 0.21715184 -0.00017672 0.00022070 -0.00015846
0.60586089 0.55092955 0.20240818 0.00042302 0.00033644 -0.00046120
0.51823640 0.60842955 0.24139819 0.00009545 0.00058305 -0.00039392
0.66294003 0.51858133 0.40754455 0.00048810 -0.00010624 -0.00006721
0.33776364 0.46125227 0.86202085 -0.00019526 0.00067629 0.00038990
0.65922368 0.51810682 0.50844997 0.00045225 -0.00009083 0.00003090
0.65031087 0.57450771 0.45498908 0.00058290 -0.00025603 0.00003822
0.56903273 0.40614137 0.93047637 0.00012261 0.00049743 0.00010784
0.62325996 0.52280134 0.69833726 0.00013364 0.00036295 -0.00001622
0.66839457 0.36425409 0.10730638 0.00078317 -0.00032851 -0.00016476
0.45204455 0.62965405 0.61287272 -0.00016375 0.00055248 0.00031207
0.50000000 0.49375591 0.89140266 0.00000000 0.00044886 0.00058647
0.66071725 0.51857132 0.47041729 0.00043419 -0.00004138 0.00003397
0.39009547 0.41409954 0.92558730 -0.00016668 0.00016034 0.00041208
0.65644729 0.55627954 0.42538455 0.00049504 0.00023454 0.00008394
0.34604275 0.42816406 0.91402364 -0.00020140 0.00020538 0.00088729
0.47520638 0.36621225 0.95216727 -0.00014979 -0.00049569 0.00054189
0.59352452 0.41962862 0.10085092 0.00007085 0.00011785 -0.00033274
0.32918090 0.42716315 0.31696364 -0.00007270 0.00014315 0.00032090
0.65459180 0.51484585 0.58084363 0.00045077 -0.00008698 0.00014958
0.34388635 0.45021316 0.89402366 -0.00041885 0.00046813 0.00043942
0.64649725 0.41907316 0.69870907 -0.00013247 -0.00003450 0.00001542
0.42703548 0.58632588 0.22682637 -0.00023878 0.00054004 -0.00039752
0.33788818 0.45321044 0.17114636 -0.00014378 0.00051602 -0.00044499
0.64326996 0.55325866 0.63211095 0.00054924 0.00013299 0.00024966
0.67695636 0.38297498 0.13185546 0.00070184 -0.00018582 -0.00011379
0.67349094 0.38524863 0.12665273 0.00063429 -0.00005963 -0.00022548
0.31757000 0.36290500 0.71487182 -0.00035459 -0.00039340 0.00031935
0.63692909 0.58809590 0.60598725 0.00070570 0.00026892 0.00015772
0.36131909 0.58204317 0.29738456 -0.00054197 0.00038896 -0.00024427
0.63109362 0.45961955 0.90780908 0.00019942 0.00053968 0.00038530
0.44805181 0.59919041 0.23617548 -0.00031790 0.00053496 -0.00033886
0.50000000 0.51441133 0.85658729 0.00000000 0.00059649 0.00027397
0.63339818 0.48185045 0.75966907 0.00010007 0.00005278 0.00009530
0.34053543 0.51822770 0.50258636 -0.00045036 -0.00008679 0.00002269
0.68046904 0.45562589 0.22969820 0.00043520 0.00028057 -0.00000469
0.33598453 0.46277499 0.85387182 -0.00016325 0.00065287 0.00046344
0.35176909 0.37057769 0.66846544 0.00045510 -0.00003011 0.00006876
0.39280909 0.46247590 0.88918543 0.00028133 0.00039488 -0.00011087
0.66219002 0.36447316 0.50042272 -0.00010394 0.00031042 0.00000428
0.50000000 0.49292862 0.10561728 0.00000000 0.00049191 -0.00046388
0.35214636 0.50535774 0.63633186 -0.00042261 -0.00002351 0.00007342
0.56712180 0.64723313 0.43966821 0.00029508 0.00058020 -0.00000648
0.34968913 0.57450771 0.45498908 -0.00058290 -0.00025603 0.00003823
0.39777091 0.54030222 0.66756183 0.00024106 0.00022656 0.00009861
0.63936996 0.60554957 0.50755638 0.00044398 0.00043060 0.00001694
0.35754818 0.60704589 0.44806638 -0.00045407 0.00037102 -0.00002186
0.37742636 0.56822318 0.24115001 -0.00050821 0.00038531 -0.00038630
0.35090274 0.58007318 0.45522365 -0.00057905 -0.00021498 0.00002199
0.67364269 0.34495589 0.40971544 0.00027551 -0.00043130 -0.00014490
0.32619816 0.34531590 0.55949360 -0.00031974 -0.00043158 0.00006402
0.60345453 0.46892861 0.85368276 -0.00006064 0.00008284 0.00025876
0.32652637 0.34521228 0.54797727 -0.00031781 -0.00043536 0.00005384
0.40968728 0.41481590 0.09578728 -0.00009577 0.00013591 -0.00032605
0.49330819 0.54438680 0.16823910 -0.00008524 0.00054630 -0.00015725
0.39085910 0.36613226 0.94307637 -0.00034642 -0.00031067 0.00055857
0.35843274 0.36728865 0.08014639 -0.00053328 0.00022035 -0.00039840
0.34828362 0.42273682 0.12072455 -0.00038762 0.00014946 -0.00065248
0.33434728 0.36337408 0.10250457 -0.00078562 -0.00028820 -0.00021099
0.50000000 0.48258862 0.09713546 0.00000000 0.00040508 -0.00055697
0.33685362 0.36286315 0.34970275 0.00030178 -0.00000772 -0.00008111
0.60715002 0.35375589 0.05932457 0.00020599 -0.00043187 -0.00074332
0.36513999 0.61191130 0.44029456 -0.00029357 0.00050005 -0.00002652
0.35030180 0.44857863 0.90822911 -0.00050164 0.00026348 0.00065318
0.50000000 0.65305042 0.37077275 0.00000000 0.00066438 0.00002753
0.63897091 0.59609592 0.34467003 0.00042399 0.00050128 -0.00008590
0.61929089 0.46643224 0.15250458 0.00019147 0.00007881 -0.00024436
0.65362090 0.51568407 0.29836091 0.00044661 -0.00008366 -0.00006887
0.65703994 0.54094499 0.45449910 0.00039346 0.00033198 0.00003794
0.64653909 0.59113133 0.45610821 0.00054156 -0.00002961 -0.00001389
0.62763357 0.53642678 0.66340363 0.00010907 0.00021683 0.00016430
0.59636909 0.55169499 0.19713363 0.00023741 0.00040007 -0.00050890
0.46614909 0.37953681 0.95202816 -0.00026676 0.00012193 0.00056921
0.50000000 0.63234949 0.60150999 -0.00000000 0.00051249 0.00014582
0.32663727 0.35351133 0.69135183 -0.00003709 -0.00042406 0.00002635
0.58679456 0.62424678 0.61099637 0.00025375 0.00068025 0.00028035
0.34764454 0.36172864 0.08484730 -0.00072478 -0.00011047 -0.00041266
0.61653996 0.40631863 0.09675001 0.00013497 0.00018031 -0.00040377
0.31570452 0.41967592 0.88353366 -0.00092566 -0.00000404 0.00017396
0.65950727 0.36234772 0.09327275 0.00076179 -0.00017527 -0.00031021
0.50000000 0.51646137 0.12955365 0.00000000 0.00061012 -0.00027511
0.34285089 0.50059044 0.27643001 -0.00039940 -0.00001912 -0.00014594
0.48332271 0.35050410 0.04602455 -0.00008899 -0.00046248 -0.00062158
0.62958640 0.48470953 0.77755004 0.00003681 0.00021702 0.00017703
0.50000000 0.64659315 0.53719550 -0.00000000 0.00054473 0.00016952
0.42681274 0.41760772 0.92324913 -0.00011565 0.00013167 0.00019428
0.50709271 0.37220863 0.05103911 0.00010058 0.00006893 -0.00052821
0.44233093 0.38599682 0.06290547 -0.00013879 0.00063746 -0.00028349
0.62111366 0.46860406 0.15669182 0.00023098 0.00005043 -0.00023457
0.64324725 0.60496956 0.42697456 0.00046468 0.00036698 0.00000678
0.33939272 0.45919225 0.87012362 -0.00027372 0.00070540 0.00023269
0.39447090 0.49864954 0.16085729 -0.00043032 -0.00006051 -0.00044910
0.50000000 0.65502948 0.42127272 -0.00000000 0.00061087 0.00006163
0.68300730 0.44980499 0.77347910 0.00053839 0.00026251 -0.00002287
0.32703909 0.46321681 0.82122546 -0.00029945 0.00053647 0.00023966
0.59094912 0.35245499 0.05583639 0.00011675 -0.00042415 -0.00067204
0.50000000 0.41133228 0.06077274 -0.00000000 -0.00037881 -0.00076701
0.63935184 0.48548499 0.20274912 0.00022705 0.00019353 -0.00011126
0.37974182 0.60078770 0.61914641 -0.00042875 0.00048510 0.00041598
0.34092185 0.45663682 0.87816274 -0.00033653 0.00068166 0.00021098
0.35006455 0.48949772 0.23621456 -0.00013941 0.00019277 -0.00028756
0.55776817 0.53999048 0.17361002 0.00005105 0.00032783 -0.00047235
0.66052812 0.51856411 0.47507364 0.00043578 -0.00004498 0.00002407
0.63584000 0.59651130 0.58729094 0.00067468 0.00031904 0.00010049
0.36405724 0.48297316 0.19318184 -0.00029114 0.00015076 -0.00006655
0.35658908 0.52343410 0.64918453 -0.00044721 0.00004151 0.00013581
0.37236637 0.53642678 0.66340363 -0.00010907 0.00021683 0.00016430
0.50000000 0.38530681 0.05364638 -0.00000000 0.00014527 -0.00056291
0.63165367 0.48974589 0.75378907 0.00019840 0.00004450 0.00019186
0.66246641 0.47655410 0.27896458 0.00019969 0.00011284 0.00005990
0.63802087 0.36303043 0.07534727 0.00055188 0.00003700 -0.00049096
0.31576270 0.43227410 0.18742639 -0.00072551 -0.00016012 -0.00027490
0.35438183 0.48878315 0.22193910 -0.00016431 0.00022230 -0.00017649
0.65369451 0.36232316 0.62068182 -0.00038170 0.00001540 0.00010609
0.50000000 0.52086681 0.13466728 0.00000000 0.00060250 -0.00027413
0.50000000 0.65482950 0.43035457 -0.00000000 0.00060268 0.00004844
0.33488455 0.35685319 0.68164271 0.00028020 -0.00025071 -0.00012066
0.54295725 0.36681589 0.95115095 0.00016783 -0.00035415 0.00050710
0.45065999 0.35089317 0.04959183 -0.00010162 -0.00037142 -0.00056442
0.41744727 0.54069495 0.18112183 -0.00007603 0.00033702 -0.00055288
0.60911542 0.55397499 0.20824818 0.00047666 0.00034108 -0.00043184
0.52822179 0.62992042 0.61302269 0.00004514 0.00050592 0.00033059
0.36877275 0.49330679 0.74670184 -0.00025187 0.00000402 0.00022940
0.35031456 0.58342588 0.42544818 -0.00059477 -0.00009940 0.00006483
0.46309364 0.36662501 0.95153457 -0.00017546 -0.00040449 0.00051711
0.64254999 0.41068226 0.92227632 -0.00009837 0.00053429 0.00076712
0.31581363 0.44756228 0.84448177 -0.00070541 0.00014962 0.00040001
0.35269091 0.48132953 0.64118451 -0.00034318 -0.00004003 0.00001459
0.31589907 0.42936590 0.74799639 -0.00046952 -0.00002606 -0.00013536
0.41088367 0.44896409 0.89152271 0.00015224 0.00011298 -0.00017242
0.67548275 0.34581318 0.60556275 0.00035640 -0.00045125 0.00014844
0.45382819 0.38097954 0.05805183 -0.00021668 0.00053470 -0.00035007
0.61761642 0.46409136 0.14866185 0.00014500 0.00010938 -0.00024798
0.57739180 0.41634679 0.92242813 0.00009009 0.00014839 0.00017524
0.38971817 0.46953136 0.87304187 0.00020045 0.00033361 -0.00005850
0.66598362 0.46373227 0.84569454 0.00016777 0.00062599 0.00047022
0.62516636 0.42792317 0.11384183 0.00010525 0.00007055 -0.00053765
0.31587818 0.42282045 0.74302363 -0.00045716 -0.00012279 -0.00013827
0.40018818 0.42988500 0.11105910 0.00002943 0.00012693 -0.00034729
0.50000000 0.65494865 0.39567909 0.00000000 0.00064041 0.00008868
0.33804819 0.51878130 0.39019182 -0.00048508 -0.00013130 -0.00010080
0.39927092 0.42553043 0.92157185 -0.00002952 -0.00007382 0.00037733
0.61747181 0.60548133 0.61635548 0.00042333 0.00053603 0.00039110
0.67542630 0.46201408 0.81313092 0.00036894 0.00048526 0.00017604
0.64752001 0.39935410 0.68849003 -0.00019616 -0.00004939 0.00003127
0.64245182 0.60704589 0.44806638 0.00045407 0.00037102 -0.00002186
0.36089545 0.35999861 0.07390002 -0.00060926 -0.00014553 -0.00057083
0.34734091 0.41287497 0.11486912 -0.00035822 0.00024629 -0.00066943
0.68194366 0.45686316 0.80732000 0.00058942 0.00031776 0.00013734
0.34242091 0.39912498 0.91712636 -0.00028340 0.00025063 0.00056630
0.60807639 0.40204680 0.09255000 0.00013833 0.00027004 -0.00027233
0.46701637 0.35063225 0.04751819 -0.00012703 -0.00040709 -0.00058417
0.66022092 0.48109680 0.27139544 0.00019671 0.00012503 -0.00002647
0.32004002 0.34702227 0.68625003 -0.00032549 -0.00063346 -0.00003892
0.61232364 0.40365317 0.09440274 0.00014678 0.00023613 -0.00032247
0.34390000 0.44824043 0.15503910 -0.00025908 0.00052389 -0.00027900
0.36174092 0.58058864 0.61515272 -0.00070352 0.00019294 0.00022216
0.58815181 0.54187769 0.18418728 0.00014515 0.00033817 -0.00054536
0.35670909 0.60517770 0.43042454 -0.00046613 0.00035760 0.00000020
0.64711273 0.41508862 0.65804458 0.00007425 -0.00016389 0.00008823
0.34883910 0.57803768 0.42559728 -0.00061107 -0.00015749 0.00007629
0.64201552 0.60736585 0.46535546 0.00044954 0.00039428 -0.00003601
0.50000000 0.65258497 0.48202637 0.00000000 0.00057637 0.00001272
0.33919272 0.53444046 0.42431363 -0.00046115 0.00020912 0.00001383
0.54541177 0.38518861 0.94836545 0.00028065 0.00039292 0.00043133
0.68366361 0.40538952 0.30706090 0.00039629 -0.00014349 0.00000018
0.67296094 0.46321681 0.82122546 0.00029945 0.00053647 0.00023966
0.33653456 0.36449590 0.46026364 0.00005968 0.00030694 -0.00001902
0.66342723 0.51828682 0.42157730 0.00048714 -0.00008235 -0.00004157
0.65465546 0.36260861 0.61067182 -0.00037800 0.00007684 0.00008140
0.39654547 0.46892861 0.85368276 0.00006064 0.00008284 0.00025876
0.43287817 0.64723313 0.43966821 -0.00029508 0.00058020 -0.00000648
0.38690183 0.47692588 0.82910180 0.00003890 0.00020380 0.00019703
0.34231547 0.51698411 0.53859091 -0.00045341 -0.00009824 0.00010226
0.35065910 0.52767771 0.27640274 -0.00055141 -0.00014858 -0.00018310
0.62811273 0.60281682 0.60195816 0.00058172 0.00049564 0.00020325
0.64153272 0.60263228 0.39487639 0.00044909 0.00044646 0.00005420
0.31987274 0.38078317 0.13746913 -0.00075206 -0.00031406 -0.00000841
0.59467542 0.45823771 0.87701094 -0.00017684 0.00012767 -0.00015528
0.58520454 0.36646771 0.94717455 0.00004915 -0.00022764 0.00054278
0.36358273 0.59130955 0.60048181 -0.00070033 0.00029063 0.00013727
0.57623363 0.64442313 0.43971911 0.00035851 0.00055548 -0.00001116
0.66062814 0.51855958 0.37139001 0.00047953 -0.00013378 -0.00007270
0.67874640 0.37625319 0.13218091 0.00075541 -0.00034786 -0.00002117
0.35487726 0.54325682 0.63402724 -0.00053613 0.00008162 0.00021180
0.61625636 0.45813864 0.90980095 -0.00021017 0.00045472 0.00028632
0.33706999 0.36453044 0.48034728 0.00007504 0.00031192 -0.00003054
0.58894908 0.43205047 0.91630727 -0.00003056 -0.00002215 0.00022898
0.36419910 0.59849775 0.57965368 -0.00063894 0.00033866 0.00010421
0.35871544 0.56533682 0.27947456 -0.00068150 0.00007244 -0.00022950
0.64347458 0.39833865 0.10112457 0.00013677 0.00054912 -0.00049627
0.39956909 0.46571681 0.86162817 0.00008613 0.00007394 0.00017897
0.61205184 0.47268498 0.86480910 -0.00012654 0.00027166 0.00013528
0.65554184 0.36286408 0.60065818 -0.00036703 0.00012827 0.00007276
0.33675271 0.36453590 0.47030729 0.00006391 0.00030923 -0.00002659
0.44865182 0.54050499 0.17250547 -0.00013538 0.00033727 -0.00041921
0.50000000 0.53778768 0.71442002 0.00000000 0.00023521 -0.00042154
0.68291909 0.45403409 0.82613271 0.00064528 0.00025013 0.00027001
0.50000000 0.52982134 0.80692273 0.00000000 0.00053991 -0.00005641
0.35185543 0.58878684 0.42511365 -0.00056757 -0.00000867 0.00005984
0.37876093 0.48253408 0.82191545 0.00001182 0.00035123 0.00016648
0.50000000 0.64963591 0.51530546 0.00000000 0.00057206 0.00002082
0.32677728 0.36723045 0.11708003 -0.00075703 -0.00037024 -0.00010498
0.34052730 0.36393499 0.55057091 0.00022347 0.00026261 0.00005183
0.48732817 0.36589590 0.95258272 -0.00009063 -0.00057696 0.00056378
0.64603728 0.37843955 0.09024820 0.00039330 0.00050256 -0.00034322
0.42128727 0.58113045 0.22260728 -0.00013025 0.00059208 -0.00041240
0.39556998 0.50453407 0.16420001 -0.00044024 -0.00002641 -0.00045265
0.35686547 0.60544407 0.43501002 -0.00046298 0.00035152 -0.00000292
0.34836456 0.42138410 0.91678542 -0.00008109 0.00030908 0.00088360
0.38107091 0.54474497 0.66250360 0.00005634 0.00025287 0.00023638
0.50000000 0.61946863 0.26519728 0.00000000 0.00063614 -0.00017095
0.50000000 0.50658953 0.87208277 0.00000000 0.00054874 0.00042166
0.62144822 0.54946047 0.65895456 0.00000255 0.00025763 0.00030710
0.59189272 0.45385227 0.88438916 -0.00018178 0.00013943 -0.00020808
0.33657277 0.51828682 0.42157730 -0.00048714 -0.00008235 -0.00004157
0.62668365 0.36735681 0.93840271 0.00048768 -0.00021543 0.00052610
0.48176363 0.60842955 0.24139819 -0.00009545 0.00058305 -0.00039392
0.40483907 0.62146586 0.61093003 -0.00028700 0.00068369 0.00029601
0.65227276 0.51457316 0.60430908 0.00046657 -0.00006756 0.00007855
0.57310271 0.53752863 0.66881728 0.00000769 0.00013503 0.00006345
0.35321185 0.43519226 0.65305632 -0.00017612 -0.00012473 0.00003123
0.35898545 0.60186493 0.38652819 -0.00044244 0.00046574 0.00004511
0.42314547 0.42449135 0.91743821 -0.00008329 0.00001482 0.00017311
0.50000000 0.54077137 0.16234912 0.00000000 0.00056601 -0.00017181
0.32216728 0.34646043 0.65165275 -0.00038588 -0.00051578 0.00007178
0.35762003 0.60652775 0.44427729 -0.00045153 0.00035784 -0.00001549
0.64722270 0.41010135 0.65925092 0.00004151 -0.00014241 0.00009193
0.37539637 0.48385134 0.80409276 0.00001517 0.00034220 0.00015266
0.60197091 0.52195317 0.17504546 0.00041265 0.00010213 -0.00050171
0.35578004 0.37245589 0.08518457 -0.00048383 0.00038295 -0.00033857
0.41665000 0.43760863 0.90500641 0.00002320 0.00001235 0.00000875
0.62460363 0.48385134 0.80409276 -0.00001517 0.00034220 0.00015266
0.41954276 0.53815502 0.66871184 0.00011208 0.00015858 0.00006446
0.50000000 0.53313404 0.15096000 0.00000000 0.00058362 -0.00021952
0.60034907 0.53364950 0.18307000 0.00036864 0.00020124 -0.00052356
0.32150453 0.34663862 0.66317999 -0.00036035 -0.00054493 -0.00012536
0.41220272 0.53892589 0.66847366 0.00020913 0.00018163 0.00006917
0.35046273 0.40401772 0.10773546 -0.00026069 0.00040224 -0.00061543
0.35139000 0.51713681 0.63022637 -0.00047061 -0.00002018 0.00010145
0.66879368 0.39474681 0.33337003 -0.00008040 0.00021921 0.00021832
0.33401635 0.46373227 0.84569454 -0.00016777 0.00062599 0.00047022
0.37205911 0.57167411 0.25500092 -0.00051070 0.00038285 -0.00035394
0.61948001 0.48141500 0.83072275 -0.00001899 0.00033036 0.00021492
0.64485180 0.59941947 0.42366910 0.00049773 0.00023537 0.00003585
0.65902001 0.48288590 0.26731634 0.00019021 0.00013235 -0.00006626
0.50000000 0.52268231 0.83499181 0.00000000 0.00059712 0.00011502
0.66398817 0.36404318 0.41002637 -0.00008353 0.00026456 -0.00017745
0.34099182 0.49125588 0.27404550 -0.00032499 0.00004355 -0.00009813
0.35038728 0.44148591 0.13918820 -0.00027364 0.00041747 -0.00035468
0.37327546 0.47476318 0.16976275 -0.00032353 0.00002867 -0.00015657
0.41320547 0.62424678 0.61099637 -0.00025375 0.00068025 0.00028035
0.66373545 0.36352500 0.37986821 -0.00020969 0.00028068 0.00001740
0.65947270 0.36393499 0.55057091 -0.00022347 0.00026261 0.00005183
0.62826639 0.39955136 0.09511910 0.00011892 0.00041999 -0.00038587
0.31843907 0.34743318 0.70933270 -0.00032637 -0.00072659 0.00032712
0.35675272 0.60496956 0.42697456 -0.00046468 0.00036698 0.00000678
0.49339274 0.36581409 0.95269269 -0.00005005 -0.00060504 0.00057055
0.68505365 0.43171954 0.28440729 0.00049126 -0.00000326 0.00001603
0.62025821 0.60078770 0.61914641 0.00042875 0.00048510 0.00041598
0.35665181 0.44821042 0.71744996 0.00005569 0.00002356 -0.00007206
0.34478635 0.56174231 0.42548910 -0.00054120 0.00006719 0.00009663
0.50000000 0.47716409 0.09323729 0.00000000 0.00036987 -0.00058322
0.33026457 0.38760227 0.12186091 -0.00056395 0.00007716 -0.00031529
0.64738721 0.52537590 0.63446820 0.00049655 0.00000574 0.00013956
0.34357274 0.36311951 0.59064549 0.00034480 0.00016914 0.00007681
0.50000000 0.53706867 0.15654275 0.00000000 0.00057967 -0.00019545
0.36688000 0.57409048 0.26894546 -0.00053929 0.00035674 -0.00030742
0.66080725 0.53444046 0.42431363 0.00046115 0.00020912 0.00001383
0.48993364 0.65442407 0.43987000 -0.00008793 0.00059688 0.00003348
0.42376634 0.64442313 0.43971911 -0.00035851 0.00055548 -0.00001116
0.34490362 0.51511866 0.57483453 -0.00044923 -0.00008950 0.00015674
0.57765454 0.62641865 0.61139727 0.00024536 0.00064898 0.00027640
0.64115542 0.60685867 0.48047727 0.00045635 0.00039655 -0.00006215
0.50000000 0.62602222 0.28093636 0.00000000 0.00060467 -0.00019248
0.50660729 0.36581409 0.95269269 0.00005005 -0.00060504 0.00057055
0.67336273 0.35351133 0.69135183 0.00003709 -0.00042406 0.00002635
0.40433910 0.44119772 0.91472363 0.00014958 0.00002532 0.00025795
0.45885274 0.35074228 0.04850729 -0.00011971 -0.00038718 -0.00057108
0.34184185 0.49602863 0.27527002 -0.00036673 0.00001061 -0.00012527
0.65946454 0.51822770 0.50258636 0.00045036 -0.00008679 0.00002268
0.66325456 0.51842409 0.41507816 0.00048817 -0.00009369 -0.00005330
0.63060635 0.57293409 0.26196456 0.00052396 0.00037061 -0.00032918
0.33688909 0.51819319 0.43510637 -0.00047261 -0.00005629 -0.00001321
0.33607364 0.36428955 0.43012547 0.00006385 0.00029221 -0.00008112
0.64171910 0.45719773 0.72491729 0.00001633 -0.00009108 -0.00012263
0.65691721 0.51636589 0.55069911 0.00045107 -0.00009695 0.00013512
0.50000000 0.65376407 0.46028548 -0.00000000 0.00058265 0.00003682
0.50000000 0.49783772 0.11017819 0.00000000 0.00053183 -0.00040885
0.38361365 0.47906771 0.82069814 0.00003397 0.00024874 0.00014993
0.68076003 0.34722769 0.69779092 0.00031831 -0.00067359 0.00013172
0.63486004 0.61191130 0.44029456 0.00029357 0.00050005 -0.00002652
0.34124547 0.36375046 0.56059182 0.00025368 0.00024334 0.00006471
0.33090001 0.45079225 0.30324548 -0.00013336 0.00023959 0.00026581
0.50000000 0.38029861 0.95412546 -0.00000000 -0.00014169 0.00073164
0.34296000 0.54094499 0.45449910 -0.00039346 0.00033198 0.00003794
0.38950273 0.45149225 0.13196182 0.00006803 0.00021384 -0.00029562
0.62808454 0.35744411 0.06729092 0.00048844 -0.00026873 -0.00067192
0.61300814 0.45675227 0.13796549 -0.00000574 0.00020207 -0.00026532
0.51006639 0.65442407 0.43987000 0.00008793 0.00059688 0.00003348
0.54114723 0.35074228 0.04850729 0.00011971 -0.00038718 -0.00057108
0.48517272 0.53772312 0.66802365 -0.00012612 0.00004975 -0.00017936
0.64674181 0.44537771 0.65043545 0.00021777 -0.00009662 0.00001458
0.33867729 0.51873767 0.38086364 -0.00048223 -0.00013186 -0.00008612
0.68128723 0.38608772 0.14294820 0.00075202 -0.00027711 -0.00000059
0.53981817 0.38209680 0.95046002 0.00027834 0.00025426 0.00050737
