0.49890980 0.60225165 0.83322829 0.00001180 0.00204847 -0.00044681
0.43879250 0.60314620 0.83322829 -0.00007404 0.00206881 -0.00029295
0.38098550 0.60575587 0.83322829 -0.00017908 0.00220438 0.00013836
0.32771027 0.60729426 0.83322829 -0.00094854 0.00259667 0.00067272
0.28101414 0.59862095 0.83322829 -0.00151480 0.00254316 0.00112617
0.24269164 0.58320069 0.83322829 -0.00233570 0.00248855 0.00146184
0.21421549 0.55574793 0.83322829 -0.00269948 0.00189695 0.00166927
0.19667977 0.52323824 0.83322829 -0.00290159 0.00157137 0.00177302
0.19075885 0.50000000 0.83322829 -0.00333718 0.00001284 0.00180605
0.19667977 0.47676173 0.83322829 -0.00299426 -0.00145587 0.00177291
0.21421549 0.44414786 0.83322829 -0.00270717 -0.00207102 0.00166852
0.24269164 0.42055166 0.83322829 -0.00218525 -0.00224317 0.00145818
0.28101414 0.40212843 0.83322829 -0.00150743 -0.00276366 0.00109128
0.32771027 0.39648712 0.83399552 -0.00082314 -0.00237699 0.00072336
0.38098550 0.39420712 0.83322829 -0.00015866 -0.00244636 0.00010828
0.43879250 0.40075362 0.83322829 0.00011457 -0.00193974 -0.00035420
0.49890980 0.40204096 0.83322829 -0.00001901 -0.00199622 -0.00051511
0.55902708 0.40136763 0.83322829 -0.00005473 -0.00194701 -0.00036132
0.61683410 0.39613128 0.83322829 -0.00002853 -0.00221574 0.00010915
0.67010933 0.39344651 0.83322829 0.00069197 -0.00254273 0.00065900
0.71680540 0.39798501 0.83322829 0.00096824 -0.00310555 0.00111802
0.75512797 0.41476488 0.83322829 0.00275726 -0.00206572 0.00145144
0.79142541 0.45441651 0.83322829 0.00242400 -0.00218761 0.00171060
0.80113983 0.47676173 0.83322829 0.00286640 -0.00130511 0.00176671
0.80706072 0.50000000 0.83322829 0.00360938 0.00069527 0.00180102
0.80113983 0.52323824 0.83322829 0.00308910 0.00150095 0.00176905
0.78360409 0.55436784 0.83322829 0.00269385 0.00193087 0.00166609
0.75512797 0.58029312 0.83322829 0.00226419 0.00236575 0.00145916
0.71680540 0.59746832 0.83322829 0.00156360 0.00259767 0.00112101
0.67010933 0.60574085 0.83322829 0.00094250 0.00251231 0.00066156
0.61683410 0.60666037 0.83322829 0.00021614 0.00233934 0.00014312
0.55902708 0.60296130 0.83322829 0.00000529 0.00203680 -0.00029692
0.20248938 0.61103135 0.69587648 -0.00015511 0.00276190 -0.00013847
0.18046917 0.60889792 0.69587648 -0.00074010 0.00289692 0.00002954
0.15929535 0.60257959 0.69587648 -0.00135468 0.00286172 0.00017640
0.13978136 0.59231919 0.69587648 -0.00195179 0.00266320 0.00029972
0.12267708 0.57851100 0.69587648 -0.00249227 0.00231863 0.00039907
0.10864022 0.56168568 0.69587648 -0.00294490 0.00185136 0.00047493
0.09820955 0.54248989 0.69587648 -0.00328576 0.00128861 0.00052817
0.09178662 0.52166116 0.69587648 -0.00349739 0.00066028 0.00055967
0.08961771 0.50000000 0.69587648 -0.00356919 -0.00000150 0.00057006
0.09178662 0.47833887 0.69587648 -0.00349747 -0.00066332 0.00055959
0.09820955 0.45751011 0.69587648 -0.00328598 -0.00129181 0.00052803
0.10864022 0.43831429 0.69587648 -0.00294535 -0.00185490 0.00047477
0.12267708 0.42148900 0.69587648 -0.00249304 -0.00232282 0.00039900
0.13978136 0.40768084 0.69587648 -0.00195291 -0.00266852 0.00029992
0.15929535 0.39742041 0.69587648 -0.00135603 -0.00286884 0.00017715
0.18046917 0.39110211 0.69587648 -0.00074128 -0.00290659 0.00003119
0.20248938 0.38896865 0.69587648 -0.00015529 -0.00277486 -0.00013562
0.22450939 0.39110211 0.69587648 0.00035033 -0.00248312 -0.00031751
0.24568342 0.39742041 0.69587648 0.00072728 -0.00206378 -0.00050328
0.26519740 0.40768084 0.69587648 0.00094506 -0.00157384 -0.00067561
0.28230152 0.42148900 0.69587648 0.00100619 -0.00108588 -0.00081464
0.29633853 0.43831429 0.69587648 0.00095070 -0.00066728 -0.00090672
0.30676898 0.45751011 0.69587648 0.00084294 -0.00035603 -0.00095284
0.31319201 0.47833887 0.69587648 0.00074724 -0.00014769 -0.00096816
0.31536081 0.50000000 0.69587648 0.00070775 -0.00000119 -0.00097076
0.31319201 0.52166116 0.69587648 0.00074012 0.00014375 -0.00096867
0.30676898 0.54248989 0.69587648 0.00083029 0.00034785 -0.00095441
0.29633853 0.56168568 0.69587648 0.00093545 0.00065368 -0.00090993
0.28230152 0.57851100 0.69587648 0.00099180 0.00106775 -0.00081939
0.26519740 0.59231919 0.69587648 0.00093432 0.00155370 -0.00068103
0.24568342 0.60257959 0.69587648 0.00072120 0.00204446 -0.00050839
0.22450939 0.60889792 0.69587648 0.00034814 0.00246662 -0.00032163
0.86306942 0.61018401 0.50008351 0.00010530 0.00276661 -0.00000608
0.84522337 0.60806686 0.50008351 -0.00048771 0.00241916 -0.00000687
0.82806319 0.60179675 0.50008351 -0.00086101 0.00194163 -0.00000768
0.81224823 0.59161460 0.50008351 -0.00100972 0.00144353 -0.00000842
0.79838639 0.57791185 0.50008351 -0.00100124 0.00099212 -0.00000903
0.78701013 0.56121492 0.50008351 -0.00090675 0.00062825 -0.00000946
0.77855688 0.54216558 0.50008351 -0.00078292 0.00037168 -0.00000972
0.77335137 0.52149582 0.50008351 -0.00069388 0.00017953 -0.00000984
0.77159363 0.50000000 0.50008351 -0.00066495 0.00000127 -0.00000986
0.77335137 0.47850415 0.50008351 -0.00069540 -0.00017733 -0.00000982
0.77855688 0.45783439 0.50008351 -0.00078557 -0.00037039 -0.00000970
0.78701013 0.43878505 0.50008351 -0.00090989 -0.00062813 -0.00000944
0.79838639 0.42208815 0.50008351 -0.00100412 -0.00099312 -0.00000900
0.81224823 0.40838537 0.50008351 -0.00101179 -0.00144522 -0.00000839
0.82806319 0.39820322 0.50008351 -0.00086207 -0.00194344 -0.00000765
0.84522337 0.39193314 0.50008351 -0.00048782 -0.00242063 -0.00000685
0.86306942 0.38981599 0.50008351 0.00010588 -0.00276746 -0.00000606
0.88091564 0.39193314 0.50008351 0.00082240 -0.00289644 -0.00000533
0.89807576 0.39820322 0.50008351 0.00152120 -0.00280039 -0.00000470
0.91389072 0.40838537 0.50008351 0.00210945 -0.00252906 -0.00000418
0.92775261 0.42208815 0.50008351 0.00257747 -0.00210584 -0.00000377
0.93912888 0.43878505 0.50008351 0.00290759 -0.00159827 -0.00000346
0.94758213 0.45783439 0.50008351 0.00309714 -0.00109096 -0.00000325
0.95278770 0.47850415 0.50008351 0.00320070 -0.00057017 -0.00000313
0.95454532 0.50000000 0.50008351 0.00323892 0.00000069 -0.00000309
0.95278770 0.52149582 0.50008351 0.00320064 0.00057154 -0.00000313
0.94758213 0.54216558 0.50008351 0.00309699 0.00109229 -0.00000326
0.93912888 0.56121492 0.50008351 0.00290732 0.00159954 -0.00000347
0.92775261 0.57791185 0.50008351 0.00257703 0.00210697 -0.00000378
0.91389072 0.59161460 0.50008351 0.00210878 0.00252995 -0.00000419
0.89807576 0.60179675 0.50008351 0.00152033 0.00280086 -0.00000471
0.88091564 0.60806686 0.50008351 0.00082150 0.00289630 -0.00000535
0.13693053 0.61018401 0.50008351 -0.00010451 0.00275531 -0.00000017
0.11908451 0.60806686 0.50008351 -0.00081764 0.00288386 0.00000156
0.10192417 0.60179675 0.50008351 -0.00151336 0.00278839 0.00000314
0.08610938 0.59161460 0.50008351 -0.00209914 0.00251831 0.00000452
0.07224733 0.57791185 0.50008351 -0.00256526 0.00209702 0.00000569
0.06087111 0.56121492 0.50008351 -0.00289410 0.00159172 0.00000662
0.05241783 0.54216558 0.50008351 -0.00308306 0.00108652 0.00000731
0.04721247 0.52149582 0.50008351 -0.00318635 0.00056782 0.00000773
0.04545457 0.50000000 0.50008351 -0.00322458 -0.00000065 0.00000788
0.04721247 0.47850415 0.50008351 -0.00318656 -0.00056915 0.00000774
0.05241783 0.45783439 0.50008351 -0.00308350 -0.00108794 0.00000732
0.06087111 0.43878505 0.50008351 -0.00289481 -0.00159333 0.00000664
0.07224733 0.42208815 0.50008351 -0.00256623 -0.00209901 0.00000571
0.08610938 0.40838537 0.50008351 -0.00210028 -0.00252087 0.00000455
0.10192417 0.39820322 0.50008351 -0.00151444 -0.00279173 0.00000318
0.11908451 0.39193314 0.50008351 -0.00081831 -0.00288806 0.00000161
0.13693053 0.38981599 0.50008351 -0.00010436 -0.00276026 -0.00000011
0.15477654 0.39193314 0.50008351 0.00048751 -0.00241536 -0.00000193
0.17193669 0.39820322 0.50008351 0.00086097 -0.00194039 -0.00000374
0.18775168 0.40838537 0.50008351 0.00101077 -0.00144419 -0.00000543
0.20161372 0.42208815 0.50008351 0.00100363 -0.00099372 -0.00000686
0.21298975 0.43878505 0.50008351 0.00091008 -0.00062985 -0.00000795
0.22144306 0.45783439 0.50008351 0.00078648 -0.00037262 -0.00000866
0.22664860 0.47850415 0.50008351 0.00069683 -0.00017963 -0.00000904
0.22840628 0.50000000 0.50008351 0.00066660 -0.00000082 -0.00000917
0.22664860 0.52149582 0.50008351 0.00069538 0.00017778 -0.00000907
0.22144306 0.54216558 0.50008351 0.00078381 0.00037023 -0.00000870
0.21298975 0.56121492 0.50008351 0.00090661 0.00062666 -0.00000801
0.20161372 0.57791185 0.50008351 0.00099997 0.00098959 -0.00000694
0.18775168 0.59161460 0.50008351 0.00100752 0.00143925 -0.00000551
0.17193669 0.60179675 0.50008351 0.00085859 0.00193501 -0.00000381
0.15477654 0.60806686 0.50008351 0.00048625 0.00240997 -0.00000199
0.79668856 0.61103135 0.69587648 0.00015626 0.00277260 -0.00012761
0.77466857 0.60889792 0.69587648 -0.00034958 0.00247828 -0.00031248
0.75349450 0.60257959 0.69587648 -0.00072542 0.00205571 -0.00050230
0.73398054 0.59231919 0.69587648 -0.00094087 0.00156302 -0.00067923
0.71687645 0.57851100 0.69587648 -0.00099960 0.00107413 -0.00082245
0.70283943 0.56168568 0.69587648 -0.00094328 0.00065699 -0.00091747
0.69240898 0.54248989 0.69587648 -0.00083737 0.00034886 -0.00096545
0.68598598 0.52166116 0.69587648 -0.00074605 0.00014335 -0.00098241
0.68381715 0.50000000 0.69587648 -0.00071213 -0.00000243 -0.00098721
0.68598598 0.47833887 0.69587648 -0.00074928 -0.00014923 -0.00098829
0.69240898 0.45751011 0.69587648 -0.00084170 -0.00035658 -0.00097843
0.70283943 0.43831429 0.69587648 -0.00094586 -0.00066491 -0.00093970
0.71687645 0.42148900 0.69587648 -0.00099864 -0.00107917 -0.00085580
0.73398054 0.40768084 0.69587648 -0.00093665 -0.00156295 -0.00072336
0.75349450 0.39742041 0.69587648 -0.00071988 -0.00205039 -0.00055370
0.77466857 0.39110211 0.69587648 -0.00034510 -0.00246939 -0.00036583
0.79668856 0.38896865 0.69587648 0.00015802 -0.00276256 -0.00017811
0.81870878 0.39110211 0.69587648 0.00074182 -0.00289669 -0.00000365
0.83988279 0.39742041 0.69587648 0.00135498 -0.00286156 0.00015024
0.85939676 0.40768084 0.69587648 0.00195086 -0.00266369 0.00028040
0.87650090 0.42148900 0.69587648 0.00249052 -0.00232014 0.00038605
0.89053792 0.43831429 0.69587648 0.00294286 -0.00185409 0.00046752
0.90096831 0.45751011 0.69587648 0.00328394 -0.00129252 0.00052560
0.90739131 0.47833887 0.69587648 0.00349636 -0.00066517 0.00056114
0.90956020 0.50000000 0.69587648 0.00356935 -0.00000396 0.00057480
0.90739131 0.52166116 0.69587648 0.00349902 0.00065784 0.00056684
0.90096831 0.54248989 0.69587648 0.00328882 0.00128692 0.00053712
0.89053792 0.56168568 0.69587648 0.00294918 0.00185109 0.00048511
0.87650090 0.57851100 0.69587648 0.00249724 0.00232031 0.00041006
0.85939676 0.59231919 0.69587648 0.00195685 0.00266723 0.00031119
0.83988279 0.60257959 0.69587648 0.00135914 0.00286823 0.00018808
0.81870878 0.60889792 0.69587648 0.00074325 0.00290576 0.00004111
0.19993322 0.61103135 0.30281705 -0.00015658 0.00276861 0.00011839
0.17791303 0.60889792 0.30281705 -0.00074257 0.00290291 -0.00004565
0.15673921 0.60257959 0.30281705 -0.00135821 0.00286788 -0.00018867
0.13722521 0.59231919 0.30281705 -0.00195689 0.00266992 -0.00030851
0.12012094 0.57851100 0.30281705 -0.00249955 0.00232570 -0.00040489
0.10608406 0.56168568 0.30281705 -0.00295472 0.00185804 -0.00047838
0.09565339 0.54248989 0.30281705 -0.00329799 0.00129389 -0.00052992
0.08923048 0.52166116 0.30281705 -0.00351134 0.00066325 -0.00056040
0.08706157 0.50000000 0.30281705 -0.00358379 -0.00000137 -0.00057046
0.08923048 0.47833887 0.30281705 -0.00351149 -0.00066604 -0.00056034
0.09565339 0.45751011 0.30281705 -0.00329832 -0.00129685 -0.00052982
0.10608406 0.43831429 0.30281705 -0.00295533 -0.00186135 -0.00047828
0.12012094 0.42148900 0.30281705 -0.00250052 -0.00232967 -0.00040487
0.13722521 0.40768084 0.30281705 -0.00195824 -0.00267501 -0.00030873
0.15673921 0.39742041 0.30281705 -0.00135982 -0.00287470 -0.00018934
0.17791303 0.39110211 0.30281705 -0.00074405 -0.00291214 -0.00004701
0.19993322 0.38896865 0.30281705 -0.00015715 -0.00278087 0.00011618
0.22195321 0.39110211 0.30281705 0.00034989 -0.00249051 0.00029481
0.24312727 0.39742041 0.30281705 0.00072943 -0.00207310 0.00047818
0.26264122 0.40768084 0.30281705 0.00095116 -0.00158481 0.00064948
0.27974537 0.42148900 0.30281705 0.00101711 -0.00109728 0.00078912
0.29378241 0.43831429 0.30281705 0.00096615 -0.00067736 0.00088317
0.30421284 0.45751011 0.30281705 0.00086158 -0.00036324 0.00093182
0.31063586 0.47833887 0.30281705 0.00076756 -0.00015117 0.00094912
0.31280467 0.50000000 0.30281705 0.00072879 -0.00000059 0.00095215
0.31063586 0.52166116 0.30281705 0.00076127 0.00014861 0.00094853
0.30421284 0.54248989 0.30281705 0.00085047 0.00035688 0.00093125
0.29378241 0.56168568 0.30281705 0.00095288 0.00066595 0.00088348
0.27974537 0.57851100 0.30281705 0.00100473 0.00108144 0.00079080
0.26264122 0.59231919 0.30281705 0.00094206 0.00156671 0.00065230
0.24312727 0.60257959 0.30281705 0.00072443 0.00205537 0.00048143
0.22195321 0.60889792 0.30281705 0.00034835 0.00247511 0.00029777
0.79703909 0.61103135 0.30281705 0.00015446 0.00277397 0.00012266
0.77501887 0.60889792 0.30281705 -0.00035188 0.00248187 0.00030314
0.75384504 0.60257959 0.30281705 -0.00072968 0.00206254 0.00048837
0.73433107 0.59231919 0.30281705 -0.00094895 0.00157316 0.00066138
0.71722686 0.57851100 0.30281705 -0.00101273 0.00108623 0.00080239
0.70318985 0.56168568 0.30281705 -0.00096127 0.00066867 0.00089748
0.69275939 0.54248989 0.30281705 -0.00085868 0.00035772 0.00094724
0.68633640 0.52166116 0.30281705 -0.00076888 0.00014798 0.00096623
0.68416756 0.50000000 0.30281705 -0.00073531 -0.00000244 0.00097185
0.68633640 0.47833887 0.30281705 -0.00077206 -0.00015384 0.00097197
0.69275939 0.45751011 0.30281705 -0.00086292 -0.00036532 0.00095991
0.70318985 0.43831429 0.30281705 -0.00096375 -0.00067643 0.00091914
0.71722686 0.42148900 0.30281705 -0.00101171 -0.00109117 0.00083479
0.73433107 0.40768084 0.30281705 -0.00094471 -0.00157306 0.00070412
0.75384504 0.39742041 0.30281705 -0.00072418 -0.00205725 0.00053809
0.77501887 0.39110211 0.30281705 -0.00034748 -0.00247301 0.00035480
0.79703909 0.38896865 0.30281705 0.00015613 -0.00276389 0.00017172
0.81905925 0.39110211 0.30281705 0.00073979 -0.00289698 0.00000138
0.84023315 0.39742041 0.30281705 0.00135283 -0.00286181 -0.00014910
0.85974711 0.40768084 0.30281705 0.00194897 -0.00266442 -0.00027658
0.87685138 0.42148900 0.30281705 0.00248932 -0.00232141 -0.00038020
0.89088821 0.43831429 0.30281705 0.00294259 -0.00185559 -0.00046019
0.90131867 0.45751011 0.30281705 0.00328464 -0.00129384 -0.00051727
0.90774184 0.47833887 0.30281705 0.00349778 -0.00066593 -0.00055222
0.90991050 0.50000000 0.30281705 0.00357099 -0.00000389 -0.00056565
0.90774184 0.52166116 0.30281705 0.00350046 0.00065875 -0.00055782
0.90131867 0.54248989 0.30281705 0.00328956 0.00128838 -0.00052860
0.89088821 0.56168568 0.30281705 0.00294898 0.00185275 -0.00047749
0.87685138 0.57851100 0.30281705 0.00249613 0.00232174 -0.00040377
0.85974711 0.59231919 0.30281705 0.00195506 0.00266812 -0.00030676
0.84023315 0.60257959 0.30281705 0.00135709 0.00286862 -0.00018610
0.81905925 0.60889792 0.30281705 0.00074131 0.00290615 -0.00004224
0.49890980 0.57091874 0.92576140 -0.00000675 0.00156042 0.00306112
0.46721432 0.56955606 0.92576140 -0.00037028 0.00153947 0.00306017
0.43673685 0.56552041 0.92576140 -0.00074891 0.00148121 0.00305768
0.40864867 0.55896676 0.92576140 -0.00115946 0.00141400 0.00304193
0.38402915 0.55014712 0.92576140 -0.00131871 0.00153284 0.00301299
0.36382449 0.53940034 0.92576140 -0.00142072 0.00189450 0.00297698
0.34881100 0.52713943 0.92576140 -0.00202494 0.00183660 0.00294610
0.33956578 0.51383555 0.92576140 -0.00258034 0.00107017 0.00292799
0.33644405 0.50000000 0.92576140 -0.00277780 0.00000276 0.00292361
0.33956578 0.48616445 0.92576140 -0.00258190 -0.00106642 0.00293169
0.34881100 0.47286054 0.92576140 -0.00202935 -0.00183815 0.00295168
0.36382449 0.46059966 0.92576140 -0.00142749 -0.00190517 0.00298133
0.38402915 0.44985288 0.92576140 -0.00132728 -0.00155487 0.00301207
0.40864867 0.44103321 0.92576140 -0.00116811 -0.00145123 0.00302969
0.43673685 0.43447962 0.92576140 -0.00075732 -0.00153674 0.00302868
0.46721432 0.43044391 0.92576140 -0.00037746 -0.00160912 0.00301851
0.49890980 0.42908123 0.92576140 -0.00000902 -0.00163472 0.00301706
0.53060526 0.43044391 0.92576140 0.00036031 -0.00161023 0.00302135
0.56108272 0.43447962 0.92576140 0.00074285 -0.00153740 0.00303250
0.58917093 0.44103321 0.92576140 0.00115516 -0.00144759 0.00303387
0.61379039 0.44985288 0.92576140 0.00131472 -0.00154226 0.00301805
0.63399506 0.46059966 0.92576140 0.00141213 -0.00188468 0.00298919
0.64900857 0.47286054 0.92576140 0.00200667 -0.00181912 0.00296114
0.65825379 0.48616445 0.92576140 0.00255500 -0.00105629 0.00294275
0.66137552 0.50000000 0.92576140 0.00275264 0.00000387 0.00293594
0.65825379 0.51383555 0.92576140 0.00256099 0.00106319 0.00294086
0.64900857 0.52713943 0.92576140 0.00201317 0.00182675 0.00295851
0.63399506 0.53940034 0.92576140 0.00141207 0.00188985 0.00298801
0.61379039 0.55014712 0.92576140 0.00130732 0.00153365 0.00302219
0.58917093 0.55896676 0.92576140 0.00114631 0.00141588 0.00304862
0.56108272 0.56552041 0.92576140 0.00073566 0.00148332 0.00306071
0.53060526 0.56955606 0.92576140 0.00035698 0.00154122 0.00306057
0.49890980 0.60225165 0.16317336 0.00001549 0.00208547 0.00048781
0.43879250 0.60314620 0.16317336 -0.00003271 0.00210438 0.00032783
0.38098550 0.60575587 0.16317336 -0.00011609 0.00223261 -0.00011904
0.32771027 0.60729426 0.16317336 -0.00090167 0.00262102 -0.00066277
0.28101414 0.59862095 0.16317336 -0.00149554 0.00256863 -0.00111603
0.24269164 0.58320069 0.16317336 -0.00233837 0.00251621 -0.00145051
0.21421549 0.55574793 0.16317336 -0.00271202 0.00192028 -0.00165816
0.19667977 0.52323824 0.16317336 -0.00292029 0.00159078 -0.00176249
0.19075885 0.50000000 0.16317336 -0.00336185 0.00001242 -0.00179550
0.19667977 0.47676173 0.16317336 -0.00301390 -0.00147480 -0.00176311
0.21421549 0.44414786 0.16317336 -0.00271889 -0.00209751 -0.00166010
0.24269164 0.42055166 0.16317336 -0.00218705 -0.00226764 -0.00145613
0.28101414 0.40212843 0.16317336 -0.00147148 -0.00279368 -0.00114880
0.32771027 0.39648712 0.16394061 -0.00076603 -0.00239569 -0.00057130
0.38098550 0.39420712 0.16317336 -0.00010929 -0.00247214 -0.00013433
0.43879250 0.40075362 0.16317336 0.00016535 -0.00197507 0.00039048
0.49890980 0.40204096 0.16317336 -0.00001501 -0.00203302 0.00056189
0.55902708 0.40136763 0.16317336 -0.00008974 -0.00198429 0.00039995
0.61683410 0.39613128 0.16317336 -0.00008974 -0.00224281 -0.00009257
0.67010933 0.39344651 0.16317336 0.00064446 -0.00256469 -0.00065501
0.71680540 0.39798501 0.16317336 0.00094218 -0.00313398 -0.00111395
0.75512797 0.41476488 0.16317336 0.00276062 -0.00209198 -0.00144342
0.79142541 0.45441651 0.16317336 0.00243561 -0.00222282 -0.00170055
0.80113983 0.47676173 0.16317336 0.00289095 -0.00132293 -0.00175664
0.80706072 0.50000000 0.16317336 0.00364690 0.00070907 -0.00179049
0.80113983 0.52323824 0.16317336 0.00311685 0.00152496 -0.00175887
0.78360409 0.55436784 0.16317336 0.00270890 0.00196052 -0.00165613
0.75512797 0.58029312 0.16317336 0.00226377 0.00239644 -0.00145084
0.71680540 0.59746832 0.16317336 0.00154247 0.00262521 -0.00111617
0.67010933 0.60574085 0.16317336 0.00089718 0.00253785 -0.00065729
0.61683410 0.60666037 0.16317336 0.00015901 0.00236775 -0.00012897
0.55902708 0.60296130 0.16317336 -0.00002988 0.00207348 0.00032985
0.49890980 0.57091874 0.07423859 -0.00000561 0.00153356 -0.00306969
0.46721432 0.56955606 0.07423859 -0.00036278 0.00151081 -0.00306978
0.43673685 0.56552041 0.07423859 -0.00073498 0.00144793 -0.00307012
0.40864867 0.55896676 0.07423859 -0.00113800 0.00137635 -0.00305568
0.38402915 0.55014712 0.07423859 -0.00129248 0.00149146 -0.00302606
0.36382449 0.53940034 0.07423859 -0.00139216 0.00185026 -0.00298730
0.34881100 0.52713943 0.07423859 -0.00198810 0.00179887 -0.00295326
0.33956578 0.51383555 0.07423859 -0.00253579 0.00104989 -0.00293282
0.33644405 0.50000000 0.07423859 -0.00273103 0.00000231 -0.00292727
0.33956578 0.48616445 0.07423859 -0.00253918 -0.00104761 -0.00293526
0.34881100 0.47286054 0.07423859 -0.00199606 -0.00180432 -0.00295626
0.36382449 0.46059966 0.07423859 -0.00140275 -0.00186751 -0.00298835
0.38402915 0.44985288 0.07423859 -0.00130416 -0.00152003 -0.00302258
0.40864867 0.44103321 0.07423859 -0.00114841 -0.00141895 -0.00304180
0.43673685 0.43447962 0.07423859 -0.00074414 -0.00150899 -0.00303886
0.46721432 0.43044391 0.07423859 -0.00037058 -0.00158644 -0.00302508
0.49890980 0.42908123 0.07423859 -0.00000799 -0.00161381 -0.00302277
0.53060526 0.43044391 0.07423859 0.00035535 -0.00158762 -0.00302725
0.56108272 0.43447962 0.07423859 0.00073128 -0.00150940 -0.00304140
0.58917093 0.44103321 0.07423859 0.00113571 -0.00141365 -0.00304506
0.61379039 0.44985288 0.07423859 0.00129006 -0.00150320 -0.00302938
0.63399506 0.46059966 0.07423859 0.00138495 -0.00184149 -0.00299820
0.64900857 0.47286054 0.07423859 0.00197085 -0.00178114 -0.00296739
0.65825379 0.48616445 0.07423859 0.00251060 -0.00103546 -0.00294717
0.66137552 0.50000000 0.07423859 0.00270522 0.00000401 -0.00293982
0.65825379 0.51383555 0.07423859 0.00251677 0.00104261 -0.00294547
0.64900857 0.52713943 0.07423859 0.00197746 0.00178904 -0.00296504
0.63399506 0.53940034 0.07423859 0.00138474 0.00184667 -0.00299727
0.61379039 0.55014712 0.07423859 0.00128233 0.00149361 -0.00303387
0.58917093 0.55896676 0.07423859 0.00112654 0.00137922 -0.00306080
0.56108272 0.56552041 0.07423859 0.00072375 0.00145086 -0.00307156
0.53060526 0.56955606 0.07423859 0.00035172 0.00151309 -0.00306911
