0.38088548 0.35192412 0.50529307 0.00000891 -0.00003214 -0.00001166
0.38088548 0.35392892 0.50366664 0.00000779 -0.00003096 -0.00001440
0.64324152 0.81067085 0.59302902 0.00004908 0.00004341 0.00000200
0.38346586 0.35650933 0.50402761 0.00000695 -0.00003151 -0.00001391
0.59248352 0.50101513 0.64047134 0.00000139 0.00000850 0.00001014
0.38604620 0.35908979 0.50501442 0.00000738 -0.00003098 -0.00001221
0.34805757 0.81583160 0.59302902 -0.00004255 0.00004951 0.00000412
0.38604620 0.36167029 0.50431389 0.00000691 -0.00002895 -0.00001352
0.26992545 0.36425075 0.50281274 -0.00004585 0.00001371 -0.00003290
0.38604620 0.36425075 0.50413978 0.00000625 -0.00002657 -0.00001413
0.38604620 0.36683121 0.50397521 0.00000530 -0.00002375 -0.00001509
0.38861629 0.36683121 0.50529307 0.00000715 -0.00002498 -0.00001284
0.26788005 0.36941165 0.50529307 -0.00005701 0.00000632 -0.00003839
0.38088548 0.50617647 0.63974202 -0.00001945 0.00000785 0.00002055
0.63712466 0.82099289 0.59302902 0.00004439 0.00004841 -0.00000604
0.68708104 0.36941165 0.50529307 0.00005581 0.00004002 -0.00005671
0.50474769 0.67132574 0.73273760 -0.00000410 -0.00002160 0.00002799
0.57958120 0.37199211 0.50422800 -0.00001489 -0.00001216 -0.00002051
0.39519420 0.37457260 0.50529307 0.00001029 -0.00001615 -0.00001598
0.48926488 0.67390609 0.73301870 0.00000710 -0.00002798 0.00002215
0.39378786 0.37715307 0.50418663 0.00000972 -0.00001240 -0.00001809
0.38346586 0.50875682 0.63998508 -0.00001852 0.00000688 0.00001694
0.39378786 0.37973353 0.50428468 0.00000997 -0.00000906 -0.00001817
0.39581460 0.37973353 0.50529307 0.00001089 -0.00000904 -0.00001680
0.39378786 0.38231394 0.50442517 0.00001040 -0.00000656 -0.00001815
0.71061361 0.36425075 0.55690229 0.00009277 0.00004127 0.00001118
0.41959262 0.36683121 0.55485338 -0.00000363 -0.00000943 -0.00001623
0.39378786 0.38489443 0.50425637 0.00001058 -0.00000516 -0.00001861
0.27766711 0.38747489 0.50361979 -0.00005100 -0.00000249 -0.00005451
0.39378786 0.38747489 0.50390577 0.00001061 -0.00000447 -0.00001925
0.62990165 0.83131427 0.59302902 0.00004922 0.00004376 -0.00001440
0.25580090 0.36941165 0.55690229 -0.00008515 0.00000400 0.00000919
0.27766711 0.39263582 0.50515234 -0.00005293 0.00001618 -0.00005215
0.48668444 0.35134843 0.70273381 -0.00000752 -0.00005014 -0.00001797
0.67763883 0.39106560 0.50529307 0.00005272 0.00003564 -0.00005037
0.49442580 0.67390609 0.73379850 0.00000325 -0.00002487 0.00002600
0.59104109 0.51133716 0.64205760 0.00000888 0.00000460 0.00000435
0.57441986 0.39521635 0.50376195 -0.00000022 -0.00000544 -0.00001928
0.39894855 0.39779681 0.50390047 0.00000814 -0.00000604 -0.00002068
0.59248352 0.51350594 0.64205760 0.00001198 0.00000383 0.00000549
0.62325162 0.83905596 0.59302902 0.00005554 0.00003639 -0.00000977
0.39894855 0.40037721 0.50366533 0.00000726 -0.00000692 -0.00002121
0.67247754 0.39912841 0.50529307 0.00005522 0.00001552 -0.00005162
0.28540817 0.40097213 0.50529307 -0.00003086 0.00004859 -0.00005068
0.49958670 0.67390609 0.73332793 0.00000047 -0.00002283 0.00002532
0.66989714 0.40295768 0.50451535 0.00005564 0.00000985 -0.00005429
0.57183951 0.40553814 0.50448805 0.00000643 -0.00001135 -0.00001615
0.57044822 0.40553814 0.50529307 0.00000551 -0.00001181 -0.00001443
0.39894855 0.40811864 0.50391626 0.00000322 -0.00000893 -0.00002207
0.37572420 0.84675306 0.59302902 -0.00003629 0.00005152 0.00002247
0.48926488 0.40632495 0.50529307 0.00000094 -0.00002451 0.00000410
0.49184534 0.40698418 0.50529307 0.00000174 -0.00002444 0.00000318
0.61312699 0.08040002 0.56300414 -0.00004035 0.00004683 0.00001228
0.61570728 0.84673023 0.59302902 0.00005814 0.00003106 -0.00000186
0.47378209 0.41069907 0.50432628 -0.00000404 -0.00002497 0.00000594
0.37830514 0.84829777 0.59302902 -0.00003576 0.00004708 0.00002385
0.57700080 0.41069907 0.50373769 0.00000900 -0.00001150 -0.00001739
0.40772825 0.57326806 0.67302305 -0.00001326 0.00002144 0.00001744
0.30089092 0.41327950 0.50336564 -0.00002547 0.00003910 -0.00005407
0.39636824 0.41327950 0.50340521 0.00000186 -0.00000790 -0.00002336
0.49700624 0.35134843 0.70198220 0.00000375 -0.00005038 -0.00001615
0.49958670 0.35030058 0.70398849 0.00000600 -0.00005144 -0.00001455
0.66282642 0.41327950 0.50529307 0.00005214 0.00001130 -0.00005018
0.42475331 0.43908426 0.65928358 0.00001120 -0.00001085 0.00000722
0.39894855 0.41585997 0.50452340 0.00000068 -0.00000819 -0.00002163
0.40152892 0.41585997 0.50514841 0.00000017 -0.00000899 -0.00002089
0.57987303 0.41585997 0.50529307 0.00000855 -0.00001305 -0.00001302
0.58474189 0.41585997 0.50288969 0.00000557 -0.00001225 -0.00001816
0.38862658 0.53198063 0.64019507 -0.00002338 -0.00001389 0.00001194
0.30605224 0.41844049 0.50451094 -0.00002750 0.00003324 -0.00004970
0.46604073 0.41830707 0.50529307 -0.00001246 -0.00001640 0.00000578
0.50474769 0.41592589 0.50529307 0.00001263 -0.00001494 0.00000170
0.56409848 0.41768345 0.50529307 0.00000367 -0.00001517 -0.00001345
0.38604620 0.85926974 0.59302902 -0.00005078 0.00004499 0.00003196
0.65441442 0.41844049 0.50480533 0.00003708 0.00001608 -0.00004441
0.65621495 0.41844049 0.50529307 0.00004145 0.00001657 -0.00004458
0.38862658 0.42102090 0.50282842 0.00000009 -0.00000587 -0.00002400
0.39120749 0.42102090 0.50340086 -0.00000061 -0.00000629 -0.00002322
0.46485531 0.42102090 0.50529307 -0.00001429 -0.00001330 0.00000653
0.25885126 0.37715307 0.55690229 -0.00008314 0.00001358 0.00001283
0.55893737 0.42102090 0.50336981 -0.00000125 -0.00001618 -0.00001573
0.42831874 0.37715307 0.55690229 -0.00000287 -0.00000747 -0.00001434
0.38833469 0.54230267 0.64205760 -0.00002622 -0.00000671 0.00001422
0.59506387 0.54230267 0.64053029 0.00002323 -0.00002123 -0.00000128
0.31379327 0.42195776 0.50529307 -0.00002370 0.00002609 -0.00004177
0.39636824 0.86425537 0.59302902 -0.00004154 0.00003196 0.00002953
0.40410990 0.42360136 0.50484908 -0.00000311 -0.00001344 -0.00002191
0.40641463 0.42360136 0.50529307 -0.00000288 -0.00001466 -0.00002128
0.55119604 0.42360136 0.50353211 -0.00000455 -0.00001733 -0.00001304
0.59380978 0.54488295 0.64205760 0.00002304 -0.00001772 -0.00000155
0.70951712 0.37715307 0.55690229 0.00010125 0.00002067 -0.00000128
0.58474189 0.42360136 0.50434667 0.00000981 -0.00001307 -0.00001361
0.38862658 0.42618182 0.50344157 -0.00000149 -0.00000752 -0.00002221
0.39120749 0.42618182 0.50386274 -0.00000218 -0.00000826 -0.00002194
0.46346027 0.42618182 0.50486374 -0.00001717 -0.00000797 0.00000820
0.39099810 0.55262464 0.64205760 -0.00002421 -0.00000292 0.00000614
0.57700080 0.42618182 0.50380450 0.00001077 -0.00001717 -0.00001590
0.57958120 0.42618182 0.50417548 0.00001112 -0.00001644 -0.00001467
0.39120749 0.55520499 0.64170438 -0.00002349 -0.00000100 0.00000483
0.38604620 0.42876232 0.50273621 -0.00000074 -0.00000643 -0.00002261
0.62979996 0.74615961 0.67044270 0.00004500 0.00002337 0.00004653
0.46346027 0.42876232 0.50404358 -0.00001824 -0.00000598 0.00000862
0.54345459 0.42876232 0.50372428 -0.00000021 -0.00002016 -0.00000747
0.54603505 0.42876232 0.50299615 -0.00000168 -0.00002051 -0.00000962
0.39192784 0.55778533 0.64205760 -0.00002232 0.00000168 0.00000386
0.39943540 0.87002140 0.59302902 -0.00004513 0.00004141 0.00002524
0.39120749 0.43134260 0.50385368 -0.00000420 -0.00000841 -0.00002185
0.39378786 0.43134260 0.50374258 -0.00000507 -0.00000989 -0.00002285
0.51248902 0.43040273 0.50529307 0.00001647 0.00000208 0.00001028
0.40068105 0.87260175 0.59302902 -0.00004801 0.00004502 0.00002314
0.58990318 0.43134260 0.50337511 0.00001365 -0.00001493 -0.00001521
0.59248352 0.43134260 0.50331593 0.00001338 -0.00001273 -0.00001543
0.32411531 0.43149662 0.50529307 -0.00003021 0.00001820 -0.00003514
0.32669565 0.43344638 0.50529307 -0.00002782 0.00001959 -0.00003237
0.39894855 0.43392298 0.50388068 -0.00000942 -0.00001429 -0.00002388
0.40152892 0.43392298 0.50441164 -0.00000986 -0.00001632 -0.00002320
0.45829931 0.43392298 0.50398952 -0.00002118 -0.00000232 0.00000918
0.42991406 0.37986696 0.55690229 -0.00000263 -0.00000732 -0.00001363
0.58732224 0.43392298 0.50299305 0.00001508 -0.00001844 -0.00001641
0.58990318 0.43392298 0.50310498 0.00001566 -0.00001677 -0.00001608
0.59920645 0.56294668 0.64205760 0.00001531 0.00001542 0.00000597
0.58732224 0.87382030 0.59302902 0.00003584 0.00005594 0.00000788
0.34733969 0.43650389 0.50297600 -0.00001135 0.00000863 -0.00002220
0.49184534 0.69971085 0.73619354 0.00000046 0.00002563 0.00005082
0.39636824 0.43650389 0.50379461 -0.00001012 -0.00001297 -0.00002373
0.39894855 0.43650389 0.50403166 -0.00001128 -0.00001482 -0.00002370
0.38762766 0.56810737 0.64205760 -0.00002247 0.00001043 0.00000631
0.44023612 0.43584439 0.50529307 -0.00000813 -0.00001048 -0.00000190
0.45055792 0.43650389 0.50453413 -0.00001749 -0.00000349 0.00000624
0.45313841 0.43464023 0.50529307 -0.00001840 -0.00000312 0.00000828
0.52797180 0.43540266 0.50529307 0.00000193 -0.00000565 0.00000551
0.25444275 0.09330180 0.60534775 -0.00005538 0.00005625 0.00004986
0.60022461 0.43650389 0.50467497 0.00001520 -0.00001109 -0.00001455
0.60280555 0.43650389 0.50478554 0.00001265 -0.00000963 -0.00001511
0.59879601 0.57068777 0.64205760 0.00000106 0.00000507 0.00000238
0.63635135 0.43631193 0.50529307 0.00000910 0.00002297 -0.00003199
0.34992003 0.43908426 0.50448418 -0.00001052 0.00000692 -0.00001997
0.63633692 0.68164778 0.65237957 0.00003051 -0.00001714 0.00001270
0.39120749 0.43908426 0.50374275 -0.00000953 -0.00000955 -0.00002254
0.39378786 0.43908426 0.50379771 -0.00001097 -0.00001180 -0.00002325
0.54148513 0.38489443 0.55690229 0.00000876 -0.00001393 -0.00000182
0.70757890 0.38489443 0.55690229 0.00009818 0.00001183 -0.00000578
0.38862658 0.57584840 0.63955182 -0.00001184 0.00001578 0.00000383
0.42733368 0.43908426 0.50519770 0.00000389 -0.00001953 -0.00001224
0.44281653 0.43908426 0.50425929 -0.00000929 -0.00000782 -0.00000025
0.44539699 0.43908426 0.50420874 -0.00001214 -0.00000605 0.00000225
0.59764427 0.43908426 0.50437671 0.00001851 -0.00001494 -0.00001497
0.60022461 0.43908426 0.50468343 0.00001668 -0.00001372 -0.00001525
0.62344897 0.43908426 0.50395948 0.00000965 0.00000725 -0.00002545
0.62602931 0.43908426 0.50399601 0.00001088 0.00000956 -0.00002694
0.35766110 0.44166464 0.50298697 -0.00000656 0.00000279 -0.00002158
0.59764427 0.57566971 0.64205760 -0.00000825 0.00000018 -0.00000215
0.38346586 0.44166464 0.50413316 -0.00000492 -0.00000492 -0.00001896
0.38604620 0.44166464 0.50394988 -0.00000762 -0.00000659 -0.00002031
0.40927058 0.44166464 0.50443208 -0.00000864 -0.00001815 -0.00002108
0.41185096 0.44166464 0.50440675 -0.00000550 -0.00001887 -0.00002046
0.43507534 0.44166464 0.50384247 -0.00000110 -0.00001295 -0.00000731
0.43765569 0.44166464 0.50368923 -0.00000341 -0.00001072 -0.00000534
0.60280555 0.44166464 0.50462484 0.00001597 -0.00001401 -0.00001679
0.60538590 0.44166464 0.50452739 0.00001421 -0.00001226 -0.00001789
0.62602931 0.44051406 0.50529307 0.00001135 0.00000731 -0.00002645
0.53901970 0.38747489 0.55690229 0.00000707 -0.00001253 -0.00000211
0.36798313 0.44424495 0.50506026 -0.00000346 -0.00000021 -0.00001636
0.56925917 0.88184303 0.59302902 0.00004263 0.00002799 0.00001797
0.38862658 0.44424495 0.50396860 -0.00001190 -0.00000947 -0.00002157
0.39120749 0.44424495 0.50385571 -0.00001356 -0.00001132 -0.00002247
0.41443127 0.44424495 0.50384969 -0.00000317 -0.00001905 -0.00001985
0.41701165 0.44424495 0.50385827 -0.00000038 -0.00001938 -0.00001898
0.44023612 0.44424495 0.50316036 -0.00000442 -0.00000863 -0.00000310
0.32927600 0.32038286 0.60940540 -0.00000679 -0.00003080 0.00000751
0.61044848 0.44424495 0.50529307 0.00001197 -0.00000933 -0.00001980
0.67382908 0.11910654 0.61625284 0.00000772 -0.00002106 -0.00001614
0.59706533 0.57842940 0.64205760 -0.00001306 -0.00000174 -0.00000459
0.63119006 0.74873996 0.66830522 0.00004408 0.00003307 0.00004389
0.40152892 0.44682533 0.50379425 -0.00001560 -0.00001713 -0.00002233
0.40410990 0.44682533 0.50384575 -0.00001437 -0.00001777 -0.00002178
0.42733368 0.44682533 0.50339752 0.00000581 -0.00001767 -0.00001350
0.42991406 0.44682533 0.50317711 0.00000572 -0.00001649 -0.00001174
0.51765001 0.37170458 0.70398849 0.00003220 -0.00001778 -0.00000210
0.38604620 0.44940630 0.50484544 -0.00001354 -0.00001091 -0.00002082
0.40669021 0.44940630 0.50344366 -0.00001302 -0.00001908 -0.00002117
0.40927058 0.44940630 0.50334173 -0.00001024 -0.00001935 -0.00002069
0.59506387 0.44940630 0.50322062 0.00002088 -0.00001316 -0.00001729
0.59764427 0.44940630 0.50424695 0.00002019 -0.00001311 -0.00001634
0.40152892 0.45198664 0.50314665 -0.00001714 -0.00001891 -0.00002212
0.40410990 0.45198664 0.50307935 -0.00001568 -0.00001927 -0.00002165
0.59506387 0.45198664 0.50311083 0.00002103 -0.00001109 -0.00001745
0.59764427 0.45198664 0.50418639 0.00002050 -0.00001074 -0.00001646
0.40152892 0.45456699 0.50290096 -0.00001749 -0.00001935 -0.00002188
0.59764427 0.58359009 0.64122772 -0.00001913 -0.00000491 -0.00000950
0.39120749 0.45714736 0.50433910 -0.00002041 -0.00001659 -0.00002192
0.39378786 0.45714736 0.50380170 -0.00002035 -0.00001751 -0.00002220
0.46395421 0.37457260 0.70398849 -0.00002807 -0.00001509 0.00000791
0.39378786 0.45972767 0.50376707 -0.00002132 -0.00001775 -0.00002216
0.39378786 0.46230805 0.50389612 -0.00002202 -0.00001740 -0.00002192
0.39636824 0.46230805 0.50331408 -0.00002129 -0.00001803 -0.00002196
0.39636824 0.46488899 0.50348753 -0.00002161 -0.00001734 -0.00002153
0.39894855 0.46488899 0.50294763 -0.00002006 -0.00001729 -0.00002145
0.39894855 0.46746933 0.50309604 -0.00001970 -0.00001525 -0.00002101
0.40152892 0.46746933 0.50277942 -0.00001735 -0.00001483 -0.00002057
0.39636824 0.47004971 0.50402457 -0.00002121 -0.00001349 -0.00002029
0.39894855 0.47004971 0.50350261 -0.00001913 -0.00001315 -0.00002018
0.51930237 0.37715307 0.70398849 0.00003419 -0.00001225 0.00000321
0.39378786 0.47263005 0.50528431 -0.00002234 -0.00001182 -0.00001934
0.53055227 0.38843715 0.55690229 0.00000353 -0.00000930 -0.00000365
0.59248352 0.47263005 0.50451612 0.00003014 -0.00000937 -0.00001782
0.40927058 0.47521043 0.50387830 -0.00000612 -0.00000692 -0.00001511
0.46346027 0.38029599 0.70398849 -0.00002705 -0.00001173 0.00001071
0.40927058 0.47779137 0.50376016 -0.00000545 -0.00000517 -0.00001492
0.58732224 0.47779137 0.50385588 0.00002643 -0.00000642 -0.00001834
0.58990318 0.47835523 0.50529307 0.00002794 -0.00000742 -0.00001734
0.40722939 0.48295209 0.50529307 -0.00000581 -0.00000176 -0.00001315
0.57183951 0.48553246 0.50276518 -0.00000281 0.00000454 -0.00001789
0.57441986 0.48553246 0.50439525 0.00000208 0.00000311 -0.00001602
0.51876026 0.38747489 0.70398849 0.00003339 -0.00000283 0.00001130
0.57441986 0.48799181 0.50529307 0.00000075 0.00000335 -0.00001497
0.40820128 0.49327412 0.50529307 -0.00000244 0.00000575 -0.00001099
0.56925917 0.49327412 0.50399876 -0.00000893 0.00000490 -0.00001536
0.40993312 0.49843481 0.50529307 -0.00000100 0.00000698 -0.00000900
0.59868705 0.59649247 0.64205760 -0.00001877 0.00000685 -0.00001440
0.41185096 0.50345594 0.50529307 -0.00000099 0.00000584 -0.00000654
0.51842368 0.39005536 0.70398849 0.00003261 -0.00000141 0.00001342
0.54861552 0.89416713 0.59302902 0.00001940 0.00005715 0.00000736
0.41443127 0.50875682 0.50434476 -0.00000299 0.00000095 -0.00000410
0.56409848 0.51133716 0.50424021 -0.00000315 -0.00000466 -0.00000574
0.44539699 0.39263582 0.55438060 -0.00000238 -0.00000934 -0.00000744
0.56409848 0.51649791 0.50398934 0.00000041 -0.00000743 -0.00000390
0.35250041 0.31901884 0.61109215 0.00000164 -0.00003365 0.00000055
0.44797745 0.39263582 0.55676466 -0.00000206 -0.00000800 -0.00000752
0.53571320 0.89822352 0.59302902 0.00000716 0.00005932 -0.00000701
0.46958053 0.39779681 0.70398849 -0.00002666 -0.00000051 0.00001667
0.51765001 0.39779681 0.70158267 0.00002995 -0.00000116 0.00001681
0.58474189 0.60637879 0.67560339 -0.00000032 0.00000064 0.00000237
0.38602632 0.60423410 0.64205760 0.00002213 -0.00000222 -0.00001734
0.47244853 0.40295768 0.70398849 -0.00002549 0.00000138 0.00002243
0.57183951 0.53827983 0.50529307 0.00000398 -0.00001064 -0.00000260
0.41443127 0.54488295 0.50409627 -0.00000620 -0.00000485 0.00000059
0.41347390 0.54488295 0.50529307 -0.00000654 -0.00000533 0.00000062
0.60538590 0.60359448 0.64205760 -0.00001083 0.00000942 -0.00000632
0.49184534 0.37973353 0.75791234 0.00001680 0.00007761 0.00002398
0.40410990 0.55520499 0.50499552 -0.00000225 -0.00001392 0.00000040
0.45055792 0.39428517 0.55690229 -0.00000226 -0.00000764 -0.00000556
0.61570728 0.60634512 0.64205760 0.00000235 0.00000039 0.00000457
0.61828828 0.60656232 0.64205760 0.00000609 -0.00000268 0.00000715
0.62153357 0.60681450 0.64205760 0.00001068 -0.00000698 0.00001057
0.58834040 0.56552702 0.50529307 0.00000234 -0.00000879 -0.00000019
0.71888053 0.08040002 0.56464398 0.00002975 0.00009352 0.00001320
0.44797745 0.90243715 0.59302902 -0.00003318 0.00008431 0.00002909
0.38604620 0.57813329 0.50529307 -0.00000818 -0.00001271 -0.00000124
0.68719959 0.09330180 0.60593086 0.00000142 0.00004509 0.00001624
0.38862658 0.57938975 0.50529307 -0.00000566 -0.00001069 0.00000026
0.39120749 0.57977492 0.50529307 -0.00000369 -0.00000902 0.00000160
0.46248966 0.47004971 0.67818433 0.00000015 -0.00001512 0.00001591
0.60538590 0.58617043 0.50318366 0.00001166 -0.00000934 -0.00000050
0.37391469 0.59391207 0.50529307 -0.00000617 -0.00001648 -0.00000623
0.51765001 0.39329809 0.55690229 0.00000324 -0.00000315 0.00000063
0.56146270 0.74357861 0.72205216 0.00002171 0.00003483 0.00006210
0.36798313 0.59900600 0.50529307 -0.00000697 -0.00001850 -0.00000742
0.62860972 0.61713588 0.64024806 0.00001552 -0.00002011 0.00001394
0.36282241 0.60628432 0.50529307 -0.00000902 -0.00001604 -0.00000650
0.35716826 0.61455554 0.50529307 -0.00001876 -0.00000342 -0.00000601
0.71065205 0.35134843 0.56206298 0.00007955 -0.00000125 0.00003278
0.35331577 0.62229723 0.50529307 -0.00002195 0.00000508 -0.00000621
0.57183951 0.74357861 0.72081918 0.00002750 0.00002560 0.00007777
0.62753558 0.61713588 0.64205760 0.00001477 -0.00002017 0.00001436
0.34992003 0.63261861 0.50300270 -0.00001765 0.00000924 -0.00000521
0.36282241 0.61883289 0.64205760 -0.00001871 -0.00001764 0.00000163
0.63893175 0.63378304 0.50529307 0.00000837 0.00000332 0.00000279
0.47829992 0.41069907 0.70398849 -0.00002168 0.00000366 0.00003291
0.34215492 0.64036030 0.50529307 -0.00001299 0.00000953 -0.00000284
0.67763883 0.63892871 0.50529307 -0.00000118 -0.00001950 -0.00000414
0.68021917 0.63867474 0.50529307 0.00000129 -0.00002159 -0.00000388
0.70086259 0.63824868 0.50529307 0.00000993 -0.00003779 -0.00000084
0.70344359 0.63840461 0.50529307 0.00000961 -0.00003949 -0.00000012
0.65441442 0.64140493 0.50529307 -0.00000307 0.00000024 0.00000007
0.65699476 0.64144945 0.50529307 -0.00000374 -0.00000120 -0.00000031
0.71376497 0.64138812 0.50529307 0.00000147 -0.00004152 0.00000174
0.71634537 0.64141095 0.50529307 -0.00000048 -0.00004385 0.00000129
0.30605224 0.64510942 0.50529307 0.00001555 -0.00002568 0.00000957
0.30863258 0.64524233 0.50529307 0.00001550 -0.00002257 0.00000917
0.69054121 0.40037721 0.60396004 0.00008034 -0.00000174 0.00005354
0.73698938 0.64552104 0.50301516 0.00001659 -0.00004214 -0.00000224
0.31637365 0.64677143 0.50529307 0.00001355 -0.00001255 0.00000735
0.31895459 0.64734012 0.50529307 0.00001168 -0.00000928 0.00000649
0.73698938 0.64690149 0.50529307 0.00001607 -0.00003897 -0.00000407
0.73956966 0.64674258 0.50529307 0.00001692 -0.00004210 -0.00000327
0.28540817 0.64907020 0.50529307 -0.00000715 -0.00003761 -0.00000078
0.28798854 0.64886194 0.50529307 -0.00000177 -0.00003664 0.00000011
0.75505245 0.64957988 0.50529307 0.00001527 -0.00005977 0.00000443
0.75763285 0.65048373 0.50529307 0.00001791 -0.00006178 0.00000543
0.50732815 0.90702069 0.59302902 0.00000856 0.00007393 0.00002638
0.25686422 0.35392892 0.56206298 -0.00007619 -0.00000942 0.00000347
0.62602931 0.62814635 0.64205760 0.00000711 -0.00001852 0.00000943
0.76329058 0.65842336 0.50529307 0.00002022 -0.00005731 0.00000665
0.25085983 0.66874534 0.50529307 -0.00003647 -0.00004134 -0.00000122
0.25186241 0.66720182 0.50529307 -0.00003757 -0.00004327 -0.00000278
0.24670108 0.67266703 0.50529307 -0.00003222 -0.00003646 0.00001080
0.76713341 0.67390609 0.50529307 0.00001996 -0.00002035 -0.00000291
0.76969451 0.67906737 0.50529307 0.00002924 -0.00000806 -0.00001443
0.34992003 0.12168750 0.61498070 0.00004675 -0.00002204 0.00001117
0.48152348 0.91130883 0.59068096 0.00000759 0.00008861 0.00003284
0.48152348 0.91011858 0.59302902 0.00000821 0.00008629 0.00003306
0.23256750 0.69196975 0.50529307 -0.00002103 -0.00001654 0.00005364
0.48668444 0.91130883 0.59108174 0.00001691 0.00008745 0.00003392
0.77827680 0.69576752 0.50529307 0.00005781 0.00002462 -0.00003845
0.66731679 0.13227969 0.65495998 0.00007771 -0.00003163 0.00004725
0.22958516 0.70487154 0.50529307 -0.00002204 -0.00000558 0.00005434
0.35914925 0.63777989 0.64205760 -0.00001144 -0.00002248 0.00000620
0.70094025 0.04664059 0.59568280 0.00003790 -0.00009116 0.00003296
0.78041852 0.71261317 0.50529307 0.00003955 0.00001265 -0.00003352
0.63013333 0.64036030 0.64205760 0.00002008 0.00000634 0.00001216
0.77770096 0.72035486 0.50529307 0.00002616 0.00000740 -0.00002775
0.35657310 0.64294064 0.64205760 -0.00001442 -0.00002222 0.00001098
0.77459347 0.72551560 0.50529307 0.00001813 0.00001020 -0.00002438
0.35250041 0.64552104 0.64019811 -0.00002309 -0.00002275 0.00001426
0.23637965 0.73325723 0.50434035 -0.00001672 0.00001692 0.00004800
0.25186241 0.04898808 0.59560943 -0.00000693 -0.00004925 -0.00000852
0.25444275 0.04916619 0.59560943 -0.00000322 -0.00004707 -0.00001569
0.32153496 0.32296327 0.60997826 -0.00001364 -0.00003266 0.00001355
0.35508075 0.64514124 0.64205760 -0.00001771 -0.00002044 0.00001390
0.32927600 0.04904464 0.59560943 -0.00003512 -0.00004801 0.00003239
0.24670108 0.74822545 0.50529307 -0.00001762 0.00003077 0.00004423
0.74731141 0.74807805 0.50529307 0.00000209 0.00002832 -0.00001162
0.74989170 0.74827421 0.50529307 0.00000219 0.00002858 -0.00001005
0.76279414 0.74729270 0.50529307 0.00000187 0.00003003 -0.00000224
0.24928202 0.74993807 0.50529307 -0.00001824 0.00003179 0.00003898
0.63377100 0.64810133 0.64049786 0.00002843 0.00002219 0.00001126
0.34992003 0.65068233 0.64030701 -0.00003070 -0.00001182 0.00001996
0.70137531 0.40295768 0.55690229 0.00008317 0.00001617 -0.00000149
0.69312161 0.75648099 0.50445837 0.00001367 0.00001540 -0.00001883
0.25960344 0.75906140 0.50333631 -0.00001765 0.00003958 0.00002254
0.27031121 0.40553814 0.55690229 -0.00006735 0.00003379 0.00001032
0.69054121 0.75727177 0.50529307 0.00001306 0.00001457 -0.00001888
0.34217837 0.04810951 0.59560943 -0.00002466 -0.00005207 0.00002002
0.67247754 0.75932318 0.50529307 0.00000338 0.00000183 -0.00001338
0.26476476 0.76251793 0.50529307 -0.00002164 0.00004330 0.00001474
0.32860684 0.32296327 0.61109215 -0.00000846 -0.00003254 0.00001046
0.69054121 0.04916199 0.59560943 0.00000440 -0.00006905 0.00000853
0.63635135 0.65326267 0.64071083 0.00003385 0.00001556 0.00000709
0.55635691 0.73841798 0.72590703 0.00002675 0.00001886 0.00007084
0.31895459 0.76843566 0.50529307 0.00000478 -0.00002749 -0.00000678
0.32153496 0.76861012 0.50529307 0.00000419 -0.00003060 -0.00000564
0.29314986 0.76994359 0.50529307 0.00000613 0.00002446 -0.00001217
0.29573020 0.76977152 0.50529307 0.00000590 0.00001890 -0.00001295
0.63584769 0.68938881 0.65237957 0.00002383 -0.00001094 0.00001511
0.47378209 0.68680847 0.73349285 0.00001399 0.00000516 0.00003154
0.23896003 0.05201493 0.59481448 -0.00001609 -0.00004969 0.00004212
0.48410401 0.33258569 0.74785632 -0.00001708 -0.00007025 0.00000264
0.24154037 0.05141558 0.59560943 -0.00001935 -0.00004835 0.00003071
0.27078477 0.40811864 0.55690229 -0.00006952 0.00003219 0.00000802
0.63893175 0.79002684 0.50414854 0.00001140 -0.00000881 -0.00000227
0.25702310 0.04945926 0.59560943 0.00000234 -0.00004513 -0.00002181
0.64233470 0.79518813 0.50529307 0.00001778 -0.00000338 -0.00000302
0.25960344 0.05021867 0.59560943 0.00000939 -0.00004124 -0.00002675
0.47894302 0.40667489 0.55690229 -0.00000216 0.00000562 0.00001011
0.26734510 0.05184765 0.59560943 0.00002362 -0.00003413 -0.00003476
0.63893175 0.80336070 0.50529307 0.00001476 0.00000418 -0.00000186
0.57183951 0.44682533 0.65891713 0.00001240 -0.00000986 0.00002278
0.35250041 0.80991209 0.50529307 0.00000059 0.00000839 0.00001126
0.31121296 0.05180973 0.59560943 0.00001658 -0.00003858 0.00000980
0.35635227 0.81583160 0.50529307 -0.00000264 0.00001166 0.00001180
0.61570728 0.81527489 0.50529307 -0.00000368 -0.00000241 0.00001087
0.32411531 0.05044974 0.59560943 -0.00002496 -0.00004194 0.00002724
0.61187410 0.82099289 0.50529307 -0.00000085 -0.00000410 0.00001293
0.37056348 0.82757735 0.50529307 -0.00000882 0.00000732 0.00001389
0.48926488 0.40641493 0.55690229 -0.00000063 0.00000810 0.00000932
0.64052999 0.66616505 0.64205760 0.00004028 -0.00001564 -0.00000154
0.60392666 0.83389533 0.50529307 0.00000551 -0.00000123 0.00001781
0.39120749 0.83812201 0.50529307 0.00000261 0.00001000 0.00003105
0.39229608 0.83905596 0.50529307 0.00000319 0.00001089 0.00003110
0.60280555 0.05035527 0.59560943 0.00000895 -0.00002948 -0.00001284
0.59610194 0.84421670 0.50529307 0.00000510 0.00000708 0.00002261
0.46862119 0.35889903 0.80978781 -0.00006643 0.00003162 0.00003531
0.60796630 0.05022408 0.59560943 0.00002536 -0.00002792 -0.00000460
0.61570728 0.05137948 0.59560943 0.00003585 -0.00002108 0.00000339
0.61828828 0.05168818 0.59560943 0.00003662 -0.00001959 0.00000406
0.41068771 0.86486071 0.50529307 -0.00001557 0.00001349 0.00002168
0.58216149 0.86422342 0.50529307 0.00001766 0.00001139 0.00001670
0.49958670 0.40688214 0.55690229 0.00000051 0.00000684 0.00000766
0.41414425 0.87260175 0.50529307 -0.00003055 0.00001284 0.00002279
0.33185634 0.32129106 0.61109215 -0.00000698 -0.00003159 0.00000816
0.56368446 0.87776303 0.50529307 0.00001757 0.00000924 0.00002020
0.56106859 0.88292378 0.50529307 0.00001734 0.00002066 0.00002199
0.65699476 0.05181455 0.59560943 -0.00003399 -0.00002980 -0.00003708
0.43431467 0.89066541 0.50529307 -0.00003132 0.00002106 0.00003151
0.34072393 0.67906737 0.64205760 -0.00003064 0.00000425 0.00003752
0.54859084 0.89582616 0.50529307 0.00003122 0.00003614 0.00001813
0.55119604 0.89414364 0.50529307 0.00002654 0.00003756 0.00001879
0.44281653 0.90152067 0.50529307 -0.00002368 0.00004738 0.00001977
0.44539699 0.90301239 0.50529307 -0.00002351 0.00004985 0.00001868
0.44797745 0.90441626 0.50529307 -0.00002420 0.00005209 0.00001820
0.45055792 0.90545970 0.50529307 -0.00002535 0.00005329 0.00001699
0.68021917 0.05069947 0.59560943 -0.00003160 -0.00005192 -0.00000858
0.47378209 0.90822309 0.50529307 -0.00000361 0.00004545 0.00002844
0.46862119 0.90979487 0.50529307 -0.00001387 0.00005356 0.00002238
0.68537986 0.05019700 0.59560943 -0.00001442 -0.00005964 -0.00000016
0.51506948 0.90921658 0.50529307 -0.00001289 0.00005467 0.00003533
0.48410401 0.91180956 0.50529307 0.00002053 0.00005736 0.00003362
0.70344359 0.04665925 0.50787348 -0.00004366 -0.00008088 0.00002521
0.70602393 0.04669414 0.50787348 -0.00003920 -0.00008116 0.00001404
0.40669021 0.44940630 0.65903383 -0.00001353 -0.00000168 0.00002413
0.47378209 0.56552702 0.70214105 0.00000103 -0.00000222 0.00003226
0.26992545 0.04701008 0.50787348 -0.00001253 -0.00006310 -0.00002262
0.27250582 0.04715148 0.50787348 -0.00000605 -0.00006430 -0.00002444
0.69646555 0.41585997 0.55690229 0.00007848 0.00002687 -0.00000139
0.29056948 0.04932506 0.50787348 0.00004392 -0.00007735 -0.00003261
0.70860428 0.04694750 0.50787348 -0.00003496 -0.00008120 0.00000336
0.71118462 0.04729711 0.50787348 -0.00003320 -0.00008013 -0.00000764
0.22347727 0.05021748 0.50787348 0.00001223 -0.00004839 0.00002514
0.22605765 0.05068443 0.50787348 -0.00000228 -0.00004418 0.00002279
0.29314986 0.05037091 0.50787348 0.00005522 -0.00007530 -0.00003411
0.29314986 0.05201493 0.50573874 0.00005536 -0.00006815 -0.00003712
0.47378209 0.56810737 0.70277172 -0.00000038 -0.00000304 0.00003177
0.27250582 0.05230678 0.59560943 0.00002713 -0.00003257 -0.00003423
0.27766711 0.05273465 0.59560943 0.00002980 -0.00003186 -0.00002868
0.33701769 0.68985999 0.64205760 -0.00003570 -0.00000715 0.00004064
0.65183407 0.05322807 0.50787348 -0.00001665 -0.00005963 0.00000989
0.65441442 0.05355484 0.50787348 -0.00001468 -0.00005863 0.00001666
0.24689786 0.06130552 0.49099037 -0.00000761 -0.00001164 0.00005544
0.24868628 0.06596617 0.49447325 -0.00001928 0.00000719 0.00003336
0.29056948 0.05364510 0.59560943 0.00002152 -0.00002793 -0.00000424
0.66294497 0.05718767 0.50786096 -0.00000659 -0.00003867 0.00004506
0.30089092 0.05975599 0.50785315 0.00007325 -0.00003306 -0.00003827
0.46862119 0.57068777 0.70272237 -0.00000265 -0.00000142 0.00003111
0.29831055 0.05321363 0.59560943 0.00002543 -0.00003107 0.00000290
0.64540184 0.69455016 0.64205760 0.00004967 -0.00000728 -0.00000840
0.71511775 0.06233636 0.50787348 -0.00002026 0.00003588 -0.00001507
0.20280497 0.06449306 0.50632274 0.00010264 0.00002319 0.00001921
0.68163759 0.06491730 0.50787348 0.00002978 0.00003310 0.00011056
0.71469414 0.06491730 0.50787348 -0.00001669 0.00005248 -0.00000735
0.47378209 0.57068777 0.70334041 -0.00000167 -0.00000438 0.00003100
0.29948640 0.07007802 0.50787348 0.00004806 0.00001633 -0.00003311
0.47636256 0.57068777 0.70335060 -0.00000124 -0.00000489 0.00003069
0.30605224 0.05224903 0.59560943 0.00002609 -0.00003753 0.00000588
0.29891893 0.07265836 0.50787348 0.00004078 0.00002654 -0.00003070
0.63893175 0.07265836 0.50534207 -0.00002458 0.00003853 -0.00000464
0.24670108 0.07523870 0.50603443 -0.00006496 0.00002082 -0.00000237
0.24926879 0.07527782 0.50640470 -0.00005489 0.00002095 -0.00000346
0.28961390 0.42360136 0.61367249 -0.00007401 0.00001965 0.00004193
0.71023566 0.07523870 0.50787348 -0.00001624 0.00010532 0.00004007
0.25151879 0.07543369 0.50618237 -0.00004224 0.00002369 -0.00000630
0.25165537 0.07695977 0.50751245 -0.00004149 0.00002781 -0.00000889
0.62602931 0.05258961 0.59560943 0.00003426 -0.00001719 -0.00000036
0.69312817 0.07786239 0.50609839 -0.00001692 0.00009762 0.00007168
0.63119006 0.05267264 0.59560943 0.00002862 -0.00001852 -0.00000829
0.25477189 0.08015933 0.50660908 -0.00002097 0.00004298 -0.00001927
0.69057429 0.07871089 0.50784981 -0.00000597 0.00008747 0.00006660
0.28024748 0.42742801 0.55690229 -0.00006212 0.00003092 -0.00001057
0.48668444 0.68680847 0.73340380 0.00001499 0.00000137 0.00001968
0.64409244 0.05277195 0.59560943 0.00001501 -0.00002504 -0.00002815
0.65183407 0.08298039 0.50589085 -0.00001220 0.00007234 -0.00000336
0.65371823 0.08298039 0.50787348 -0.00000931 0.00007236 -0.00000424
0.68830264 0.42876232 0.55690229 0.00006665 0.00003479 -0.00001357
0.25725237 0.08591276 0.50822765 -0.00000409 0.00005244 -0.00001897
0.23349179 0.08814108 0.50787348 -0.00005660 0.00000836 -0.00002982
0.23637965 0.08651271 0.50787348 -0.00006325 0.00002048 -0.00003057
0.64968818 0.71261317 0.64205760 0.00005406 0.00000192 -0.00000384
0.34992003 0.05648000 0.59560943 0.00000278 -0.00001656 0.00000189
0.22605765 0.09099946 0.50787348 -0.00002864 -0.00001226 -0.00002907
0.26732585 0.09201462 0.50781173 0.00002871 0.00004306 -0.00002199
0.29314986 0.09186479 0.50787348 0.00001413 0.00004947 -0.00001622
0.26992545 0.09378200 0.50787348 0.00002681 0.00003972 -0.00002295
0.28798854 0.09465997 0.50787348 0.00001004 0.00004226 -0.00001564
0.29056948 0.09399261 0.50787348 0.00001179 0.00004452 -0.00001540
0.32669565 0.22490586 0.50725710 0.00000862 -0.00002560 -0.00004296
0.65027070 0.72035486 0.64205760 0.00005067 -0.00000536 0.00000030
0.46862119 0.57326806 0.70336443 -0.00000378 -0.00000428 0.00003062
0.65022737 0.72551560 0.64205760 0.00004942 -0.00000737 0.00000247
0.65011001 0.72809595 0.64205760 0.00005007 -0.00000645 0.00000408
0.28282782 0.23006658 0.50675356 0.00000017 -0.00003105 -0.00005017
0.64993674 0.73067629 0.64205760 0.00005163 -0.00000321 0.00000580
0.32153496 0.23006658 0.50707310 0.00001339 -0.00003324 -0.00003537
0.28540817 0.23264693 0.50592750 -0.00000734 -0.00002649 -0.00004577
0.28376719 0.43134260 0.55690229 -0.00005793 0.00002811 -0.00001637
0.32411531 0.23264693 0.50689167 0.00001805 -0.00002934 -0.00003495
0.32669565 0.23264693 0.50688934 0.00001868 -0.00002612 -0.00003657
0.30347127 0.23465016 0.50787348 -0.00000980 -0.00002743 -0.00002659
0.51248902 0.68680847 0.73311734 -0.00000731 0.00000572 0.00002409
0.53571320 0.57326806 0.70221448 -0.00000044 -0.00000022 0.00002337
0.32411531 0.23522787 0.50757200 0.00002011 -0.00002625 -0.00003040
0.57183951 0.44940630 0.65880281 0.00001159 -0.00000744 0.00002309
0.30605224 0.23780823 0.50759614 -0.00000745 -0.00001961 -0.00002619
0.33701769 0.23766981 0.50787348 0.00001553 -0.00001163 -0.00003636
0.33205312 0.74357861 0.64205760 -0.00005595 0.00000759 0.00002933
0.31637365 0.24038859 0.50779212 0.00001108 -0.00001704 -0.00002413
0.64766026 0.74615961 0.64205760 0.00005641 0.00001567 0.00001542
0.33382472 0.75132030 0.64205760 -0.00005825 0.00002450 0.00003204
0.33114207 0.24038859 0.50787348 0.00002433 -0.00001516 -0.00002882
0.27013907 0.24296893 0.50787348 -0.00000161 0.00000234 -0.00007171
0.30605224 0.24296893 0.50650650 -0.00001090 -0.00000593 -0.00002842
0.59764427 0.06233636 0.59429455 -0.00001924 0.00000869 -0.00003186
0.32411531 0.24296893 0.50643456 0.00002188 -0.00001340 -0.00002909
0.62602931 0.77196378 0.66897559 0.00004849 0.00001647 0.00004992
0.34217837 0.24296893 0.50731945 0.00001469 -0.00000553 -0.00003654
0.33443731 0.24554929 0.50679201 0.00002464 -0.00000991 -0.00002981
0.33701769 0.24554929 0.50637919 0.00002297 -0.00000967 -0.00003259
0.33443731 0.24812967 0.50698304 0.00002437 -0.00000741 -0.00002747
0.33701769 0.24812967 0.50662494 0.00002377 -0.00000740 -0.00003002
0.33185634 0.25071061 0.50784278 0.00002393 -0.00000371 -0.00002204
0.33443731 0.25071061 0.50737262 0.00002404 -0.00000426 -0.00002491
0.32669565 0.25329095 0.50677365 0.00002063 0.00000141 -0.00002201
0.32830957 0.25329095 0.50787348 0.00002215 0.00000104 -0.00001903
0.53313273 0.57584840 0.70252198 0.00000039 -0.00000297 0.00002165
0.66704297 0.25329095 0.50787348 -0.00002631 -0.00003311 -0.00002173
0.68279958 0.25267115 0.50787348 0.00000877 -0.00006626 -0.00002721
0.68279958 0.25329095 0.50638956 0.00000703 -0.00006749 -0.00003037
0.65957516 0.25579548 0.50787348 -0.00003396 -0.00001686 -0.00002042
0.71243870 0.06491730 0.59560943 0.00006615 0.00000943 0.00004915
0.46604073 0.68938881 0.73242652 -0.00000377 0.00002643 0.00003999
0.46023926 0.32038286 0.83301163 -0.00011873 0.00002268 -0.00002062
0.23832214 0.06749765 0.59560943 -0.00001954 0.00000872 0.00006117
0.65183407 0.25688168 0.50787348 -0.00002446 -0.00000242 -0.00002931
0.69312161 0.25845167 0.50620621 0.00001795 -0.00007467 -0.00001873
0.59506387 0.32051688 0.61109215 -0.00000832 -0.00001732 0.00000537
0.64441019 0.26103202 0.50787348 -0.00001942 0.00000313 -0.00003249
0.64667338 0.25924841 0.50787348 -0.00001985 0.00000233 -0.00003228
0.47894302 0.37757140 0.67818433 -0.00001059 -0.00002447 -0.00000574
0.71376497 0.06749765 0.59329140 0.00006354 0.00002451 0.00004134
0.69957060 0.26361239 0.50787348 0.00003432 -0.00005345 -0.00000172
0.26218441 0.26619333 0.50587994 -0.00002707 -0.00002818 -0.00004694
0.63980186 0.76422268 0.64205760 0.00004559 0.00002149 0.00000922
0.70086259 0.26619333 0.50752610 0.00003597 -0.00004063 0.00000342
0.63815057 0.26877367 0.50787348 -0.00001147 -0.00000503 -0.00002908
0.35250041 0.07007802 0.59483314 0.00002554 0.00004145 -0.00000187
0.59764427 0.07007802 0.59474891 -0.00002410 0.00003964 -0.00003346
0.53571320 0.57842940 0.70270973 0.00000052 -0.00000424 0.00002277
0.66989714 0.32296327 0.60903889 0.00003228 -0.00002024 0.00002316
0.54087412 0.57842940 0.70172524 0.00000139 -0.00000336 0.00002299
0.67505842 0.44985580 0.55690229 0.00004644 0.00003728 -0.00002651
0.30089092 0.45331049 0.55690229 -0.00002828 0.00003242 -0.00002083
0.34762973 0.69455016 0.65237957 -0.00002371 -0.00001636 0.00004708
0.32412612 0.27909571 0.50787348 -0.00000104 0.00001596 -0.00001295
0.39636824 0.73067629 0.71344519 -0.00001418 0.00003801 0.00008433
0.63012129 0.28167605 0.50787348 -0.00000058 -0.00002298 -0.00002449
0.32669565 0.28425640 0.50724393 0.00000236 0.00000908 -0.00001149
0.59750527 0.07265836 0.59560943 -0.00002451 0.00005136 -0.00003246
0.32798043 0.28683674 0.50787348 0.00000364 0.00000476 -0.00000948
0.40927058 0.45198664 0.65953213 -0.00001268 -0.00000012 0.00002287
0.30605224 0.45598474 0.55690229 -0.00002001 0.00002872 -0.00002118
0.53571320 0.58100975 0.70236069 0.00000033 -0.00000543 0.00002107
0.34217837 0.77454418 0.64021379 -0.00005905 0.00004969 0.00003855
0.24670108 0.29457840 0.50566405 -0.00005619 -0.00004302 -0.00000826
0.70250481 0.29457840 0.50787348 0.00003514 0.00002638 0.00000612
0.24547710 0.29715878 0.50787348 -0.00006195 -0.00003525 0.00000075
0.32927600 0.29973912 0.50773251 0.00000121 -0.00002172 -0.00000668
0.59760451 0.07523870 0.59560943 -0.00002662 0.00006268 -0.00003247
0.23896003 0.07781907 0.59435773 -0.00002129 0.00005144 0.00006132
0.63635135 0.77474213 0.64205760 0.00004884 0.00001828 0.00000320
0.36282241 0.77454418 0.66858143 -0.00004014 0.00005415 0.00005086
0.41225052 0.45198664 0.66012067 -0.00000947 -0.00000120 0.00002128
0.56925917 0.45198664 0.65950865 0.00000706 -0.00000454 0.00002294
0.69520545 0.30748078 0.50787348 0.00001616 0.00002707 -0.00000008
0.30863258 0.45767450 0.55690229 -0.00001660 0.00002768 -0.00002145
0.69334239 0.31006116 0.50787348 0.00001131 0.00002612 0.00000040
0.63728833 0.77970546 0.64205760 0.00005850 0.00002320 0.00000516
0.24600485 0.31522191 0.50787348 -0.00006345 0.00000790 0.00002579
0.62455922 0.77454418 0.67044270 0.00004857 0.00001767 0.00005140
0.60755348 0.31780237 0.50787348 -0.00003834 -0.00001073 -0.00001716
0.56765485 0.45198664 0.66012067 0.00000481 -0.00000416 0.00002295
0.69312161 0.32038286 0.50689882 0.00002356 0.00001012 -0.00001382
0.70641625 0.08040002 0.59560943 0.00004875 0.00006778 0.00001880
0.60538590 0.32067883 0.50787348 -0.00003693 -0.00001307 -0.00001713
0.57183951 0.45198664 0.65871918 0.00001061 -0.00000541 0.00002325
0.69570190 0.32554376 0.50671184 0.00003968 0.00000398 -0.00002586
0.69828224 0.32812423 0.50753862 0.00005118 0.00000555 -0.00003128
0.71081996 0.35650933 0.56206298 0.00008727 0.00001901 0.00003104
0.24928202 0.33115429 0.50787348 -0.00006079 0.00005388 0.00000676
0.25073469 0.33328518 0.50787348 -0.00005737 0.00005508 0.00000400
0.31379327 0.46415001 0.55690229 -0.00001311 0.00002800 -0.00002047
0.36215445 0.33586565 0.50787348 0.00002427 -0.00001976 -0.00000591
0.63893175 0.78744644 0.63973659 0.00006917 0.00003091 0.00000641
0.59506387 0.33844614 0.50620973 -0.00002179 -0.00002595 -0.00001929
0.70397854 0.08556073 0.59560943 0.00004258 0.00008192 0.00001522
0.59276456 0.34102660 0.50787348 -0.00001856 -0.00003021 -0.00001677
0.24286604 0.08814108 0.59560943 -0.00002714 0.00007433 0.00006159
0.35227352 0.08814108 0.59560943 0.00002878 0.00005110 -0.00001212
0.59764427 0.08650310 0.59560943 -0.00003629 0.00009414 -0.00002831
0.40669021 0.45456699 0.65870291 -0.00001403 0.00000232 0.00002434
0.70212448 0.08814108 0.59560943 0.00003595 0.00007906 0.00001426
0.24360982 0.09072145 0.59560943 -0.00002710 0.00006544 0.00005927
0.58732224 0.35134843 0.50576234 -0.00001115 -0.00003725 -0.00002021
0.35255817 0.09072145 0.59560943 0.00002782 0.00003694 -0.00001381
0.58344930 0.35392892 0.50787348 -0.00001306 -0.00003611 -0.00001656
0.69885272 0.09072145 0.59560943 0.00002569 0.00006695 0.00001265
0.58196718 0.35650933 0.50787348 -0.00001409 -0.00003374 -0.00001599
0.47120160 0.58617043 0.70345169 -0.00000683 -0.00001004 0.00002128
0.69570190 0.35908979 0.50717527 0.00007434 0.00001767 -0.00005597
0.39120749 0.82873392 0.66082168 -0.00004608 0.00005511 0.00005126
0.69554788 0.36167029 0.50787348 0.00007461 0.00002425 -0.00005579
0.64925373 0.15781365 0.67726904 0.00004465 0.00000806 0.00008522
0.26734510 0.36683121 0.50594568 -0.00005571 0.00000844 -0.00003361
0.26581544 0.36683121 0.50787348 -0.00005922 0.00000753 -0.00003204
0.42733368 0.74873996 0.72160143 -0.00001988 0.00000073 0.00006245
0.65441442 0.47004971 0.55507576 0.00002889 0.00000725 -0.00001315
0.63106972 0.79518813 0.64205760 0.00005491 0.00002827 0.00000521
0.69570190 0.09216989 0.59560943 0.00001676 0.00005723 0.00001122
0.59673500 0.10362382 0.60593086 -0.00001876 -0.00000468 -0.00001716
0.35740176 0.79776847 0.64205760 -0.00006236 0.00002983 0.00003452
0.69054121 0.09425077 0.59560943 0.00000385 0.00004105 0.00000824
0.57441986 0.37457260 0.50655442 -0.00001485 -0.00001090 -0.00001631
0.39894855 0.37715307 0.50735778 0.00001299 -0.00001287 -0.00001332
0.37056348 0.32389539 0.61109215 0.00000850 -0.00002865 0.00000642
0.59506387 0.12426785 0.61508119 -0.00001750 -0.00002278 -0.00001508
0.39894855 0.37973353 0.50710642 0.00001246 -0.00000989 -0.00001412
0.39894855 0.38231394 0.50709355 0.00001135 -0.00000742 -0.00001453
0.40088686 0.38231394 0.50787348 0.00001194 -0.00000854 -0.00001348
0.49442580 0.69971085 0.73568088 -0.00000050 0.00002129 0.00004781
0.39894855 0.38489443 0.50689995 0.00001054 -0.00000607 -0.00001518
0.27365217 0.38747489 0.50787348 -0.00006268 0.00000062 -0.00004662
0.37314382 0.32455850 0.61109215 0.00001036 -0.00002832 0.00000730
0.24928202 0.10044771 0.59560943 -0.00002727 0.00002131 0.00003929
0.68234998 0.38747489 0.50787348 0.00005259 0.00003958 -0.00005363
0.56922120 0.39005536 0.50787348 -0.00000509 -0.00000882 -0.00001186
0.48926488 0.60423410 0.70156217 0.00001707 0.00001962 0.00000411
0.40467617 0.39263582 0.50787348 0.00000682 -0.00000721 -0.00001511
0.56925917 0.39263582 0.50713348 -0.00000318 -0.00000938 -0.00001269
0.40410990 0.39521635 0.50775862 0.00000600 -0.00000752 -0.00001532
0.50732815 0.68938881 0.73327017 -0.00000045 0.00000550 0.00002256
0.47120160 0.36054325 0.80978781 -0.00005333 0.00003314 0.00004029
0.28024748 0.39779681 0.50581473 -0.00004439 0.00003959 -0.00004966
0.28024748 0.39994928 0.50787348 -0.00004450 0.00004727 -0.00004474
0.66731679 0.32358339 0.61109215 0.00003193 -0.00002230 0.00002147
0.67505842 0.39858025 0.50787348 0.00005486 0.00001571 -0.00005153
0.28282782 0.40173244 0.50787348 -0.00003774 0.00005079 -0.00004556
0.67008430 0.32554376 0.61109215 0.00003612 -0.00002144 0.00002431
0.28540817 0.40388554 0.50787348 -0.00003235 0.00005344 -0.00004652
0.47894302 0.60681450 0.70233184 0.00001629 0.00001279 0.00000236
0.71070623 0.35908979 0.56206298 0.00008986 0.00002763 0.00003003
0.56667876 0.40553814 0.50778580 0.00000336 -0.00001306 -0.00000974
0.48668444 0.60681450 0.70259243 0.00002058 0.00002067 0.00000473
0.55893737 0.74701768 0.72205216 0.00001743 0.00004594 0.00005656
0.36540276 0.81067085 0.64114469 -0.00006048 0.00002836 0.00003316
0.56925917 0.40811864 0.50659442 0.00000573 -0.00001205 -0.00001159
0.56151807 0.74873996 0.72144198 0.00001551 0.00004385 0.00006050
0.40927058 0.41069907 0.50784487 0.00000122 -0.00001153 -0.00001651
0.64066720 0.47779137 0.55690229 0.00001727 -0.00000431 -0.00000302
0.67763883 0.10448915 0.59560943 -0.00001354 0.00000365 0.00000516
0.66824710 0.41069907 0.50787348 0.00005584 0.00001032 -0.00005149
0.46878454 0.41327950 0.50787348 -0.00000674 -0.00002055 0.00000838
0.49958670 0.60681450 0.70180827 0.00000153 0.00002329 0.00000198
0.66731679 0.41192749 0.50787348 0.00005560 0.00001125 -0.00005043
0.30863258 0.32812423 0.61028457 -0.00002102 -0.00003907 0.00002345
0.46670693 0.41585997 0.50787348 -0.00000945 -0.00001784 0.00000857
0.62436008 0.81583160 0.64205760 0.00005537 0.00002120 0.00004290
0.55635691 0.41421825 0.50787348 -0.00000324 -0.00001438 -0.00000990
0.55635691 0.41585997 0.50663877 -0.00000323 -0.00001509 -0.00001110
0.56925917 0.41585997 0.50659144 0.00000752 -0.00001416 -0.00001116
0.57183951 0.41585997 0.50631928 0.00000849 -0.00001375 -0.00001152
0.29831055 0.41844049 0.50678098 -0.00003206 0.00004213 -0.00005468
0.60538590 0.10623063 0.59560943 -0.00001619 -0.00001577 -0.00000678
0.50732815 0.41844049 0.50729138 0.00001496 -0.00001021 0.00000539
0.67247754 0.10790293 0.59560943 -0.00002056 0.00000329 0.00000239
0.57183951 0.41844049 0.50553131 0.00000884 -0.00001534 -0.00001308
0.57441986 0.41844049 0.50571209 0.00000944 -0.00001500 -0.00001249
0.36789045 0.78228581 0.67044270 -0.00003845 0.00005099 0.00005403
0.30347127 0.42102090 0.50661039 -0.00003078 0.00003715 -0.00005029
0.35127762 0.11136547 0.59560943 0.00003413 -0.00002993 -0.00000571
0.46392006 0.42102090 0.50787348 -0.00001375 -0.00001162 0.00000978
0.18194190 0.05975599 0.54399997 -0.00004599 -0.00002320 0.00002118
0.57958120 0.42102090 0.50567216 0.00000965 -0.00001467 -0.00001162
0.30605224 0.42342636 0.50787348 -0.00002977 0.00003425 -0.00004673
0.30863258 0.42335868 0.50787348 -0.00002649 0.00003102 -0.00004438
0.41529423 0.42360136 0.50787348 0.00000141 -0.00001758 -0.00001625
0.25794801 0.11394582 0.59560943 -0.00002674 -0.00001099 0.00001739
0.54087412 0.42360136 0.50645089 0.00000121 -0.00001828 -0.00000532
0.59764427 0.10494529 0.60593086 -0.00001785 -0.00001065 -0.00001621
0.61627722 0.82873392 0.64205760 0.00005189 0.00003109 0.00005002
0.37830514 0.83031958 0.64205760 -0.00003486 0.00004546 0.00006845
0.53313273 0.42618182 0.50724858 0.00000709 -0.00001592 0.00000111
0.51506948 0.68938881 0.73397362 -0.00000814 0.00000891 0.00003180
0.38088548 0.83347219 0.64205760 -0.00003543 0.00004248 0.00007103
0.31895459 0.42876232 0.50715196 -0.00003031 0.00001820 -0.00003849
0.45571885 0.42837098 0.50787348 -0.00002100 -0.00000396 0.00001026
0.66448975 0.11652619 0.59560943 -0.00002346 0.00001106 -0.00000900
0.53571320 0.42876232 0.50543875 0.00000499 -0.00001737 -0.00000102
0.48668444 0.60939485 0.70383388 0.00002262 0.00002380 0.00000580
0.41185096 0.43134260 0.50640750 -0.00000281 -0.00002107 -0.00001886
0.41443127 0.43134260 0.50689048 -0.00000018 -0.00002135 -0.00001737
0.41185096 0.45485586 0.66012067 -0.00001120 0.00000104 0.00002178
0.43765569 0.43134260 0.50731248 -0.00000766 -0.00001289 -0.00000214
0.61312699 0.11910654 0.59345567 0.00000421 -0.00001707 -0.00000428
0.45055792 0.43134260 0.50722253 -0.00001823 -0.00000541 0.00000809
0.66215611 0.11910654 0.59424156 -0.00002199 0.00001283 -0.00000859
0.66345769 0.11910654 0.59560943 -0.00002262 0.00001148 -0.00001176
0.53313273 0.43134260 0.50534165 0.00000446 -0.00001442 0.00000127
0.64409244 0.43134260 0.50678056 0.00001375 0.00002787 -0.00003538
0.41185096 0.43392298 0.50604427 -0.00000339 -0.00002082 -0.00001914
0.41443127 0.43392298 0.50640583 -0.00000066 -0.00002122 -0.00001785
0.46604073 0.69196975 0.73277313 -0.00000790 0.00003448 0.00004322
0.42991406 0.43392298 0.50674325 -0.00000045 -0.00001758 -0.00000907
0.45055792 0.43392298 0.50604707 -0.00001779 -0.00000435 0.00000759
0.62745613 0.49327412 0.55690229 0.00000827 0.00000369 0.00000080
0.64409244 0.43357873 0.50787348 0.00001360 0.00002904 -0.00003402
0.49442580 0.37886664 0.75817835 0.00002429 0.00007777 0.00002314
0.42475331 0.43650389 0.50594735 0.00000438 -0.00002058 -0.00001345
0.42733368 0.43650389 0.50590926 0.00000305 -0.00001944 -0.00001174
0.33185634 0.43823940 0.50787348 -0.00002232 0.00002059 -0.00002456
0.50216722 0.60939485 0.70245761 -0.00000630 0.00002203 0.00000095
0.39089456 0.84421670 0.64205760 -0.00004273 0.00004583 0.00005928
0.27297580 0.12684819 0.61625284 -0.00003825 -0.00001707 0.00004060
0.61828828 0.44166464 0.50584739 0.00000826 -0.00000050 -0.00002191
0.34733969 0.70229113 0.65149921 -0.00002144 -0.00001867 0.00004160
0.35250041 0.44424495 0.50589049 -0.00001152 0.00000723 -0.00001730
0.66579854 0.12426785 0.59560943 -0.00002245 0.00001009 -0.00001810
0.62602931 0.44344100 0.50787348 0.00001170 0.00000228 -0.00002650
0.62602931 0.49650073 0.55690229 0.00001002 0.00000243 0.00000019
0.36798313 0.44682533 0.50638729 -0.00000422 0.00000060 -0.00001448
0.37056348 0.44682533 0.50643200 -0.00000352 -0.00000075 -0.00001469
0.61054659 0.44682533 0.50636035 0.00001331 -0.00000986 -0.00001908
