0.66191900 0.52651310 0.57564688 -0.00002549 0.00000541 -0.00000089
0.63819772 0.50291246 0.51994383 -0.00002161 0.00000048 -0.00000421
0.82255834 0.59945607 0.50022727 0.00001497 -0.00001196 0.00001166
0.36737332 0.42144218 0.31939346 -0.00001377 0.00000228 -0.00006464
0.75677162 0.62668973 0.58103526 -0.00000245 -0.00001441 -0.00002157
0.27139869 0.42615286 0.40173730 -0.00002155 0.00001072 -0.00001691
0.89176035 0.45148507 0.52518195 0.00000796 0.00002148 -0.00001202
0.76973420 0.67602855 0.49806908 0.00004012 0.00002789 -0.00000518
0.56126034 0.40089676 0.45995852 -0.00000149 0.00001537 0.00000739
0.75910592 0.42620072 0.56796837 0.00003775 -0.00003951 0.00001403
0.68660176 0.30932918 0.41130832 -0.00002523 -0.00006398 0.00002577
0.36790749 0.35727698 0.37733924 0.00001463 -0.00002852 -0.00000323
0.41215619 0.30024886 0.21149528 -0.00007211 -0.00012736 -0.00003499
0.26806858 0.39826548 0.33118528 -0.00001438 0.00001219 -0.00000065
0.50749630 0.51652092 0.46490675 0.00000848 0.00001832 -0.00000737
0.15327784 0.49361461 0.39421806 -0.00007253 0.00000324 0.00008822
0.57423878 0.41823030 0.64094591 -0.00001764 0.00000342 0.00000145
0.70962054 0.53210604 0.50214106 -0.00000289 -0.00001558 0.00003660
0.09903977 0.60986733 0.39396313 0.00008044 0.00002128 0.00017154
0.71229547 0.61004192 0.59898829 -0.00001168 0.00000533 -0.00005405
0.66815066 0.69020116 0.48330516 -0.00001101 0.00011253 -0.00008403
0.86763173 0.49897248 0.50116384 0.00002004 -0.00002164 0.00003097
0.84525317 0.56381845 0.56705028 0.00003371 0.00001883 0.00003575
0.40038779 0.31056175 0.29257670 -0.00002754 -0.00004105 0.00000621
0.32150811 0.34677416 0.37018189 -0.00000201 -0.00004537 -0.00001318
0.67880321 0.37621716 0.60751134 0.00001721 -0.00003711 0.00004106
0.42592189 0.44854316 0.34924164 0.00004752 0.00000106 -0.00004780
0.74169707 0.32305923 0.77623564 -0.00005292 0.00015244 0.00002739
0.45622534 0.50977719 0.58195966 -0.00006017 0.00006467 0.00006487
0.34908825 0.30092609 0.25081941 0.00002251 -0.00009564 0.00001119
0.62666219 0.36201158 0.69771546 -0.00002507 -0.00005019 -0.00000821
0.16133805 0.60318369 0.37109283 0.00000666 -0.00003602 -0.00006523
0.34962332 0.30756688 0.51588690 -0.00000025 -0.00008467 -0.00003871
0.41993710 0.42453721 0.45743740 0.00000487 0.00000029 -0.00000654
0.46388367 0.54700738 0.53882134 -0.00004205 0.00003169 0.00002180
0.56627148 0.37131250 0.60824716 -0.00002044 -0.00003266 0.00004664
0.67353171 0.32598147 0.74878538 -0.00002220 0.00004193 0.00009452
0.76667845 0.31495079 0.71776736 -0.00003472 -0.00009739 0.00007574
0.26054168 0.41836655 0.42314801 -0.00002818 0.00000613 -0.00004429
0.55299711 0.51858336 0.57234746 -0.00001669 -0.00002308 0.00000615
0.69403160 0.40974963 0.62828058 0.00000581 -0.00001631 0.00002950
0.60227007 0.45492837 0.50842857 -0.00002003 -0.00000015 0.00000591
0.86344844 0.53646165 0.53364456 -0.00001228 0.00003255 -0.00000326
0.43403623 0.51586270 0.38881120 -0.00000259 0.00004657 -0.00002001
0.84848088 0.55634755 0.55330890 0.00001409 0.00001455 -0.00001379
0.44313636 0.31810808 0.23572320 0.00004878 0.00011586 0.00009231
0.94166905 0.61603534 0.49064833 0.00010491 0.00012996 -0.00000831
0.65017819 0.34938598 0.73017955 0.00005344 0.00002630 0.00003400
0.65008342 0.37426499 0.62248033 -0.00000529 -0.00001323 0.00002153
0.42195472 0.43029916 0.47090825 0.00000386 -0.00000609 -0.00000177
0.61856508 0.38006884 0.73123890 0.00006306 0.00002414 0.00004861
0.73461676 0.30534169 0.78179353 -0.00008786 -0.00011696 0.00004938
0.70633960 0.63128579 0.60753387 0.00000480 0.00005615 -0.00009801
0.70460129 0.31678566 0.70790702 0.00001114 -0.00007549 -0.00004682
0.25621587 0.40169981 0.33415851 -0.00002081 0.00001834 -0.00000286
0.56504703 0.40412441 0.48215041 -0.00001056 0.00001283 0.00000387
0.41567805 0.39182231 0.40087464 0.00000847 -0.00000869 0.00001906
0.35469902 0.44259232 0.43655184 -0.00000354 -0.00000144 0.00001051
0.61500484 0.30967250 0.44401613 -0.00002666 -0.00000727 0.00004625
0.80231285 0.65155739 0.48339444 0.00001195 0.00000257 -0.00009642
0.84089488 0.50518453 0.52457964 -0.00003798 0.00000550 -0.00001025
0.71901619 0.30894026 0.48312253 -0.00003701 -0.00007541 0.00007621
0.38701147 0.48395169 0.49038985 -0.00004133 -0.00000941 0.00002783
0.72010303 0.30497038 0.44768077 -0.00008550 -0.00006394 -0.00006536
0.73226172 0.50790524 0.48587087 -0.00001717 -0.00000530 0.00001571
0.74719906 0.48401883 0.48692596 -0.00000388 -0.00002793 -0.00001329
0.30936661 0.43390357 0.34119183 -0.00002347 -0.00000536 -0.00002349
0.40636361 0.55283785 0.41556266 0.00000984 -0.00003573 0.00000734
0.76699561 0.68808156 0.49231872 0.00003808 0.00015220 -0.00006463
0.48532876 0.39740151 0.56780595 -0.00004089 -0.00002844 0.00000901
0.32196963 0.35226673 0.29815233 0.00003591 -0.00000537 -0.00002028
0.66478264 0.66457784 0.49527419 -0.00003121 -0.00008239 0.00007750
0.41975164 0.47793984 0.35211337 0.00001052 0.00004617 -0.00007114
0.66507900 0.42357084 0.65317529 0.00002316 0.00001471 0.00000988
0.84443426 0.65749794 0.52582979 0.00000065 0.00002896 0.00003406
0.65979898 0.48981693 0.51874059 0.00000464 -0.00001390 0.00000260
0.88000691 0.65545917 0.56105012 0.00006674 0.00006726 0.00006883
0.69764823 0.49698204 0.49908465 -0.00000228 -0.00000110 0.00003293
0.29266152 0.29975438 0.22385964 0.00006729 -0.00007385 0.00001864
0.76010704 0.54445285 0.60380358 0.00000151 -0.00000096 0.00001746
0.74609196 0.60948068 0.49038076 -0.00000053 0.00001288 -0.00001212
0.20587637 0.39419636 0.40238380 -0.00008121 -0.00002659 0.00006369
0.56209862 0.50475609 0.57996863 -0.00000894 -0.00001162 -0.00000066
0.68660355 0.55290556 0.57339782 -0.00001901 0.00000123 0.00000564
0.25432634 0.34487382 0.28591743 -0.00009512 -0.00001404 0.00001906
0.71986938 0.43618017 0.62188655 0.00001665 -0.00001360 0.00003216
0.69961041 0.61920977 0.63875228 0.00001172 -0.00002086 0.00009423
0.26945865 0.34760568 0.31679472 -0.00003296 0.00002433 0.00001514
0.73620850 0.61401135 0.54069597 0.00002877 0.00000727 -0.00000778
0.50474530 0.49495214 0.60468292 -0.00001609 0.00006988 0.00005142
0.40528348 0.48585361 0.53059328 -0.00007506 -0.00001156 0.00001157
0.80534023 0.53630108 0.58166414 -0.00000069 0.00000710 0.00004242
0.81042135 0.49924958 0.56609559 -0.00000577 0.00000858 -0.00001189
0.42259538 0.32077175 0.28461805 -0.00003143 0.00004564 -0.00002744
0.24173911 0.37936860 0.49831170 -0.00006699 -0.00003936 0.00002665
0.70274693 0.30350226 0.43110558 -0.00001641 -0.00008997 0.00003944
0.10346712 0.65728641 0.39001900 0.00000206 -0.00013235 0.00009148
0.74313986 0.41209570 0.57192153 0.00002820 -0.00004595 0.00001091
0.30284673 0.34548247 0.49552059 0.00003760 0.00001898 0.00000463
0.36503804 0.30822155 0.51386654 -0.00001734 -0.00007144 0.00000121
0.73881906 0.31675500 0.69593376 -0.00004881 -0.00011191 -0.00001200
0.46465662 0.42746037 0.58027542 -0.00004786 -0.00002407 0.00002840
0.31575745 0.44574219 0.34838396 -0.00002085 -0.00001363 -0.00001789
0.66804278 0.39528733 0.50734353 -0.00000871 -0.00000743 -0.00000823
0.77774024 0.47939822 0.59156561 -0.00000520 -0.00001935 0.00002665
0.44958580 0.31090060 0.23146279 0.00009336 0.00001962 0.00004091
0.71044439 0.60960931 0.63260782 0.00002282 -0.00001208 0.00007571
0.76963717 0.32292792 0.68115294 0.00004548 -0.00005913 -0.00007693
0.38404593 0.46419248 0.48114932 -0.00002593 0.00000108 -0.00000214
0.11120608 0.65531611 0.39049408 0.00008604 -0.00014987 0.00011090
0.18795265 0.58567774 0.36741799 0.00001474 0.00004094 -0.00007637
0.45722708 0.42777663 0.40866321 -0.00000054 -0.00000584 0.00000288
0.46021748 0.46059117 0.38475159 0.00003457 -0.00001497 -0.00001729
0.88612527 0.47124702 0.54499608 0.00002020 0.00000573 0.00001591
0.15167080 0.55007130 0.39109278 0.00000548 0.00000822 0.00012026
0.64300865 0.35829031 0.59917235 -0.00000847 -0.00005507 0.00001155
0.82329774 0.54110104 0.49180689 0.00001203 -0.00000249 0.00000694
0.42692846 0.43451717 0.49200529 0.00000123 -0.00001187 0.00000534
0.64391190 0.50835884 0.58945590 -0.00002525 0.00000463 0.00001288
0.45629135 0.45420378 0.59021294 -0.00007504 -0.00002416 0.00004846
0.36332360 0.48861995 0.43261430 -0.00002900 -0.00000089 -0.00003291
0.88488317 0.44459295 0.52272218 0.00006427 0.00005635 0.00000310
0.31882632 0.36508769 0.42957127 0.00002206 0.00000655 -0.00001362
0.70329148 0.47193244 0.61926526 -0.00002710 0.00000648 -0.00000710
0.36113903 0.30379960 0.55774027 -0.00000360 -0.00011170 -0.00006912
0.72680837 0.55067044 0.58827156 -0.00000699 -0.00000533 -0.00003176
0.83817476 0.56205577 0.52719462 -0.00000453 0.00001847 -0.00002112
0.18452467 0.51603019 0.39045438 0.00000478 0.00002318 0.00006573
0.63780576 0.46833163 0.60865098 -0.00002219 -0.00000050 0.00000778
0.38924521 0.57366306 0.39852130 -0.00006227 0.00011313 -0.00006033
0.43237272 0.40348780 0.38757047 0.00001070 -0.00000733 -0.00000478
0.83540130 0.54323465 0.56311876 0.00002272 0.00000146 0.00000908
0.62639785 0.37352055 0.64491171 -0.00000437 0.00000663 -0.00002733
0.70985198 0.60273880 0.54977489 0.00000359 0.00000641 0.00000273
0.60856026 0.41719443 0.67552233 -0.00001443 -0.00003144 -0.00001748
0.47122276 0.41592348 0.52960026 -0.00001581 0.00000551 -0.00001222
0.42333081 0.56557626 0.43567863 0.00002293 0.00000911 0.00001377
0.69884789 0.34938285 0.72247398 -0.00001210 0.00007156 0.00001283
0.41858312 0.29980043 0.21047787 -0.00004209 -0.00012276 -0.00004869
0.57985765 0.35017511 0.41812965 -0.00000086 0.00000338 -0.00003548
0.31486008 0.40509400 0.31699234 -0.00003167 0.00003399 -0.00000792
0.50498366 0.46919665 0.46209207 -0.00000863 0.00000728 0.00000296
0.60173589 0.43100840 0.73096597 -0.00002921 0.00004481 0.00014109
0.67432851 0.54081279 0.58709490 -0.00003619 0.00000701 0.00000593
0.61479777 0.45588574 0.62058449 -0.00000992 0.00001364 0.00000590
0.71187776 0.62783253 0.62380809 0.00005706 0.00002459 0.00000124
0.50885600 0.55592340 0.54020101 0.00000468 0.00002640 0.00000798
0.61362284 0.32631624 0.46400562 -0.00000687 -0.00000098 -0.00001055
0.27802324 0.36233190 0.50044513 0.00000706 -0.00001974 0.00000573
0.84149987 0.58860451 0.56375891 0.00001203 0.00000409 0.00001898
0.76362985 0.52416039 0.60952085 0.00001243 0.00000284 0.00003104
0.73730808 0.32529747 0.77784944 -0.00005665 0.00017356 0.00002868
0.37107924 0.39962670 0.32292703 0.00001401 -0.00002851 -0.00003319
0.46351567 0.42311829 0.52196825 -0.00001044 0.00000424 -0.00000690
0.21983652 0.42754835 0.34617230 -0.00000453 0.00005622 -0.00005719
0.31075981 0.44360465 0.34866908 -0.00002190 -0.00001742 -0.00001842
0.70066434 0.59164673 0.60776490 -0.00000482 -0.00000467 -0.00004155
0.45837563 0.54200071 0.53972816 -0.00004123 0.00003379 0.00001263
0.87046105 0.61534232 0.49700925 0.00004819 0.00002640 0.00007732
0.29145509 0.33968446 0.52523881 0.00002104 0.00008988 0.00006100
0.43249366 0.48248863 0.57251978 -0.00007718 0.00000325 0.00007203
0.16379060 0.48502764 0.36167550 -0.00000365 -0.00000826 -0.00010902
0.76951808 0.52525234 0.48411354 0.00000860 -0.00000077 -0.00001938
0.55685920 0.36499429 0.59070289 -0.00003415 -0.00005857 0.00002694
0.72169799 0.57947463 0.53722960 0.00001109 -0.00002441 -0.00002857
0.72771031 0.41279322 0.59861696 0.00002012 -0.00003006 0.00003212
0.65559000 0.32127979 0.47089872 -0.00001288 -0.00000663 0.00003285
0.27115327 0.34115979 0.24715409 -0.00001995 0.00002914 -0.00006830
0.48559776 0.53843600 0.56091118 -0.00002197 0.00003712 0.00005008
0.76762682 0.63576639 0.51931083 0.00000412 -0.00000666 0.00003960
0.51024294 0.46241629 0.47901028 -0.00001779 0.00001722 -0.00000959
0.91853559 0.51460916 0.51035416 0.00005086 -0.00001223 -0.00000919
0.78489715 0.32621065 0.68294275 0.00013008 -0.00004244 -0.00008017
0.84181160 0.47154665 0.56390244 -0.00000564 -0.00003762 0.00006509
0.83247191 0.61530393 0.51588333 0.00003353 -0.00000485 0.00004731
0.69063294 0.31586033 0.75675398 -0.00002605 -0.00002508 0.00008226
0.43386972 0.46248773 0.57093441 -0.00005697 -0.00001603 0.00004380
0.45152029 0.47829196 0.58615601 -0.00006900 -0.00001041 0.00007309
0.66455525 0.53229105 0.50670606 -0.00001738 -0.00001822 0.00000675
0.72032821 0.30269060 0.42389864 -0.00003674 -0.00007625 0.00007899
0.88975000 0.48056433 0.49519113 -0.00004741 0.00001675 0.00006356
0.70983887 0.53519434 0.47990814 -0.00000650 -0.00001193 -0.00001428
0.40324599 0.30510530 0.29554632 -0.00003299 -0.00006788 0.00001577
0.89282602 0.60638881 0.55481762 0.00002158 0.00002447 0.00003546
0.36536381 0.30243751 0.26188621 0.00002385 -0.00008978 0.00004285
0.40284264 0.53840804 0.49224672 -0.00003964 0.00006841 0.00001995
0.36107495 0.30542246 0.53132015 0.00002819 -0.00008832 0.00001137
0.69815266 0.42497486 0.62654042 -0.00000501 -0.00001281 0.00002550
0.41692913 0.31118801 0.50585693 0.00004185 -0.00004970 -0.00007919
0.44010490 0.56429178 0.48314446 -0.00001599 0.00002413 0.00001120
0.73787969 0.41895622 0.52853054 0.00000768 -0.00003299 -0.00001562
0.48867646 0.40287331 0.52876693 -0.00002117 0.00000639 -0.00001869
0.30734944 0.39250854 0.30487522 -0.00004009 0.00001688 -0.00003014
0.87103850 0.57386833 0.54183292 0.00000043 -0.00002663 -0.00000514
0.87786204 0.46299851 0.47975314 -0.00000662 -0.00000606 0.00000142
0.85623646 0.59752685 0.54546124 -0.00002284 0.00003031 -0.00001442
0.80334514 0.63468492 0.56475556 -0.00000548 -0.00002431 -0.00004120
0.90100533 0.47333899 0.49740574 -0.00011112 0.00004286 0.00001013
0.86865997 0.64300591 0.55198836 0.00001529 0.00000108 -0.00005000
0.33056536 0.32295954 0.22523525 0.00000439 0.00004012 -0.00008517
0.19400650 0.54444700 0.36989176 -0.00001964 -0.00003697 -0.00003718
0.65280628 0.48911765 0.50827426 -0.00000324 -0.00000936 -0.00000363
0.56694740 0.30226743 0.42914701 0.00003715 -0.00004846 0.00007759
0.58159602 0.35605434 0.54829866 -0.00002880 -0.00004857 -0.00001317
0.61749667 0.32585695 0.73063296 0.00004010 0.00000346 0.00010533
0.73631322 0.52632189 0.61867374 -0.00000419 0.00000083 0.00003120
0.42858335 0.48180732 0.56829685 -0.00008118 -0.00000137 0.00005860
0.15958434 0.56192356 0.35557383 0.00001701 0.00002529 -0.00010614
0.71331024 0.57853478 0.53087574 0.00000515 -0.00002303 -0.00003815
0.68919778 0.43371001 0.63251752 -0.00001427 0.00000007 0.00003232
0.48448691 0.45935592 0.61175823 -0.00003634 -0.00001082 0.00009946
0.45019239 0.42910263 0.51804173 -0.00001274 0.00000113 -0.00000466
0.91616791 0.65528727 0.50957274 0.00007747 0.00010695 -0.00001005
0.33646220 0.30669749 0.27213591 -0.00001673 -0.00002654 0.00004483
0.81432712 0.57367975 0.48726892 0.00002575 0.00002185 -0.00002368
0.14289367 0.52232003 0.35491154 0.00000863 -0.00002506 -0.00009690
0.75467813 0.44762090 0.59583455 0.00002747 -0.00001539 0.00001806
0.32447770 0.32635641 0.22647418 0.00000953 0.00005631 -0.00007378
0.79528630 0.63766360 0.53540146 0.00000477 0.00000924 0.00000631
0.86295396 0.66332030 0.50132942 -0.00000139 0.00005163 0.00000581
0.41762754 0.30577391 0.54292291 0.00001690 -0.00006026 0.00003805
0.74936336 0.51725358 0.48374918 -0.00000517 -0.00000404 -0.00000532
0.61495608 0.45147768 0.62629181 -0.00001158 0.00001695 0.00000139
0.65916419 0.47825298 0.51381558 0.00000412 -0.00001395 0.00000454
0.64415866 0.45078403 0.63149792 -0.00002262 0.00001847 0.00000255
0.68653542 0.36848456 0.57002705 0.00001320 -0.00006619 -0.00000228
0.32945415 0.44509599 0.40646690 -0.00001914 0.00000762 -0.00001802
0.17609541 0.43906111 0.35620773 -0.00007362 -0.00001258 -0.00010132
0.77157539 0.44560209 0.53014982 0.00002547 -0.00001428 -0.00000571
0.44803008 0.42916808 0.52273613 -0.00001380 -0.00000235 -0.00000574
0.86777163 0.47179887 0.55153036 0.00001927 -0.00001315 0.00003453
0.68023616 0.55204880 0.51585126 0.00000996 -0.00000574 0.00002005
0.19661202 0.55118614 0.38432568 -0.00001688 -0.00003249 0.00005785
0.52834851 0.52614009 0.53179204 -0.00000469 -0.00001588 -0.00003303
0.60850793 0.33036411 0.41839764 0.00000965 0.00004318 -0.00002767
0.45446536 0.44896013 0.37811711 0.00002956 -0.00002501 -0.00001740
0.44068605 0.44552958 0.56527853 -0.00002920 -0.00003955 0.00002383
0.85307920 0.48712236 0.49832252 0.00002132 -0.00000479 0.00005003
0.76078749 0.33529860 0.71885240 -0.00001993 0.00012276 0.00012131
0.08329884 0.60838348 0.37303281 0.00010883 0.00000754 -0.00017311
0.70062101 0.40087688 0.52210587 0.00000784 -0.00001495 -0.00001403
0.25040656 0.45899081 0.36240819 -0.00004894 -0.00001782 -0.00001391
0.24846745 0.30327576 0.49412647 0.00008106 -0.00006388 0.00009348
0.48415932 0.40032148 0.57342392 -0.00004482 -0.00003403 0.00001209
0.70412660 0.55361658 0.55666965 0.00001657 -0.00001263 0.00000284
0.62328249 0.37246299 0.51524943 -0.00001184 0.00000731 -0.00002366
0.65033656 0.34647593 0.44554278 -0.00000051 0.00005284 -0.00000934
0.53381711 0.40351486 0.62655705 -0.00004453 -0.00001712 0.00004809
0.46215141 0.43705726 0.39899373 -0.00000100 -0.00001204 -0.00000211
0.56929076 0.38246185 0.42655730 -0.00003726 -0.00000615 -0.00000553
0.25905192 0.39949268 0.45044169 -0.00000839 0.00001075 -0.00001096
0.55424690 0.39476845 0.50608069 -0.00001902 0.00001420 0.00001618
0.66055876 0.50326818 0.59046608 -0.00001358 -0.00000554 0.00000275
0.59376460 0.35301161 0.46274400 -0.00001255 -0.00004136 -0.00000677
0.19043683 0.52307290 0.38519374 -0.00002306 -0.00000246 0.00006178
0.84715843 0.58031780 0.53170139 -0.00004887 -0.00001108 -0.00002273
0.27962041 0.31723189 0.25639680 0.00002259 -0.00003295 0.00008164
0.39027387 0.38000974 0.34857664 0.00001836 -0.00000539 -0.00002855
0.57932484 0.44234267 0.50610280 -0.00002292 0.00000344 0.00001579
0.70036608 0.60582441 0.55523092 -0.00000489 0.00001217 0.00001551
0.42646554 0.44191521 0.52699834 -0.00001018 -0.00003572 -0.00001827
0.86180079 0.51232803 0.48590672 0.00000930 0.00002772 -0.00002489
0.49266598 0.46462581 0.44170755 -0.00000541 0.00000818 0.00001314
0.81468809 0.59089464 0.57058245 0.00001944 0.00002215 0.00000567
0.70558703 0.52997744 0.49181738 -0.00000265 -0.00001695 0.00002341
0.33452892 0.30058771 0.23800206 -0.00000887 -0.00008802 -0.00003721
0.75150412 0.47433248 0.49157840 -0.00001466 -0.00001158 -0.00002106
0.55505133 0.31767899 0.41180131 0.00001010 0.00003967 -0.00004214
0.33937812 0.35980898 0.40737739 0.00000106 -0.00001705 0.00001277
0.49695751 0.38801712 0.55439848 -0.00002695 -0.00002524 -0.00000032
0.87760621 0.58607256 0.49931192 0.00009137 0.00002238 0.00002702
0.16491897 0.47250167 0.40233511 -0.00006211 0.00000255 0.00008497
0.63820279 0.51154399 0.56393218 -0.00001329 -0.00000408 -0.00000463
0.74102837 0.56721085 0.59209883 -0.00002793 -0.00000147 -0.00002184
0.26256883 0.35262495 0.33103687 -0.00003770 -0.00000732 -0.00000949
0.26285213 0.35591266 0.45164675 -0.00001078 -0.00003185 -0.00000225
0.64405537 0.37267682 0.62723744 -0.00001000 -0.00001202 0.00001177
0.32050920 0.36697268 0.43564186 0.00002328 0.00000500 -0.00001366
0.36781818 0.48835874 0.44307756 -0.00003026 -0.00001241 -0.00000171
0.28580913 0.29791769 0.21353367 0.00003345 -0.00007411 -0.00007053
0.31392571 0.31658086 0.22067167 0.00006094 0.00003873 -0.00008261
0.59963387 0.36203912 0.60394210 -0.00002130 -0.00003550 0.00001565
0.60023975 0.42654404 0.70704478 -0.00002953 -0.00002138 0.00000539
0.33305761 0.35635975 0.31935737 0.00003074 -0.00002053 -0.00003046
0.86794084 0.61835116 0.53104585 0.00001418 0.00005678 -0.00006190
0.79065961 0.46958923 0.54484719 -0.00000353 0.00000485 -0.00001648
0.59023190 0.34831670 0.72666085 -0.00006544 0.00000185 0.00006599
0.42359653 0.52241457 0.54760474 -0.00005684 0.00007087 0.00003870
0.45815372 0.43719169 0.44528708 -0.00001220 -0.00000164 -0.00000380
0.51263684 0.45452628 0.48743165 -0.00001881 0.00001715 -0.00000322
0.42543596 0.43904492 0.51046205 -0.00000477 -0.00001814 0.00000088
0.79561800 0.62431747 0.50255477 -0.00001411 -0.00001367 0.00001183
0.68585056 0.49311808 0.60247582 0.00000881 -0.00001013 -0.00000107
0.41751024 0.38879451 0.38202423 0.00001564 -0.00000791 0.00000238
0.32499838 0.47082835 0.35558873 -0.00000766 0.00000368 -0.00000923
0.61214441 0.35956851 0.52941126 -0.00001170 -0.00002081 0.00000105
0.38277093 0.34186542 0.25887194 0.00001783 0.00004626 -0.00000214
0.88194650 0.57977009 0.54592550 0.00003128 -0.00001904 0.00001090
0.40177834 0.52284706 0.38095498 0.00001906 0.00000232 0.00000183
0.72918469 0.61564142 0.51916468 -0.00000522 -0.00000500 -0.00000715
0.69787610 0.59645224 0.60664642 -0.00001052 0.00000222 -0.00004741
0.56786776 0.36960840 0.42359269 -0.00002421 -0.00000631 -0.00002017
0.56136411 0.37089562 0.60613298 -0.00002227 -0.00004137 0.00004574
0.46733817 0.53050619 0.56928849 -0.00001038 0.00008015 0.00005515
0.30402926 0.37957662 0.28374907 -0.00000243 0.00001691 -0.00000048
0.40904760 0.49698582 0.54480880 -0.00011210 -0.00000712 0.00004527
0.83564186 0.58256334 0.56157887 0.00001672 0.00001357 -0.00000505
0.80812216 0.50646287 0.58241087 0.00002339 -0.00001059 0.00003260
0.31425148 0.32289094 0.48932710 0.00002151 0.00000305 -0.00002619
0.31252709 0.44350553 0.39424872 -0.00001908 -0.00000659 0.00000485
0.28191867 0.31089652 0.21260063 0.00000492 0.00006179 -0.00008623
0.41476035 0.33178714 0.26482829 0.00000821 0.00008787 -0.00007218
0.72733891 0.50254023 0.62661576 -0.00001190 0.00000627 0.00004096
0.71575695 0.44025227 0.49312580 -0.00000426 -0.00001101 -0.00000838
0.38522980 0.38326314 0.33428708 0.00001903 -0.00001688 -0.00003365
0.18328305 0.50752199 0.36137816 0.00001375 -0.00000380 -0.00006899
0.86234081 0.54022580 0.50826299 -0.00002588 0.00003660 0.00000603
0.16665690 0.60650790 0.38814032 0.00000795 -0.00001887 0.00009769
0.53045356 0.52531123 0.57263887 -0.00002314 0.00000034 0.00001367
0.61387193 0.30547073 0.72773194 0.00002887 -0.00004281 0.00011610
0.85639578 0.50367570 0.48307139 0.00000663 0.00002827 -0.00002026
0.68302262 0.39488849 0.51363063 0.00000432 -0.00001127 -0.00000907
0.69205636 0.64560288 0.49144095 0.00007120 0.00001463 0.00003647
0.28891140 0.34722129 0.38155320 -0.00000888 -0.00004340 0.00001233
0.78125173 0.46672782 0.57825691 -0.00000580 -0.00001598 0.00000880
0.74462199 0.31613779 0.69789553 -0.00006876 -0.00012201 -0.00001534
0.09929515 0.59142256 0.36706743 -0.00000913 -0.00002321 -0.00016124
0.79636735 0.65707350 0.58746445 0.00006351 0.00001356 0.00009314
0.29450953 0.32631984 0.28649491 0.00002984 -0.00005226 -0.00003780
0.61215252 0.42431751 0.68021315 -0.00000605 -0.00002455 -0.00003124
0.79687631 0.64608204 0.49825862 0.00000536 -0.00002330 0.00000229
0.69997180 0.31666204 0.38646692 -0.00004784 0.00002357 -0.00009302
0.91287661 0.62558568 0.47357851 0.00000386 0.00005054 -0.00008360
0.73281211 0.50282228 0.62737733 -0.00000394 0.00000615 0.00004698
0.22735530 0.38601753 0.34630135 -0.00004190 -0.00000643 -0.00007952
0.33726302 0.46425864 0.39348307 0.00000309 0.00000589 0.00001215
0.40202332 0.30380595 0.25417116 0.00003461 -0.00008921 -0.00001032
0.62778199 0.38911527 0.49264878 -0.00000840 -0.00001309 0.00001190
0.73236549 0.61125922 0.56127793 0.00001689 -0.00000396 0.00001394
0.52107012 0.48188889 0.48067513 -0.00000759 -0.00001827 -0.00001902
0.71615398 0.30364662 0.44153342 -0.00008033 -0.00006713 -0.00003646
0.68806851 0.55265111 0.52556366 0.00001041 -0.00000692 -0.00000352
0.65282434 0.33270890 0.73904645 0.00001613 0.00003476 0.00008318
0.74009895 0.63697326 0.51027119 -0.00001035 -0.00001319 0.00002066
0.58420694 0.43296736 0.41758066 0.00002803 0.00000627 -0.00003076
0.38816288 0.30593231 0.27139917 0.00001067 -0.00007502 -0.00002192
0.44095674 0.54149318 0.53541225 -0.00001769 0.00007582 0.00003883
0.83642685 0.50792104 0.52771938 -0.00003625 0.00000386 -0.00001396
0.77245480 0.67391211 0.57854706 -0.00000203 0.00010347 0.00003267
0.47049075 0.40776086 0.55157870 -0.00003145 -0.00000792 -0.00000634
0.46829900 0.44249040 0.40876654 -0.00000955 -0.00000910 0.00000066
0.45672294 0.54163527 0.54600126 -0.00004447 0.00006180 0.00002790
0.41172349 0.38506511 0.39221528 0.00000795 -0.00001657 0.00001844
0.25474548 0.36503580 0.26842412 -0.00004842 -0.00006351 0.00000918
0.64189965 0.51556867 0.55530667 -0.00001493 0.00000121 -0.00000481
0.73672014 0.31554314 0.78847408 -0.00006476 0.00003266 0.00011190
0.74976087 0.31405967 0.47071925 0.00009321 -0.00002581 0.00005565
0.72218657 0.59758639 0.62600666 0.00003597 -0.00002173 0.00005663
0.36629319 0.50537735 0.41016245 -0.00002585 -0.00000872 0.00000133
0.39455959 0.53815311 0.38477233 0.00001866 -0.00003105 -0.00002834
0.68388301 0.53396535 0.56195563 -0.00000835 -0.00001736 -0.00000331
0.70635450 0.33157736 0.69652981 -0.00000042 -0.00001078 -0.00000364
0.90950590 0.58885127 0.52787995 -0.00007567 -0.00001365 -0.00010854
0.51328838 0.39700627 0.61010689 -0.00004654 -0.00003067 0.00005203
0.39721969 0.50619137 0.51212460 -0.00007569 -0.00001910 0.00003107
0.52724826 0.42220423 0.62688148 -0.00004188 -0.00000274 0.00006018
0.76354098 0.43401453 0.53477299 0.00002156 -0.00003382 -0.00000949
0.82119620 0.63938570 0.48629108 -0.00002035 -0.00001610 -0.00007475
0.45572871 0.51636684 0.39381787 0.00002274 0.00005942 -0.00005088
0.64118725 0.36885679 0.68335241 0.00000114 -0.00000710 0.00002668
0.58719546 0.35290334 0.71277511 -0.00003756 -0.00000695 -0.00000448
0.53257000 0.42322206 0.50174630 -0.00002385 0.00000889 0.00001615
0.82320797 0.56331319 0.48201993 0.00001538 0.00002377 -0.00003888
0.35186338 0.47188348 0.41376847 -0.00001659 0.00001848 -0.00004017
0.40846470 0.54668975 0.40417409 0.00002600 -0.00004679 -0.00000923
0.73800147 0.61991811 0.52521628 0.00001070 0.00000275 0.00000185
0.72800940 0.43800718 0.61659205 0.00001500 -0.00001244 0.00003374
0.40256608 0.57042277 0.42231104 -0.00002732 0.00004350 0.00001696
0.16703814 0.48618683 0.35486415 0.00000124 -0.00000089 -0.00011280
0.14534175 0.60156667 0.39322278 0.00001156 -0.00001100 0.00011939
0.50178891 0.52158916 0.57895261 -0.00000206 0.00004313 0.00004023
0.29835078 0.42984211 0.40634510 -0.00001236 0.00001316 -0.00002846
0.19301932 0.40122789 0.39334324 -0.00011109 -0.00005787 0.00007226
0.63887948 0.48807758 0.53741819 -0.00000921 -0.00001429 0.00001799
0.80834597 0.58264768 0.49509555 0.00003293 0.00001378 -0.00000057
0.67862231 0.64362675 0.47724739 0.00001992 -0.00001981 -0.00007674
0.13034254 0.53503913 0.35208717 -0.00002596 -0.00002869 -0.00012740
0.82805353 0.51123083 0.52284217 -0.00002019 -0.00000397 0.00000596
0.14983226 0.53426445 0.35391444 0.00006103 0.00001667 -0.00009151
0.27373621 0.32317108 0.51968354 -0.00006357 0.00000676 0.00006060
0.72144842 0.64242935 0.49843967 -0.00004279 0.00000195 0.00000549
0.42957366 0.55826634 0.47431222 -0.00000681 0.00001191 0.00000147
0.84155673 0.55375957 0.52889150 0.00000256 0.00001867 -0.00003277
0.66981226 0.36542603 0.58754474 0.00000847 -0.00006121 0.00000307
0.32371974 0.34418985 0.32905442 -0.00000106 -0.00003588 -0.00001170
0.69393957 0.59465653 0.49798390 0.00001029 -0.00000751 0.00003717
0.71572304 0.61253732 0.51286089 -0.00001383 0.00000037 -0.00000250
0.30807897 0.31349212 0.54244059 -0.00005133 -0.00003502 0.00007772
0.73798025 0.63183260 0.52085251 0.00000216 -0.00000163 0.00001380
0.66856480 0.65672565 0.49558288 -0.00001073 -0.00010149 0.00008701
0.91237849 0.62020415 0.54863203 0.00001080 0.00001247 0.00006441
0.33338654 0.33713576 0.54547071 -0.00001170 0.00009536 0.00001870
0.53115159 0.48986048 0.61125201 -0.00000327 0.00005303 0.00005600
0.17112397 0.43324801 0.39378899 -0.00014263 -0.00005972 0.00007259
0.62663198 0.37707487 0.51166260 -0.00001099 0.00000522 -0.00001532
0.29193515 0.31820688 0.48355621 0.00000454 0.00001407 -0.00008818
0.39356473 0.41889039 0.45630220 -0.00000196 -0.00000533 0.00000353
0.67998940 0.49691686 0.59851319 0.00001663 -0.00001490 0.00000372
0.30016902 0.33588830 0.23541686 0.00001528 0.00012709 -0.00000758
0.32640061 0.43605703 0.41894644 -0.00001943 0.00000303 -0.00002081
0.39013040 0.30242625 0.55383724 -0.00002991 -0.00005329 -0.00001590
0.15696888 0.48424619 0.36827701 -0.00005441 -0.00003102 -0.00007293
0.27099851 0.34984121 0.32340077 -0.00002824 0.00001567 0.00000473
0.88846272 0.62761199 0.48872545 0.00002277 -0.00006066 0.00005417
0.36613351 0.34553707 0.25529775 -0.00001489 0.00008028 0.00000366
0.28925383 0.39458936 0.31933844 -0.00002547 0.00000895 -0.00001506
0.25260741 0.42212212 0.47567964 0.00000145 -0.00001202 -0.00007370
0.40139711 0.44635928 0.48771745 -0.00000091 -0.00002031 0.00000592
0.60425836 0.41005465 0.71423966 0.00000237 0.00001751 0.00000321
0.66167539 0.41419953 0.49649602 -0.00001177 0.00000569 -0.00000406
0.61510724 0.34684768 0.42033336 0.00001813 0.00001676 -0.00000734
0.71076828 0.50096428 0.60246503 -0.00002183 -0.00001094 -0.00004484
0.64725822 0.31655103 0.41218734 0.00001498 -0.00000417 -0.00005920
0.35665932 0.47232509 0.42927551 -0.00002182 0.00000625 -0.00002054
0.10467536 0.56792277 0.36830410 -0.00006763 0.00000499 -0.00005296
0.11901361 0.59974980 0.38753757 0.00000693 -0.00000585 0.00008982
0.40852109 0.32944196 0.28907788 -0.00001916 0.00007563 -0.00002481
0.60863972 0.42064768 0.47028807 -0.00001394 0.00000489 -0.00001564
0.71502870 0.31552693 0.71016151 0.00004165 -0.00008626 -0.00003163
0.62137491 0.30246866 0.41894856 0.00001415 -0.00005282 -0.00003987
0.64711386 0.36802074 0.61434078 -0.00001187 -0.00002768 0.00002055
0.27410212 0.32945144 0.52121437 -0.00005526 0.00002710 0.00006478
0.92310333 0.58989215 0.53388774 -0.00003140 -0.00002643 -0.00005889
0.85752457 0.58554190 0.50465769 -0.00001254 -0.00001244 0.00002697
0.14896466 0.60987908 0.39230150 0.00000380 -0.00000386 0.00013291
0.68067521 0.64753705 0.62570530 -0.00007306 -0.00010748 -0.00011505
0.72191316 0.59928733 0.52757365 0.00000088 -0.00001211 -0.00003045
0.32481745 0.32130098 0.22462167 0.00001629 0.00003895 -0.00007917
0.10714191 0.64393443 0.38676560 0.00001256 -0.00012614 0.00006811
0.59574789 0.42788315 0.64742923 -0.00001190 0.00000348 -0.00000118
0.81442046 0.57763290 0.48270857 0.00002429 0.00002640 -0.00004861
0.76640546 0.57987165 0.48930395 0.00000262 -0.00000401 -0.00003716
0.84205616 0.61553133 0.54003096 0.00001340 0.00001209 -0.00006285
0.16693123 0.45483676 0.36521360 -0.00009972 -0.00001120 -0.00008058
0.66545844 0.69683254 0.48656774 -0.00004260 0.00017093 -0.00005746
0.25059199 0.35500577 0.35335359 -0.00003782 -0.00004914 -0.00003167
0.40233192 0.30204543 0.24331371 0.00001735 -0.00011582 0.00004372
0.65223008 0.32816243 0.68916893 -0.00000670 -0.00002401 -0.00001222
0.70507133 0.33735779 0.44227859 0.00006108 0.00004544 -0.00005021
0.25977921 0.40336692 0.49241197 0.00006075 0.00000040 -0.00001384
0.29898560 0.40005216 0.46368086 -0.00002212 0.00001005 0.00002404
0.25361034 0.32005578 0.48642895 0.00011637 0.00004635 -0.00001468
0.56617361 0.36387360 0.42524964 -0.00001800 -0.00000917 -0.00002083
0.62452227 0.43352997 0.66564846 -0.00001591 0.00002038 -0.00000697
0.72581804 0.47585416 0.63024366 -0.00000302 -0.00000206 0.00004377
0.18762964 0.45527226 0.35451084 0.00001294 0.00002514 -0.00009673
0.59649187 0.39475626 0.43569097 0.00001617 0.00001474 0.00002607
0.54563266 0.43225542 0.49800062 -0.00002305 0.00001196 0.00002016
0.35487631 0.47831529 0.41115832 -0.00001712 0.00001252 -0.00003417
0.62757671 0.41069391 0.70330369 0.00005745 -0.00004622 -0.00000430
0.22557361 0.48059821 0.36356318 -0.00005652 -0.00004148 -0.00000659
0.92674696 0.46778283 0.52459860 0.00006268 -0.00001613 0.00004289
0.46800092 0.43063572 0.49817780 -0.00000573 0.00000213 -0.00000548
0.28641325 0.38560924 0.48041895 0.00002061 0.00004270 0.00000759
0.83556336 0.61021113 0.54320264 -0.00000344 -0.00000016 -0.00005071
0.43905327 0.41872433 0.40871736 0.00000559 -0.00000130 0.00001389
0.59337699 0.38015640 0.73229146 -0.00007263 -0.00000591 0.00007503
0.45004597 0.30958858 0.26728764 0.00000929 -0.00001244 -0.00005729
0.88610405 0.66524601 0.54699880 0.00002864 0.00010074 0.00006307
0.37283295 0.32034451 0.57270569 0.00000855 0.00009384 -0.00009737
0.19335318 0.55056530 0.38858426 -0.00003630 -0.00004077 0.00008168
0.80609733 0.56928444 0.49152583 0.00001900 0.00001060 -0.00000838
0.28994274 0.32611188 0.29714981 0.00003202 -0.00004609 0.00003162
0.72120667 0.53380066 0.59246337 -0.00000823 -0.00001386 -0.00004017
0.14785115 0.59021294 0.39326203 0.00000087 -0.00002218 0.00010680
0.53953284 0.43442601 0.49825197 -0.00002298 0.00001253 0.00001720
0.65286177 0.52021891 0.58143544 -0.00002457 0.00000743 0.00000346
0.43940514 0.46268189 0.35783964 0.00004867 0.00000031 -0.00006075
0.72180301 0.50992143 0.47491342 -0.00001481 0.00000151 -0.00002594
0.68618351 0.54679668 0.59001714 -0.00001622 -0.00000136 0.00000410
0.66158110 0.38473666 0.65093261 0.00001499 -0.00002111 -0.00001171
0.72179675 0.46503678 0.62958223 0.00000159 -0.00001047 0.00003411
0.28732732 0.35577774 0.48720708 0.00000259 -0.00003022 -0.00000042
0.79664797 0.57598794 0.58212167 0.00001390 -0.00000187 0.00004050
0.56070137 0.41858268 0.48705176 -0.00001784 0.00000361 0.00001571
0.73015875 0.31647801 0.70154864 -0.00000665 -0.00010302 -0.00000038
0.70388615 0.58870375 0.61294395 0.00000081 -0.00001396 -0.00002428
0.76179719 0.62382299 0.53996098 0.00000427 0.00001773 0.00000376
0.39979678 0.42285571 0.45352986 -0.00000095 -0.00000471 -0.00000121
0.78458321 0.63633579 0.50384557 -0.00000862 -0.00003186 0.00002634
0.16863933 0.55632770 0.35865399 -0.00001599 0.00000314 -0.00010096
0.70989799 0.59402668 0.59309816 -0.00000177 -0.00000124 -0.00002503
0.33079049 0.36523387 0.31058750 0.00003067 -0.00002247 -0.00003486
0.54450339 0.51112896 0.58443934 -0.00001329 0.00000581 0.00001174
0.73358315 0.51642781 0.62357485 -0.00000529 -0.00000177 0.00004179
0.43258843 0.31761131 0.27483708 -0.00001498 0.00004168 -0.00008103
0.44049561 0.42113855 0.40437800 0.00000794 0.00000111 0.00001123
0.67137653 0.49321857 0.59782916 0.00000936 -0.00001168 0.00000534
0.84480739 0.48449010 0.47818989 -0.00002108 0.00000327 -0.00004246
0.66180485 0.42771843 0.65651667 0.00002471 0.00002579 0.00001390
0.59026390 0.36783892 0.49922931 -0.00000240 0.00000438 0.00001684
0.93740857 0.59763199 0.48878205 0.00001424 -0.00001073 -0.00003366
0.75545412 0.58587354 0.48963633 -0.00000693 0.00000862 -0.00002806
0.37955043 0.31307837 0.59628123 0.00002223 0.00000470 0.00006666
0.53196079 0.37297505 0.54592502 -0.00003689 -0.00002737 -0.00001668
0.93989229 0.59621304 0.46827081 0.00010449 -0.00000138 -0.00009783
0.68298429 0.54853052 0.54373413 -0.00001684 -0.00000946 -0.00000962
0.79064417 0.66337043 0.57585937 0.00003915 0.00003760 0.00000998
0.71630871 0.65454644 0.48948398 -0.00005958 0.00000143 -0.00002881
0.75135708 0.33823031 0.68586451 -0.00001071 0.00005420 -0.00004153
0.37087217 0.32139304 0.22444165 -0.00000543 0.00002981 -0.00009425
0.56121975 0.30201566 0.41973519 0.00001721 -0.00005553 0.00001310
0.43048638 0.43254372 0.48006052 0.00000265 -0.00000532 0.00000113
0.74866766 0.42507279 0.58402598 0.00003156 -0.00002528 0.00003208
0.65629154 0.50797796 0.54390466 -0.00000706 -0.00001078 0.00000850
0.29824388 0.35674146 0.44461623 -0.00000385 -0.00001703 -0.00000848
0.67675984 0.49048272 0.60291702 0.00001236 -0.00000936 0.00000851
0.60488236 0.38611680 0.72854495 0.00000141 -0.00000749 0.00005081
0.32709947 0.39556658 0.30788949 -0.00000019 0.00001872 -0.00003257
0.32430714 0.46371615 0.37910920 -0.00000510 0.00000011 0.00001677
0.39803541 0.54045820 0.44909614 -0.00002265 -0.00001305 -0.00000484
0.78442299 0.54303122 0.48522332 -0.00002320 0.00000420 -0.00002204
0.36557946 0.32624358 0.57572132 -0.00001768 0.00014613 -0.00007162
0.31656867 0.41103771 0.44055876 0.00001385 0.00001005 -0.00002544
0.91417962 0.63172251 0.47747326 0.00002564 0.00003626 -0.00009568
0.60117686 0.39352098 0.71150464 -0.00000750 -0.00002340 -0.00005692
0.62586766 0.50414002 0.55885154 -0.00001572 -0.00001096 -0.00000576
0.58643711 0.41620317 0.65126324 -0.00000883 0.00001409 -0.00000021
0.58143318 0.36713329 0.52000427 -0.00002233 -0.00000049 -0.00000816
0.73975694 0.46054888 0.61209077 -0.00000773 -0.00001622 0.00001533
0.72790289 0.31828761 0.45433676 -0.00004941 0.00004265 -0.00006913
0.31987259 0.44258681 0.34474391 -0.00002214 -0.00001299 -0.00002629
0.67125964 0.46407145 0.62370932 -0.00000195 0.00002020 0.00001508
0.80391359 0.60089809 0.57583499 0.00000611 0.00002214 0.00000733
0.62789983 0.36358392 0.70348102 -0.00001210 -0.00004977 -0.00000581
0.77314460 0.44299874 0.55501205 0.00003521 -0.00001743 -0.00000448
0.88309658 0.44921219 0.49112120 0.00003285 0.00002751 -0.00000232
0.81771004 0.64048570 0.52139753 -0.00000245 -0.00000036 0.00007988
0.33032984 0.44540280 0.34217942 -0.00001524 -0.00000155 -0.00003193
0.85667777 0.43694851 0.50286561 -0.00002790 0.00004495 -0.00003504
0.69499665 0.53264928 0.50434053 0.00001021 -0.00001883 0.00003067
0.37520793 0.50141281 0.46275416 -0.00004630 -0.00000367 0.00002204
0.51524198 0.52254677 0.57919669 -0.00000107 0.00002540 0.00004288
0.33846581 0.48753580 0.36077043 -0.00002386 -0.00000215 -0.00000054
0.62331587 0.49962634 0.56707281 -0.00001672 -0.00001321 -0.00000514
0.58473527 0.30080244 0.70974505 -0.00008678 -0.00006209 0.00000935
0.69482839 0.34051552 0.45384708 0.00006154 0.00003485 -0.00003083
0.38879946 0.49949262 0.36079481 0.00001362 -0.00000775 -0.00002933
0.58554292 0.47289175 0.60847366 -0.00000111 0.00001883 0.00001600
0.85696965 0.56013554 0.52387810 -0.00002464 -0.00001383 -0.00000968
0.24540760 0.37962803 0.26149911 -0.00007967 -0.00003059 -0.00004495
0.71634477 0.55193055 0.49878484 -0.00001456 -0.00000011 0.00003438
0.42114714 0.39858943 0.41435573 0.00000655 -0.00000370 0.00000410
0.87895203 0.64888829 0.55489296 0.00003187 0.00002661 0.00001403
0.27879882 0.34883919 0.40297124 -0.00002145 -0.00003110 -0.00000286
0.65670979 0.38571435 0.65501201 0.00001386 -0.00001507 -0.00001858
0.71813685 0.58146024 0.54149944 0.00001600 -0.00002437 -0.00002433
0.11611258 0.65746188 0.38745770 0.00014151 -0.00010706 0.00006073
0.61110717 0.37316319 0.63525879 0.00000080 0.00001167 -0.00002004
0.91577488 0.65695572 0.51529950 0.00008112 0.00011103 0.00000667
0.24111560 0.41688851 0.42010653 -0.00000651 0.00002360 -0.00001592
0.67795908 0.33849019 0.74233186 0.00000556 0.00011591 0.00005114
0.33547863 0.48341385 0.35781884 -0.00002057 -0.00000048 -0.00000600
0.44305423 0.50753736 0.57557738 -0.00007858 0.00004689 0.00008646
0.61427754 0.36194709 0.66518283 0.00000715 -0.00004771 0.00001943
0.84038818 0.55383229 0.52147830 0.00000648 0.00001726 -0.00000096
0.31665576 0.35032892 0.24512878 -0.00001285 -0.00002006 -0.00003067
0.81288517 0.57948810 0.49513388 0.00003309 0.00001505 0.00000427
0.24633385 0.31463492 0.50159246 0.00001932 0.00000985 0.00015188
0.53821403 0.50992614 0.53439033 -0.00000774 -0.00001652 -0.00001888
0.30312556 0.34702593 0.38802573 -0.00000919 -0.00004432 0.00000177
0.49051958 0.54124635 0.47725028 0.00002358 0.00002069 -0.00000847
0.49509317 0.56310654 0.52444470 0.00000825 0.00003315 0.00000376
0.77013665 0.59768480 0.59390348 0.00000153 0.00002381 0.00001806
0.67584532 0.64953476 0.62979513 -0.00011715 -0.00011044 -0.00006973
0.60875207 0.35573807 0.56731778 0.00000219 -0.00005562 -0.00000358
0.91725385 0.46910116 0.51718402 -0.00002228 0.00000934 0.00004160
0.63467097 0.35873833 0.57822394 0.00000028 -0.00005085 0.00000794
0.92258221 0.58899564 0.52311873 -0.00006465 -0.00005113 -0.00006858
0.17661609 0.42281196 0.36426431 -0.00013443 -0.00004932 -0.00005851
0.77267540 0.52308983 0.60268289 0.00000595 0.00001019 0.00002802
0.62955105 0.37371048 0.65002930 -0.00000476 -0.00000034 -0.00002580
0.75451529 0.44172633 0.59203118 0.00002577 -0.00001407 0.00002732
0.39398164 0.41548404 0.44290811 0.00000125 0.00000107 -0.00000028
0.87067980 0.59542310 0.47783217 0.00001746 0.00000143 -0.00006221
0.81462628 0.60674250 0.56673265 -0.00000354 0.00000165 -0.00001664
0.66407877 0.31181377 0.69952017 0.00005814 -0.00004510 -0.00007385
0.64292467 0.36031654 0.55369109 -0.00001336 -0.00004257 -0.00000377
0.46573883 0.54171240 0.44811475 0.00002201 0.00002042 -0.00002828
0.47637081 0.53798574 0.45432931 0.00000592 0.00003731 -0.00001384
0.40536425 0.37987530 0.38903725 0.00000514 -0.00002251 0.00001767
0.38589978 0.51999664 0.36965537 0.00002005 0.00001738 -0.00001943
0.29290470 0.35013041 0.50689006 0.00004291 0.00003981 0.00001197
0.52566421 0.54393041 0.54342872 -0.00000814 -0.00000100 -0.00002362
0.72443300 0.50332385 0.48038033 -0.00001326 -0.00000363 -0.00000360
0.92465484 0.46951440 0.46712062 0.00015935 -0.00002858 -0.00016902
0.86039490 0.51667106 0.50964904 -0.00001716 0.00000102 0.00001017
0.76666713 0.53956890 0.48046270 0.00000525 0.00001831 -0.00003683
0.74176741 0.61573708 0.53743804 0.00002596 0.00001259 -0.00000643
0.66847861 0.47553834 0.61462271 -0.00000173 0.00000951 0.00001578
0.81763333 0.55708748 0.48541918 0.00001353 0.00001672 -0.00002468
0.65809762 0.66984069 0.49506813 -0.00008937 -0.00004421 0.00006694
0.64922357 0.50859606 0.56691492 -0.00001487 -0.00000911 -0.00000669
0.59422296 0.30950961 0.72135955 -0.00002879 -0.00001595 0.00007114
0.47139311 0.48900974 0.39930546 0.00006063 -0.00001254 -0.00002770
0.50579816 0.45835620 0.62382120 -0.00004097 0.00001244 0.00010115
0.47984371 0.40008914 0.54917479 -0.00002992 -0.00000522 -0.00000748
0.66841954 0.49896067 0.58475649 0.00000210 -0.00001435 -0.00000666
0.33434436 0.34901786 0.37080947 0.00000577 -0.00003742 -0.00001022
0.69192600 0.33553818 0.46283996 0.00003677 0.00004101 -0.00001673
0.91333544 0.59166437 0.48617494 -0.00008345 -0.00004985 0.00009415
0.25600606 0.36539042 0.28094009 -0.00001950 -0.00004499 0.00009308
0.89799064 0.50216085 0.50391823 0.00002463 -0.00001502 0.00001007
0.74951267 0.61458975 0.49238688 0.00000302 0.00000989 -0.00001471
0.23286186 0.31134319 0.49310008 -0.00000282 0.00000885 0.00013852
0.73287892 0.34862262 0.70734215 0.00002999 0.00007768 0.00005499
0.74573821 0.55933386 0.59201449 -0.00002857 -0.00000332 -0.00002492
0.08025345 0.59790725 0.38489550 0.00008794 -0.00009059 0.00003181
0.71652752 0.60343820 0.51895666 -0.00000856 -0.00000789 -0.00001851
0.93193281 0.62288094 0.48370984 0.00006077 0.00009730 -0.00002291
0.63223237 0.32021457 0.69914436 0.00002542 0.00005167 -0.00007772
0.69265735 0.38574368 0.53480452 0.00001470 -0.00002201 -0.00002682
0.74883908 0.30886489 0.73758280 -0.00004221 -0.00010936 -0.00004391
0.27706948 0.40782222 0.47685573 0.00005786 -0.00002214 -0.00002915
0.51421505 0.48998788 0.60861713 0.00001225 0.00005095 0.00006256
0.36394623 0.50109744 0.38292429 -0.00001510 -0.00002272 0.00002440
0.12005761 0.63325924 0.39043859 0.00001556 -0.00001063 0.00011992
0.65502918 0.51807141 0.57575291 -0.00002097 0.00000161 -0.00000284
0.37745792 0.37661240 0.40321350 0.00001224 -0.00000537 0.00001621
0.50181705 0.48326886 0.43954813 0.00001664 -0.00001053 -0.00000295
0.56787181 0.37053287 0.51696157 -0.00001944 -0.00000265 0.00000492
0.88111907 0.53196937 0.51911324 -0.00002174 0.00002698 0.00000934
0.79413992 0.65225857 0.58758038 0.00004964 -0.00001948 0.00008555
0.84348726 0.64536238 0.56095445 -0.00000984 0.00002311 -0.00001803
0.79646206 0.61519295 0.49636433 -0.00000883 -0.00000440 -0.00001067
0.73091990 0.56981999 0.59238625 -0.00001487 -0.00000005 -0.00002259
0.57490516 0.50504130 0.57571137 -0.00001672 -0.00001644 0.00000285
0.63246930 0.35840401 0.59350199 0.00000170 -0.00004942 0.00001903
0.40462071 0.56499559 0.43130922 -0.00002230 0.00001286 0.00004670
0.66077751 0.43436825 0.65340948 0.00001935 0.00002846 0.00001815
0.41375965 0.50355679 0.36700878 0.00001227 0.00003007 -0.00005929
0.60775405 0.31172621 0.44174889 -0.00002804 -0.00000059 0.00004849
0.61420405 0.48456219 0.55190802 -0.00001534 -0.00000860 0.00000665
0.68010896 0.50610048 0.59077960 0.00001598 -0.00001907 -0.00000104
0.84739041 0.48946577 0.48076019 -0.00000647 0.00001672 -0.00002182
0.17274681 0.63873464 0.38647729 -0.00004182 -0.00002808 0.00012297
0.61457670 0.49412158 0.55774707 -0.00001960 -0.00001210 -0.00000321
0.89138144 0.59676576 0.50492167 0.00009003 0.00003930 0.00004754
0.63792348 0.44530657 0.63830113 -0.00001987 0.00001744 -0.00000186
0.75876892 0.63011503 0.54003769 0.00001134 -0.00000036 -0.00000013
0.67902839 0.49239230 0.50881028 -0.00000081 -0.00000781 0.00002186
0.15712859 0.58888519 0.36178780 -0.00001054 -0.00000950 -0.00011355
0.68599087 0.54069275 0.56717342 -0.00000981 -0.00001221 0.00000184
0.54100811 0.38636178 0.61796492 -0.00001930 -0.00004597 0.00004219
0.58000654 0.38612989 0.63788831 -0.00003218 -0.00001818 -0.00002864
0.54987866 0.39462003 0.50989807 -0.00002204 0.00001239 0.00001218
0.59618372 0.43387514 0.64144123 -0.00000908 -0.00000159 0.00000510
0.63765001 0.35596091 0.54655486 -0.00001684 -0.00004949 0.00000430
0.37164950 0.44269165 0.45493862 -0.00000744 -0.00000503 -0.00000436
0.83273721 0.52370596 0.56131947 0.00000756 -0.00001911 -0.00000039
0.58751678 0.33803946 0.42060652 0.00001756 0.00005989 -0.00002392
0.14990355 0.51790279 0.35714841 0.00002674 -0.00000648 -0.00008919
0.71804529 0.32091254 0.69775701 0.00001582 -0.00007241 -0.00001764
0.64726812 0.30474931 0.71882981 0.00001182 -0.00009173 0.00000868
0.85330611 0.46660116 0.54407340 -0.00003126 -0.00001980 -0.00001048
0.73639625 0.54509759 0.58871913 -0.00001765 -0.00000915 -0.00004547
0.91906983 0.46498132 0.53273004 0.00002137 -0.00003351 0.00006938
0.25979680 0.30518335 0.48303014 0.00011760 -0.00003679 -0.00004889
0.44824648 0.46029216 0.36591876 0.00005439 -0.00001083 -0.00005028
0.41755536 0.48253760 0.35305357 0.00000414 0.00005384 -0.00007450
0.18172966 0.62517512 0.38113183 0.00000610 -0.00012106 0.00004918
0.80733126 0.52817953 0.48935592 -0.00000332 -0.00001855 -0.00000354
0.36223403 0.34473893 0.51013899 -0.00000675 0.00006027 0.00002787
0.48310804 0.45748684 0.41913399 -0.00000939 0.00000224 -0.00000607
0.74643117 0.56250197 0.60835505 -0.00001090 0.00000132 0.00002595
0.55573213 0.41905776 0.50407475 -0.00001932 0.00000991 0.00002103
0.75416785 0.54676104 0.60089356 -0.00001086 -0.00000026 -0.00000066
0.65931755 0.32638615 0.41584373 -0.00000482 0.00003149 -0.00003869
0.92565382 0.59045255 0.52938330 -0.00003415 -0.00003642 -0.00006290
0.87700391 0.49676213 0.54597962 0.00003402 0.00002326 0.00001573
0.34857616 0.30535930 0.57000899 -0.00005563 -0.00011268 -0.00001950
0.35728467 0.47155145 0.34696323 -0.00001418 0.00000584 -0.00001959
0.21213502 0.31732574 0.47145194 -0.00016507 0.00002694 -0.00002903
0.62080330 0.35918635 0.53141671 -0.00001180 -0.00002412 0.00000806
0.69043082 0.34188437 0.74065888 -0.00000541 0.00013190 0.00002482
0.87992024 0.61572671 0.53418010 0.00000988 0.00004283 -0.00009421
0.28349686 0.34222996 0.34643942 -0.00002355 -0.00004637 0.00000829
0.28523389 0.30454311 0.52048570 -0.00003782 -0.00009378 0.00006760
0.88281143 0.59316409 0.51414269 0.00011138 0.00006536 -0.00001405
0.35177362 0.35048234 0.36402971 0.00001802 -0.00003387 -0.00000436
0.89519244 0.48937991 0.53742450 0.00000716 0.00002668 0.00000814
0.70967424 0.56207424 0.48633420 -0.00000919 0.00000886 0.00000167
0.47390848 0.41275534 0.52525866 -0.00001447 0.00000595 -0.00001201
0.66516882 0.62180263 0.49387050 -0.00002069 0.00001133 0.00004246
0.82590377 0.63209480 0.58001602 0.00001280 -0.00000666 0.00007517
0.70534027 0.65760851 0.48936996 0.00000485 0.00001197 -0.00001458
0.70146424 0.33533469 0.41166723 0.00003007 0.00012119 0.00004090
0.35009703 0.30689329 0.52099329 0.00001509 -0.00009373 -0.00003456
0.25750935 0.39769658 0.48907635 0.00004577 -0.00002209 -0.00004401
0.18491267 0.50914919 0.39405835 0.00002068 0.00002198 0.00006766
0.36976406 0.46896103 0.45944679 -0.00002528 -0.00000771 0.00002202
0.83843690 0.65725887 0.49191183 0.00002173 0.00006122 -0.00001888
0.65577090 0.32654634 0.46896049 -0.00001688 0.00001363 0.00002164
0.20765308 0.50718582 0.36371475 -0.00005291 -0.00002958 -0.00001770
0.65012813 0.50625324 0.57537937 -0.00001739 -0.00000800 -0.00000685
0.62241578 0.36842498 0.73635203 0.00005625 -0.00001523 0.00005990
0.26485536 0.36511746 0.30447504 0.00000035 0.00004401 0.00000359
0.38350767 0.32702500 0.28356320 -0.00001743 0.00004205 -0.00000038
0.56967789 0.41870990 0.46972400 -0.00001021 -0.00001458 0.00000844
