0.30152109 0.41644633 0.77606040 -0.00045536 0.00025390 0.00005899
0.34677932 0.54335123 0.46076107 0.00007841 0.00001505 -0.00005590
0.39680144 0.53433472 0.19871996 0.00002706 0.00026024 -0.00004103
0.41638893 0.52088016 0.13602512 0.00007919 0.00038749 -0.00001180
0.29914534 0.52805060 0.25135073 -0.00022710 0.00018562 -0.00004396
0.62886286 0.56334329 0.81913388 0.00000046 0.00008657 0.00001177
0.35639444 0.54721946 0.36991757 0.00003741 0.00034549 -0.00003219
0.70001614 0.42160979 0.24981733 0.00039803 0.00011857 -0.00009591
0.29328376 0.51458979 0.46895584 -0.00031022 0.00018998 -0.00000978
0.30946070 0.41458511 0.58175063 -0.00024796 0.00005582 -0.00008243
0.34918207 0.54152179 0.52443618 0.00007141 -0.00021766 0.00013669
0.54945314 0.53842920 0.39668217 0.00002766 0.00005973 -0.00000821
0.66281098 0.50144988 0.91930503 0.00016685 -0.00002169 0.00027774
0.28843644 0.47566962 0.32321477 -0.00040283 -0.00008836 -0.00005641
0.44902325 0.44620758 0.07086159 -0.00009596 0.00009276 -0.00048206
0.66174573 0.51310945 0.91142029 0.00005870 0.00017468 0.00002843
0.39991379 0.59785342 0.54778898 0.00015840 0.00029273 -0.00015513
0.40475953 0.52925998 0.17211670 0.00012548 0.00028211 -0.00014320
0.42245677 0.44724762 0.07580969 -0.00013128 0.00012560 -0.00050364
0.38158181 0.38297996 0.90169811 -0.00025920 -0.00040819 0.00035650
0.50000000 0.56219554 0.79575229 -0.00000046 -0.00005404 0.00023273
0.39589980 0.59777784 0.54946917 0.00016621 0.00029825 -0.00014694
0.69974464 0.51084834 0.62126327 0.00008797 0.00023810 -0.00004049
0.47034359 0.59830695 0.52839738 -0.00003570 0.00025523 -0.00010131
0.34741735 0.53285164 0.73046255 0.00019780 -0.00001584 -0.00008053
0.64594799 0.57515967 0.50654000 0.00018221 -0.00006495 -0.00006988
0.31600866 0.38210499 0.84230441 -0.00054293 -0.00039850 0.00022549
0.50000000 0.55917269 0.42609343 -0.00000039 0.00007645 -0.00024370
0.33895233 0.49361235 0.91912287 -0.00015393 -0.00009603 0.00032039
0.47392607 0.38202426 0.04929252 0.00000439 -0.00027086 -0.00050599
0.41858950 0.51918036 0.12952872 0.00005810 0.00037583 -0.00007136
0.29232359 0.47919381 0.77633107 -0.00034152 -0.00025594 -0.00003238
0.39673102 0.52647138 0.94391733 -0.00009568 0.00026011 0.00054076
0.65436816 0.52950460 0.77457041 -0.00020751 0.00003722 -0.00008439
0.36019981 0.58873385 0.54129225 -0.00020576 0.00011005 -0.00010129
0.62386441 0.59727913 0.55861014 0.00000624 0.00027872 -0.00010515
0.63409293 0.51746386 0.14580417 0.00024237 0.00043984 -0.00011411
0.65331244 0.46250060 0.91651076 0.00023446 -0.00007527 0.00045662
0.59062231 0.54124969 0.24940205 0.00000192 0.00017382 -0.00002681
0.71040583 0.53044724 0.31049415 0.00040800 0.00019171 0.00000148
0.65915269 0.51952010 0.86751127 -0.00022948 0.00010239 -0.00011096
0.40747207 0.53674465 0.25244555 0.00000739 0.00010443 -0.00001862
0.64996529 0.53927231 0.59800243 -0.00008811 -0.00001772 0.00013637
0.40231666 0.53925788 0.27290004 0.00001251 0.00013070 0.00001145
0.45481104 0.53602642 0.20257293 -0.00005344 0.00022479 -0.00004710
0.51373994 0.61776721 0.65476292 -0.00013436 0.00027317 0.00007042
0.37776980 0.54485071 0.80848873 0.00000847 -0.00026636 -0.00002242
0.29720500 0.41172817 0.43774194 -0.00031682 0.00000490 0.00007055
0.69249332 0.44790217 0.56273651 0.00017893 -0.00005953 -0.00003382
0.70809525 0.46898082 0.25064117 0.00043512 -0.00010019 -0.00008629
0.69132268 0.38207388 0.69276559 0.00023382 -0.00035096 -0.00001545
0.46918136 0.44536230 0.06853706 -0.00012474 0.00008524 -0.00045343
0.69155890 0.38205019 0.73637223 0.00026790 -0.00030431 0.00010351
0.58169377 0.54485071 0.83298868 -0.00009439 0.00008606 -0.00000474
0.29393241 0.50954944 0.83604956 -0.00028110 0.00021325 0.00003675
0.53879702 0.54485071 0.84414840 0.00002751 0.00020279 0.00008503
0.71065760 0.52983588 0.32328433 0.00040381 0.00018634 -0.00001992
0.57088262 0.54213059 0.36023653 0.00001730 0.00016985 0.00001224
0.37177071 0.38303483 0.89703178 -0.00023810 -0.00042642 0.00038699
0.42814624 0.54174054 0.36655915 -0.00001368 0.00016213 0.00001044
0.69844139 0.38270423 0.40349394 0.00023597 -0.00036170 0.00004314
0.68590629 0.38219225 0.60576773 0.00017376 -0.00028028 -0.00022334
0.69259775 0.50752294 0.16243093 0.00032621 0.00049313 -0.00018684
0.38004512 0.59739619 0.55668777 0.00004269 0.00028713 -0.00011248
0.70733654 0.51460767 0.79975712 0.00025115 0.00020986 0.00000907
0.69748574 0.51229841 0.52422017 0.00012828 0.00014874 0.00010595
0.70641023 0.45596156 0.25036040 0.00040347 -0.00009704 -0.00010364
0.60416389 0.53490919 0.20206471 -0.00002280 0.00025638 -0.00003816
0.29279086 0.52299726 0.73920691 -0.00014411 0.00029390 0.00003671
0.60831583 0.54294384 0.31018147 0.00000154 0.00022533 -0.00006959
0.44849101 0.54051822 0.24017432 -0.00013342 0.00017007 -0.00008269
0.46840715 0.52313185 0.95347977 0.00014197 0.00026972 0.00025863
0.48390615 0.43050092 0.06264614 -0.00007387 0.00025710 -0.00037252
0.44738674 0.61872631 0.61652237 -0.00001257 0.00037689 -0.00009329
0.41139781 0.53440964 0.23534219 0.00003161 0.00008255 -0.00001070
0.58686203 0.52332783 0.14580879 -0.00010722 0.00039990 0.00006996
0.51567942 0.58216059 0.77595669 -0.00011738 0.00014232 0.00007987
0.61376566 0.57933110 0.77596617 0.00002957 0.00019490 0.00018917
0.31207463 0.38199833 0.21385063 -0.00033760 -0.00029714 0.00000413
0.45054686 0.53842920 0.39668217 -0.00002870 0.00005960 -0.00000839
0.34465355 0.47024080 0.91743767 -0.00018443 -0.00017635 0.00043262
0.69585508 0.38271153 0.44802120 0.00022631 -0.00033471 0.00001586
0.29235831 0.51903129 0.77678812 -0.00021630 0.00023373 0.00007898
0.58824849 0.61377853 0.65504909 0.00008587 0.00042215 0.00002784
0.59219539 0.61258250 0.65510815 0.00001941 0.00044140 0.00003182
0.69036478 0.50914800 0.89986300 0.00018097 0.00024493 0.00037182
0.32888138 0.51944655 0.18442279 0.00030928 0.00043816 -0.00015744
0.64781433 0.57030368 0.49495718 0.00014245 -0.00004334 -0.00006797
0.69021136 0.41213444 0.54735059 0.00026255 0.00004775 -0.00001720
0.59444380 0.52612704 0.94587147 0.00011115 0.00023989 0.00052099
0.69760901 0.38245639 0.30833194 0.00028440 -0.00027507 -0.00002080
0.63354325 0.59393096 0.66299844 0.00023824 0.00010930 0.00003216
0.68892819 0.38256809 0.51165241 0.00017957 -0.00038201 0.00002554
0.34431049 0.50908530 0.92577988 -0.00020660 0.00005611 0.00032331
0.59858811 0.53964400 0.27630129 -0.00001548 0.00013652 0.00002597
0.69899327 0.38258803 0.34633788 0.00026964 -0.00029817 -0.00009181
0.35044530 0.56529599 0.48334607 -0.00010023 -0.00000837 -0.00008930
0.43985951 0.60920233 0.70755696 0.00005286 0.00033985 0.00018053
0.60904300 0.54485071 0.81905037 -0.00022143 -0.00016483 -0.00004511
0.38564587 0.54035974 0.23911658 0.00002687 0.00022440 -0.00002007
0.31290913 0.38251472 0.52437246 -0.00016369 -0.00038924 0.00000568
0.31184843 0.38503721 0.77604538 -0.00023914 -0.00020190 0.00004871
0.66425365 0.51942849 0.17709731 -0.00029759 0.00051504 -0.00008152
0.58122468 0.52860051 0.19754870 0.00001671 0.00012603 -0.00003517
0.35279477 0.57193965 0.49882039 -0.00015703 -0.00005446 -0.00006733
0.62522262 0.57620758 0.77603561 0.00014778 0.00012045 0.00015002
0.51801008 0.61829120 0.65476447 -0.00016897 0.00028421 0.00007013
0.69672900 0.51215988 0.52806783 0.00010831 0.00013838 0.00012506
0.63763672 0.59289920 0.55293554 0.00020426 0.00017741 -0.00009237
0.65527380 0.52775675 0.79415947 -0.00021367 0.00005225 -0.00003851
0.63462520 0.54692543 0.32478812 -0.00002889 0.00033132 -0.00002076
0.31738734 0.38225979 0.57690084 -0.00012357 -0.00028928 -0.00008699
0.46740785 0.52044511 0.12840730 0.00003427 0.00035712 -0.00004176
0.57424927 0.44712979 0.07506520 0.00012071 0.00012077 -0.00050180
0.68215734 0.38610083 0.56255013 0.00009965 -0.00026610 -0.00003471
0.41694093 0.53026867 0.20787704 0.00000753 0.00010985 -0.00000887
0.58712959 0.53341901 0.22848690 -0.00004791 0.00007457 -0.00001880
0.59119391 0.54485071 0.82902426 -0.00023856 -0.00000077 -0.00002558
0.52407563 0.44508711 0.06799699 0.00008221 0.00007957 -0.00045047
0.50000000 0.57716900 0.46423787 -0.00000033 0.00021096 -0.00013085
0.62930274 0.55994695 0.83009392 -0.00000560 0.00010082 -0.00006289
0.38711727 0.51446438 0.12461276 -0.00018628 0.00034062 -0.00030438
0.68727207 0.38216427 0.62023187 0.00018207 -0.00031559 -0.00022265
0.41589656 0.44746834 0.07741349 -0.00015697 0.00013386 -0.00050680
0.53879905 0.38175926 0.92619437 -0.00001066 -0.00034847 0.00043920
0.51115066 0.50343704 0.95434862 -0.00001585 -0.00005441 0.00027281
0.70533109 0.41737819 0.32304719 0.00040880 0.00013697 -0.00005874
0.47622991 0.53882861 0.39196637 -0.00009215 0.00000877 -0.00005275
0.36135852 0.53637785 0.90209001 -0.00024390 0.00040218 -0.00025125
0.43506843 0.54353231 0.32226795 -0.00002535 0.00019810 -0.00004833
0.34563193 0.52950460 0.77457041 0.00020698 0.00003812 -0.00008371
0.34947291 0.50911433 0.92827004 -0.00020732 0.00002125 0.00033883
0.31875905 0.38179237 0.17638691 -0.00040078 -0.00037684 -0.00011588
0.70432389 0.41505414 0.43406799 0.00034137 0.00002810 0.00005416
0.70215648 0.41142285 0.44132829 0.00030355 0.00000980 0.00008097
0.50000000 0.61400652 0.61625665 0.00000004 0.00024997 -0.00004241
0.61958307 0.54266697 0.25951019 -0.00003292 0.00023795 -0.00001868
0.34879452 0.53550190 0.68632191 0.00014648 -0.00003978 -0.00003002
0.45082557 0.43135446 0.06562112 -0.00006800 0.00027609 -0.00042352
0.29428908 0.52100927 0.70158643 -0.00007875 0.00030432 -0.00003166
0.42507038 0.53857309 0.40349233 -0.00000787 0.00009904 0.00002105
0.65223879 0.53349590 0.72065574 -0.00019269 -0.00002562 -0.00007278
0.46428090 0.52520901 0.14678945 -0.00004838 0.00028125 -0.00012182
0.54548204 0.54485071 0.84291679 0.00004201 0.00019426 0.00007737
0.69822723 0.38250440 0.32098982 0.00027977 -0.00028197 -0.00004374
0.42387488 0.52265507 0.16302127 -0.00003173 0.00017000 -0.00009825
0.53678608 0.43097711 0.06418829 0.00012358 0.00022804 -0.00040856
0.28929842 0.49951851 0.25148696 -0.00051935 -0.00033331 -0.00002653
0.63177633 0.58885956 0.70811146 0.00027680 0.00008067 0.00010896
0.31107181 0.38256809 0.51165241 -0.00018005 -0.00038091 0.00002617
0.69311047 0.40978998 0.50524962 0.00026332 0.00015451 -0.00001210
0.39297915 0.53655344 0.21212344 0.00000820 0.00022023 -0.00011151
0.45059392 0.53925157 0.22761150 -0.00012159 0.00018024 -0.00010342
0.71122009 0.52263665 0.39354080 0.00037876 0.00024577 -0.00001564
0.28891560 0.46665663 0.32318389 -0.00038939 -0.00005409 -0.00004924
0.45164716 0.53853267 0.22134033 -0.00010677 0.00018826 -0.00010808
0.68657011 0.38121864 0.77604538 0.00019312 -0.00029778 0.00004484
0.43714467 0.58559769 0.77553046 -0.00008417 0.00023725 0.00023276
0.30225188 0.51085258 0.60844076 -0.00006824 0.00023724 -0.00003638
0.64121974 0.58585352 0.53355402 0.00020475 0.00006238 -0.00010122
0.54304701 0.53848177 0.39529461 0.00005121 0.00004565 -0.00001883
0.46377400 0.54357338 0.24940205 0.00008469 0.00022042 -0.00002686
0.50000000 0.59312278 0.50355554 -0.00000016 0.00030187 -0.00003556
0.34748331 0.54291487 0.47544602 0.00007909 -0.00006942 -0.00001158
0.68569738 0.49016190 0.13930896 0.00038580 0.00009826 -0.00054219
0.62043202 0.54300612 0.26292065 -0.00002951 0.00024174 -0.00001412
0.61717546 0.54485071 0.81297052 -0.00010007 -0.00022827 -0.00003144
0.43210080 0.50684655 0.95020711 -0.00012906 -0.00027966 0.00047890
0.56318319 0.52468836 0.95091069 0.00007043 0.00025469 0.00045576
0.65430886 0.54419988 0.43277258 -0.00006222 0.00019171 -0.00004466
0.65648949 0.52532077 0.81863034 -0.00019027 0.00005906 -0.00003683
0.70279497 0.41172817 0.43774194 0.00031482 0.00000727 0.00007011
0.31388387 0.38248467 0.53073096 -0.00015286 -0.00038611 -0.00000189
0.30210167 0.38205749 0.32298204 -0.00026849 -0.00029299 -0.00004487
0.30092603 0.38266593 0.37807396 -0.00024659 -0.00037116 -0.00002962
0.52850741 0.43076560 0.06345989 0.00012027 0.00022411 -0.00039631
0.31012943 0.41283262 0.55777884 -0.00026250 0.00005812 -0.00000169
0.29779097 0.51088196 0.63861793 -0.00011192 0.00021040 -0.00004188
0.58489543 0.50791466 0.94761324 0.00016564 -0.00027277 0.00050306
0.31095380 0.38204089 0.79932100 -0.00038144 -0.00028307 -0.00006125
0.43568256 0.44675183 0.07305317 -0.00009916 0.00010570 -0.00049487
0.50000000 0.49312770 0.08544648 0.00000024 0.00013726 -0.00053874
0.34787253 0.38169697 0.11322252 -0.00040861 -0.00034171 -0.00035258
0.43262601 0.59822506 0.53635705 -0.00014580 0.00023096 -0.00016934
0.50000000 0.42553887 0.05740129 0.00000061 0.00037999 -0.00040436
0.68591529 0.39763978 0.56266177 0.00018167 -0.00011053 -0.00001231
0.61581969 0.54459214 0.33374333 -0.00000105 0.00025959 -0.00001800
0.57899433 0.52628922 0.18375537 0.00004044 0.00012745 -0.00013941
0.29466891 0.41737819 0.32304719 -0.00040950 0.00013750 -0.00006040
0.29545006 0.41293383 0.32303756 -0.00040302 0.00012251 -0.00006041
0.70176339 0.51087189 0.63533872 0.00010746 0.00021990 -0.00003571
0.34932551 0.38289794 0.88361281 -0.00023798 -0.00042100 0.00049683
0.48854372 0.38112313 0.92805696 0.00004445 -0.00032028 0.00042578
0.36887622 0.54601121 0.37712395 0.00002655 0.00028676 -0.00002685
0.44501355 0.58524847 0.77553874 -0.00005339 0.00022508 0.00021479
0.39494538 0.54416674 0.24940205 0.00001640 0.00023924 -0.00002486
0.30091283 0.38260603 0.35268101 -0.00026620 -0.00031140 -0.00009117
0.35781258 0.42422128 0.90933460 -0.00029673 0.00002217 0.00055855
0.68477023 0.39377216 0.56262952 0.00015687 -0.00015735 -0.00001702
0.31304342 0.40152708 0.56268954 -0.00020428 -0.00006419 -0.00000979
0.62223023 0.54485071 0.80848873 -0.00000959 -0.00026885 -0.00002119
0.49625584 0.61641282 0.65476143 0.00003843 0.00024931 0.00007130
0.42527395 0.54031539 0.38550898 -0.00000312 0.00013438 0.00001492
0.40930605 0.53898013 0.40867180 -0.00000650 0.00011613 0.00003717
0.52859581 0.53871667 0.39267644 0.00009543 0.00001498 -0.00004622
0.30756789 0.44387975 0.56274843 -0.00018856 -0.00004169 -0.00002605
0.65257549 0.55485946 0.45996952 0.00001047 0.00007463 -0.00012628
0.39784935 0.58191413 0.77585334 0.00004228 0.00024671 0.00021965
0.65919781 0.38168788 0.12374542 0.00041970 -0.00035973 -0.00030553
0.69091982 0.48010018 0.56258059 0.00007117 -0.00021216 -0.00002371
0.29246229 0.51687014 0.78878611 -0.00023560 0.00022744 0.00004264
0.50000000 0.41570771 0.93609685 -0.00000050 0.00028234 0.00054321
0.62469512 0.51628566 0.13633493 0.00024750 0.00038796 -0.00021004
0.65209854 0.54263133 0.48523921 -0.00007954 -0.00012585 0.00005865
0.37623578 0.54423428 0.27659285 0.00001076 0.00025947 0.00002518
0.42926177 0.58555400 0.77555770 -0.00008694 0.00024446 0.00024197
0.29186937 0.49670902 0.77649903 -0.00029461 -0.00011066 0.00000437
0.45902964 0.53184468 0.17767404 -0.00004868 0.00023587 -0.00012917
0.64002895 0.54579586 0.40026039 -0.00002639 0.00027787 0.00002041
0.71535969 0.48394307 0.43223315 0.00048054 -0.00016630 -0.00003857
0.66115743 0.51463908 0.90167034 -0.00007150 0.00018685 -0.00015557
0.71041608 0.43914610 0.43339962 0.00034820 -0.00014593 0.00003418
0.29456815 0.52008080 0.69636416 -0.00007343 0.00029407 -0.00003458
0.40385795 0.50851315 0.94545406 -0.00011661 -0.00028192 0.00053458
0.53919131 0.62004501 0.65478510 -0.00017764 0.00035035 0.00006082
0.50000000 0.45376107 0.94411492 -0.00000080 0.00001209 0.00042667
0.36671636 0.59326530 0.67054099 -0.00024005 0.00010832 0.00002141
0.50000000 0.55557024 0.81262559 -0.00000040 0.00004089 0.00022868
0.30950284 0.38804448 0.24952221 -0.00024022 -0.00012948 -0.00004130
0.69945079 0.39922976 0.43450558 0.00025566 -0.00011939 0.00005574
0.57656270 0.52327359 0.16648036 0.00003658 0.00015686 -0.00012724
0.36658472 0.59360683 0.66677064 -0.00023928 0.00010864 0.00002637
0.68815166 0.38503721 0.77604538 0.00023900 -0.00020191 0.00004857
0.50000000 0.53360140 0.20279172 -0.00000120 0.00019736 -0.00005362
0.71151668 0.51628977 0.32337672 0.00042463 -0.00010260 -0.00004021
0.43773803 0.59536612 0.75182253 -0.00002118 0.00033125 0.00011227
0.33795795 0.51232111 0.91629350 -0.00013528 0.00016738 0.00014811
0.33449242 0.38168871 0.13478130 -0.00042774 -0.00036949 -0.00025833
0.69000560 0.38210681 0.65888119 0.00020828 -0.00036503 -0.00010921
0.53781486 0.52805549 0.15910827 0.00007424 0.00024404 -0.00018218
0.34792539 0.53380555 0.71575189 0.00018727 -0.00003121 -0.00007051
0.70286006 0.40406823 0.32301944 0.00037845 0.00005522 -0.00005823
0.30713588 0.38266435 0.47983980 -0.00021589 -0.00034052 -0.00000852
0.44326630 0.54271793 0.27168000 -0.00009378 0.00018267 0.00000969
0.58860219 0.53440964 0.23534219 -0.00003194 0.00008319 -0.00001093
0.57862222 0.58514011 0.77561200 0.00006207 0.00025058 0.00024485
0.44449693 0.61859930 0.64688462 -0.00008824 0.00036154 0.00003573
0.60796022 0.53707522 0.21548435 -0.00000715 0.00022160 -0.00008610
0.40250510 0.43377456 0.07700291 -0.00019016 0.00034779 -0.00047556
0.64031935 0.53407395 0.90916675 0.00021999 0.00041692 -0.00015080
0.46743646 0.38201717 0.04991622 -0.00001988 -0.00027096 -0.00051138
0.31015527 0.41354850 0.56812495 -0.00025786 0.00006568 -0.00002559
0.70216620 0.43270454 0.77609074 0.00039307 0.00001450 0.00004822
0.69915479 0.41025180 0.45919845 0.00027084 0.00006361 0.00010051
0.34376055 0.52583128 0.81373769 0.00020032 0.00006059 -0.00003235
0.53571910 0.52520901 0.14678945 0.00004514 0.00028101 -0.00012232
0.70701241 0.46029487 0.25044894 0.00041380 -0.00008881 -0.00009919
0.70173317 0.51319015 0.50089300 0.00022144 0.00017299 0.00000373
0.30090618 0.51084721 0.61697251 -0.00008320 0.00023694 -0.00003420
0.41287044 0.53341901 0.22848690 0.00004749 0.00007395 -0.00001856
0.65534645 0.47024080 0.91743767 0.00018501 -0.00015631 0.00043397
0.38638437 0.38294306 0.90387356 -0.00026454 -0.00040019 0.00034962
0.58935952 0.53489327 0.23876688 -0.00002385 0.00008809 -0.00001118
0.57626927 0.61688465 0.65491784 0.00019725 0.00039388 0.00002558
0.50000000 0.52872711 0.17308943 -0.00000064 0.00022887 -0.00006349
0.35020187 0.54602742 0.40480116 0.00004813 0.00030881 0.00000851
0.69006658 0.48810819 0.56253195 0.00001855 -0.00013157 0.00000089
0.29141271 0.43107581 0.43362248 -0.00034743 -0.00009907 0.00004464
0.29246798 0.52184671 0.75568736 -0.00017766 0.00024507 0.00010748
0.30751002 0.45192805 0.56272256 -0.00017092 -0.00007313 -0.00004379
0.41510758 0.54485071 0.83173937 0.00013825 0.00006158 -0.00001038
0.35866418 0.54570484 0.40355206 0.00003132 0.00027323 0.00001324
0.70434982 0.44300786 0.25012359 0.00037838 -0.00013222 -0.00010879
0.56763577 0.44688144 0.07368756 0.00010493 0.00011079 -0.00049727
0.58556491 0.52574664 0.94758862 0.00013232 0.00023673 0.00050112
0.29478821 0.45794615 0.62177891 -0.00034519 -0.00009849 0.00002583
0.41313800 0.52332783 0.14580879 0.00011011 0.00040111 0.00007273
0.50000000 0.53806162 0.23863751 -0.00000079 0.00015097 -0.00008540
0.30652711 0.40970168 0.50172520 -0.00026541 0.00016198 -0.00000894
0.51957256 0.38202995 0.04879983 -0.00001833 -0.00027036 -0.00050093
0.43709376 0.54362667 0.30961007 -0.00003558 0.00020057 -0.00006685
0.31200668 0.38204119 0.81382388 -0.00043818 -0.00032725 -0.00005510
0.55097681 0.44620758 0.07086159 0.00009648 0.00009283 -0.00048198
0.56431741 0.44675183 0.07305317 0.00009977 0.00010541 -0.00049477
0.70641446 0.52925557 0.24054459 0.00041988 0.00026147 -0.00004167
0.50003666 0.58134639 0.77604538 -0.00000078 0.00013650 0.00006988
0.62376410 0.54423428 0.27659285 -0.00001197 0.00026019 0.00002573
0.30723310 0.40989783 0.50877154 -0.00026307 0.00015214 -0.00001409
0.63931841 0.54485071 0.78757089 0.00015428 -0.00030980 -0.00004934
0.36699045 0.59252954 0.67807531 -0.00024488 0.00010600 0.00001833
0.55652010 0.50607932 0.95154536 0.00007988 -0.00028005 0.00045550
0.64997393 0.53910226 0.60290879 -0.00008650 -0.00001855 0.00013301
0.55053675 0.61690909 0.59647697 0.00000576 0.00037995 0.00001389
0.60623401 0.38183850 0.07086930 0.00025758 -0.00024922 -0.00055725
0.45769620 0.59830469 0.53041607 -0.00005404 0.00023884 -0.00016067
0.29955915 0.42453054 0.77607280 -0.00042959 0.00014020 0.00005436
0.59614217 0.50851315 0.94545406 0.00012531 -0.00027912 0.00052892
0.50027519 0.40608591 0.93408412 0.00000052 0.00018355 0.00053707
0.70802861 0.43522394 0.32309052 0.00037394 -0.00007039 -0.00004966
0.34625754 0.54365146 0.45097485 0.00007317 0.00007582 -0.00005476
0.69537407 0.38232067 0.27674240 0.00028488 -0.00024624 -0.00012396
0.29713124 0.44289607 0.61465287 -0.00032466 -0.00006719 -0.00003679
0.70045304 0.50930852 0.88280129 0.00024158 0.00028662 0.00031819
0.30194977 0.40994447 0.46631959 -0.00027403 0.00009757 0.00006309
0.50000000 0.59509665 0.50931376 -0.00000014 0.00030752 -0.00003225
0.36309054 0.59424502 0.55682886 -0.00020134 0.00020165 -0.00008939
0.46735227 0.43086767 0.06380346 -0.00013028 0.00022080 -0.00040335
0.38744035 0.53948677 0.23234607 0.00001792 0.00022366 -0.00002050
0.69214857 0.38216642 0.24524367 0.00030796 -0.00025167 -0.00003557
0.45801041 0.62013352 0.65479004 0.00012573 0.00036434 0.00005944
0.61154175 0.60545045 0.65547895 -0.00007931 0.00041968 0.00005255
0.70681328 0.46626544 0.77623671 0.00035347 -0.00010462 0.00000489
0.71501851 0.47168609 0.43253547 0.00044767 -0.00016276 -0.00002888
0.30397853 0.40959457 0.48051965 -0.00027645 0.00015722 0.00000597
0.28613368 0.45944789 0.43285179 -0.00040228 -0.00014439 -0.00000850
0.35574737 0.54715538 0.37340048 0.00003953 0.00034462 -0.00002967
0.66204208 0.51232111 0.91629350 0.00012764 0.00015932 0.00013854
0.44582331 0.52424169 0.95187789 -0.00002438 0.00026460 0.00042696
0.59524047 0.52925998 0.17211670 -0.00012835 0.00028242 -0.00014396
0.71101236 0.52666378 0.36165884 0.00038654 0.00021808 -0.00001811
0.65120548 0.53550190 0.68632179 -0.00014698 -0.00003931 -0.00002980
0.38418034 0.54459214 0.33374333 0.00000102 0.00025899 -0.00001849
0.69948983 0.42047712 0.77606606 0.00045524 0.00024471 0.00005747
0.50000000 0.43446013 0.06058264 0.00000062 0.00024666 -0.00043093
0.30769661 0.43986213 0.56275785 -0.00019891 -0.00002296 -0.00001961
0.50927770 0.53925717 0.39035249 0.00004450 0.00000009 -0.00006514
0.29526696 0.51098639 0.65857297 -0.00014335 0.00014267 -0.00008190
0.60137826 0.54074329 0.28649113 -0.00002115 0.00015693 0.00007716
0.71111846 0.52438712 0.38080627 0.00038052 0.00024179 -0.00000147
0.58696610 0.54091328 0.24940205 0.00000313 0.00016282 -0.00002900
0.38750663 0.54001099 0.41694328 0.00001337 0.00013098 0.00005581
0.30155861 0.38270423 0.40349394 -0.00023730 -0.00036568 0.00004732
0.30444604 0.40956080 0.48406142 -0.00027464 0.00016535 0.00000503
0.69081527 0.38204324 0.76544023 0.00030259 -0.00027302 0.00009720
0.39669961 0.54142535 0.29327223 0.00001078 0.00018216 0.00000266
0.65081793 0.54152179 0.52443618 -0.00007277 -0.00021622 0.00014002
0.60319859 0.53433472 0.19871996 -0.00003103 0.00026159 -0.00003898
0.31678617 0.38224736 0.58170575 -0.00013784 -0.00027813 -0.00011347
0.43206760 0.54303646 0.34125653 -0.00002222 0.00018709 0.00000261
0.70304602 0.51351476 0.49300915 0.00024599 0.00017606 -0.00001110
0.41614687 0.59808636 0.54160833 -0.00011376 0.00024780 -0.00014434
0.63257229 0.59129184 0.68935949 0.00026079 0.00009563 0.00004377
0.29760441 0.51335055 0.49695870 -0.00023440 0.00017402 -0.00000576
0.50000000 0.45342147 0.06787307 0.00000034 0.00001701 -0.00050908
0.30104417 0.51258332 0.51649308 -0.00016360 0.00016186 0.00006682
0.37376365 0.54581648 0.36383131 0.00002474 0.00028207 -0.00002446
0.63477939 0.59653753 0.61762452 0.00025910 0.00012739 0.00003969
0.35837314 0.54733783 0.35947743 0.00002969 0.00034593 -0.00002741
0.61760432 0.57834601 0.77599555 0.00006513 0.00017241 0.00017771
0.40573287 0.54174012 0.24940205 0.00000253 0.00018680 -0.00002430
0.28804967 0.48920420 0.32326451 -0.00042388 -0.00028481 -0.00006712
0.45484909 0.52379274 0.95265347 0.00002922 0.00027454 0.00037811
0.31154841 0.38214004 0.63471329 -0.00018873 -0.00035826 -0.00017756
0.64111185 0.54485071 0.78470927 0.00016354 -0.00030791 -0.00006435
0.29481950 0.50955313 0.85118675 -0.00029273 0.00024776 0.00006967
0.63108242 0.58656865 0.72305512 0.00027194 0.00007969 0.00015007
0.50554669 0.50323737 0.95446730 -0.00000736 -0.00003735 0.00027000
0.63143551 0.58775330 0.71559030 0.00027570 0.00007941 0.00012940
0.50000000 0.54269832 0.34392914 -0.00000061 0.00014596 -0.00003712
0.30860943 0.38204721 0.74606305 -0.00028158 -0.00027187 0.00013490
0.71331930 0.45537603 0.43295965 0.00038703 -0.00014955 -0.00000008
0.31006992 0.41379657 0.57155126 -0.00025442 0.00006325 -0.00004375
0.43306264 0.54324818 0.33492738 -0.00002247 0.00019165 -0.00001258
0.57468092 0.58539182 0.77558196 0.00008061 0.00024701 0.00024484
0.35546383 0.43181765 0.91109419 -0.00028437 -0.00002374 0.00052074
0.62988770 0.54598355 0.37380561 -0.00002775 0.00028664 -0.00002954
0.69057935 0.38210058 0.23267291 0.00032139 -0.00025251 -0.00000426
0.35878026 0.58585352 0.53355402 -0.00020510 0.00006268 -0.00010216
0.46844465 0.51872295 0.12230735 0.00004354 0.00037296 -0.00006159
0.54518896 0.53602642 0.20257293 0.00005216 0.00022475 -0.00004785
0.44317776 0.61733520 0.66211605 -0.00008574 0.00035715 0.00005107
0.58943361 0.38267681 0.91364491 0.00021041 -0.00039313 0.00036637
0.70911896 0.44418225 0.32311484 0.00036859 -0.00009965 -0.00004478
0.48727542 0.59829187 0.52677643 0.00000563 0.00027564 -0.00003177
0.44554332 0.38208592 0.92356241 -0.00007819 -0.00037143 0.00041966
0.63488704 0.54600769 0.38705963 -0.00002331 0.00028645 -0.00000134
0.39968106 0.44791269 0.08212535 -0.00022471 0.00015038 -0.00051371
0.35807973 0.58438325 0.52969027 -0.00020709 0.00003659 -0.00010165
0.64121729 0.53293443 0.91269547 0.00022436 0.00041722 -0.00008378
0.43037236 0.43216830 0.06912142 -0.00006742 0.00032801 -0.00044734
0.62649763 0.59843326 0.65581769 0.00011131 0.00023773 0.00005070
0.29376072 0.52233076 0.71216917 -0.00009382 0.00030758 -0.00003996
0.29902300 0.42586732 0.24987039 -0.00038455 0.00000946 -0.00010076
0.58785874 0.53391832 0.23191544 -0.00004225 0.00007779 -0.00001412
0.40785199 0.52713650 0.16221513 0.00013740 0.00031916 -0.00009093
0.70902181 0.47768831 0.25085458 0.00045577 -0.00016328 -0.00006851
0.54214245 0.54485071 0.84355462 0.00003462 0.00019863 0.00008205
0.54781944 0.61233747 0.57179850 -0.00001380 0.00038426 0.00002045
0.69134301 0.41072026 0.52634549 0.00026057 0.00009258 -0.00004740
0.55998474 0.60981333 0.70505393 -0.00004842 0.00034009 0.00018430
0.53498125 0.61983854 0.65477890 -0.00021438 0.00033431 0.00006334
0.58342165 0.38191104 0.06008601 0.00011917 -0.00023064 -0.00059298
0.70715219 0.47055471 0.77626544 0.00035083 -0.00013959 -0.00000556
0.44119468 0.54322469 0.28431249 -0.00007307 0.00019435 0.00003473
0.28815877 0.50726247 0.32333750 -0.00043121 -0.00022958 -0.00004993
0.42024556 0.59812903 0.54020482 -0.00014211 0.00024115 -0.00014893
0.60233325 0.54108948 0.28988293 -0.00001541 0.00016974 0.00005243
0.68696022 0.38196337 0.20758609 0.00033945 -0.00032744 -0.00003077
0.33766046 0.51151699 0.92116547 -0.00020388 0.00014033 0.00027634
0.38475835 0.54077679 0.24250697 0.00003030 0.00022531 -0.00002126
0.67349106 0.38171199 0.15213634 0.00042536 -0.00038285 -0.00019293
0.68264079 0.38182253 0.18258679 0.00038683 -0.00037553 -0.00010216
0.62856025 0.57085729 0.79343623 0.00010269 0.00006658 0.00015318
0.36685163 0.59290612 0.67430925 -0.00024243 0.00010720 0.00001887
0.30054918 0.39922976 0.43450558 -0.00025777 -0.00012134 0.00005640
0.57522070 0.54485071 0.83527684 -0.00002358 0.00012189 0.00000897
0.61673540 0.38180259 0.07772729 0.00029993 -0.00026716 -0.00052786
0.50000000 0.58672416 0.48647833 -0.00000024 0.00027651 -0.00005719
0.70391935 0.51094288 0.65186489 0.00013118 0.00016577 -0.00007320
0.63615936 0.54597723 0.39036492 -0.00002210 0.00028503 0.00000996
0.69847739 0.38252690 0.32732296 0.00027745 -0.00028454 -0.00006023
0.50000000 0.54240245 0.30474624 -0.00000074 0.00016670 -0.00012803
0.37221417 0.54548109 0.29374796 0.00003508 0.00028997 -0.00000862
0.70642215 0.46199664 0.77621061 0.00035532 -0.00008244 0.00001364
0.66057533 0.51610738 0.89191604 -0.00021116 0.00020294 -0.00027989
0.55983627 0.54340059 0.29063353 0.00006167 0.00019805 0.00000934
0.50000000 0.54197592 0.29270074 -0.00000074 0.00016065 -0.00004514
0.71128643 0.52080166 0.32339719 0.00041957 -0.00002044 -0.00003076
0.49423116 0.38098261 0.92801780 0.00002451 -0.00032456 0.00041681
0.63679159 0.54718018 0.33517513 -0.00002304 0.00033859 -0.00001130
0.56208324 0.54485071 0.83909845 0.00004836 0.00016500 0.00004080
0.70981699 0.53091168 0.29133341 0.00039983 0.00023039 -0.00002999
0.70671618 0.51458979 0.46895584 0.00030952 0.00019044 -0.00000954
0.64794499 0.44326955 0.91343623 0.00027401 -0.00004154 0.00048683
0.59611756 0.61130810 0.65517318 -0.00005990 0.00046580 0.00003742
0.35704780 0.54727125 0.36643606 0.00003496 0.00034596 -0.00003224
0.34809548 0.54249114 0.49013692 0.00007930 -0.00015360 0.00009378
0.50450110 0.52194762 0.95404392 -0.00003234 0.00026208 0.00014599
0.53991723 0.53064489 0.17147438 0.00005997 0.00023455 -0.00016271
0.36779466 0.39416298 0.90080577 -0.00027863 -0.00020200 0.00049665
0.45907864 0.43109447 0.06461753 -0.00010888 0.00024511 -0.00041279
0.61806214 0.54495436 0.34045026 -0.00000647 0.00026623 -0.00000937
0.30646193 0.38267767 0.47347599 -0.00022271 -0.00033241 -0.00002415
0.70979929 0.48641229 0.25109002 0.00047816 -0.00024998 -0.00004562
0.48942262 0.44456786 0.06723599 -0.00003451 0.00008976 -0.00043834
0.69119555 0.38207775 0.68792242 0.00023070 -0.00035235 -0.00003015
0.70541877 0.50955921 0.84778470 0.00029184 0.00024072 0.00005022
0.60880661 0.38290063 0.90598011 0.00026350 -0.00039477 0.00034742
0.56099176 0.44661921 0.07245401 0.00009775 0.00009989 -0.00049188
0.59915453 0.38279942 0.90997219 0.00024036 -0.00039417 0.00035351
0.68321383 0.38224736 0.58170575 0.00013752 -0.00027833 -0.00011335
0.61203319 0.52677238 0.94171602 0.00012419 0.00028068 0.00052006
0.31128511 0.38204098 0.80415666 -0.00039959 -0.00029130 -0.00007582
0.51351911 0.52231330 0.95400536 -0.00009219 0.00026108 0.00016393
0.43875074 0.60369521 0.72743648 0.00005934 0.00034720 0.00012712
0.59886366 0.52630413 0.94492459 0.00009469 0.00024509 0.00053075
0.41877520 0.52860051 0.19754870 -0.00001826 0.00012551 -0.00003597
0.36759773 0.54655761 0.31442022 0.00003698 0.00032071 -0.00003655
0.70955199 0.53094071 0.28495657 0.00040015 0.00024031 -0.00008238
0.29214007 0.51498628 0.46078596 -0.00033342 0.00019058 -0.00002587
0.69139063 0.38204721 0.74606305 0.00028147 -0.00027196 0.00013491
0.31620592 0.38223544 0.58651334 -0.00014915 -0.00027055 -0.00014257
0.51960975 0.58243901 0.77591425 -0.00014011 0.00014334 0.00008746
0.63135642 0.54485071 0.79850215 0.00009350 -0.00030390 -0.00001295
0.70764166 0.51903129 0.77678812 0.00021631 0.00023416 0.00007882
0.66617286 0.38260239 0.87042010 0.00036554 -0.00042240 0.00047918
0.70501226 0.52812928 0.22795379 0.00039993 0.00029971 -0.00008100
0.61974221 0.54485071 0.81077337 -0.00005265 -0.00024982 -0.00002723
0.68792522 0.38199833 0.21385063 0.00033702 -0.00029867 0.00000376
0.31703195 0.38238093 0.54979873 -0.00010694 -0.00036399 -0.00003168
0.68611610 0.38248467 0.53073090 0.00015238 -0.00038677 -0.00000134
0.42732555 0.51623303 0.12836389 0.00003124 0.00030120 -0.00003637
0.60215068 0.58191413 0.77585334 -0.00004844 0.00024770 0.00021659
0.50000000 0.58850229 0.73358423 -0.00000089 0.00014075 -0.00005779
0.69436795 0.51175874 0.53955579 0.00004952 0.00012683 0.00012622
0.63469845 0.59640712 0.62141049 0.00025248 0.00012597 0.00004917
0.60620153 0.54485071 0.82091063 -0.00025178 -0.00014267 -0.00004614
0.34566242 0.46636751 0.91699648 -0.00021282 -0.00012616 0.00044595
0.29486999 0.51101166 0.66194981 -0.00015020 0.00013109 -0.00008346
0.64998615 0.53976303 0.58328414 -0.00009311 -0.00002174 0.00013933
0.65153563 0.54543257 0.41528556 -0.00005214 0.00027575 -0.00001476
0.50000000 0.43826947 0.06198963 0.00000058 0.00019290 -0.00044513
0.65482229 0.38283351 0.88051152 0.00026104 -0.00041885 0.00050628
0.30999434 0.38210681 0.65888119 -0.00020847 -0.00036496 -0.00010922
0.50000000 0.53742230 0.23264998 -0.00000087 0.00015194 -0.00010582
0.28877991 0.52263665 0.39354080 -0.00037938 0.00024528 -0.00001699
0.36547574 0.59610033 0.62898099 -0.00024190 0.00012302 0.00006035
0.28521046 0.49619895 0.43194908 -0.00047316 -0.00006175 -0.00002272
0.34300074 0.52426326 0.82841349 0.00015453 0.00004014 -0.00002884
0.68351871 0.38992542 0.56259233 0.00012963 -0.00020937 -0.00002492
0.70759916 0.51790428 0.78328037 0.00022704 0.00023257 0.00006189
0.36053899 0.53522193 0.90563160 -0.00023470 0.00042374 -0.00020506
0.53809446 0.59830755 0.52966940 0.00005967 0.00024310 -0.00014233
0.70100129 0.39523605 0.32300314 0.00034343 -0.00004881 -0.00005759
0.52536392 0.54401731 0.24940205 -0.00011912 0.00022770 -0.00002680
0.50000000 0.54151773 0.38009769 -0.00000051 0.00005849 -0.00004088
0.50000000 0.43255430 0.93981171 -0.00000076 0.00004514 0.00046693
0.49999848 0.59827882 0.52641201 -0.00000010 0.00028221 -0.00000800
0.59358752 0.43350765 0.07563025 0.00017124 0.00034859 -0.00047205
0.48604777 0.44469264 0.06738809 -0.00004449 0.00008701 -0.00044090
0.69686002 0.39140636 0.43471837 0.00020706 -0.00021422 0.00004864
0.31092149 0.49607924 0.56248242 0.00003816 -0.00003461 0.00002525
0.35602352 0.57985568 0.51811182 -0.00020979 -0.00004520 -0.00008705
0.69354939 0.51162928 0.54336911 0.00002840 0.00013029 0.00011665
0.59695727 0.53921771 0.41092083 -0.00000161 0.00012116 0.00004533
0.64979815 0.54602742 0.40480116 -0.00004805 0.00030931 0.00001132
0.58007842 0.52745682 0.19065513 0.00003088 0.00012685 -0.00009009
0.70753211 0.52184671 0.75568736 0.00017737 0.00024559 0.00010695
0.34325716 0.52479804 0.82352233 0.00017412 0.00005126 -0.00003380
0.50000000 0.45802599 0.94492167 -0.00000081 0.00001328 0.00041966
0.54929149 0.38198170 0.92455733 0.00004792 -0.00036688 0.00042744
0.34772909 0.45864058 0.91598141 -0.00024951 -0.00006364 0.00046297
0.50000000 0.59078074 0.72787970 -0.00000081 0.00014077 0.00003456
0.63412720 0.59529907 0.64411235 0.00023533 0.00011514 0.00006405
0.57570392 0.52203178 0.15956086 0.00002373 0.00018512 -0.00006228
0.50000000 0.59515488 0.71643054 -0.00000061 0.00014686 0.00012572
0.60001427 0.60995656 0.65524364 -0.00011665 0.00048007 0.00004352
0.31093514 0.38392010 0.24949948 -0.00020436 -0.00021168 -0.00003494
0.41497165 0.53187621 0.21819006 0.00003798 0.00008113 -0.00003165
0.61073929 0.53856140 0.22559015 -0.00001066 0.00022458 -0.00003000
0.46323404 0.52666473 0.15294270 -0.00006657 0.00025879 -0.00016126
0.62857580 0.56771839 0.80446917 0.00004535 0.00006426 0.00011601
0.45441881 0.60672909 0.55246776 0.00001583 0.00032367 -0.00009748
0.62963665 0.58096671 0.75278097 0.00023862 0.00010237 0.00016194
0.39396280 0.58111805 0.77589405 0.00002403 0.00023244 0.00021132
0.49935219 0.43024492 0.06198578 -0.00000333 0.00028069 -0.00036330
0.34733671 0.54497558 0.42227864 0.00005541 0.00024485 -0.00003059
0.62876034 0.56445509 0.81547290 0.00000863 0.00007968 0.00004206
0.56221247 0.50646502 0.95091307 0.00010667 -0.00027960 0.00046753
0.36514384 0.59665310 0.61383814 -0.00026313 0.00012985 0.00003880
0.29142237 0.47333214 0.25074515 -0.00044534 -0.00012412 -0.00007996
0.30888346 0.39274722 0.77604592 -0.00031511 -0.00004738 0.00005291
0.62948060 0.58015531 0.75648749 0.00023370 0.00010613 0.00015412
0.62913328 0.56108850 0.82644445 -0.00000634 0.00009831 -0.00004296
0.50000000 0.61354131 0.63425928 0.00000065 0.00021074 -0.00001611
0.52744812 0.44522381 0.06825321 0.00010115 0.00008135 -0.00045242
0.50000000 0.57899016 0.75629103 -0.00000077 0.00006405 -0.00008963
0.46120301 0.54485071 0.84414840 -0.00002883 0.00020257 0.00008471
0.40641254 0.43350765 0.07563025 -0.00017210 0.00034811 -0.00047184
0.56679583 0.58562356 0.77554011 0.00009313 0.00024041 0.00023994
0.34992090 0.54022801 0.56856781 0.00009300 -0.00004128 0.00013253
0.53140247 0.58337420 0.77576649 -0.00017658 0.00015013 0.00011638
0.34167457 0.52139837 0.85285634 0.00008033 -0.00001765 -0.00001282
0.56233865 0.59445101 0.75422674 0.00003492 0.00032068 0.00012885
0.41529873 0.52170962 0.13928121 0.00008697 0.00039501 0.00002502
0.36236328 0.59289920 0.55293554 -0.00020442 0.00017831 -0.00009300
0.41358525 0.53291219 0.22505651 0.00004930 0.00007383 -0.00002330
0.70720917 0.52299726 0.73920691 0.00014374 0.00029438 0.00003675
0.46095881 0.38200861 0.05066670 -0.00004326 -0.00026550 -0.00051736
0.32425508 0.38172644 0.15809822 -0.00042337 -0.00038077 -0.00017172
0.35101014 0.56698155 0.48722067 -0.00011455 -0.00002044 -0.00008010
0.59419358 0.53761882 0.25927243 -0.00000645 0.00011325 -0.00001682
0.70044088 0.42453054 0.77607280 0.00042968 0.00014074 0.00005433
0.65133601 0.53523749 0.69122756 -0.00015440 -0.00003952 -0.00003802
0.28801459 0.49823296 0.32330006 -0.00043169 -0.00030924 -0.00006180
0.69053799 0.41989031 0.56276327 0.00025889 0.00009860 -0.00000603
0.65599281 0.52632993 0.80884421 -0.00020830 0.00006153 -0.00003155
0.36713272 0.59213495 0.68183911 -0.00024926 0.00010357 0.00002165
0.71088672 0.52849132 0.34247732 0.00039528 0.00018428 -0.00005259
0.31815577 0.38234156 0.55615157 -0.00008736 -0.00034954 -0.00003977
0.54708153 0.54298091 0.24940205 0.00004983 0.00020650 -0.00004326
0.38817811 0.54485071 0.81710768 0.00018564 -0.00018668 -0.00003956
0.61532700 0.60380191 0.65556252 -0.00004296 0.00038399 0.00005321
0.30851531 0.38204873 0.74121773 -0.00027483 -0.00028501 0.00012844
0.50000000 0.60366428 0.53851426 -0.00000010 0.00032802 0.00000453
0.50444460 0.53942865 0.38999379 0.00002191 0.00000046 -0.00006640
0.36773625 0.59037530 0.69686902 -0.00027250 0.00008659 0.00007487
0.29371557 0.47221255 0.63048482 -0.00037005 -0.00026471 0.00004412
0.52119762 0.59830087 0.52742934 0.00000841 0.00026649 -0.00006371
0.61865389 0.54041189 0.41949937 -0.00002124 0.00013324 0.00004628
0.30588529 0.51090211 0.58735210 -0.00001135 0.00019399 -0.00002544
0.60627407 0.54236925 0.30342543 -0.00000228 0.00021113 -0.00006560
0.31041223 0.49209902 0.56250715 0.00000917 -0.00008413 0.00001360
0.44841230 0.61801547 0.60647255 -0.00000493 0.00037873 -0.00001982
0.70522058 0.50964189 0.85191447 0.00029917 0.00025135 0.00006837
0.71108007 0.52519381 0.37442896 0.00038209 0.00023791 -0.00000105
0.63538206 0.59702253 0.57598108 0.00020837 0.00021300 -0.00004658
0.38091812 0.60208207 0.65564740 -0.00000358 0.00034070 0.00005278
0.50000000 0.60616827 0.68169111 -0.00000035 0.00013172 0.00023078
0.30110815 0.42741346 0.60921890 -0.00033264 0.00002193 -0.00009541
0.38926071 0.53856140 0.22559015 0.00000840 0.00022354 -0.00003104
0.54891956 0.61448270 0.58160961 0.00000511 0.00038084 0.00001902
0.35878274 0.53293443 0.91269547 -0.00023589 0.00043559 -0.00007971
0.63864160 0.53637785 0.90209001 0.00023233 0.00038866 -0.00025742
0.69847888 0.41644633 0.77606040 0.00045546 0.00025448 0.00005893
0.30285978 0.42221710 0.60780293 -0.00033825 0.00009315 -0.00011957
0.56188697 0.54360098 0.30328277 0.00004225 0.00020063 -0.00005970
0.70753783 0.51687014 0.78878611 0.00023574 0.00022763 0.00004367
0.64530146 0.57674325 0.51039761 0.00019342 -0.00006479 -0.00007420
0.49275094 0.54441577 0.24940205 0.00005196 0.00022689 -0.00005060
0.61255962 0.53948677 0.23234607 -0.00001986 0.00022464 -0.00001965
0.37132111 0.56555539 0.81180847 -0.00001934 0.00007410 0.00006758
0.68695658 0.40152708 0.56268954 0.00020403 -0.00006410 -0.00000977
0.43778753 0.50646502 0.95091307 -0.00010664 -0.00028005 0.00046864
0.30644187 0.38223007 0.25783125 -0.00029739 -0.00024900 -0.00007237
0.44542572 0.61900687 0.63673961 -0.00006836 0.00036863 0.00000865
0.36566633 0.59573156 0.63654852 -0.00023682 0.00011912 0.00006474
0.29266071 0.52272999 0.74468589 -0.00015551 0.00027612 0.00007131
0.35788473 0.52737617 0.93191981 -0.00031140 0.00038146 0.00035185
0.50000000 0.61227709 0.58620501 -0.00000018 0.00030467 0.00009405
0.30131152 0.38254833 0.33365878 -0.00027610 -0.00028653 -0.00007537
0.37100101 0.57506007 0.77604425 -0.00019749 0.00009200 0.00013606
0.69242525 0.45595619 0.56270659 0.00016333 -0.00007942 -0.00005214
0.37255606 0.54588604 0.36715922 0.00002595 0.00028366 -0.00002749
0.52808285 0.50426024 0.95371711 -0.00004497 -0.00017654 0.00032624
0.62127465 0.54333240 0.26633409 -0.00002588 0.00024587 -0.00000773
0.29458120 0.50955921 0.84778470 -0.00029068 0.00024106 0.00005313
0.50000000 0.54591143 0.39909449 -0.00000050 0.00003618 -0.00013127
0.35478151 0.52847779 0.92674315 -0.00029444 0.00040928 0.00023069
0.42038471 0.38253322 0.91696912 -0.00019070 -0.00038596 0.00037763
0.62072843 0.52702254 0.93925762 0.00020664 0.00031626 0.00046544
0.55488330 0.59828061 0.53308165 0.00008547 0.00023108 -0.00018256
0.63977885 0.41665664 0.90742159 0.00031004 0.00006857 0.00059580
0.36835137 0.54640985 0.31096882 0.00003979 0.00031676 -0.00004103
0.63540959 0.59698480 0.57219875 0.00020180 0.00022468 -0.00005939
0.66258931 0.38268363 0.87391496 0.00033458 -0.00042411 0.00049021
0.40210748 0.54238755 0.24940205 0.00000818 0.00020223 -0.00002346
0.29316813 0.51082569 0.81605875 -0.00026629 0.00017803 0.00002759
0.29266340 0.51460767 0.79975712 -0.00025102 0.00020991 0.00000658
0.34838536 0.53468734 0.70103818 0.00016869 -0.00003886 -0.00005404
0.63084453 0.55294794 0.85190248 0.00009838 0.00005711 -0.00000639
0.41065678 0.38189340 0.06239228 -0.00016129 -0.00023321 -0.00058818
0.29899868 0.39523605 0.32300314 -0.00034423 -0.00004840 -0.00005777
0.55417669 0.52424169 0.95187789 0.00002198 0.00026535 0.00042632
0.37065282 0.52721435 0.93653178 -0.00024752 0.00036168 0.00044129
0.58256048 0.58480167 0.77564669 0.00003314 0.00025514 0.00024325
0.39583611 0.53490919 0.20206471 0.00001902 0.00025505 -0.00004019
0.69627464 0.40845332 0.77605247 0.00042318 0.00017587 0.00006078
0.37142894 0.54569232 0.29718715 0.00004059 0.00029660 -0.00002821
0.40799642 0.59798306 0.54458803 0.00000618 0.00026775 -0.00014545
0.46636811 0.52209973 0.13452134 0.00000739 0.00033679 -0.00004154
0.39992106 0.53935319 0.41208085 0.00000697 0.00012266 0.00005018
0.35784462 0.53180432 0.91621751 -0.00024377 0.00043479 -0.00001007
0.34449017 0.52729243 0.79905504 0.00021277 0.00005576 -0.00003283
0.68638235 0.38218248 0.61058700 0.00017710 -0.00028868 -0.00023098
0.46244749 0.44564316 0.06919076 -0.00017000 0.00008853 -0.00045731
0.58641469 0.53291219 0.22505651 -0.00004978 0.00007442 -0.00002353
0.62744397 0.54588604 0.36715922 -0.00002653 0.00028423 -0.00002732
0.71024078 0.53066361 0.30410314 0.00040837 0.00019879 0.00000227
0.71508700 0.49211499 0.43204150 0.00047916 -0.00009876 -0.00002969
0.49996087 0.46384659 0.07411432 0.00000036 -0.00005798 -0.00052492
0.54625154 0.53845143 0.39597178 0.00003791 0.00005304 -0.00001325
0.30099344 0.41736451 0.24976824 -0.00039757 0.00016210 -0.00008935
0.44688460 0.61893696 0.62156409 -0.00002333 0.00037672 -0.00007704
0.65038246 0.53738594 0.64707029 -0.00010169 -0.00003295 0.00005563
0.54650557 0.59829956 0.53123456 0.00005536 0.00023558 -0.00017317
0.40141177 0.53964400 0.27630129 0.00001560 0.00013593 0.00002570
0.30757475 0.45595619 0.56270659 -0.00016359 -0.00007930 -0.00005240
0.41829225 0.43278405 0.07202416 -0.00011361 0.00034400 -0.00046019
0.30152261 0.38252690 0.32732296 -0.00027840 -0.00028357 -0.00006012
0.44415370 0.53841060 0.39820078 -0.00001574 0.00007133 0.00000105
0.31408477 0.39763978 0.56266177 -0.00018193 -0.00011062 -0.00001232
0.50000000 0.55125338 0.40987039 -0.00000044 0.00004871 -0.00019427
0.55861181 0.61404669 0.68491954 0.00001608 0.00034440 0.00017868
0.62172163 0.54063094 0.42080635 -0.00003051 0.00013222 0.00003762
0.49939272 0.48405874 0.08252446 -0.00000243 0.00003452 -0.00054068
0.50000000 0.47948903 0.94863844 -0.00000066 -0.00013006 0.00033360
0.70357537 0.43870747 0.25005382 0.00037396 -0.00012983 -0.00010799
0.55868280 0.52446574 0.95141894 0.00004673 0.00026005 0.00044281
0.36965933 0.58395845 0.73793888 -0.00026010 0.00008605 0.00017939
0.68880349 0.38213265 0.63954395 0.00019191 -0.00036440 -0.00016269
0.70801443 0.52372640 0.25193924 0.00043890 0.00005928 -0.00004906
0.69353807 0.38267767 0.47347599 0.00022018 -0.00033018 -0.00001450
0.67550927 0.38235754 0.85915148 0.00046617 -0.00041326 0.00039650
0.69705284 0.51085871 0.60419768 0.00005782 0.00023605 -0.00004388
0.70133281 0.42860639 0.77608109 0.00040880 0.00006445 0.00005129
0.31007743 0.38204134 0.78480661 -0.00033672 -0.00028025 0.00001269
0.59434134 0.58329654 0.77576822 -0.00007094 0.00026685 0.00023053
0.30316648 0.38240471 0.29568627 -0.00028659 -0.00026674 -0.00004052
0.63788182 0.52734029 0.93352860 0.00028887 0.00035847 0.00036447
0.64261389 0.58289331 0.52582890 0.00021130 0.00000778 -0.00010046
0.62539190 0.54477131 0.28344667 -0.00000876 0.00027021 0.00005224
0.29811010 0.43013656 0.24992733 -0.00037633 -0.00006448 -0.00010429
0.48432058 0.58216059 0.77595669 0.00011773 0.00014237 0.00007949
0.58064377 0.52803171 0.19410267 0.00002481 0.00012675 -0.00006152
0.55673367 0.54271793 0.27168000 0.00009197 0.00018298 0.00001004
0.36384064 0.54597723 0.39036492 0.00002127 0.00028437 0.00001073
0.48138127 0.54485071 0.84674096 0.00000869 0.00022001 0.00008761
0.65778661 0.52258319 0.84308177 -0.00009265 -0.00000537 -0.00000754
0.70606971 0.42182979 0.32305738 0.00040625 0.00011240 -0.00005778
0.38717583 0.50914049 0.94150376 -0.00008674 -0.00026293 0.00055662
0.36005017 0.50920421 0.93276209 -0.00022048 -0.00006333 0.00038108
0.70354891 0.50945032 0.86818850 0.00030382 0.00027215 0.00017818
0.40408757 0.53845698 0.26609075 0.00000827 0.00012121 -0.00000780
0.50000000 0.40627173 0.05107758 -0.00000002 0.00034646 -0.00044870
0.57094663 0.44700760 0.07435800 0.00011203 0.00011596 -0.00049959
0.63241971 0.59084278 0.69311565 0.00026744 0.00009023 0.00006274
0.49217993 0.58168370 0.77602082 0.00006170 0.00013966 0.00007256
0.29761150 0.52534604 0.20925896 -0.00029627 0.00035381 -0.00027507
0.29255286 0.52234435 0.75018048 -0.00016676 0.00025799 0.00009614
0.40487882 0.38187525 0.06496444 -0.00019840 -0.00023697 -0.00058023
0.35663068 0.42801562 0.91023386 -0.00028947 -0.00000594 0.00053771
0.53155524 0.51872295 0.12230735 -0.00004673 0.00037268 -0.00006190
0.70153016 0.41114166 0.44491035 0.00029315 0.00001379 0.00009318
0.60505450 0.54416674 0.24940205 -0.00001700 0.00023985 -0.00002465
0.69567561 0.40470874 0.24964280 0.00034730 0.00009032 -0.00006856
0.50382984 0.44433093 0.06700412 0.00001371 0.00009417 -0.00043509
0.40957835 0.58387697 0.77572596 0.00004904 0.00026659 0.00023756
0.30361351 0.38237748 0.28936815 -0.00028409 -0.00026091 -0.00008429
0.31617653 0.38185704 0.18882267 -0.00037188 -0.00036712 -0.00008879
0.38326463 0.38180259 0.07772729 -0.00030117 -0.00026723 -0.00052746
0.66953260 0.38251951 0.86679441 0.00039976 -0.00041973 0.00045881
0.50000000 0.54276031 0.33789936 -0.00000064 0.00015340 -0.00006864
0.45494866 0.43122020 0.06509415 -0.00008335 0.00026212 -0.00041851
0.62869436 0.57385111 0.78237712 0.00016439 0.00009047 0.00014461
0.30414492 0.38271153 0.44802120 -0.00022792 -0.00033856 0.00001628
0.45572683 0.44592607 0.06996378 -0.00012653 0.00009250 -0.00047053
0.29430753 0.46280602 0.62451088 -0.00035413 -0.00012772 0.00003984
0.50000000 0.53105956 0.91447824 0.00000015 0.00044920 -0.00045252
0.34472224 0.50058365 0.12977143 0.00007808 0.00037864 -0.00058700
0.63089377 0.39044458 0.89958107 0.00026959 -0.00026457 0.00046615
0.29970512 0.52235758 0.19705087 -0.00023797 0.00036033 -0.00036939
0.55739325 0.43165043 0.06683913 0.00005558 0.00030067 -0.00043205
0.36633238 0.59423810 0.65922433 -0.00023810 0.00010950 0.00003997
0.47065404 0.61943913 0.65477234 0.00022087 0.00031722 0.00006542
0.47153524 0.51314443 0.10409597 0.00003243 0.00034670 -0.00032949
0.59428877 0.54485071 0.82755560 -0.00027926 -0.00003714 -0.00003287
0.47744772 0.52271056 0.95382065 0.00013845 0.00026168 0.00019769
0.34686399 0.53182042 0.74516958 0.00020118 0.00000378 -0.00009250
0.31593868 0.48552907 0.13459487 -0.00038703 0.00000564 -0.00061454
0.68621093 0.38204709 0.83310312 0.00053303 -0.00038716 0.00012790
0.45785764 0.54485071 0.84355462 -0.00003598 0.00019838 0.00008170
