0 0.012393 -0.125026 -4.8760906e-17 -0.41927864 0.9078576
-0.009932 0.012393 -0.124047 0.12544598 -0.065282883 0.98995023
-0.019864 0.012393 -0.123069 0.19479302 0.36532315 0.91027176
-0.029592 0.012393 -0.121072 0.072372709 -0.93870424 0.33704087
-0.039142 0.012393 -0.118175 0.1931923 -0.77162706 0.60602675
-0.048645 0.012393 -0.115165 -1.0901166e-16 -1 -1.982528e-16
-0.057447 0.012393 -0.110461 -2.4483482e-16 -1 -4.9240757e-16
-0.066248 0.012393 -0.105757 -6.0793597e-16 -1 -9.420928e-16
-0.074404 0.012393 -0.100086 1.2116216e-15 -1 1.5845722e-15
-0.082118 0.012393 -0.093755 -1.5960982e-16 -1 -1.4161937e-16
-0.08966 0.012393 -0.087251 -1.1687652e-15 1 -1.1383776e-15
-0.095991 0.012393 -0.079536 8.9521923e-16 1 7.5170081e-16
-0.102322 0.012393 -0.071822 2.448207e-16 1 1.7700412e-16
-0.107586 0.012393 -0.063394 2.5452163e-15 1 1.5227229e-15
-0.11229 0.012393 -0.054593 0 1 0
-0.116656 0.012393 -0.045652 -0.80789109 0.49649321 -0.31750037
-0.119552 0.012393 -0.036101 -0.19391422 0.97924139 -0.059021736
-0.12245 0.012393 -0.026552 -0.91496309 -0.32613708 -0.23764921
-0.123967 0.012393 -0.016727 -0.95089162 -0.25388057 -0.17705871
-0.124946 0.012393 -0.006795 -0.99336335 0.069582209 -0.091583648
-0.125435 0.012393 0.003137 -0.95464316 0.2945933 0.043257646
-0.124457 0.012393 0.013068 -0.98779245 -0.065832901 0.14118111
-0.123478 0.012393 0.022999 -0.41841188 -0.90249288 0.10216701
-0.121001 0.012393 0.032633 -0.52261616 0.8407973 0.14118162
-0.118105 0.012393 0.042183 -0.4621719 0.87268159 0.15755629
-0.114643 0.012393 0.051499 -1.5010684e-15 1 6.3121164e-16
-0.109938 0.012393 0.0603 4.2731015e-16 1 -2.2455561e-16
-0.105233 0.012393 0.069101 -3.1558513e-16 1 2.425361e-16
-0.099157 0.012393 0.076986 -1.1494914e-16 1 5.2577526e-17
-0.092826 0.012393 0.084701 -4.0133837e-16 1 3.9344193e-16
-0.085976 0.012393 0.091896 -3.6260079e-16 -1 4.5526485e-16
-0.078262 0.012393 0.098227 0 -1 0
-0.070547 0.012393 0.104557 1.3793965e-15 -1 -1.9988127e-15
-0.061848 0.012393 0.109415 1.2048054e-17 -1 -1.248343e-17
-0.053046 0.012393 0.11412 0 -1 0
-0.043917 0.012393 0.118034 -0.18882295 0.83625779 0.51479977
-0.034367 0.012393 0.12093 -0.2194639 0.61588152 0.75665419
-0.024817 0.012393 0.123826 -0.14264225 -0.82192182 0.55145055
-0.014897 0.012393 0.124865 -0.1582913 -0.068864562 0.98498809
-0.004966 0.012393 0.125843 -0.058313423 0.23070564 0.97127465
0.004965 0.012393 0.125843 0.058255398 0.23097522 0.97121406
0.014897 0.012393 0.124865 0.15826986 -0.068360467 0.98502665
0.024817 0.012393 0.123827 0.14268232 -0.82181476 0.55159973
0.034368 0.012393 0.12093 0.21952608 0.61565434 0.756821
0.043917 0.012393 0.118034 0.18846592 0.83691635 0.51385953
0.053046 0.012393 0.11412 1.96923e-16 -1 4.0114615e-16
0.061848 0.012393 0.109416 0 -1 0
0.070547 0.012393 0.104558 0 -1 0
0.078262 0.012393 0.098227 0 -1 0
0.085975 0.012393 0.091896 1.9197181e-15 -1 2.1031e-15
0.092826 0.012393 0.084701 3.9580228e-16 1 3.8844996e-16
0.099157 0.012393 0.076986 -7.5462429e-16 1 -6.0296391e-16
0.105234 0.012393 0.069101 0 1 0
0.109938 0.012393 0.0603 -4.2672234e-16 1 -2.2413373e-16
0.114642 0.012393 0.051499 2.8482714e-16 1 8.3716082e-17
0.118105 0.012393 0.042183 -0.4616501 -0.87299097 -0.15737201
0.121001 0.012393 0.032633 -0.52299713 -0.84054032 -0.14130098
0.123478 0.012393 0.023 -0.41856675 0.90241624 -0.10220963
0.124457 0.012393 0.013068 -0.98780026 0.065725303 -0.14117658
0.125435 0.012393 0.003137 -0.95463291 -0.2946282 -0.043246199
0.124946 0.012393 -0.006795 -0.99336335 -0.069582209 0.091583648
0.123967 0.012393 -0.016727 -0.95089162 0.25388057 0.17705871
0.12245 0.012393 -0.026552 -0.91496309 0.32613708 0.23764921
0.119552 0.012393 -0.036101 -0.19391422 -0.97924139 0.059021736
0.116656 0.012393 -0.045652 0.80789109 0.49649321 -0.31750037
0.11229 0.012393 -0.054593 -0 1 0
0.107586 0.012393 -0.063394 -2.5452163e-15 1 1.5227229e-15
0.102322 0.012393 -0.071822 -9.6001262e-16 1 6.6057052e-16
0.095991 0.012393 -0.079536 -8.9911656e-16 1 7.5503114e-16
0.08966 0.012393 -0.087251 1.1611803e-15 1 -1.1307272e-15
0.082118 0.012393 -0.093755 -8.2460955e-16 -1 9.6428196e-16
0.074404 0.012393 -0.100086 -1.3623015e-15 -1 1.8214412e-15
0.066248 0.012393 -0.105756 6.0917437e-16 -1 -9.4405934e-16
0.057447 0.012393 -0.110461 2.4682226e-16 -1 -4.961636e-16
0.048645 0.012393 -0.115165 6.0802559e-16 -1 -1.361585e-15
0.039142 0.012393 -0.118175 -0.19322116 -0.77157167 0.60608807
0.029592 0.012393 -0.121072 -0.072372709 -0.93870424 0.33704087
0.019864 0.012393 -0.123069 -0.19479302 0.36532315 0.91027176
0.009932 0.012393 -0.124047 -0.12544598 -0.065282883 0.98995023
0 -0.175698 -0.225563 -1.139668e-17 0.005919093 -0.99998248
-0.009946 -0.175698 -0.224584 0.012451224 0.97910902 0.20295442
-0.019891 -0.175698 -0.223604 0.03336237 0.93032025 0.36522759
-0.029836 -0.175698 -0.222625 0.010683376 0.9957587 0.09138097
-0.039781 -0.175698 -0.221644 0.072455975 0.8768637 0.47524749
-0.049512 -0.175698 -0.219584 -0.063301546 -0.96889862 -0.23922453
-0.059075 -0.175698 -0.216683 1.148861e-15 -1 3.8476385e-15
-0.068638 -0.175698 -0.213783 -7.7700978e-15 -1 -2.5182486e-14
-0.078201 -0.175698 -0.210881 -2.7160378e-15 -1 -7.0233675e-15
-0.087671 -0.175698 -0.207755 4.6088365e-16 -1 2.672826e-16
-0.096484 -0.175698 -0.203043 -1.9940168e-15 -1 -5.2486358e-15
-0.105297 -0.175698 -0.198332 -5.9840668e-15 -1 -1.088451e-14
-0.114111 -0.175698 -0.193621 1.3325881e-15 -1 1.7020649e-15
-0.122925 -0.175698 -0.188911 1.1289161e-15 -1 1.7531503e-15
-0.13099 -0.175698 -0.18308 -7.9915082e-15 -1 -1.0563235e-14
-0.138716 -0.175698 -0.17674 -7.6226896e-15 -1 -9.2654573e-15
-0.14644 -0.175698 -0.170401 6.8727075e-15 -1 8.140773e-15
-0.154166 -0.175698 -0.164061 -3.2062345e-15 -1 -3.1381659e-15
-0.161544 -0.175698 -0.157375 -2.0810298e-14 1 -2.0007335e-14
-0.167885 -0.175698 -0.14965 1.7158564e-15 1 1.5673259e-15
-0.174224 -0.175698 -0.141925 -2.1979368e-15 1 -1.347815e-15
-0.180564 -0.175698 -0.134199 3.8378362e-16 1 4.2728319e-16
-0.186903 -0.175698 -0.126474 -2.0571635e-16 1 -5.2912399e-16
-0.191919 -0.175698 -0.117864 -6.0476776e-15 1 -3.6311754e-15
-0.19663 -0.175698 -0.109051 1.1586893e-15 1 8.0938852e-16
-0.201341 -0.175698 -0.100238 -1.5536139e-14 1 -7.4114845e-15
-0.206052 -0.175698 -0.091424 4.3913713e-15 1 2.4440757e-15
-0.210084 -0.175698 -0.082329 1.1946146e-14 1 5.3081528e-15
-0.212985 -0.175698 -0.072767 -2.0691039e-15 1 -7.7958638e-16
-0.215887 -0.175698 -0.063203 1.6516203e-14 1 5.1867128e-15
-0.218787 -0.175698 -0.05364 9.8901639e-15 1 2.4761818e-15
-0.221688 -0.175698 -0.044077 -0.54797888 -0.83052569 -0.099730752
-0.222788 -0.175698 -0.034155 -0.079845531 -0.99675478 -0.010227778
-0.223767 -0.175698 -0.024211 -0.10908701 -0.9939733 -0.01082123
-0.224747 -0.175698 -0.014265 -0.29652386 -0.95475043 -0.022917373
-0.225726 -0.175698 -0.004319 0.30358525 -0.95270023 0.014080573
-0.225726 -0.175698 0.005626 0.3035473 -0.95271233 -0.014080503
-0.224747 -0.175698 0.015572 -0.2965067 -0.95475579 0.022916517
-0.223767 -0.175698 0.025516 -0.10906316 -0.99397595 0.010818173
-0.222788 -0.175698 0.035462 -0.079838245 -0.99675537 0.010226599
-0.221688 -0.175698 0.045384 -0.54790321 -0.83057762 0.099714014
-0.218787 -0.175698 0.054946 9.9159687e-15 1 -2.7515353e-15
-0.215887 -0.175698 0.06451 8.8454905e-15 1 -2.4841702e-15
-0.212985 -0.175698 0.074073 3.0277955e-15 1 -1.5047761e-15
-0.210084 -0.175698 0.083636 -1.4231681e-14 1 6.6300157e-15
-0.206052 -0.175698 0.092731 1.6131368e-14 1 -7.4269814e-15
-0.201342 -0.175698 0.101544 -2.1572997e-16 1 2.5593086e-16
-0.19663 -0.175698 0.110358 9.7837662e-15 1 -6.1001185e-15
-0.191919 -0.175698 0.119171 -2.5740128e-15 1 1.4349684e-15
-0.186903 -0.175698 0.12778 6.9285621e-15 1 -4.6272077e-15
-0.180564 -0.175698 0.135506 3.521776e-15 1 -2.7152726e-15
-0.174224 -0.175698 0.143231 -1.2607555e-14 1 9.6677828e-15
-0.167885 -0.175698 0.150956 2.8970416e-15 1 -3.0618597e-15
-0.161544 -0.175698 0.158682 -5.4792824e-15 1 5.1075263e-15
-0.154166 -0.175698 0.165367 -6.7531314e-15 -1 7.5101837e-15
-0.14644 -0.175698 0.171707 -3.2283795e-15 -1 3.821509e-15
-0.138716 -0.175698 0.178046 8.6890127e-15 -1 -1.0463599e-14
-0.13099 -0.175698 0.184387 -1.8654268e-15 -1 2.0552978e-15
-0.122925 -0.175698 0.190217 4.7268809e-15 -1 -7.0258372e-15
-0.114112 -0.175698 0.194929 2.6090134e-15 -1 -4.210226e-15
-0.105297 -0.175698 0.199639 -5.2662539e-15 -1 9.2131467e-15
-0.096484 -0.175698 0.20435 1.6817703e-15 -1 -4.2026848e-15
-0.087671 -0.175698 0.20906 -7.7843731e-15 -1 1.8487708e-14
-0.078201 -0.175698 0.212188 3.7803122e-15 -1 -9.5073716e-15
-0.068638 -0.175698 0.215089 3.3782229e-15 -1 -1.1476675e-14
-0.059075 -0.175698 0.21799 -8.037949e-15 -1 2.8991059e-14
-0.049512 -0.175698 0.220891 -0.063284975 -0.96891871 0.23914754
-0.039782 -0.175698 0.222951 -0.072321419 -0.8772316 0.4745886
-0.029836 -0.175698 0.22393 -0.01067231 -0.99576793 0.091281613
-0.019891 -0.175698 0.224911 -0.033365679 -0.93029645 0.3652879
-0.009946 -0.175698 0.22589 -0.012470865 -0.97905822 0.20319814
0 -0.175698 0.22687 -7.6346202e-06 -0.0059173102 -0.99998249
0.009945 -0.175698 0.22589 0.012454507 -0.97909619 0.20301609
0.019891 -0.175698 0.224911 0.033340263 -0.93040133 0.36502301
0.029836 -0.175698 0.223931 0.010679263 -0.99576198 0.091345635
0.039781 -0.175698 0.222951 0.072372059 -0.87708074 0.47485962
0.049512 -0.175698 0.220891 0.063328714 -0.96886085 0.23937026
0.059075 -0.175698 0.217991 -7.8455942e-15 -1 -2.7886096e-14
0.068638 -0.175698 0.215089 2.3747283e-15 -1 8.2155151e-15
0.078202 -0.175698 0.212188 3.045412e-15 -1 6.9031072e-15
0.087671 -0.175698 0.209061 6.8378326e-15 -1 1.6185936e-14
0.096484 -0.175698 0.20435 -6.6916682e-16 -1 -2.071797e-15
0.105298 -0.175698 0.199639 -4.6707339e-15 -1 -8.0939738e-15
0.114111 -0.175698 0.194929 -6.1240887e-15 -1 -9.6599866e-15
0.122924 -0.175698 0.190217 1.5013916e-15 -1 2.3752612e-15
0.13099 -0.175698 0.184387 -9.961539e-15 -1 -1.3659343e-14
0.138715 -0.175698 0.178046 -8.986817e-15 -1 -1.1112861e-14
0.14644 -0.175698 0.171707 -8.0814442e-15 -1 -9.3580126e-15
0.154165 -0.175698 0.165367 -1.1234823e-16 -1 -2.9472613e-16
0.161545 -0.175698 0.158681 -4.9452804e-15 1 -5.8623539e-15
0.167884 -0.175698 0.150956 5.3496208e-15 1 4.2002006e-15
0.174224 -0.175698 0.143231 8.9612265e-15 1 7.5140752e-15
0.180564 -0.175698 0.135506 -1.353376e-14 1 -1.004706e-14
0.186903 -0.175698 0.12778 -4.8280728e-15 1 -2.7024424e-15
0.191919 -0.175698 0.119171 -6.944733e-15 1 -4.4960154e-15
0.19663 -0.175698 0.110358 2.2050153e-14 1 1.2684916e-14
0.201342 -0.175698 0.101545 4.7429581e-15 1 2.8645862e-15
0.206052 -0.175698 0.092731 9.6486006e-16 1 -4.6256144e-16
0.210084 -0.175698 0.083636 -1.9475929e-14 1 -7.3188367e-15
0.212985 -0.175698 0.074074 -2.5393779e-14 1 -8.9712842e-15
0.215886 -0.175698 0.06451 1.6358628e-15 1 9.8553475e-17
0.218787 -0.175698 0.054946 1.8015114e-14 1 4.1398464e-15
0.221688 -0.175698 0.045384 -0.54786398 0.8306043 -0.099707371
0.222788 -0.175698 0.035462 -0.07983617 0.99675554 -0.010226613
0.223767 -0.175698 0.025517 -0.10906375 0.99397588 -0.010818498
0.224747 -0.175698 0.015572 -0.29650135 0.95475746 -0.022915884
0.225726 -0.175698 0.005626 0.3035358 0.95271601 0.01407918
0.225726 -0.175698 -0.004319 0.30359675 0.95269655 -0.014081896
0.224747 -0.175698 -0.014265 -0.2965292 0.95474876 0.022918006
0.223767 -0.175698 -0.02421 -0.10908642 0.99397337 0.010820906
0.222788 -0.175698 -0.034155 -0.079840493 0.99675519 0.010226936
0.221688 -0.175698 -0.044077 -0.54790022 0.83057971 0.099713074
0.218787 -0.175698 -0.05364 1.4489702e-16 1 -2.545318e-16
0.215887 -0.175698 -0.063203 1.7240796e-14 1 -5.2563253e-15
0.212985 -0.175698 -0.072766 1.3281411e-14 1 -4.9714061e-15
0.210084 -0.175698 -0.082329 9.0394403e-15 1 -3.6301144e-15
0.206052 -0.175698 -0.091424 1.0783387e-14 1 -4.8661066e-15
0.201342 -0.175698 -0.100237 -4.1908508e-16 1 4.2123858e-16
0.19663 -0.175698 -0.109051 -5.5551998e-15 1 2.9797574e-15
0.191919 -0.175698 -0.117864 4.0192197e-15 1 -3.107665e-15
0.186903 -0.175698 -0.126474 -6.9837647e-15 1 4.5136951e-15
0.180564 -0.175698 -0.134199 -1.1187319e-14 1 8.4774964e-15
0.174224 -0.175698 -0.141924 -1.4241183e-14 1 1.2061057e-14
0.167884 -0.175698 -0.14965 -7.9563089e-15 1 7.1728623e-15
0.161545 -0.175698 -0.157374 5.3828746e-15 1 -6.3843045e-15
0.154165 -0.175698 -0.164061 1.2657814e-14 -1 -1.3613038e-14
0.14644 -0.175698 -0.170401 9.9925993e-15 -1 -1.1892173e-14
0.138716 -0.175698 -0.17674 -2.1630209e-15 -1 2.4583052e-15
0.13099 -0.175698 -0.18308 -6.0250085e-17 -1 -3.7808417e-17
0.122925 -0.175698 -0.188911 -1.3447334e-15 -1 1.6329328e-15
0.114112 -0.175698 -0.193622 -2.4745076e-15 -1 4.1972717e-15
0.105298 -0.175698 -0.198332 -6.9909242e-15 -1 1.2943798e-14
0.096484 -0.175698 -0.203043 4.7152111e-15 -1 -9.2148363e-15
0.087671 -0.175698 -0.207754 -4.6185185e-15 -1 9.5403374e-15
0.078202 -0.175698 -0.210881 -3.6784035e-15 -1 1.0497171e-14
0.068638 -0.175698 -0.213783 -4.7585177e-15 -1 1.3975587e-14
0.059075 -0.175698 -0.216683 8.2430245e-16 -1 -3.2226374e-15
0.049512 -0.175698 -0.219584 0.063310763 -0.96888697 -0.23926926
0.039781 -0.175698 -0.221644 -0.072454565 0.87686574 0.47524394
0.029836 -0.175698 -0.222625 -0.010683376 0.9957587 0.09138097
0.019891 -0.175698 -0.223604 -0.03336237 0.93032025 0.36522759
0.009946 -0.175698 -0.224584 -0.012451224 0.97910902 0.20295442
0 0.367221 -0.125026 -1.3184775e-16 -0.82955783 0.55842082
-0.009932 0.367221 -0.124047 -0.03463517 -0.94298144 0.33103839
-0.019864 0.367221 -0.123069 -0.040969189 -0.9721573 0.23071996
-0.029592 0.367221 -0.121072 0.22960883 -0.21698733 0.94878674
-0.039142 0.367221 -0.118175 0.30437218 -0.29606887 0.90537329
-0.048645 0.367221 -0.115165 5.5931934e-15 -1 1.3570338e-14
-0.057447 0.367221 -0.110461 5.1494835e-15 -1 8.6415081e-15
-0.066248 0.367221 -0.105757 2.585246e-14 -1 3.9952588e-14
-0.074404 0.367221 -0.100086 -3.4811453e-15 -1 -3.8302359e-15
-0.082118 0.367221 -0.093755 1.2395394e-14 -1 1.4885877e-14
-0.08966 0.367221 -0.087251 1.6561965e-14 1 1.7634017e-14
-0.095991 0.367221 -0.079536 3.6729679e-14 1 2.9700181e-14
-0.102322 0.367221 -0.071822 8.6183998e-15 1 5.3540559e-15
-0.107586 0.367221 -0.063394 3.1194605e-14 1 1.8354819e-14
-0.11229 0.367221 -0.054593 -4.2554974e-15 1 -1.8268942e-15
-0.116656 0.367221 -0.045652 4.8583201e-15 1 1.2768181e-15
-0.119552 0.367221 -0.036101 -0.88451048 0.36258608 -0.2935516
-0.12245 0.367221 -0.026552 -0.79347158 0.58778923 -0.1578185
-0.123967 0.367221 -0.016727 -0.14708065 0.98852501 0.034432287
-0.124946 0.367221 -0.006795 -0.41099165 0.91136664 0.022286848
-0.125435 0.367221 0.003137 -0.51506599 0.85663338 -0.029770548
-0.124457 0.367221 0.013068 -0.22133194 0.97471469 -0.030715582
-0.123478 0.367221 0.022999 -0.3006433 0.95053983 -0.078023321
-0.121001 0.367221 0.032633 -0.88718397 0.38344193 0.25666492
-0.118105 0.367221 0.042183 3.4273316e-14 1 -1.0820665e-14
-0.114643 0.367221 0.051499 5.4699251e-15 1 -2.3898794e-15
-0.109938 0.367221 0.0603 -6.3927596e-16 1 5.180148e-16
-0.105233 0.367221 0.069101 -5.8642437e-14 1 3.8566336e-14
-0.099157 0.367221 0.076986 -8.3523433e-15 1 6.7635285e-15
-0.092826 0.367221 0.084701 2.1972614e-15 1 -1.2180331e-15
-0.085976 0.367221 0.091896 3.0924161e-15 -1 -3.7342506e-15
-0.078262 0.367221 0.098227 -1.4449046e-15 -1 8.8732384e-16
-0.070547 0.367221 0.104557 5.9505481e-15 -1 -6.7959846e-15
-0.061848 0.367221 0.109415 3.2986161e-14 -1 -5.7167269e-14
-0.053046 0.367221 0.11412 3.1645822e-14 -1 -6.7879038e-14
-0.043917 0.367221 0.118034 6.9160462e-15 -1 -1.7231136e-14
-0.034367 0.367221 0.12093 0.28231925 -0.34803509 -0.89396164
-0.024817 0.367221 0.123826 0.050190151 -0.78619115 -0.6159419
-0.014897 0.367221 0.124865 0.031395153 0.98230242 0.18465181
-0.004966 0.367221 0.125843 0.024345043 0.88731744 0.46051611
0.004965 0.367221 0.125843 -0.024332763 0.88729031 0.46056902
0.014897 0.367221 0.124865 -0.03138569 0.98229174 0.18471024
0.024817 0.367221 0.123827 -0.050112144 -0.78630775 -0.6157994
0.034368 0.367221 0.12093 -0.28235515 -0.34790021 -0.8940028
0.043917 0.367221 0.118034 -1.8681669e-15 -1 -5.4186144e-15
0.053046 0.367221 0.11412 2.6549015e-15 -1 6.7531774e-15
0.061848 0.367221 0.109416 -2.1207197e-14 -1 -3.745969e-14
0.070547 0.367221 0.104558 -1.198216e-14 -1 -1.7826683e-14
0.078262 0.367221 0.098227 -3.3922492e-14 -1 -4.2783094e-14
0.085975 0.367221 0.091896 -8.4256289e-15 -1 -1.1892718e-14
0.092826 0.367221 0.084701 7.5338109e-15 1 6.112736e-15
0.099157 0.367221 0.076986 4.3164293e-14 1 3.2975218e-14
0.105234 0.367221 0.069101 1.9618735e-14 1 1.358613e-14
0.109938 0.367221 0.0603 2.3591474e-16 1 2.9258905e-16
0.114642 0.367221 0.051499 -7.0410424e-14 1 -3.1948876e-14
0.118105 0.367221 0.042183 9.8434908e-15 1 1.7345248e-15
0.121001 0.367221 0.032633 0.88723792 0.38328512 0.25671267
0.123478 0.367221 0.023 0.30089001 0.95046782 -0.077949459
0.124457 0.367221 0.013068 -0.22134546 -0.97471169 0.030713202
0.125435 0.367221 0.003137 -0.5150703 -0.85663087 0.029768186
0.124946 0.367221 -0.006795 -0.41099165 -0.91136664 -0.022286848
0.123967 0.367221 -0.016727 -0.14708065 -0.98852501 -0.034432287
0.12245 0.367221 -0.026552 0.79347158 0.58778923 -0.1578185
0.119552 0.367221 -0.036101 0.88451048 0.36258608 -0.2935516
0.116656 0.367221 -0.045652 -4.8583201e-15 1 1.2768181e-15
0.11229 0.367221 -0.054593 4.2554974e-15 1 -1.8268942e-15
0.107586 0.367221 -0.063394 -3.1194605e-14 1 1.8354819e-14
0.102322 0.367221 -0.071822 1.4213555e-14 1 -1.0084153e-14
0.095991 0.367221 -0.079536 -3.662767e-14 1 2.9613499e-14
0.08966 0.367221 -0.087251 -1.6232126e-14 1 1.7301324e-14
0.082118 0.367221 -0.093755 2.1226795e-14 -1 -2.3721276e-14
0.074404 0.367221 -0.100086 -2.7925347e-15 -1 4.1732591e-15
0.066248 0.367221 -0.105756 -2.6662806e-14 -1 4.2592243e-14
0.057447 0.367221 -0.110461 -1.4530253e-14 -1 2.7415756e-14
0.048645 0.367221 -0.115165 -1.0508839e-14 -1 2.594641e-14
0.039142 0.367221 -0.118175 -0.30437453 -0.29616826 0.90533999
0.029592 0.367221 -0.121072 -0.22960883 -0.21698733 0.94878674
0.019864 0.367221 -0.123069 0.040969189 -0.9721573 0.23071996
0.009932 0.367221 -0.124047 0.03463517 -0.94298144 0.33103839
0 0.006033 -0.132777 -1.3553504e-14 0.57408977 -0.81879236
0 -0.000328 -0.140526 -3.0196026e-15 0.72009607 -0.69387438
0 -0.006688 -0.148277 -1.5997709e-14 0.74642433 -0.6654703
0 -0.013048 -0.156028 0 0.71660443 -0.69747982
0 -0.02021 -0.162976 1 0 -0
0 -0.027961 -0.169336 1 0 -0
0 -0.035712 -0.175696 1 0 -0
0 -0.043461 -0.182056 1 0 -0
0 -0.05138 -0.188165 1 0 -0
0 -0.060222 -0.192891 1 0 -0
0 -0.069065 -0.197618 1 0 -0
0 -0.077907 -0.202344 1 0 -0
0 -0.086749 -0.20707 1 0 -0
0 -0.096141 -0.21047 1 0 -0
0 -0.105735 -0.21338 1 0 -0
0 -0.11533 -0.216291 1 0 -0
0 -0.124924 -0.219201 1 0 -0
0 -0.134636 -0.221518 0.9999936 0.00035118872 -0.0035601661
0 -0.144614 -0.222502 -0.99450636 0.012278991 -0.10395348
0 -0.154592 -0.223484 8.4911819e-13 0.092557512 -0.99570734
0 -0.16457 -0.224467 -3.5649328e-13 0.063033072 -0.99801144
0 -0.174547 -0.22545 -0.49426124 -0.024561908 0.86896636
0 -0.184525 -0.224694 9.5341905e-13 -0.053023205 -0.99859328
0 -0.194503 -0.223711 -6.1088875e-13 -0.088473543 -0.99607853
0 -0.204481 -0.222728 -0.99394349 -0.012216519 -0.10921125
0 -0.214458 -0.221745 0.99998757 -0.00057525328 -0.0049522903
0 -0.224259 -0.219872 0.99994018 -0.0029938152 -0.010520162
0 -0.233854 -0.216962 1 -0 0
0 -0.243448 -0.214052 1 -0 0
0 -0.253042 -0.211141 1 -0 0
0 -0.262608 -0.208161 1 -0 0
0 -0.27145 -0.203435 1 -0 0
0 -0.280292 -0.198708 1 -0 0
0 -0.289134 -0.193982 1 -0 0
0 -0.297977 -0.189256 1 -0 0
0 -0.306146 -0.183524 1 -0 0
0 -0.313897 -0.177164 1 -0 0
0 -0.321648 -0.170804 1 -0 0
0 -0.329398 -0.164443 1 -0 0
0 -0.336881 -0.157816 -1 0 0
0 -0.343241 -0.150065 -1 0 0
0 -0.349602 -0.142315 -1 0 0
0 -0.355962 -0.134565 -1 0 0
0 -0.362322 -0.126814 -1 0 0
0 -0.367426 -0.118224 -1 0 0
0 -0.372152 -0.109381 -1 0 0
0 -0.376878 -0.100539 -1 0 0
0 -0.381605 -0.091697 -1 0 0
0 -0.385703 -0.082595 -1 0 0
0 -0.388613 -0.073 -1 0 0
0 -0.391523 -0.063406 -1 0 0
0 -0.394434 -0.053812 -1 0 0
0 -0.397343 -0.044217 0 0.98024089 0.19780749
0 -0.398475 -0.034268 2.7150512e-12 0.98715182 0.15978512
0 -0.399457 -0.024291 -7.9510294e-13 0.99362512 0.11273472
0 -0.40044 -0.014313 -1.3982884e-15 -0.99695076 -0.078033176
0 -0.401423 -0.004335 -3.9579811e-14 -0.9995763 -0.029107066
0 -0.401423 0.005642 -4.5527955e-14 -0.9995762 0.029110328
0 -0.40044 0.01562 -4.1952821e-14 -0.99695074 0.078033515
0 -0.399457 0.025597 -3.0887601e-13 0.9936253 -0.11273318
0 -0.398475 0.035575 -1.6134226e-12 0.98715166 -0.15978613
0 -0.397343 0.045524 0 0.9802404 -0.1978099
0 -0.394434 0.055118 -1 0 0
0 -0.391523 0.064713 -1 0 0
0 -0.388613 0.074307 -1 0 0
0 -0.385703 0.083901 -1 0 0
0 -0.381605 0.093004 -1 0 0
0 -0.376878 0.101846 -1 0 0
0 -0.372152 0.110688 -1 0 0
0 -0.367426 0.11953 -1 0 0
0 -0.362322 0.128121 -1 0 0
0 -0.355962 0.135871 -1 0 0
0 -0.349602 0.143622 -1 0 0
0 -0.343241 0.151372 -1 0 0
0 -0.336881 0.159122 -1 0 0
0 -0.329398 0.16575 1 0 -0
0 -0.321648 0.172111 1 0 -0
0 -0.313897 0.178471 1 0 -0
0 -0.306146 0.184831 1 0 -0
0 -0.297977 0.190562 1 0 -0
0 -0.289134 0.195289 1 0 -0
0 -0.280292 0.200015 1 0 -0
0 -0.27145 0.204741 1 0 -0
0 -0.262608 0.209468 1 0 -0
0 -0.253042 0.212448 1 0 -0
0 -0.243448 0.215358 1 0 -0
0 -0.233854 0.218269 1 0 -0
0 -0.224259 0.221179 -0.99994046 0.0029893013 -0.010495104
0 -0.214458 0.223052 -0.99998763 0.00057311522 -0.0049413818
0 -0.204481 0.224035 0.99394842 0.012209694 -0.1091671
0 -0.194503 0.225018 0.0010579352 0.088456072 -0.99607952
0 -0.184525 0.226 0.0016753605 0.053007464 -0.99859271
0 -0.174547 0.226757 -0.4941691 0.02456832 0.86901859
0 -0.16457 0.225773 0.0013117543 -0.063038345 -0.99801024
0 -0.154592 0.224791 0.0010697388 -0.092547935 -0.99570766
0 -0.144614 0.223808 0.99451558 -0.012267937 -0.10386657
0 -0.134636 0.222825 -0.99999367 -0.00034754015 -0.003542428
0 -0.124924 0.220508 1 -0 0
0 -0.11533 0.217597 1 -0 0
0 -0.105735 0.214687 1 -0 0
0 -0.096141 0.211777 1 -0 0
0 -0.086749 0.208377 1 -0 0
0 -0.077907 0.203651 1 -0 0
0 -0.069065 0.198924 1 -0 0
0 -0.060222 0.194198 1 -0 0
0 -0.05138 0.189472 1 -0 0
0 -0.043461 0.183363 1 -0 0
0 -0.035711 0.177003 1 -0 0
0 -0.027961 0.170643 1 -0 0
0 -0.02021 0.164283 1 -0 0
0 -0.013048 0.157335 -1 5.4077405e-05 4.9262176e-05
0 -0.006688 0.149584 0.00012451242 0.74569567 0.66628669
0 -0.000328 0.141833 -0.00046702722 0.72387766 0.6899282
0 0.006033 0.134083 0.00013188386 -0.67241148 -0.74017754
0 0.012393 0.126333 -1.4227304e-05 0.42513274 0.90513101
0 0.022531 0.126333 0.03616953 0.14636891 0.98856862
0 0.032669 0.126333 -0.36656182 -0.057940138 -0.92858784
0 0.042807 0.126333 -0.0060167463 0.0027707601 -0.99997806
0 0.052945 0.126333 2.5890071e-06 -1.0798654e-16 -1
0 0.063083 0.126333 -1 0 0
0 0.073221 0.126333 -1 0 0
0 0.083358 0.126333 -1 0 0
0 0.093496 0.126333 0 0 -1
0 0.103634 0.126333 -1 0 0
0 0.113772 0.126333 -1 0 0
0 0.123911 0.126333 -1 0 0
0 0.134049 0.126333 -1 0 0
0 0.144187 0.126333 -1 0 0
0 0.154324 0.126333 -1 0 0
0 0.164462 0.126333 0 0 -1
0 0.1746 0.126333 0 6.5467041e-17 -1
0 0.184738 0.126333 -1 0 0
0 0.194876 0.126333 0 0 -1
0 0.205014 0.126333 -1 0 0
0 0.215152 0.126333 0 0 -1
0 0.225289 0.126333 0 0 -1
0 0.235427 0.126333 -1 0 0
0 0.245565 0.126333 -1 0 0
0 0.255703 0.126333 -1 0 0
0 0.265841 0.126333 -1 0 0
0 0.275979 0.126333 -1 0 0
0 0.286118 0.126333 0 0 -1
0 0.296256 0.126333 -1 0 0
0 0.306393 0.126333 0 -5.6183464e-17 -1
0 0.316531 0.126333 -1 0 0
0 0.326669 0.126333 2.5890071e-06 7.8496237e-17 -1
0 0.336807 0.126333 -0.99846341 1.5309746e-05 -0.055415023
0 0.346945 0.126333 0.32181419 -0.1038918 -0.94108561
0 0.357083 0.126333 -0.99056744 -0.0095685151 -0.13669156
0 0.367221 0.126333 4.3031347e-05 0.81809345 0.5750853
0 0.367221 0.116278 0.93840744 -0.34020479 -0.06043333
0 0.367221 0.106224 -0.020748681 0.99379521 0.1092729
0 0.367221 0.096169 0.98595205 0.16702756 0.00058840991
0 0.367221 0.086115 4.0314845e-15 1 7.783152e-18
0 0.367221 0.076061 4.0309911e-15 1 -8.8211273e-17
0 0.367221 0.066007 -1 0 0
0 0.367221 0.055952 -1 0 0
0 0.367221 0.045898 0 1 -1.1577077e-17
0 0.367221 0.035843 0 1 1.330601e-17
0 0.367221 0.025789 0 1 -1.2813045e-16
0 0.367221 0.015735 0 -1 1.6701157e-16
0 0.367221 0.005681 0 -1 0
0 0.367221 -0.004374 1.2864271e-33 -1 5.7632145e-16
0 0.367221 -0.014428 0 -1 9.5767435e-17
0 0.367221 -0.024483 -0 1 3.564729e-16
0 0.367221 -0.034537 0 1 2.7478664e-16
0 0.367221 -0.044591 -0 1 9.6674844e-17
0 0.367221 -0.054645 -1 0 0
0 0.367221 -0.0647 -1 0 0
0 0.367221 -0.074754 -1 0 0
0 0.367221 -0.084809 -0 1 5.7217932e-17
0 0.367221 -0.094862 -0.99347687 0.11400548 -0.002541531
0 0.367221 -0.104917 3.5902967e-15 0.99199986 -0.12623899
0 0.367221 -0.114971 4.8871766e-15 0.87607577 -0.48217346
0 0.357083 -0.125026 -5.359673e-13 0.46492088 -0.88535223
0 0.346945 -0.125026 6.1795013e-13 0.12616141 -0.99200973
0 0.336807 -0.125026 0.99996711 0.00034204771 0.0081027162
0 0.326669 -0.125026 0 3.7296555e-17 -1
0 0.316531 -0.125026 0 0 -1
0 0.306393 -0.125026 0 0 -1
0 0.296256 -0.125026 0 0 -1
0 0.286118 -0.125026 0 -6.3886812e-18 -1
0 0.275979 -0.125026 0 -3.1258034e-17 -1
0 0.265841 -0.125026 0 0 -1
0 0.255703 -0.125026 0 0 -1
0 0.245565 -0.125026 0 0 -1
0 0.235427 -0.125026 0 0 -1
0 0.225289 -0.125026 0 0 -1
0 0.215152 -0.125026 0 0 -1
0 0.205014 -0.125026 0 9.21017e-18 -1
0 0.194876 -0.125026 0 0 -1
0 0.184738 -0.125026 0 1.569292e-17 -1
0 0.1746 -0.125026 0 -6.5467041e-17 -1
0 0.164462 -0.125026 0 0 -1
0 0.154324 -0.125026 0 -6.5435399e-17 -1
0 0.144187 -0.125026 0 0 -1
0 0.134049 -0.125026 0 0 -1
0 0.123911 -0.125026 0 -7.9286812e-17 -1
0 0.113772 -0.125026 0 -4.623441e-18 -1
0 0.103634 -0.125026 0 0 -1
0 0.093496 -0.125026 0 8.3911844e-17 -1
0 0.083358 -0.125026 0 0 -1
0 0.073221 -0.125026 0 -7.9278821e-17 -1
0 0.063083 -0.125026 0 -2.0284527e-17 -1
0 0.052945 -0.125026 0 4.4235449e-17 -1
0 0.042807 -0.125026 -1.2360382e-12 -0.0040435467 -0.99999182
0 0.032669 -0.125026 -3.8462543e-11 0.067677725 -0.99770723
0 0.022531 -0.125026 -9.3647241e-13 0.26848294 -0.96328444
-0.125679 0.012393 0.000653 -0.91017684 0.41314078 -0.029879972
-0.125679 0.022531 0.000653 0.28351534 -0.018577659 0.95878774
-0.125679 0.032669 0.000653 0.049891978 1.4250205e-05 0.99875462
-0.125679 0.042807 0.000653 -0.016541331 2.0686547e-05 0.99986318
-0.125679 0.052945 0.000653 0.99860731 -6.505213e-17 0.052758368
-0.125679 0.063083 0.000653 1.3186411e-17 -3.0965022e-19 -1
-0.125679 0.073221 0.000653 1.3186317e-17 0 -1
-0.125679 0.083358 0.000653 1.3186222e-17 -1.7638854e-19 -1
-0.125679 0.093496 0.000653 1.3186127e-17 0 -1
-0.125679 0.103634 0.000653 1.3186151e-17 3.6089854e-20 -1
-0.125679 0.113772 0.000653 1.3186151e-17 6.1117158e-20 -1
-0.125679 0.123911 0.000653 1.3186127e-17 0 -1
-0.125679 0.134049 0.000653 1.318608e-17 -5.4738221e-48 -1
-0.125679 0.144187 0.000653 1.3186151e-17 3.6114873e-20 -1
-0.125679 0.154324 0.000653 1.3186222e-17 3.6066103e-20 -1
-0.125679 0.164462 0.000653 1.3186293e-17 -1.5840579e-19 -1
-0.125679 0.1746 0.000653 1.3186482e-17 -3.5932418e-20 -1
-0.125679 0.184738 0.000653 1.3186506e-17 0 -1
-0.125679 0.194876 0.000653 1.3186482e-17 -5.4738221e-48 -1
-0.125679 0.205014 0.000653 1.3186411e-17 2.5298904e-20 -1
-0.125679 0.215152 0.000653 1.3186435e-17 5.4738221e-48 -1
-0.125679 0.225289 0.000653 1.3186435e-17 2.1974889e-19 -1
-0.125679 0.235427 0.000653 1.3186293e-17 0 -1
-0.125679 0.245565 0.000653 1.3186151e-17 0 -1
-0.125679 0.255703 0.000653 1.3186127e-17 0 -1
-0.125679 0.265841 0.000653 1.318608e-17 0 -1
-0.125679 0.275979 0.000653 1.3186009e-17 1.2210319e-19 -1
-0.125679 0.286118 0.000653 1.3186057e-17 -1.0947644e-47 -1
-0.125679 0.296256 0.000653 1.3186104e-17 -1.0947644e-47 -1
-0.125679 0.306393 0.000653 1.3186151e-17 -3.6386569e-19 -1
-0.125679 0.316531 0.000653 1.3186198e-17 0 -1
-0.125679 0.326669 0.000653 0.99860731 2.515349e-17 0.052758368
-0.125679 0.336807 0.000653 0.036533136 1.0073737e-05 -0.99933244
-0.125679 0.346945 0.000653 0.19803817 -0.00074800655 0.98019402
-0.125679 0.357083 0.000653 0.094506886 -0.015857593 -0.9953979
-0.125679 0.367221 0.000653 -0.57629016 0.81701758 0.019285406
-0.115624 0.367221 0.000653 0.087869747 -0.2901566 -0.95293654
-0.105571 0.367221 0.000653 0.0025164799 -0.35434498 0.93511138
-0.095516 0.367221 0.000653 0.00053374194 -0.10951693 -0.99398479
-0.085462 0.367221 0.000653 2.5596033e-16 -1 4.1916065e-14
-0.075407 0.367221 0.000653 3.1006934e-16 -1 1.9843759e-14
-0.065353 0.367221 0.000653 1.0947644e-47 2.6812977e-17 -1
-0.055299 0.367221 0.000653 0 2.6812734e-17 -1
-0.045245 0.367221 0.000653 -5.5911455e-16 -1 5.43819e-15
-0.03519 0.367221 0.000653 2.7480829e-16 -1 1.1800374e-15
-0.025136 0.367221 0.000653 -3.5637184e-16 -1 1.1801637e-15
-0.015081 0.367221 0.000653 -4.7953804e-16 1 -1.317875e-15
-0.005027 0.367221 0.000653 -5.2664288e-16 1 -8.426894e-16
0.005027 0.367221 0.000653 5.2664288e-16 1 -8.426894e-16
0.015081 0.367221 0.000653 4.7953804e-16 1 -1.317875e-15
0.025136 0.367221 0.000653 3.5637184e-16 -1 1.1801637e-15
0.03519 0.367221 0.000653 -2.7480829e-16 -1 1.1800374e-15
0.045245 0.367221 0.000653 5.5911455e-16 -1 5.43819e-15
0.055299 0.367221 0.000653 0 2.6812734e-17 -1
0.065353 0.367221 0.000653 -1.0947644e-47 2.6812977e-17 -1
0.075407 0.367221 0.000653 -3.1006934e-16 -1 1.9843759e-14
0.085462 0.367221 0.000653 -2.5596033e-16 -1 4.1916065e-14
0.095516 0.367221 0.000653 -0.00053374194 -0.10951693 -0.99398479
0.105571 0.367221 0.000653 -0.0025164799 -0.35434498 0.93511138
0.115624 0.367221 0.000653 -0.087867105 -0.29015367 -0.95293768
0.125679 0.367221 0.000653 -0.57629006 -0.81701765 -0.019285418
0.125679 0.357083 0.000653 0.094507206 0.015856863 0.99539788
0.125679 0.346945 0.000653 0.19803817 0.00074800655 -0.98019402
0.125679 0.336807 0.000653 0.036533136 -1.0073737e-05 0.99933244
0.125679 0.326669 0.000653 0.99860731 -2.515349e-17 -0.052758368
0.125679 0.316531 0.000653 -1.3186198e-17 0 -1
0.125679 0.306393 0.000653 -1.3186151e-17 -3.6386569e-19 -1
0.125679 0.296256 0.000653 -1.3186104e-17 -1.0947644e-47 -1
0.125679 0.286118 0.000653 -1.3186057e-17 -1.0947644e-47 -1
0.125679 0.275979 0.000653 -1.3186009e-17 1.2210319e-19 -1
0.125679 0.265841 0.000653 -1.318608e-17 0 -1
0.125679 0.255703 0.000653 -1.3186127e-17 0 -1
0.125679 0.245565 0.000653 -1.3186151e-17 0 -1
0.125679 0.235427 0.000653 -1.3186293e-17 0 -1
0.125679 0.225289 0.000653 -1.3186435e-17 2.1974889e-19 -1
0.125679 0.215152 0.000653 -1.3186435e-17 5.4738221e-48 -1
0.125679 0.205014 0.000653 -1.3186411e-17 5.4738221e-48 -1
0.125679 0.194876 0.000653 -1.3186482e-17 -5.4738221e-48 -1
0.125679 0.184738 0.000653 -1.3186506e-17 0 -1
0.125679 0.1746 0.000653 -1.3186482e-17 -3.5932418e-20 -1
0.125679 0.164462 0.000653 -1.3186293e-17 -1.5840579e-19 -1
0.125679 0.154324 0.000653 -1.3186222e-17 3.6066103e-20 -1
0.125679 0.144187 0.000653 -1.3186151e-17 3.6114873e-20 -1
0.125679 0.134049 0.000653 -1.318608e-17 -1.221521e-19 -1
0.125679 0.123911 0.000653 -1.3186127e-17 0 -1
0.125679 0.113772 0.000653 -1.3186151e-17 6.1117158e-20 -1
0.125679 0.103634 0.000653 -1.3186151e-17 3.6089854e-20 -1
0.125679 0.093496 0.000653 -1.3186127e-17 0 -1
0.125679 0.083358 0.000653 -1.3186222e-17 -1.7638854e-19 -1
0.125679 0.073221 0.000653 -1.3186317e-17 0 -1
0.125679 0.063083 0.000653 -1.3186411e-17 -3.0965022e-19 -1
0.125679 0.052945 0.000653 0.99860731 6.6786854e-17 -0.052758368
0.125679 0.042807 0.000653 -0.016541331 -2.0686547e-05 -0.99986318
0.125679 0.032669 0.000653 0.049893356 -1.4255381e-05 -0.99875455
0.125679 0.022531 0.000653 0.28351664 0.018577067 -0.95878736
0.125679 0.012393 0.000653 -0.91017527 -0.41314446 0.029877032
0.13343 0.006033 0.000653 0.4204496 0.39118939 -0.81865316
0.14118 -0.000328 0.000653 -0.55395662 -0.58528974 -0.59208781
0.14893 -0.006688 0.000653 -0.271188 -0.30428184 0.91316462
0.156681 -0.013048 0.000653 -0.24769907 -0.2715684 0.92999773
0.16363 -0.02021 0.000653 -1.195164e-18 1.6549305e-18 -1
0.16999 -0.027961 0.000653 2.4252656e-17 2.1074448e-17 -1
0.17635 -0.035712 0.000653 -7.4155748e-18 -6.0699081e-18 -1
0.18271 -0.043461 0.000653 0 0 -1
0.188819 -0.05138 0.000653 -2.6425808e-17 -1.798719e-17 -1
0.193545 -0.060222 0.000653 6.8146964e-18 1.6367402e-18 -1
0.198271 -0.069065 0.000653 7.0596313e-17 3.8145143e-17 -1
0.202997 -0.077907 0.000653 6.6296902e-19 7.6757779e-19 -1
0.207724 -0.086749 0.000653 -2.6059102e-17 -9.4850223e-18 -1
0.211123 -0.096141 0.000653 1.2396927e-17 4.6244295e-18 -1
0.214034 -0.105735 0.000653 0 0 -1
0.216944 -0.11533 0.000653 0 0 -1
0.219854 -0.124924 0.000653 0 0 -1
0.222172 -0.134636 0.000653 9.0180116e-05 1.4022256e-05 1
0.223155 -0.144614 0.000653 0.98964865 0.14338158 0.0061047958
0.224138 -0.154592 0.000653 0.99538103 0.095999526 0.00083433893
0.22512 -0.16457 0.000653 -0.99799263 -0.063330213 -1.563988e-05
0.226103 -0.174547 0.000653 -0.9999786 -0.0065424152 4.0715588e-05
0.225347 -0.184525 0.000653 -0.99865845 0.051781214 5.9978503e-07
0.224365 -0.194503 0.000653 0.99637926 -0.085017922 0.00056884948
0.223381 -0.204481 0.000653 0.99114047 -0.13273852 0.0045882734
0.222399 -0.214458 0.000653 8.4469587e-05 -1.270404e-05 1
0.220526 -0.224259 0.000653 0.00032483476 -6.5942418e-05 0.99999995
0.217615 -0.233854 0.000653 -5.6572508e-17 1.548806e-17 -1
0.214705 -0.243448 0.000653 6.2172049e-18 -1.0570838e-18 -1
0.211795 -0.253042 0.000653 -4.68421e-17 1.7217896e-17 -1
0.208814 -0.262608 0.000653 0 0 -1
0.204088 -0.27145 0.000653 1.5586305e-17 -5.6316001e-18 -1
0.199362 -0.280292 0.000653 3.1725294e-17 -1.7405375e-17 -1
0.194635 -0.289134 0.000653 -1.3038114e-17 7.5313639e-18 -1
0.189909 -0.297977 0.000653 3.6178381e-18 -3.180498e-18 -1
0.184177 -0.306146 0.000653 -5.2802397e-17 3.6967601e-17 -1
0.177817 -0.313897 0.000653 -7.6795689e-17 5.9655288e-17 -1
0.171457 -0.321648 0.000653 1.8390662e-17 -1.5442297e-17 -1
0.165096 -0.329398 0.000653 2.336156e-17 -2.2432777e-17 -1
0.158469 -0.336881 0.000653 0 -0 1
0.150718 -0.343241 0.000653 3.9483582e-18 -3.7604552e-18 1
0.142969 -0.349602 0.000653 0 -0 1
0.135218 -0.355962 0.000653 8.163847e-18 -1.0901228e-17 1
0.127467 -0.362322 0.000653 -2.4192561e-17 3.4844605e-17 1
0.118877 -0.367426 0.000653 -3.2632364e-17 5.4244637e-17 1
0.110035 -0.372152 0.000653 -2.0069146e-17 3.3073522e-17 1
0.101193 -0.376878 0.000653 -2.193114e-17 4.2247462e-17 1
0.09235 -0.381605 0.000653 6.3047479e-18 -1.7864567e-17 1
0.083248 -0.385703 0.000653 -1.4647268e-17 3.5349428e-17 1
0.073653 -0.388613 0.000653 4.3346669e-18 -1.637009e-17 1
0.06406 -0.391523 0.000653 -9.5465769e-20 9.8102141e-19 1
0.054465 -0.394434 0.000653 -6.592511e-18 2.977038e-17 1
0.044871 -0.397343 0.000653 1.8470494e-05 -0.00011079605 0.99999999
0.034922 -0.398475 0.000653 0.15977839 -0.98710645 0.0095769381
0.024944 -0.399457 0.000653 0.11273227 -0.99361977 0.0033460618
0.014966 -0.40044 0.000653 -0.078031533 0.99695059 -0.00078071764
0.004988 -0.401423 0.000653 -0.029104731 0.99957621 -0.00056914667
-0.004988 -0.401423 0.000653 0.029104731 0.99957621 -0.00056914667
-0.014966 -0.40044 0.000653 0.078031533 0.99695059 -0.00078071764
-0.024944 -0.399457 0.000653 -0.11273227 -0.99361977 0.0033460618
-0.034922 -0.398475 0.000653 -0.15977839 -0.98710645 0.0095769381
-0.044871 -0.397343 0.000653 -1.8470494e-05 -0.00011079605 0.99999999
-0.054465 -0.394434 0.000653 6.592511e-18 2.977038e-17 1
-0.06406 -0.391523 0.000653 9.5465769e-20 9.8102141e-19 1
-0.073653 -0.388613 0.000653 -4.3346669e-18 -1.637009e-17 1
-0.083248 -0.385703 0.000653 1.4647268e-17 3.5349428e-17 1
-0.09235 -0.381605 0.000653 -6.3047479e-18 -1.7864567e-17 1
-0.101193 -0.376878 0.000653 2.193114e-17 4.2247462e-17 1
-0.110035 -0.372152 0.000653 2.0069146e-17 3.3073522e-17 1
-0.118877 -0.367426 0.000653 3.2632364e-17 5.4244637e-17 1
-0.127467 -0.362322 0.000653 2.4192561e-17 3.4844605e-17 1
-0.135218 -0.355962 0.000653 -8.163847e-18 -1.0901228e-17 1
-0.142969 -0.349602 0.000653 0 0 1
-0.150718 -0.343241 0.000653 -3.9483582e-18 -3.7604552e-18 1
-0.158469 -0.336881 0.000653 0 0 1
-0.165096 -0.329398 0.000653 -2.336156e-17 -2.2432777e-17 -1
-0.171457 -0.321648 0.000653 -1.8390662e-17 -1.5442297e-17 -1
-0.177817 -0.313897 0.000653 7.6795689e-17 5.9655288e-17 -1
-0.184177 -0.306146 0.000653 5.2802397e-17 3.6967601e-17 -1
-0.189909 -0.297977 0.000653 -3.6178381e-18 -3.180498e-18 -1
-0.194635 -0.289134 0.000653 1.3038114e-17 7.5313639e-18 -1
-0.199362 -0.280292 0.000653 -3.1725294e-17 -1.7405375e-17 -1
-0.204088 -0.27145 0.000653 -1.5586305e-17 -5.6316001e-18 -1
-0.208814 -0.262608 0.000653 0 0 -1
-0.211795 -0.253042 0.000653 4.68421e-17 1.7217896e-17 -1
-0.214705 -0.243448 0.000653 -2.3742482e-17 -8.5864933e-18 -1
-0.217615 -0.233854 0.000653 5.6572508e-17 1.548806e-17 -1
-0.220526 -0.224259 0.000653 0.00032483476 6.5942418e-05 -0.99999995
-0.222399 -0.214458 0.000653 8.4469587e-05 1.270404e-05 -1
-0.223381 -0.204481 0.000653 0.99114047 0.13273852 -0.0045882734
-0.224365 -0.194503 0.000653 0.99637926 0.085017922 -0.00056884948
-0.225347 -0.184525 0.000653 -0.99865767 -0.051781173 0.0012534303
-0.226103 -0.174547 0.000653 -0.99997802 0.0065424131 0.0010769879
-0.22512 -0.16457 0.000653 -0.99799171 0.063330155 0.0013523966
-0.224138 -0.154592 0.000653 0.99538103 -0.095999526 -0.00083433893
-0.223155 -0.144614 0.000653 0.98964865 -0.14338158 -0.0061047958
-0.222172 -0.134636 0.000653 9.0180116e-05 -1.4022256e-05 -1
-0.219854 -0.124924 0.000653 0 0 -1
-0.216944 -0.11533 0.000653 0 0 -1
-0.214034 -0.105735 0.000653 0 0 -1
-0.211123 -0.096141 0.000653 -1.2396927e-17 4.6244295e-18 -1
-0.207724 -0.086749 0.000653 2.6059102e-17 -9.4850223e-18 -1
-0.202997 -0.077907 0.000653 -1.5364111e-17 7.1660635e-18 -1
-0.198271 -0.069065 0.000653 -2.986337e-17 1.5880023e-17 -1
-0.193545 -0.060222 0.000653 3.864114e-17 -2.2636346e-17 -1
-0.188819 -0.05138 0.000653 1.9725642e-19 -1.767948e-18 -1
-0.18271 -0.043461 0.000653 7.1980053e-18 -5.1658625e-18 -1
-0.17635 -0.035711 0.000653 -6.3874863e-18 4.9120081e-18 -1
-0.16999 -0.027961 0.000653 6.1682655e-18 -7.2855756e-18 -1
-0.163629 -0.02021 0.000653 2.9206393e-17 -2.7350495e-17 -1
-0.156681 -0.013048 0.000653 0.24784259 -0.2717126 0.92991737
-0.14893 -0.006688 0.000653 0.27127322 -0.3043743 0.9131085
-0.14118 -0.000328 0.000653 0.55449021 -0.58583867 -0.59104455
-0.13343 0.006033 0.000653 0.42044629 -0.3911853 0.81865681
