-0.19761 -0.00846049 -0.043072 -0.964387 -0.198728 -0.174543
0.140741 0.0651604 0.1171 0.878677 -0.239127 0.413213
-0.1476 0.0643832 0.0882611 -0.949031 0.0536733 0.310579
-0.185465 -0.0904923 -0.159925 -0.965487 -0.131308 0.22493
-0.18551 -0.0809154 -0.0945225 -0.831678 0.446769 -0.32971
-0.170459 -0.0954049 -0.00467777 -0.181453 -0.982706 -0.0369155
-2.08616e-07 0.116994 0.0391501 -0.0101426 0.836222 -0.548297
1.78814e-07 0.0552153 -0.067209 -0.0485281 -0.693195 0.719115
0.175452 -0.106656 -0.17305 -0.00662099 -0.987115 0.159878
-0.0297949 0.071306 0.28711 -0.512631 0.236915 0.825276
-0.132634 0.0996327 0.0613442 -0.720125 0.693695 0.0143799
0.188819 -0.0581236 -0.0396539 0.441754 -0.896634 0.0300144
-2.98023e-08 0.0344403 -0.379954 0.0102451 0.784762 -0.619712
0.192825 -0.0243587 0.353493 0.85868 -0.512504 -0.00289401
-0.0915307 0.0722161 0.240871 -0.748248 0.145715 -0.647219
0.160051 0.0665439 0.348044 0.406223 0.836249 0.368334
-0.0930341 0.0588274 0.377765 0.520355 0.818658 0.24296
1.78814e-07 0.0599485 -0.0531139 -0.0198639 0.238704 0.970889
-5.96046e-08 -0.00181994 -0.449257 -0.000125939 0.965045 0.262083
-0.0972003 0.0463794 0.401393 0.266537 0.538915 0.79908
-0.121765 -0.0676745 -0.411097 -0.0192116 0.255054 -0.966736
-0.18354 -0.0730602 -0.0359639 -0.78256 -0.615504 0.0935702
0.121764 -0.0676745 -0.411097 0.0605149 0.285417 -0.956491
-0.156857 0.0705161 -0.0833156 0.243155 0.964481 -0.103208
0 0.0431959 0.420294 -0.00282347 0.934121 0.356945
0.156491 0.0656041 0.0037207 -0.0562801 0.992258 0.110707
-0.138701 0.0593047 0.188103 0.566567 -0.253386 -0.78409
-0.185562 -0.0896692 -0.153967 -0.987409 0.0904921 0.12975
-0.145855 0.053343 0.168943 0.935045 -0.0860867 -0.343918
0.179972 0.0554709 -0.0806077 0.986073 0.164761 0.0226693
-0.118496 0.0706134 0.262217 -0.465741 0.868052 -0.171961
0.15792 0.0661837 0.000861943 0.116101 0.951458 0.285042
-0.149586 -0.0901622 0.0983812 0.228597 -0.93813 0.260106
-0.131137 0.0648239 0.212085 -0.151172 0.0173329 -0.988356
4.76837e-07 0.0553881 -0.162574 0.0203571 0.939787 -0.341153
0.0782329 -0.102013 -0.437021 0.572993 -0.76439 -0.295613
0.189777 -0.0792155 -0.175042 0.50828 -0.843455 -0.17388
0.0995941 -0.00870875 0.428624 0.608458 -0.752431 0.252244
0.0709852 0.0721709 0.264002 0.734637 0.676582 -0.0504472
0.132634 0.0996327 0.0613442 0.710829 0.703353 0.00406738
0.0426579 0.106251 0.0194029 0.14365 0.876749 -0.458995
-2.08616e-07 0.122508 0.0577435 -0.010995 0.912298 -0.409379
0.115972 0.00415948 0.430731 0.429336 -0.394625 0.812368
0.122359 0.0605818 -0.0204064 0.437237 0.645975 0.625732
0.156357 0.0705612 -0.091339 -0.356598 0.919155 -0.167309
-0.17037 0.0311003 0.0601156 -0.94904 -0.26327 0.173239
0.124319 -0.101409 -0.409625 0.124738 -0.969271 -0.212022
2.38419e-07 0.0791068 -0.02863 -0.024321 0.613099 -0.789631
0.15818 0.0692267 -0.0430769 0.127849 0.991032 0.0388593
0.081736 0.0135903 0.430334 0.761978 -0.383395 0.521917
0.0406612 -0.0715358 -0.39997 0.063831 -0.687169 0.723688
0.0331345 0.0503205 -0.313032 0.0948068 0.709899 -0.697893
-0.156726 0.0649091 0.0246129 -0.851641 0.00125303 0.524124
-0.0609091 -0.0702403 -0.398125 -0.097375 -0.586051 0.804402
-0.185409 -0.0799887 -0.0885908 -0.818089 0.440551 -0.369655
-0.167881 0.0716847 0.322528 -0.343529 0.905883 0.247719
0.178609 0.0448296 -0.0279523 0.757886 0.599937 0.256291
-0.0708819 -0.0100119 -0.439419 -0.67092 0.0417206 -0.740355
0.143807 0.0649559 -0.177181 -0.66869 0.733181 0.123688
0.186821 0.0645359 0.189872 0.599465 0.69917 -0.389619
-0.149081 -0.0857576 0.119774 -0.0109303 -0.601014 0.799164
0.178155 0.0512424 -0.0511496 0.962965 0.249975 0.101052
-0.0536153 0.022795 0.432147 0.0771813 -0.213395 0.973913
0.174566 -0.0971538 -0.036252 0.0646076 -0.996613 0.0508673
-0.130436 0.0305742 0.415745 -0.567694 -0.0447381 0.822023
-0.0959303 -0.0210236 0.431307 0.543212 -0.264995 0.79668
0.16922 0.026599 0.0832462 0.850438 -0.236856 0.469738
-0.130804 0.0987773 0.0542197 -0.518454 0.824862 -0.225407
-0.162927 0.0495028 -0.306228 0.164536 0.958773 -0.231694
-0.174315 0.0422309 0.00176543 -0.988571 -0.112825 0.0999918
0.175705 -0.0193164 0.114161 0.35136 -0.657773 -0.666244
0.157866 0.0699399 -0.0591765 -0.0416921 0.997169 -0.0625721
2.38419e-07 0.0554366 -0.0762899 -0.0464615 -0.205557 0.977542
0.190557 0.0385244 -0.256764 0.973546 -0.186105 0.132563
-0.186821 0.0645359 0.189872 -0.616186 0.6941 -0.372208
-0.178716 -0.101094 -0.0997272 -0.0548027 -0.985142 -0.162764
0.182042 0.0618593 -0.1453 0.891081 0.439605 0.112791
0.0943774 0.0741545 0.233016 0.542872 0.492326 -0.680371
-0.081781 -0.101968 -0.435527 -0.522008 -0.824852 -0.217089
7.33137e-06 -0.0727051 -0.401281 0.00185067 -0.752064 0.659088
-0.0928854 -0.0676037 -0.392794 0.381828 -0.466004 0.798152
0.176162 -0.0341518 0.114232 0.661998 -0.68353 -0.307483
-0.0990652 0.0643327 0.352622 0.441897 0.887797 0.128624
0.131216 0.0617037 -0.0147768 -0.0382131 0.510175 0.859221
-0.186914 0.0626678 0.185513 -0.598211 0.652702 -0.464891
0.193754 0.0351673 0.21788 0.753179 -0.613533 0.237273
0.00706455 0.0547854 -0.0586952 0.0230849 -0.885523 0.464022
-0.0100776 0.0708505 0.293429 -0.234392 0.114624 0.965361
-0.140239 0.0453924 0.398352 -0.559959 0.27083 0.783005
0.192252 0.0225861 -0.0375193 0.953167 0.291034 0.0822891
0.090258 -0.0136156 -0.429914 0.782418 -0.00715067 -0.622713
-0.170708 0.0322309 0.0543116 -0.956138 -0.26644 0.121698
0.1935 0.0192538 0.332168 0.937737 -0.304964 0.16627
0.192404 -0.0286384 0.354779 0.853393 -0.518983 -0.0487528
0.136266 0.0966111 0.0522602 0.820281 0.563913 -0.095616
0.115678 0.101033 0.045455 0.249141 0.91913 -0.305169
-0.190513 0.0267436 -0.036173 -0.918157 0.376052 0.12479
-0.178474 -0.100457 -0.0901838 -0.0613428 -0.982617 -0.175218
0.169094 0.0160516 0.121794 -0.675614 -0.706031 0.212287
0.194756 0.0469122 0.284259 0.950414 -0.309694 -0.0283551
-0.11246 -0.0227818 -0.417327 -0.685604 -0.561268 -0.4636
0.121931 0.0573287 -0.231465 -0.0667249 0.83826 0.541173
-0.176427 -0.105854 -0.163476 -0.0252689 -0.982946 0.182148
0.190746 0.0296843 -0.228476 0.896262 -0.432075 -0.100126
-0.193161 -0.00122246 0.180393 -0.889863 -0.455191 0.0307512
-0.00225967 -0.00640216 -0.455116 0.030584 -0.578866 -0.814849
0.0817501 0.0516225 -0.281201 0.563721 0.766051 -0.308844
0.166339 -0.0940802 0.0204809 -0.0504444 -0.993885 0.0982241
-0.124319 -0.101409 -0.409625 -0.117681 -0.968774 -0.218238
0.171878 0.0740393 0.306751 0.320189 0.938415 0.129829
-0.161723 0.0677078 0.343031 -0.399055 0.846106 0.353356
-0.107895 0.097931 0.160116 -0.334201 0.769845 0.543737
-1.19209e-07 0.112274 0.0284827 -0.0109884 0.829227 -0.558803
0.098765 0.0391291 0.40875 -0.268915 0.462971 0.844596
0.0600911 -0.102223 -0.443433 0.42419 -0.38706 -0.818687
-0.122835 -0.0328556 -0.410768 -0.574122 -0.563614 -0.593905
-0.0887809 -0.101879 -0.432326 -0.509003 -0.840375 -0.186242
-0.178022 -0.0522274 0.0677627 -0.96308 -0.209283 0.169343
0.191565 -0.0489183 -0.0412988 0.523176 -0.849725 -0.0652296
0.193485 0.0279683 0.206136 0.81879 -0.529834 0.221041
0.0528266 -0.0708016 -0.398982 0.0908649 -0.625695 0.774757
0.176713 -0.105592 -0.160285 0.0173121 -0.995802 0.0898815
0.118496 0.0706134 0.262217 0.455396 0.871328 -0.182765
-0.151861 0.0692817 -0.134978 0.601208 0.798907 -0.0171982
-0.186461 0.0452593 0.158186 -0.672824 0.231832 -0.70254
-0.166892 -0.0942428 0.0173414 0.0142526 -0.992542 0.121065
0.184652 -0.0701233 -0.036794 0.630854 -0.766521 0.120289
0.185722 0.0717675 0.213036 0.492458 0.85 -0.18704
0.041463 -0.102401 -0.448094 0.140737 -0.125474 -0.982064
0.0573153 0.0719348 0.273834 0.75403 0.620932 0.214199
-0.177933 -0.0996357 -0.0774698 -0.0811217 -0.975239 -0.205737
0.00850508 0.106566 0.0169116 0.175378 0.723501 -0.667675
0.12669 0.00956067 -0.390341 -0.443516 0.761596 -0.47251
4.76837e-07 0.120524 0.138458 -0.0171164 0.998059 0.0598772
-0.189777 -0.0792155 -0.175042 -0.490989 -0.858784 -0.146354
-0.178234 -0.100043 -0.0838251 -0.0699559 -0.97436 -0.213845
-0.190882 0.02795 -0.2252 -0.923081 -0.355581 -0.146574
0.134412 0.0369007 0.409356 0.512295 0.110744 0.85164
-0.176713 -0.105592 -0.160285 -0.031915 -0.994583 0.0989215
0.0128696 0.0509779 -0.320917 0.200122 0.939538 -0.277882
0.100745 0.0867792 0.199285 0.0503427 0.596193 0.801261
-0.0245646 0.0547909 -0.0567451 -0.296799 -0.828293 -0.475227
0.192335 -0.0684696 -0.174321 0.484792 -0.874519 -0.0139145
0.155861 0.064592 0.0344839 0.799458 0.122045 0.588194
0.0553756 0.0554132 -0.0502899 0.749092 -0.215014 -0.626602
-0.190551 0.0341535 -0.300729 -0.921623 0.38065 -0.0756082
-0.143807 0.0649559 -0.177181 0.621176 0.779615 0.0796274
-0.127605 0.067137 0.159471 -0.623104 -0.722276 0.300098
0.172666 -0.0962645 -0.0204487 0.140153 -0.985495 -0.0956946
0.172315 0.002592 0.117175 -0.0493087 -0.622075 -0.781403
0.111195 0.055181 -0.24819 0.336286 0.882334 0.329239
-0.0418046 0.0550306 -0.0536363 -0.745196 -0.320747 -0.58464
-0.0649397 -0.0699413 -0.397632 -0.0958614 -0.573005 0.813926
0.17692 -0.0986491 -0.0615968 0.0764819 -0.980543 -0.180795
0.197503 -0.00386703 -0.0426799 0.975706 -0.140823 -0.167829
-0.10881 0.0990237 0.155146 -0.341679 0.798334 0.495902
-0.190553 0.038665 -0.282754 -0.96891 0.246967 0.0148363
0.175966 0.0604287 -0.244004 0.244202 0.901968 -0.356116
0.164923 0.0698052 0.332873 0.348801 0.900655 0.259148
-0.186639 0.0482328 0.161712 -0.690713 0.243313 -0.680966
-0.112652 0.102607 0.135077 -0.310117 0.899747 0.307055
-0.134097 0.0607251 -0.206729 0.482609 0.800989 0.354268
0.185014 -0.0771537 -0.0708096 0.782647 0.323879 -0.531569
-0.031495 0.05485 -0.0556639 -0.527806 -0.647879 -0.549249
0.173433 -0.10805 -0.189008 -0.0562998 -0.718922 -0.692807
-2.98023e-08 0.0278749 -0.396031 0.00899738 0.725222 -0.688457
0.19328 0.0162336 0.19249 0.813823 -0.532497 0.232676
-0.171377 -0.0957455 -0.0109821 -0.160277 -0.985411 -0.0572465
-0.0890719 0.00283375 0.429306 -0.445526 -0.800181 0.401519
0.178651 -0.10088 -0.0965454 0.0533214 -0.982988 -0.17576
4.17233e-07 0.0971942 0.235842 -0.021046 0.675994 0.736607
0.100023 0.0650923 0.348378 -0.463356 0.877726 0.122059
-0.0933041 0.0558538 0.386454 0.445513 0.772505 0.452497
0.0201317 -0.00759447 -0.453969 -0.0571477 -0.703782 -0.708114
-0.176335 -0.0475288 0.0912247 -0.786707 -0.42384 0.448833
-0.174704 -0.107205 -0.179433 0.00957483 -0.967294 -0.253477
0.151725 0.0196732 -0.366721 0.451445 0.403842 -0.795681
-0.14471 0.0654906 -0.173425 0.617236 0.78409 0.0649757
-0.194779 0.0481185 0.27097 -0.880421 -0.468702 -0.0719504
0.0042448 0.106471 0.0167583 0.0566716 0.72277 -0.688761
-0.181928 0.0610508 -0.133565 -0.960221 0.265212 0.0873955
-0.152942 0.000446916 -0.389071 -0.719042 0.184694 -0.669975
0.185409 -0.0799887 -0.0885908 0.818034 0.424696 -0.387884
-0.124699 0.104157 0.0851004 -0.48184 0.875805 0.0281896
0.12696 -0.0495018 -0.407811 0.481735 -0.391861 -0.783821
0.181253 -0.0788436 -0.0341695 0.98999 -0.098072 0.101498
0.0609091 -0.0702403 -0.398125 0.0929858 -0.578308 0.810502
0.155436 0.0704783 -0.103335 -0.468813 0.864572 -0.180914
0.176418 -0.0305228 0.114124 0.6277 -0.613121 -0.479661
0.14647 -0.0895417 0.110726 -0.32463 -0.855653 0.403079
0.17642 -0.039656 0.122576 0.555241 -0.823641 0.11542
-0.107472 -0.0433297 0.422374 -0.119568 -0.947538 0.296437
0.171819 -0.0959173 -0.0141363 0.130546 -0.989879 -0.0556492
0.175653 -0.0934489 0.183281 0.401867 -0.910011 0.101901
0.0365979 -0.0717476 -0.400227 0.0345431 -0.695363 0.717828
-0.175852 -0.0978895 -0.0489158 -0.0734297 -0.996694 -0.0347605
0.0930341 0.0588274 0.377765 -0.531035 0.798114 0.284634
0 0.0506288 0.405549 0.00587749 0.922104 0.386897
0.190551 0.0341535 -0.300729 0.945782 0.320669 -0.0516509
-0.193169 -0.0551031 0.172785 -0.846588 -0.527957 -0.0674495
0.0972003 0.0463794 0.401393 -0.294125 0.537928 0.790015
-0.183502 0.0757789 0.238007 -0.433804 0.899966 -0.043301
-0.0809737 -0.0686474 -0.395182 0.0478448 -0.517996 0.854044
-0.159571 -0.0708017 0.117634 -0.746635 -0.0875123 0.659452
0.17636 0.0472095 -0.0265101 0.722095 0.658872 0.210872
0.098304 0.0416627 0.406429 -0.29318 0.45381 0.841488
-0.151052 0.0646695 -0.000581354 0.965601 0.257633 -0.0352117
-0.0817359 0.0135903 0.430334 -0.806805 -0.374412 0.457035
0.158253 0.068286 -0.0270188 0.239472 0.942922 0.231414
-0.175796 -0.106386 -0.169858 -0.0149412 -0.968259 0.249503
0.195649 -0.0356148 -0.178381 0.830533 -0.556969 -0.000868243
0.189523 -0.0166368 -0.347074 0.867132 -0.316647 -0.384469
-0.175188 0.0443524 -0.00997102 -0.990581 0.0861389 0.106437
-0.14289 0.0558772 0.176507 0.688679 -0.229945 -0.687638
0.186797 -0.0641696 -0.0383172 0.452082 -0.889709 0.0635566
0.190552 0.0380779 -0.286423 0.967663 0.248225 0.0448698
-0.157595 -0.0918643 0.0642534 -0.0524521 -0.957473 0.283714
0.0243944 -0.0722691 -0.400808 0.0452773 -0.726732 0.685428
0.173095 0.0746873 0.301443 0.315984 0.943176 0.102822
0.182639 -0.066599 -0.00873861 0.954621 0.148373 0.258232
-0.174566 -0.0971538 -0.036252 -0.0827906 -0.99485 0.0584727
0.189615 -0.0751634 0.176809 0.713248 -0.699399 0.0460316
-0.0563965 -0.102261 -0.444505 -0.345834 -0.389738 -0.853524
-0.145956 -0.10117 -0.387634 0.0305695 -0.987795 -0.152734
0.183169 -0.0571055 0.365339 0.763329 -0.645795 0.0166855
-1.78814e-07 0.123234 0.0615545 -0.0113615 0.933385 -0.358697
0.0127787 0.106656 0.0170346 0.198766 0.760201 -0.618535
-0.174751 0.0432984 -0.00410074 -0.99752 -0.0203922 0.067369
-0.0958433 0.0505896 0.395825 0.299519 0.635357 0.711766
5.96046e-08 0.0741326 0.289083 -0.0231553 0.998128 -0.0566141
0.0664538 0.0205878 0.43206 0.356516 -0.11045 0.927738
0.14289 0.0558772 0.176507 -0.67597 -0.183817 -0.713636
-0.17221 0.0367364 0.0310204 -0.973801 -0.219066 0.0610095
0.183462 -0.0697133 -0.0264474 0.805094 -0.339675 0.486257
0.0140946 0.0547281 -0.0581546 0.101151 -0.989973 0.098597
-0.176418 -0.0305228 0.114125 -0.600743 -0.669502 -0.436893
0.178474 -0.100457 -0.0901838 0.049965 -0.981915 -0.182609
-0.0211545 0.0506352 -0.318009 -0.103709 0.804344 -0.585042
2.38419e-07 0.0555348 -0.0808311 -0.054793 0.0606986 0.996651
0.184508 0.0373671 -0.0318727 0.779001 0.5531 0.29536
-0.193657 0.0329282 0.213849 -0.778538 -0.603015 0.173927
0.177752 0.0503196 -0.0452603 0.914144 0.378475 0.145247
-0.0749067 -0.0105615 -0.437567 -0.683112 0.0710846 -0.726846
-2.98023e-08 0.00314316 -0.441999 0.00213788 0.957357 0.288899
-0.139519 0.0628091 -0.192081 0.529303 0.836408 0.14234
-0.164923 0.0698052 0.332873 -0.348152 0.893093 0.284913
0.168262 0.0200563 0.117644 -0.0901929 -0.4201 0.902985
-0.159158 -0.101099 -0.368073 0.138143 -0.958855 0.248021
0.168486 -0.0947355 0.00791365 0.0841091 -0.99602 0.0294837
-0.108305 0.0698722 0.309746 0.154191 0.985823 0.066167
-2.98023e-08 0.0185547 -0.415643 0.00805474 0.646345 -0.763003
0.110242 0.0592299 -0.0274411 0.849866 0.511041 -0.128703
0.0299124 0.106537 0.0178041 0.0898927 0.822187 -0.562075
-0.116343 0.0598873 -0.0239868 -0.583968 0.637846 0.50213
-0.181116 -0.0101199 0.126929 -0.619238 -0.738404 -0.267029
0.160274 -0.0924883 0.051783 -0.0257414 -0.985326 0.168731
0 0.0455469 0.416685 0.00106031 0.930626 0.36597
0.15035 -0.090317 0.0952893 -0.224655 -0.931848 0.284936
-0.110111 0.0704268 0.301106 0.0451643 0.994555 0.0939181
-0.171339 -0.0514748 0.115395 -0.244035 -0.969283 0.0306093
-0.156691 0.00290027 -0.384435 -0.774181 0.286784 -0.564268
0.158357 0.0652556 0.353021 0.440506 0.800616 0.406163
0.175625 0.0453916 -0.0158452 0.914481 0.271874 0.299681
4.76837e-07 0.0985079 0.232209 -0.0200708 0.702919 0.710987
-0.0329967 0.0713826 0.285879 -0.483577 0.323768 0.813221
0.184676 -0.0752185 -0.058967 0.809942 0.140146 -0.569519
-0.178651 -0.10088 -0.0965453 -0.0614792 -0.983557 -0.16981
-0.180469 -0.0608594 0.366665 -0.693478 -0.719834 0.0304509
-0.169495 -0.0950683 0.00162089 -0.162975 -0.985698 0.0428886
-0.11613 -0.00393516 -0.406708 0.144846 0.930561 -0.336266
-0.144877 -0.08923 0.116885 0.308949 -0.76345 0.567181
0.166432 0.0707738 0.327722 0.339552 0.910739 0.235073
-0.123509 -0.0637043 -0.409946 -0.0907279 -0.0341041 -0.995292
0.157746 0.0700791 -0.0632032 -0.102735 0.989734 -0.0993605
4.17233e-07 0.0559631 -0.117168 -0.00758782 0.859609 0.510897
0.156073 0.0705542 -0.0953437 -0.428277 0.88532 -0.181072
0.111015 0.0706342 0.296785 -0.00270507 0.999831 0.0181971
-0.172315 0.002592 0.117175 -0.0105438 -0.663862 -0.747781
-0.119645 -0.0718194 -0.412517 -0.0224585 0.609667 -0.79234
-0.144072 -0.0890736 0.119961 0.321338 -0.744993 0.584574
-0.192404 -0.0286384 0.354779 -0.85278 -0.52197 -0.0177041
-0.0265651 0.0712291 0.288286 -0.483207 0.227357 0.84547
-0.169763 -0.0547934 0.115725 -0.182072 -0.983173 0.0148684
-0.166009 -0.0739408 0.369563 0.352113 -0.935957 -0.00134339
0.0621878 0.0213738 0.432103 0.251152 -0.190209 0.949075
-0.0870451 0.00664356 0.42922 -0.646187 -0.667175 0.370566
-2.98023e-08 0.106414 0.0165591 -0.00653287 0.7206 -0.69332
0.151448 -0.106379 0.189765 -0.23606 -0.951133 0.199053
-0.172773 -0.0515071 0.121348 -0.340717 -0.929832 0.139015
0.144863 0.0214839 -0.368166 0.10564 0.547428 -0.830158
0.173878 -0.0678635 0.36867 0.151498 -0.986982 0.0539904
-0.193895 -0.0396004 -0.0424977 -0.725046 -0.668362 -0.166133
-0.0544235 0.071875 0.275573 -0.772456 0.576793 0.265745
0.185161 -0.0781078 -0.0767344 0.812492 0.364191 -0.455215
-0.161298 0.0479778 -0.311711 0.151988 0.956306 -0.249756
0.193717 0.00118217 -0.194926 0.955726 -0.222128 -0.192992
0.180084 -0.0816858 -0.0332064 0.939718 0.334162 0.072572
-0.185044 0.0277642 0.142751 -0.701061 -0.1782 -0.690477
0.185712 -0.0836402 -0.112331 0.851712 0.470557 -0.230569
-0.145958 -0.00280541 -0.395894 -0.497653 0.115173 -0.859696
-0.0449957 0.0240127 0.432145 0.359936 -0.151346 0.92062
0.0707054 0.0197522 0.432001 0.52081 -0.0561669 0.851823
0.165776 -0.0939183 0.0236188 -0.094224 -0.99049 0.10026
-0.111923 0.070795 0.292465 -0.0718055 0.995455 0.0625637
0.0134123 0.0709242 0.292492 0.221374 0.132061 0.966206
0.181715 -0.0634076 0.00894958 0.98363 0.112323 0.140909
0.16861 0.0232827 0.100494 0.540123 -0.350503 0.765124
0.120746 0.0682239 0.177896 0.618736 -0.785545 0.00925862
-0.0943775 0.0741545 0.233016 -0.660862 0.437968 -0.609463
-0.18194 0.0627324 -0.162866 -0.887608 0.457572 0.0527259
-0.100213 0.00187963 0.426803 -0.951737 -0.0505098 -0.302731
-0.177863 -0.104323 -0.144334 -0.0511017 -0.997333 -0.0521193
0.125947 0.0673999 0.164103 0.564446 -0.805106 0.18222
-0.182281 0.0765724 0.248357 -0.376269 0.926499 0.00459695
-0.151272 0.0641851 0.0688229 -0.929086 0.13769 0.343279
0.0408199 0.0502375 -0.309322 0.238592 0.608729 -0.756652
-0.0938509 -0.0146101 -0.427997 -0.794175 -0.0474216 -0.605836
0.16171 -0.0765364 0.369499 -0.45169 -0.891524 -0.0340698
0.181116 -0.0101199 0.126929 0.625602 -0.717042 -0.307366
-0.122271 0.0163015 0.425849 -0.535348 -0.235107 0.811251
0.141316 0.0269683 -0.363103 -0.269799 0.676623 -0.68512
-0.188236 -0.025234 -0.348554 -0.902671 -0.376422 -0.208548
-0.128286 0.0613204 -0.0166829 0.0488514 0.645783 0.761957
0.0636052 0.105469 0.0240118 0.209918 0.929609 -0.30292
0.0245329 -0.00774378 -0.453484 -0.0602702 -0.692026 -0.719352
-0.16922 0.026599 0.0832462 -0.843511 -0.258905 0.470593
5.96046e-08 0.0998313 0.00425792 -0.0115116 0.74369 -0.668425
-0.116538 0.0708937 0.270922 -0.388702 0.912902 -0.124582
-0.136066 0.0613416 0.195988 0.27137 -0.196629 -0.942176
0.101093 0.0711642 0.22265 0.617787 -0.725288 -0.303804
0.181247 -0.0880756 0.181071 0.482292 -0.872333 0.0801888
0.0987915 0.0533388 -0.263916 0.491689 0.861808 0.124613
0 0.0554482 0.388923 0.00330701 0.985007 0.172483
-0.110658 -0.0112304 -0.414301 -0.626346 0.763456 -0.15756
-0.183363 -0.0551622 -0.350297 -0.782738 -0.424789 0.454835
-0.131916 -0.00650725 -0.405319 -0.38912 0.170462 -0.905278
0.18268 0.0399063 -0.0306331 0.768091 0.56535 0.300693
-0.187766 0.0321446 -0.0341533 -0.837868 0.503926 0.209847
0.0424097 0.0716057 0.281842 0.578568 0.416882 0.701048
0.0536153 0.022795 0.432147 -0.0280306 -0.150324 0.988239
-0.105164 -0.018866 0.432836 -0.564694 -0.251845 0.785936
-0.0986722 -0.019493 0.429428 0.340021 -0.406491 0.848028
0.146288 0.0856826 0.0308181 0.722155 0.605844 -0.333834
-0.176412 0.0761752 0.285446 -0.296894 0.945447 0.134104
-0.141316 0.0269683 -0.363103 0.271761 0.682233 -0.678752
0.177572 -0.0992358 -0.0711179 0.0466142 -0.969178 -0.241913
4.76837e-07 0.054733 -0.180719 0.0236994 0.810689 -0.584997
0.178761 -0.102423 -0.118832 0.0307747 -0.998734 -0.0397805
-0.174907 -0.0973356 -0.0394162 -0.0829706 -0.994724 0.0603349
-0.078233 -0.102013 -0.437021 -0.569085 -0.767733 -0.294495
-0.139864 0.062916 -0.00886533 0.856254 0.364971 0.365549
0.185044 0.0277642 0.142751 0.682312 -0.175144 -0.709771
-0.182925 -0.0676458 -0.0146392 -0.931484 0.0568204 0.359318
0.194785 0.0475285 0.279881 0.942769 -0.33149 -0.0360656
0.18451 -0.0466577 -0.349904 0.80919 -0.530582 0.252376
0.100484 0.0121148 0.423936 0.957781 -0.127739 0.257564
-0.195037 -0.0146654 -0.185578 -0.958018 -0.286627 -0.00683207
4.17233e-07 0.0532177 -0.207906 0.0252184 0.743741 -0.667992
-0.181683 0.0600731 -0.121814 -0.97029 0.230218 0.0744147
-0.135309 0.0659398 0.136076 -0.719686 -0.504362 0.477148
-0.106087 0.0955307 0.17 -0.260732 0.71102 0.653046
0.0847516 0.0518668 -0.278453 0.557294 0.797247 -0.231992
-0.0284638 -0.0721152 -0.400644 -0.0493295 -0.700925 0.711527
-0.100489 0.0154209 0.422742 -0.899729 0.42905 0.0800192
0.157792 -0.0776956 0.119733 0.730355 -0.143384 0.667849
0.129238 0.0127017 -0.386017 -0.453885 0.728233 -0.513484
0.155081 0.0704086 -0.107321 -0.506584 0.844532 -0.173604
-0.176414 -0.0982661 -0.0552543 -0.0787003 -0.991647 -0.102192
0.0486178 0.0551793 -0.0521217 0.730094 -0.257781 -0.63286
0.173627 -0.00453645 0.115677 0.0775557 -0.648175 -0.757532
0.17037 0.0311003 0.0601156 0.94483 -0.264785 0.192834
0.119918 0.0568778 -0.234881 -0.0280786 0.845627 0.533036
0.0759607 0.104785 0.0278409 0.318262 0.905549 -0.280518
0.180286 0.0562303 -0.086499 0.985792 0.167973 0.000225363
5.96046e-07 0.111669 0.187831 -0.0197469 0.931743 0.362582
-0.142266 0.0906408 0.039201 -0.797646 0.566341 -0.207409
-0.194547 -0.0538554 -0.175041 -0.6528 -0.755454 0.0560471
-0.193779 0.028565 0.322943 -0.957173 -0.228126 0.178263
-0.0341739 0.106455 0.0182344 -0.13015 0.835714 -0.53352
-0.193155 0.000891834 0.344446 -0.878517 -0.269039 0.394749
-0.15818 0.0692267 -0.0430769 -0.194519 0.978327 0.0709869
-0.193037 -0.0157057 0.351092 -0.863621 -0.468513 0.186157
0.193682 0.0256245 0.32616 0.967156 -0.19371 0.164578
-0.140065 0.058212 0.184206 0.668341 -0.202488 -0.715764
-0.182042 0.0618593 -0.1453 -0.936034 0.338623 0.0957868
-0.111195 0.055181 -0.24819 -0.341639 0.915327 0.213213
-0.126603 -0.0528075 -0.407997 -0.408696 -0.348228 -0.843626
-0.154295 0.070203 -0.11527 0.503635 0.858313 -0.0982382
0.189202 0.0294653 -0.0351954 0.874169 0.463493 0.144925
-0.0845983 0.0102865 0.429635 -0.750023 -0.55941 0.352882
-0.0460306 -0.00823763 -0.449118 -0.295813 -0.380321 -0.876271
0.124251 0.067669 0.168718 0.597721 -0.787236 0.15162
0.194007 -0.00183794 -0.192804 0.977603 -0.155553 -0.141758
0.158238 0.0680188 -0.0230154 0.220566 0.926676 0.304339
0.176407 -0.0268328 0.114069 0.605818 -0.52049 -0.601726
4.76837e-07 0.055511 -0.158036 0.0188663 0.959582 -0.280796
0.195927 0.00963971 -0.040713 0.995881 0.0627869 -0.0654132
-0.176766 -0.0487153 0.0853626 -0.872084 -0.372353 0.317527
0.107346 0.070273 0.209435 0.505244 -0.832125 -0.228685
-0.195647 -0.0284661 -0.180401 -0.872568 -0.486582 -0.0431765
0.0687198 0.0560203 -0.0460476 0.723312 -0.0323813 -0.689762
-0.0452166 0.055115 -0.0528553 -0.772504 -0.351413 -0.52891
0.174751 0.0432984 -0.00410074 0.997044 0.00235845 0.076801
0.111349 0.069678 0.200522 0.525825 -0.842173 -0.119383
-0.17692 -0.0986491 -0.0615968 -0.0915272 -0.980907 -0.17159
2.38419e-07 0.0495803 -0.248592 0.0289666 0.579603 -0.814384
0.151361 0.058846 0.372346 0.431148 0.694589 0.575898
-0.193137 -0.00888658 0.177106 -0.838862 -0.541273 0.0577375
-0.181253 -0.0788436 -0.0341695 -0.992708 -0.0563569 0.106561
-1.49012e-07 0.113917 0.0320094 -0.0109687 0.83276 -0.553526
-0.185758 -0.086281 -0.130161 -0.863344 0.462079 -0.20278
0.177339 0.049374 -0.0393725 0.809629 0.586201 0.0294988
0.193161 -0.00122246 0.180393 0.885444 -0.464557 0.0132456
0.0325319 -0.0719411 -0.400451 0.0342424 -0.700962 0.712376
0.178091 -0.0998383 -0.0806471 0.0620782 -0.971719 -0.227832
0.181672 0.0630725 -0.17455 0.773395 0.633592 0.0205496
-0.182002 0.0614768 -0.139434 -0.940184 0.326891 0.0958977
-0.169272 0.0725348 0.317299 -0.32975 0.917125 0.223934
-0.182288 -0.0641925 -0.351046 -0.767733 -0.34119 0.542379
-0.155766 0.0705267 -0.0993427 0.384832 0.914164 -0.127313
4.76837e-07 0.101041 0.224912 -0.0183792 0.779899 0.625636
0.189775 -0.0550711 -0.0402507 0.477497 -0.878581 0.00961611
0.180873 -0.0732606 -0.352262 0.771301 -0.312309 0.554579
-0.153405 0.0699061 -0.123184 0.553628 0.831626 -0.0435204
-0.0514848 0.0718118 0.277241 -0.728135 0.56784 0.383896
-0.167857 -0.0627698 0.120433 -0.31049 -0.943433 0.116322
-0.168346 0.0211196 0.111938 -0.265838 -0.387283 0.882804
-0.190645 0.0312832 -0.231823 -0.913022 -0.393915 -0.105938
-0.182046 0.062197 -0.15116 -0.924293 0.371833 0.0861559
-0.151788 0.0770712 0.0185637 -0.726266 0.584944 -0.361079
-0.168786 0.0243799 0.0947548 -0.710668 -0.27349 0.648193
-0.154064 -0.0910897 0.0797972 0.0528684 -0.926493 0.372581
-0.00582835 0.0268783 0.431938 0.222178 -0.333341 0.916254
-0.0718619 0.105033 0.0264813 -0.280092 0.918997 -0.277476
-0.174301 -0.107484 -0.182625 0.0188059 -0.878742 -0.476926
0.18123 0.0632071 -0.186207 0.706752 0.705719 -0.0496158
0.125524 0.0680768 0.232728 0.714832 0.355768 -0.602034
4.17233e-07 0.052898 -0.212433 0.0245331 0.705557 -0.708229
-0.13233 0.0640269 0.208022 -0.0213212 0.0371783 -0.999081
-0.178813 -0.101971 -0.112461 -0.0567852 -0.993144 -0.102179
-5.96046e-08 0.0491126 -0.334451 0.0095646 0.784291 -0.62032
0.11246 -0.0227818 -0.417327 0.694798 -0.559912 -0.451391
0.158558 0.0404458 0.141151 -0.954606 0.0186256 -0.297288
0.115691 0.0560071 -0.241609 0.106902 0.881681 0.459576
0.0162546 -0.0725114 -0.401056 0.0189778 -0.743691 0.668254
-0.186978 0.0584833 0.177111 -0.583796 0.556304 -0.591361
0.104784 -0.0424153 0.423886 -0.134368 -0.940519 0.31204
-0.0528267 -0.0708016 -0.398982 -0.0829361 -0.621083 0.779344
0.156975 0.0674975 0.00673765 0.653985 0.726871 -0.209673
0.193221 0.0095771 0.186962 0.871962 -0.474993 0.118595
1.78814e-07 0.0490647 -0.253104 0.0315195 0.573624 -0.818512
0.175235 -0.0975188 -0.0425816 0.0642038 -0.997097 0.0409395
-0.185745 -0.0845298 -0.118272 -0.843902 0.49448 -0.208132
-0.177572 -0.0992358 -0.0711179 -0.0599767 -0.971316 -0.230106
0.144369 0.0647064 0.102732 0.927694 -0.0974508 0.360399
1.78814e-07 0.0878198 -0.0157496 -0.0199245 0.774948 -0.631711
-0.194785 0.0475285 0.279881 -0.924916 -0.378012 -0.0404629
0.159617 -0.0923318 0.0549034 -0.0148969 -0.980312 0.19689
-0.07698 -0.0689834 -0.39587 -0.00146375 -0.522874 0.852408
0.186687 0.0662593 0.194329 0.57336 0.747208 -0.336062
0.190549 0.0128062 -0.331655 0.846404 0.230455 -0.480095
-0.107939 0.101986 0.0414038 -0.394856 0.902228 -0.173414
0.183502 0.0757789 0.238007 0.425881 0.904756 -0.00653894
0.18551 -0.0809154 -0.0945225 0.83019 0.434043 -0.349844
0.190555 0.0393091 -0.26418 0.985663 -0.0108102 0.168378
-0.180862 0.0769413 0.258851 -0.36143 0.931285 0.0455734
-0.174213 -0.00817627 0.115119 -0.218949 -0.622366 -0.75148
-0.0683643 0.0721333 0.266127 -0.804385 0.592618 0.0420644
-5.96046e-08 0.108889 0.0214757 -0.00768769 0.745006 -0.667014
0.136948 0.0617572 -0.199442 -0.531549 0.764852 0.363948
0.134208 0.0186985 -0.377103 -0.432213 0.659639 -0.614873
-2.98023e-08 0.00784901 -0.434615 0.00554521 0.943281 -0.331948
0.185698 -0.0879942 -0.14206 0.928537 0.354664 -0.109693
-0.123875 0.0577892 -0.228016 0.0964692 0.915111 0.391492
-0.0520017 0.0553199 -0.0511398 -0.790062 -0.21886 -0.572627
-0.102958 -0.0238951 0.43225 -0.454046 -0.118065 0.883121
-0.19105 0.0260848 -0.221997 -0.918411 -0.345528 -0.192698
0.193209 0.00480637 0.342325 0.899546 -0.288689 0.327835
-0.0987916 0.0533388 -0.263916 -0.469867 0.881848 0.0396208
0.150671 -0.101134 -0.381408 -0.066226 -0.995666 -0.0652999
-0.0424098 0.0716057 0.281842 -0.651137 0.378719 0.657717
-0.125751 0.0582588 -0.224537 0.168346 0.91576 0.364752
-0.12842 0.0272094 0.418622 -0.569351 -0.0576672 0.820069
0.148537 0.0206222 -0.367252 0.31373 0.444964 -0.838797
0.165958 -0.100124 0.186419 0.331884 -0.935314 0.122639
-0.125884 -0.00718421 -0.40785 -0.342939 0.32086 -0.88286
0.0485012 0.0717456 0.278841 0.664863 0.53927 0.516861
-0.193178 0.00247702 0.182359 -0.895229 -0.442385 0.0534931
0.048262 0.0502512 -0.305313 0.420964 0.568382 -0.706917
0.0735447 0.072203 0.261793 0.675372 0.716816 -0.173339
0.0965543 0.0485506 0.398676 -0.285527 0.604584 0.743608
-0.155257 0.0707646 0.010629 -0.691375 0.620725 -0.369731
0.0656844 0.0720905 0.26817 0.76271 0.617974 0.190739
0.141994 0.0649956 0.112323 0.896337 -0.214298 0.388144
-0.107346 0.070273 0.209435 -0.549482 -0.809119 -0.208318
0.148587 0.0643075 0.083416 0.936849 0.137708 0.321482
0.176766 -0.0487153 0.0853626 0.880117 -0.343433 0.327792
1.78814e-07 0.0624714 -0.0501544 -0.0304183 0.645074 0.763514
-0.145575 0.0659966 -0.169652 0.619928 0.782655 0.056047
0.161529 -0.0730487 0.11987 0.770108 -0.355667 0.52956
-0.175653 -0.0934489 0.183281 -0.420804 -0.903503 0.0812771
-0.185712 -0.0836402 -0.112331 -0.846022 0.476065 -0.240017
0.13233 0.0640269 0.208022 -0.0764083 0.0286783 -0.996664
0.137783 -0.00533628 -0.401985 0.384905 0.125899 -0.914329
0.0998041 0.0308968 0.41494 -0.219546 0.357545 0.907723
-0.176118 -0.0230804 0.114069 -0.484825 -0.63622 -0.600141
-0.186291 0.0692839 0.203517 -0.562069 0.783052 -0.266284
-5.96046e-08 0.0388983 -0.367707 0.00979689 0.806716 -0.590858
-0.184973 0.0737359 0.222844 -0.486666 0.865907 -0.115593
0.098057 0.0816455 0.213778 0.177086 0.649581 0.739381
-0.151106 -0.0904715 0.0921952 0.196674 -0.915896 0.349935
0.0232905 0.0261428 0.432031 -0.694885 -0.0107015 0.719041
0.145677 -0.089386 0.113807 -0.33293 -0.803827 0.49297
-0.152826 0.0641971 0.0590495 -0.904338 0.177195 0.388297
0.0276455 0.025823 0.432059 -0.655078 0.0366236 0.754673
-0.101909 0.0664752 0.339851 0.422093 0.896455 0.134928
-0.149558 0.0569263 0.376976 -0.447634 0.637042 0.627536
0.130806 0.0666328 0.150159 0.693126 -0.623845 0.361101
0.134122 0.0620977 -0.0128368 -0.279732 0.588269 0.758742
0.18576 -0.0854101 -0.124216 0.862277 0.471906 -0.183805
0.193075 -0.00723711 0.348147 0.869635 -0.39142 0.300874
-0.1806 0.0631255 -0.197836 -0.702478 0.698836 -0.134736
-0.00863847 0.0511905 -0.322244 -0.18673 0.97189 -0.143396
-0.123288 0.104588 0.0899929 -0.450147 0.891138 0.0569226
-0.158951 -0.0921756 0.058022 -0.0201249 -0.971593 0.235802
0.178453 -0.103354 -0.13158 0.0329892 -0.998683 -0.0392949
1.78814e-07 0.0553301 -0.0717492 -0.0524924 -0.418462 0.906716
-0.193984 0.0339108 0.31611 -0.966088 -0.22876 0.119764
-0.0150424 -0.102561 -0.451702 -0.0879527 0.133671 -0.987115
-0.0489568 -0.102334 -0.446439 -0.216872 -0.233451 -0.947875
-0.153533 0.0739619 0.0145716 -0.750331 0.576844 -0.322884
-0.195193 -0.0465231 -0.176069 -0.720897 -0.689935 0.065552
-0.181047 -0.0612377 0.0207303 -0.985134 0.103946 0.136771
0.0973226 -0.0157039 -0.426101 0.833108 -0.0764252 -0.547805
4.76837e-07 0.054302 -0.189786 0.0252722 0.770377 -0.637087
-0.19055 0.0327713 -0.304182 -0.912228 0.387123 -0.134073
-0.190558 0.0379144 -0.253085 -0.969096 -0.237485 0.06673
-0.182012 0.0624885 -0.157016 -0.893852 0.442366 0.0730792
-0.187157 -0.049284 0.362232 -0.853785 -0.520545 0.00917474
0.0956389 -0.101789 -0.428842 0.521536 -0.81743 -0.244558
0.0624078 0.0505514 -0.296445 0.482709 0.653818 -0.582678
0.17555 -0.0977034 -0.0457482 0.0843933 -0.996358 0.0122244
0.126388 0.0237094 0.421273 0.532502 -0.11313 0.838834
-0.0134123 0.0709242 0.292492 -0.24722 0.121769 0.961278
-0.180077 0.0769745 0.26414 -0.335803 0.939748 0.0641039
-0.181821 0.0605824 -0.127691 -0.96531 0.24867 0.0796281
0.192824 0.00972506 -0.201988 0.936806 -0.241045 -0.25356
-0.184244 0.0194798 0.137699 -0.67844 -0.337866 -0.652354
4.76837e-07 0.0557104 -0.148957 0.016017 0.996712 -0.0794261
0.12997 0.0655719 0.216171 0.332441 0.17349 -0.92703
0.167164 0.0222732 0.124972 -0.964408 0.0311306 0.262578
-0.0145659 0.0266202 0.431977 0.533765 -0.214226 0.818048
-0.107355 -0.013979 0.43307 -0.534955 -0.382549 0.753312
-2.98023e-08 0.0295866 -0.392042 0.00947265 0.74462 -0.667422
0.18672 -0.0339239 -0.349357 0.841486 -0.536785 -0.0613492
-0.100023 0.0650923 0.348378 0.449283 0.881957 0.142467
0.193158 -0.0507526 0.172313 0.813766 -0.579652 -0.0422974
-0.193682 0.0256245 0.32616 -0.965713 -0.19561 0.170691
-0.154919 0.00165087 -0.386746 -0.762533 0.23366 -0.603279
-0.193249 0.0129642 0.189608 -0.848512 -0.493601 0.190749
0.122396 0.0694472 0.245338 0.713311 0.596119 -0.368551
-0.183319 0.0104216 0.133351 -0.618996 -0.612157 -0.492044
0.174562 -0.0427048 0.114651 0.551112 -0.834393 -0.00801822
0.105626 -0.101655 -0.423082 0.44445 -0.886121 -0.131351
0.143881 -0.108347 0.190859 -0.507457 -0.842715 0.179772
-0.144369 0.0647064 0.102732 -0.911342 -0.1037 0.398375
-0.1796 -0.056798 0.0442646 -0.992367 -0.0599779 0.107752
-0.155436 0.0704783 -0.103335 0.404995 0.906483 -0.119452
-0.103951 0.0540349 -0.257758 -0.388503 0.915302 0.106247
0.0961168 0.0617824 0.36527 -0.499914 0.862225 0.0815737
-0.173147 -0.0928281 -0.358079 -0.432095 -0.79806 0.419992
0.157822 0.044607 -0.322507 -0.164947 0.922133 -0.349947
0.190549 0.0233807 -0.320373 0.873585 0.353976 -0.333991
0.155499 -0.091399 0.0735857 0.00531804 -0.941738 0.336305
-0.0993184 -0.0122895 0.429003 -0.290425 -0.84997 0.439551
-0.185714 0.0353006 0.148464 -0.675347 0.0610388 -0.73497
0.117138 -0.0761424 -0.414218 0.0564655 0.853787 -0.517551
0.0849563 -0.0683047 -0.394442 -0.134224 -0.507933 0.850875
0.0563965 -0.102261 -0.444505 0.33958 -0.386631 -0.857439
-0.120187 0.0123921 0.427751 -0.511359 -0.292958 0.807891
-0.115678 0.101033 0.0454551 -0.251631 0.924712 -0.285639
0.197256 -0.0177414 -0.0434729 0.903789 -0.356282 -0.237125
-0.190549 0.0128062 -0.331655 -0.87286 0.227067 -0.431922
0.185947 -0.0382358 -0.349592 0.832809 -0.552794 0.0291225
-0.193717 0.00118217 -0.194926 -0.965709 -0.215076 -0.145424
-0.179279 0.062575 -0.215218 -0.600004 0.760234 -0.249077
-0.172969 -0.108338 -0.1922 0.062852 -0.689958 -0.721115
-0.0808322 0.0722622 0.254647 -0.798577 0.539224 -0.267417
-0.178428 -0.0533822 0.0618916 -0.976404 -0.174803 0.126803
0.190556 0.0389898 -0.260465 0.979148 -0.1102 0.170659
-0.147963 0.0673396 -0.158229 0.623664 0.78125 0.026306
0.190551 0.0364337 -0.293663 0.962291 0.271976 0.00492662
0.159571 -0.0708017 0.117634 0.71733 -0.128946 0.684697
0.19055 0.0255941 -0.317299 0.869552 0.387212 -0.306508
-0.100449 0.0186645 0.421427 -0.537538 0.721652 0.436202
0.110916 -0.0853364 -0.418506 0.0587592 0.981027 -0.18475
-0.175966 0.0604287 -0.244004 -0.297737 0.886085 -0.355255
1.19209e-07 0.0573888 -0.0560426 -0.0192757 -0.31824 0.947814
0.197194 0.000685573 -0.0421573 0.983753 -0.0962958 -0.151513
4.17233e-07 0.0559571 -0.126252 0.00113542 0.937286 0.348559
0.132566 0.0602178 -0.21034 -0.441778 0.760693 0.475582
-0.178194 -0.103834 -0.137956 -0.0493922 -0.998429 -0.0264659
-0.195245 -0.0180374 -0.184108 -0.936768 -0.349822 0.00952892
1.19209e-07 0.095967 -0.00249627 -0.0163245 0.8461 -0.532774
-0.140698 0.0633412 -0.188375 0.542491 0.828716 0.1376
-0.110916 -0.0853364 -0.418506 -0.0538724 0.976916 -0.20672
-0.0914578 0.057527 -0.0368634 -0.911587 0.191728 -0.363662
-0.183797 0.0150491 0.135434 -0.66752 -0.50707 -0.54525
-0.178609 0.0448296 -0.0279523 -0.762231 0.597675 0.248573
0.173012 -0.108471 -0.192447 -0.0626496 -0.678271 -0.732136
-0.104784 -0.0424153 0.423886 0.0912652 -0.9462 0.310444
-0.17924 0.0769113 0.269448 -0.312435 0.947178 0.0723693
0.127605 0.067137 0.159471 0.591343 -0.759602 0.270771
0.118296 -0.101487 -0.414398 0.214386 -0.96301 -0.163248
0.186291 0.0692839 0.203517 0.540257 0.800476 -0.259537
-0.17636 0.0472095 -0.0265101 -0.751496 0.632744 0.186785
1.78814e-07 0.0919636 -0.0091671 -0.0172695 0.692469 -0.721241
-0.0946364 0.0577842 -0.0353895 -0.899215 0.171871 -0.402334
-0.180286 0.0562303 -0.086499 -0.994825 0.0993963 0.0210562
0.109208 0.0701728 0.305426 -0.163682 0.985878 0.035404
0.122517 0.067944 0.173316 0.587522 -0.807893 0.0461212
0.158219 0.0690117 -0.0390569 0.166532 0.986019 -0.00587489
-0.0162546 -0.0725114 -0.401056 -0.0135502 -0.744462 0.667528
-0.12696 -0.0495018 -0.407811 -0.46955 -0.360308 -0.806041
-0.165958 -0.100124 0.186419 -0.371532 -0.9233 0.0973656
5.36442e-07 0.103445 0.217575 -0.0172585 0.819194 0.573257
0.194412 0.0422094 0.300997 0.974202 -0.221148 0.0449853
0.194565 -0.0364793 -0.0427955 0.728834 -0.63846 -0.247327
0.131745 0.0157479 -0.381603 -0.462936 0.67966 -0.568992
0.185955 -0.0819767 0.178882 0.598386 -0.797969 0.0719755
0.187926 -0.0786586 0.177825 0.658782 -0.750676 0.0499237
-0.118821 -0.000423074 -0.40276 0.262379 0.9081 -0.326361
0.185465 -0.0904923 -0.159925 0.958908 -0.139658 0.246962
4.76837e-07 0.055094 -0.171649 0.02158 0.847617 -0.530169
0.0211544 0.0506352 -0.318009 0.13222 0.802648 -0.581613
-0.0654049 0.0558718 -0.047116 -0.738478 -0.0808385 -0.669415
-0.16899 0.0254858 0.0890055 -0.775021 -0.24675 0.58177
-0.0707054 0.0197522 0.432001 -0.554635 -0.119064 0.823531
0.067743 0.105261 0.0252042 0.22462 0.923513 -0.310918
0.0668052 -0.00954092 -0.441224 0.644269 0.0289462 -0.764251
0.139519 0.0628091 -0.192081 -0.565212 0.784824 0.25414
-0.114232 -0.0806469 -0.41621 -0.0587456 0.937834 -0.342077
0.0784706 0.072249 0.257118 0.740342 0.626072 -0.244802
-0.173433 -0.10805 -0.189008 0.042996 -0.728399 -0.683803
-0.110242 0.0592331 -0.0274312 -0.904481 0.421786 -0.0633328
-0.163841 0.0308163 0.130907 0.877139 0.344055 -0.335041
0.186247 0.0421149 0.154799 0.652728 0.211335 -0.727519
0.158056 0.0696137 -0.051124 0.0273626 0.998061 -0.0559151
0.144322 0.0882525 0.0349894 0.758606 0.594128 -0.267447
0.170482 -0.0572367 0.120849 0.325729 -0.927843 0.18168
0.178428 -0.0533822 0.0618915 0.970026 -0.207977 0.125674
0.080039 0.104516 0.0292805 0.350609 0.893901 -0.279311
0.107939 0.101986 0.0414038 0.422846 0.888529 -0.178093
-0.178453 -0.103354 -0.13158 -0.0464958 -0.997704 -0.049244
0.081815 0.0568097 -0.0410727 0.856263 0.0530626 -0.513808
0.178362 -0.100249 -0.0870041 0.0455328 -0.976351 -0.21134
0 0.0138056 0.432328 -0.0213058 -0.796044 0.604863
-0.19055 0.0233807 -0.320373 -0.88372 0.356215 -0.303562
0.0746554 -0.102056 -0.438444 0.589977 -0.69327 -0.413889
0.193147 -0.00501257 0.178644 0.883018 -0.467384 0.0428076
-0.185201 -0.0424894 -0.349763 -0.848902 -0.492303 0.192363
-0.134208 0.0186985 -0.377103 0.436632 0.65455 -0.617184
0.119505 0.100513 0.047567 0.163869 0.918481 -0.359915
-0.0990105 -0.0158862 0.429271 0.0105487 -0.842519 0.538564
0.186029 0.0705917 0.208238 0.510127 0.830306 -0.224417
-0.101634 0.0883859 0.194436 -0.0885638 0.652433 0.752654
-0.185293 -0.0790528 -0.0826614 -0.813599 0.40737 -0.414858
0.0788682 -0.0111932 -0.435679 0.729793 0.0809976 -0.678853
-0.185947 -0.0382358 -0.349592 -0.868572 -0.48813 0.0855082
-0.0363366 0.0250232 0.432111 0.580432 -0.0483101 0.812874
0.116971 0.104676 0.114901 0.294168 0.947154 0.127926
0.107882 -0.0150121 -0.417942 0.924471 0.351908 -0.146676
-0.185161 -0.0781078 -0.0767343 -0.829314 0.371539 -0.417369
0.0200306 0.0710753 0.290485 0.213851 0.216593 0.952552
2.98023e-07 0.123447 0.111625 -0.0160124 0.998045 -0.0604092
-0.185594 -0.081833 -0.100456 -0.835687 0.458743 -0.301963
-0.194756 0.0469122 0.284259 -0.935046 -0.354503 -0.00393722
0.19001 -0.0124408 -0.345993 0.871974 -0.249437 -0.42124
-0.0710506 -0.102099 -0.439797 -0.586076 -0.598751 -0.545905
-0.155499 -0.091399 0.0735857 -0.0195414 -0.935583 0.352565
-0.158056 0.0696137 -0.051124 -0.107157 0.993981 -0.0227875
0.153405 0.0699061 -0.123184 -0.621947 0.768794 -0.148786
-0.125947 0.0673999 0.164103 -0.596542 -0.774308 0.21115
0.0445715 0.0502325 -0.307354 0.335942 0.591921 -0.732647
0.193123 -0.029278 0.172427 0.779559 -0.626312 -0.00451918
0.193133 -0.0377851 0.171868 0.777482 -0.628713 -0.0155242
0.1806 0.0631255 -0.197836 0.649515 0.748747 -0.132317
0.0749067 -0.0105615 -0.437567 0.687665 0.0873706 -0.720752
-0.100041 0.0279616 0.416748 0.139434 0.523048 0.840821
0.174301 -0.107484 -0.182625 -0.041493 -0.885573 -0.462644
-0.194519 0.0437328 0.296949 -0.964536 -0.250355 0.0836279
-0.109767 -0.0211403 -0.418949 -0.742502 -0.497244 -0.44882
-0.138337 -0.101244 -0.396426 -0.0613447 -0.972367 -0.225252
0.127558 0.0587369 -0.221028 -0.262895 0.843729 0.467983
0.124802 -0.0365259 -0.409444 0.560551 -0.489254 -0.668141
-0.180579 0.0569579 -0.0923894 -0.989475 0.141319 0.0311192
-0.0889272 -0.0679565 -0.393646 0.235578 -0.481349 0.844279
0.17871 -0.102652 -0.122018 0.0366875 -0.998849 -0.0308971
0.194384 0.045005 0.243807 0.813697 -0.580131 0.0366814
-0.18451 -0.0466577 -0.349904 -0.822517 -0.481554 0.302608
-0.191467 0.0219789 -0.215829 -0.90377 -0.335312 -0.266019
-0.175235 -0.0975188 -0.0425816 -0.0823191 -0.995141 0.0540189
0.0942199 0.0542469 0.389715 -0.386494 0.728841 0.565166
-0.172575 -0.0958599 0.184363 -0.386613 -0.917162 0.0966704
-0.168672 0.0545692 -0.283838 0.151822 0.94921 -0.275592
-2.98023e-08 0.0359686 -0.375888 0.0102588 0.788362 -0.615126
0.140189 0.0928302 0.0434721 0.819573 0.545364 -0.175725
0.194779 0.0481185 0.27097 0.919215 -0.388741 -0.0626389
0.190549 0.0184403 -0.32623 0.900693 0.234122 -0.365977
0.183797 0.0150491 0.135434 0.657923 -0.497253 -0.565576
0.0933695 -0.008867 0.431029 -0.209933 -0.574699 0.79098
3.57628e-07 0.0559207 -0.108083 -0.01329 0.534892 0.844816
-0.0755557 0.0511883 -0.286525 -0.527295 0.703282 -0.476817
-0.14061 -0.00458726 -0.400076 -0.413721 0.0813506 -0.906762
4.76837e-07 0.0545265 -0.185253 0.026299 0.821842 -0.569108
-0.134508 0.0981365 0.0565351 -0.776995 0.629307 -0.0158563
-0.114742 0.103853 0.124983 -0.294947 0.92952 0.221357
0.150052 0.0684305 -0.146666 -0.700637 0.711305 -0.0561511
-0.173627 -0.00453645 0.115677 -0.114735 -0.675402 -0.728469
-0.19055 0.0276385 -0.314136 -0.876056 0.406796 -0.258927
-0.193051 -0.0114335 0.349717 -0.866214 -0.425655 0.261707
-0.118296 -0.101487 -0.414398 -0.206998 -0.963632 -0.16901
-0.132347 0.0663927 0.14548 -0.696653 -0.591001 0.406683
-0.0818143 0.0568217 -0.041036 -0.851085 0.0322047 -0.524039
-0.155979 0.0427629 -0.327816 0.147848 0.902387 -0.40477
0.147392 0.0520006 0.165215 -0.829892 -0.10846 -0.547281
0 0.0475632 0.412943 0.00346816 0.925095 0.379719
-0.186203 0.0347792 -0.0330459 -0.790326 0.571313 0.221328
-0.0691076 0.0508299 -0.291611 -0.536472 0.629548 -0.56202
-0.106497 0.069132 0.318376 0.299561 0.948282 0.104999
5.36442e-07 0.109831 0.195326 -0.0200148 0.917027 0.398322
5.36442e-07 0.117643 0.157533 -0.0179436 0.98326 0.181322
0.18404 0.0752148 0.232899 0.435905 0.899644 -0.0250644
-0.0677431 0.105261 0.0252042 -0.241153 0.921114 -0.305605
0.182012 0.0624885 -0.157016 0.84385 0.530016 0.0836646
-0.0502135 -0.00837553 -0.447751 -0.405864 -0.279453 -0.870161
2.38419e-07 0.0835346 -0.0222389 -0.0215192 0.672475 -0.739807
-0.138269 0.062281 -0.19577 0.538241 0.815685 0.212024
-0.144864 0.0214839 -0.368166 -0.113775 0.542634 -0.832228
-0.100344 0.0053384 0.425965 -0.966938 0.181222 -0.179411
-0.113299 0.069382 0.196035 -0.607307 -0.787788 -0.102798
0.165954 0.0522279 -0.295103 -0.259653 0.939312 -0.224216
-0.0101982 0.0267769 0.431955 0.37535 -0.306209 0.874842
0.1886 -0.0452705 0.360616 0.847573 -0.529463 -0.0359178
0.0995133 0.0337403 0.413004 -0.272081 0.443083 0.854195
-0.100739 -0.0290671 0.431304 -0.124715 -0.083102 0.988706
0.186362 -0.0896148 -0.17693 0.726417 -0.563512 -0.393411
-0.194792 0.0479294 0.275448 -0.906037 -0.415051 -0.082639
0.17221 0.0367364 0.0310204 0.979378 -0.194215 0.0556756
1.78814e-07 0.124283 0.100089 -0.0148146 0.998159 -0.0588111
0.14061 -0.00458726 -0.400076 0.375166 0.130604 -0.917711
-0.192335 -0.0684696 -0.174321 -0.477572 -0.878585 0.00371406
0.180714 0.0423944 -0.0293264 0.779801 0.564746 0.270135
-1.19209e-07 0.124314 0.069232 -0.011979 0.973085 -0.230135
-0.17008 -0.0710371 0.369274 0.128629 -0.991303 0.0278081
-0.0276456 0.025823 0.432059 0.640538 -0.0239731 0.767552
2.38419e-07 0.0840602 0.268073 -0.0185489 0.556494 0.830644
0.0845983 0.0102865 0.429635 0.726492 -0.543208 0.420873
0.175012 -0.0439224 0.108798 0.614194 -0.667618 0.420776
0.149586 -0.0901622 0.0983812 -0.243353 -0.943772 0.223773
0.0487763 -0.0710618 -0.399349 0.0907632 -0.650447 0.754109
-0.0735448 0.072203 0.261793 -0.726742 0.672584 -0.139556
-0.0589643 0.0504436 -0.298765 -0.441602 0.657345 -0.610643
0.0468791 0.106127 0.0201365 0.171726 0.896506 -0.408396
-0.186781 0.0510388 0.165373 -0.670882 0.298221 -0.678956
-0.00145718 0.026924 0.431929 0.0352158 -0.412796 0.910142
-0.0468791 0.106127 0.0201365 -0.19111 0.893197 -0.407033
-0.185396 0.0316243 0.145527 -0.671816 -0.0816066 -0.736209
-0.153864 0.0700662 -0.119232 0.532949 0.842956 -0.0734231
0.115214 0.0690881 0.191528 0.595191 -0.801199 -0.0618663
0.097911 -0.0267139 0.429414 -0.633579 0.0113451 0.773595
0.150686 0.0687401 -0.142783 -0.698336 0.710813 -0.084092
0.117839 0.0564371 -0.238263 0.0274685 0.845296 0.533592
0.177711 -0.0872609 -0.0311513 0.707343 0.705713 0.0404331
-0.169983 -0.0952361 -0.00152773 -0.171239 -0.985211 0.00603815
-0.151856 -0.0906261 0.0890989 0.17721 -0.907686 0.380399
3.57628e-07 0.122357 0.123141 -0.0162631 0.998874 -0.044567
-0.197194 0.000685573 -0.0421573 -0.986775 -0.0940747 -0.132002
0.114232 -0.0806469 -0.41621 0.0651134 0.941642 -0.330257
-0.190533 -0.00438976 -0.342973 -0.904799 -0.0268322 -0.424993
0.0990105 -0.0158862 0.429271 -0.133236 -0.79405 0.593071
0.19761 -0.00846049 -0.043072 0.955526 -0.222236 -0.193859
-0.157822 0.044607 -0.322507 0.125596 0.934244 -0.333787
0.116129 -0.00393516 -0.406708 -0.17769 0.934418 -0.308689
0.193021 -0.0200393 0.352284 0.845841 -0.53216 0.036848
0.180211 0.0630004 -0.203638 0.618235 0.768459 -0.165094
0.0720178 0.0562008 -0.0448708 0.746109 -0.0274291 -0.665259
-0.00336909 0.0707087 0.295181 -0.0889194 0.111163 0.989816
-0.00705981 0.0548625 -0.0584585 0.0357118 -0.85259 0.521358
0.0944183 -0.0128882 0.431302 -0.408628 -0.42964 0.805253
0.185737 -0.0871423 -0.136109 0.899947 0.413288 -0.138881
-0.125334 0.0609467 -0.0185589 -0.150852 0.669244 0.727568
-0.129238 0.0127017 -0.386017 0.451653 0.727399 -0.516624
0.17698 -0.105333 -0.157094 0.0454643 -0.998174 0.0397672
0.170051 0.0299704 0.0659116 0.926776 -0.286817 0.242533
-0.0292011 0.0503995 -0.314771 -0.0725076 0.719225 -0.690983
0.138109 0.0655273 0.126615 0.788447 -0.424795 0.444861
-0.157607 0.0702015 -0.0672293 0.0602516 0.995751 -0.0696384
0.190552 0.038665 -0.282754 0.969099 0.246178 0.0155996
0.137368 0.0603479 0.192031 -0.438449 -0.181919 -0.880152
0 -0.0186538 0.430494 -0.0171407 -0.260236 0.965393
0.0874825 0.0722583 0.246673 0.654033 0.463253 -0.598028
-0.190911 -0.0370609 0.357566 -0.874265 -0.48544 0.00291135
-0.102839 0.0670983 0.335572 0.386393 0.913187 0.129573
-0.123421 0.0690386 0.241119 -0.743427 0.499374 -0.444907
0.11941 0.0703852 0.25808 0.56358 0.780616 -0.270214
-0.19311 -0.0031257 0.346389 -0.882483 -0.268873 0.385917
-0.17761 -0.0510646 0.0736316 -0.947034 -0.228976 0.225162
-0.190552 0.0373345 -0.290061 -0.953904 0.297721 0.0377998
3.57628e-07 0.0916385 0.250271 -0.0179073 0.555817 0.831112
0.127069 0.0993864 0.0519517 0.187477 0.921761 -0.339424
0.156904 -0.091709 0.0673661 0.0305756 -0.953422 0.300087
-0.15058 0.0491652 0.15787 0.895705 0.100079 -0.433241
-0.114962 -0.0245432 -0.415792 -0.666466 -0.584512 -0.462783
-0.090562 0.0524071 -0.272793 -0.553805 0.814836 -0.171297
-0.164479 0.0509199 -0.300691 0.16958 0.959781 -0.223747
-0.184508 0.0373671 -0.0318726 -0.775396 0.564081 0.283854
0.0377012 -0.102431 -0.448817 0.15153 -0.0926333 -0.984102
-0.19001 -0.0124408 -0.345993 -0.90905 -0.206847 -0.361721
0.190583 0.0327425 -0.235236 0.895858 -0.442947 -0.0351708
0.178234 -0.100043 -0.0838252 0.0603207 -0.972983 -0.222858
