0.132225 0.00833976 0.439039 0.38315 0.803575 -0.45548
-0.160527 -0.0606543 -0.318423 -0.759383 -0.532389 -0.374031
-0.179504 -0.0892817 0.0195401 -0.200207 -0.976899 0.0747423
0.179299 -0.0900871 -0.0360946 0.206398 -0.978199 0.0229595
-0.0196435 -0.0107822 0.482348 0.0157857 -0.791299 0.611226
-0.102414 0.0332754 0.408401 -0.449267 0.813502 0.369289
0.0754907 0.0520574 0.305409 0.870669 0.479232 -0.110782
0.0415336 0.000534713 -0.412131 0.126949 0.300257 -0.945373
0.0968699 -0.0914353 -0.316483 0.18278 -0.973572 -0.136924
0 0.1064 -0.129068 0.0153902 0.9927 -0.119624
-0.177113 -0.090798 -0.0917822 -0.165818 -0.982938 -0.0796033
-0.0782609 -0.0290569 -0.380385 -0.19339 -0.933677 -0.301408
0.138638 0.0541165 -0.144136 0.856771 0.284376 0.430203
0.130701 0.0614496 0.120489 -0.85323 0.500059 0.14812
-0.0905475 -0.0914146 -0.318263 -0.157856 -0.981248 -0.110611
0 0.0590352 0.0956595 0.0120099 0.795029 -0.606452
-0.14084 0.0598794 0.0349778 -0.693303 0.680625 0.236814
0.163053 -0.0243361 -0.344389 0.516348 -0.377017 -0.768923
-0.183513 0.0164492 0.41417 -0.505964 0.854733 0.115894
-0.117691 0.0939214 -0.18711 -0.651224 0.738178 -0.176069
0 -0.0596189 -0.373141 0.00715879 -0.613627 -0.789564
0 0.102718 -0.189724 0.00403108 0.996609 0.0821898
-0.0572821 -0.0282037 -0.387245 -0.222053 -0.92555 -0.306675
0.173547 -0.0887984 0.193514 0.145128 -0.987003 0.0690149
-0.123831 -0.0897446 0.443812 -0.574646 -0.746812 0.334744
0.1887 0.00874764 0.0900109 0.958291 0.205481 0.198634
-0.162582 -0.0902738 0.421492 -0.817724 -0.55484 0.153232
0.105534 0.0357492 0.398343 0.53796 0.767494 0.348644
0.0279227 0.0031361 0.483704 0.15308 0.382523 0.911177
0.10703 0.0550663 0.264531 -0.574281 0.693804 -0.434555
-0.16963 -0.0916284 -0.186098 -0.178219 -0.954205 0.240272
0.0679696 0.0531872 0.305404 0.753768 0.654705 -0.0565288
-0.0312174 -0.000247717 -0.413766 -0.0117785 0.250931 -0.967933
-0.13473 0.0663874 0.20441 0.014793 0.994018 0.10821
-0.180182 0.0404365 0.208117 -0.353777 0.899466 -0.256522
-0.0512922 -0.0893532 0.46415 -0.056122 -0.557367 0.828367
-0.123521 0.102332 -0.0783162 -0.631082 0.775439 -0.0207604
-0.1866 0.0366022 0.256272 -0.837977 0.518301 -0.170758
0.179668 -0.0895362 0.00242832 0.194131 -0.979013 0.0620218
-0.0954897 -0.0296208 -0.373923 -0.0569491 -0.920733 -0.386015
-0.115888 0.0666729 -0.328488 -0.262751 0.927076 -0.267379
0.00378627 0.0578588 0.303679 0.0308171 0.957556 0.286596
0 0.0594156 0.241544 -0.00230934 0.968934 0.247308
0.129922 0.0633121 0.249919 0.00651757 0.999147 -0.0407678
0.14163 0.0550153 -0.0873261 0.625279 0.550618 -0.553033
0.162623 -0.0359736 -0.336443 0.589192 -0.165644 -0.790832
-0.173091 -0.0893732 0.238228 -0.173148 -0.984627 0.0229954
0 0.0781451 -0.352964 0.00206886 0.945949 -0.324309
0.133176 0.0433422 -0.337043 0.727116 0.680697 -0.0891881
-0.189388 0.00186974 -0.0497872 -0.979123 0.199541 -0.0387427
-0.0400567 0.105784 -0.150594 -0.127824 0.990959 -0.0407627
-0.11901 0.0593694 0.197317 0.840272 0.536616 -0.0773747
0.0713005 0.0587878 0.0721754 0.585906 0.753606 0.29798
-0.128757 0.0613104 0.134089 0.876967 0.48038 0.0128375
-0.176937 -0.0883083 0.0836476 -0.174375 -0.974209 0.143215
-0.121819 0.0598542 -0.302493 -0.870398 -0.492082 -0.0162082
-0.0952808 0.00279772 -0.397443 -0.324559 0.274327 -0.90521
5.96046e-08 0.00734276 0.474721 0.0223055 0.777393 -0.62862
0.128778 0.0917076 -0.0352936 0.760175 0.55216 0.342424
0.1081 0.0382711 0.388238 0.55316 0.76019 0.340772
-0.187082 0.0321503 0.223009 -0.898614 0.0621354 -0.434318
0.187609 0.00127557 -0.129597 0.985019 0.136614 0.105234
-0.171997 0.0429173 0.147686 -0.447479 0.890254 -0.0849166
-0.126446 0.0979031 -0.0498817 -0.806393 0.500002 0.3158
0.10167 0.100897 -0.150358 -0.374723 0.924761 -0.0663373
5.96046e-08 0.0160105 0.449257 0.0472731 0.50093 0.864196
-0.155394 0.0414506 -0.21692 -0.0569067 0.998333 -0.00964628
-0.116892 0.0908898 -0.209524 -0.560543 0.776646 -0.287423
0.0726014 0.0397886 0.400014 0.0309031 0.999522 -0.000818258
0.164938 0.0421293 0.0136534 0.689235 0.724522 -0.00485141
-0.0804279 0.102766 -0.0483526 -0.324637 0.934399 0.146662
-0.137273 0.0541009 -0.16305 -0.969221 0.227687 0.0936412
0.026483 0.0574733 0.304816 0.261953 0.93268 0.247967
0.167838 -0.0917118 -0.203252 0.182908 -0.98253 0.0343342
-0.136858 0.042554 -0.319096 -0.657792 0.753177 0.00573344
0.0545925 0.105185 -0.150486 0.205248 0.977641 -0.0457339
0.0226153 0.031187 0.432418 -0.243574 0.842144 0.481108
-0.176355 -0.0909426 -0.104639 -0.173211 -0.964176 -0.200906
0.163805 0.0423627 -0.150435 -0.0329832 0.999323 -0.0162729
0.0827214 0.0244131 0.443655 0.201692 0.915459 0.348218
0.163646 0.00238165 -0.353753 0.831124 0.554575 -0.0409808
-0.172841 -0.0913935 -0.151794 -0.250407 -0.96235 0.105728
-0.0318971 0.00307983 0.483229 -0.09326 0.393378 0.914635
-0.0726014 0.0397886 0.400014 -0.0666165 0.997387 0.0279507
-0.160828 -0.0578458 -0.320557 -0.741547 -0.528816 -0.41287
0.17354 -0.0886093 0.181559 0.162133 -0.98397 0.0742695
0.00531068 0.0157528 0.463687 -0.661474 0.688177 0.298103
0.0688895 -0.00679874 0.476313 0.140518 -0.724753 0.674528
0.0887085 0.00266755 -0.399836 0.355176 0.277331 -0.892713
-0.11602 0.0854324 -0.243264 -0.518396 0.717607 -0.465087
-0.0132007 -0.010998 0.482719 0.01531 -0.787861 0.615663
-0.122631 0.0603014 0.174785 0.897876 0.439651 0.0229067
-0.062578 -0.00790814 0.477415 -0.200313 -0.751122 0.629039
-0.142443 0.0558037 -0.0607902 -0.821481 0.117006 -0.558102
0 0.0596966 0.223862 -0.00104738 0.990074 0.140543
-0.117312 0.0627536 -0.332483 -0.441697 0.760892 -0.475339
-0.17778 -0.0906452 -0.0789273 -0.194386 -0.9777 -0.0794821
-0.115628 0.0800149 -0.271516 -0.563653 0.606006 -0.561295
-0.17174 -0.0897874 0.285736 -0.172597 -0.984762 -0.0213027
0.114623 0.0468094 0.35401 0.462542 0.841567 0.278961
5.96046e-08 0.0243377 0.423679 0.0227305 -0.749574 0.66153
0.186212 0.0386253 0.281222 0.73959 0.637303 -0.216452
0.177209 -0.088373 0.0793771 0.186996 -0.974824 0.121453
-0.188042 0.0184793 0.148185 -0.974515 0.144104 0.171915
-0.0371172 0.0175087 0.461732 0.114218 0.934443 0.337299
-0.173562 -0.0913217 -0.143219 -0.294568 -0.949123 -0.111337
-0.102773 0.102766 -0.0543979 0.0148149 0.978725 0.204643
-0.13458 0.0122154 0.428544 -0.0663423 0.989286 -0.130043
0.141068 0.0658315 0.106894 0.262931 0.956359 0.127457
-0.15733 -0.0917229 -0.289018 -0.504688 -0.798907 -0.327167
-0.0477522 0.00286022 0.48085 -0.251073 0.428165 0.868123
-0.0227029 0.057651 0.304679 -0.160319 0.956583 0.243408
0.0154493 0.102767 -0.0387347 0.159843 0.95937 0.232507
0.126998 -0.089775 0.442475 0.533069 -0.779461 0.329057
-0.169362 0.0430348 0.123386 -0.548733 0.835632 -0.0247329
0.0364198 0.105876 -0.150628 0.105649 0.993208 -0.0487499
0 0.0860599 0.00898951 0.0101118 0.948765 0.31582
0.0109664 -0.0254684 -0.399019 0.538772 -0.482853 -0.690346
-0.112846 0.0573486 0.233241 0.750042 0.648693 -0.128978
-0.0529098 0.0190427 0.459605 -0.0624666 0.926067 0.372153
-0.121277 0.06018 -0.306246 -0.890167 -0.423812 0.167292
-0.0713913 0.00256059 0.475954 -0.203308 0.532128 0.821891
-0.170121 -0.0899922 0.321257 -0.186469 -0.981795 -0.0361687
-0.177708 -0.0885029 0.0708346 -0.196686 -0.971815 0.129963
0.157414 -0.0863341 -0.297859 0.703355 -0.428881 -0.56688
-0.179532 -0.0899076 -0.0232506 -0.199518 -0.979877 -0.00581694
-0.114682 0.00297758 -0.389291 -0.306324 0.281944 -0.909215
0.120326 0.0538327 0.319667 0.203862 0.977264 -0.0582772
0.0952807 0.00279769 -0.397443 0.322368 0.293675 -0.899908
-0.00799465 0.00341889 0.485323 0.206188 0.525654 0.825333
0.094033 0.0491458 0.326652 -0.0470616 0.977165 0.207204
5.96046e-08 0.0345001 0.390624 -0.00695092 0.735256 0.677753
-0.11245 -0.0300816 -0.366748 0.114329 -0.832985 -0.541355
0.134251 0.0661567 0.209491 -0.0531721 0.993485 0.100798
-0.187558 -0.00860757 -0.150262 -0.999045 -0.0416529 0.0132059
0 0.106589 -0.0714291 0.0103033 0.990495 0.137162
0 0.0865701 -0.308885 -0.00621991 0.966032 -0.258349
0.177345 -0.0907479 -0.0874971 0.164014 -0.98258 -0.0873884
-0.0937122 -0.0914248 -0.317387 -0.168621 -0.97691 -0.131201
0.164638 0.0421553 0.0380521 0.801757 0.597612 0.00675801
0.127827 0.0567074 -0.257389 0.767601 -0.603799 0.21498
-0.0578837 0.0367134 0.417039 -0.113833 0.974917 0.191257
0.176689 0.0418937 0.184008 0.351227 0.919933 -0.17425
-0.169135 0.00236762 -0.323275 -0.732271 0.640358 -0.231776
-0.137306 0.0672081 0.173812 -0.0651127 0.99499 0.0758676
-0.186951 0.00128871 -0.145367 -0.951086 -0.202885 0.232964
0.155394 0.0414506 -0.21692 0.0274721 0.999422 0.0200146
-0.120184 0.0992839 -0.13405 -0.75987 0.647165 -0.0614442
-0.189309 0.00174981 -0.0578463 -0.97845 0.20134 -0.0457916
-0.159568 -0.0690151 -0.31194 -0.79175 -0.406483 -0.455965
-0.13937 0.0541989 -0.132781 -0.922554 0.36001 0.138881
-0.154809 -0.0901415 0.428777 -0.631241 -0.642672 0.434174
-0.141483 0.0549199 -0.0911158 -0.597135 0.682516 0.421429
-0.142847 0.0582573 -0.000106871 -0.65781 -0.620266 -0.427265
0.0391437 -0.0912924 -0.328357 -0.147346 -0.979461 -0.13764
-0.138638 0.0541165 -0.144136 -0.89302 0.270535 0.359619
0.061297 0.0373453 0.414008 0.124247 0.966825 0.223188
0 0.0599236 0.201757 0.00104914 0.996985 0.0775899
-0.143943 0.0416 -0.283122 -0.298281 0.953875 -0.0339321
0.165408 0.0426394 -0.13226 -0.000651385 0.998273 0.0587412
0 0.0810707 -0.338302 -0.0017969 0.948185 -0.317714
-0.10455 -0.0895959 0.451067 -0.466582 -0.81764 0.337292
-0.157186 0.0415724 -0.204851 -0.0735329 0.996815 -0.030873
-0.166563 0.042617 -0.0168141 -0.381476 0.923309 -0.0444471
-0.00994316 -0.0110972 0.482874 0.0028591 -0.764575 0.644529
-0.171698 -0.0914917 -0.164658 -0.248743 -0.934677 0.253981
0.117476 0.0932078 -0.192708 0.635689 0.758566 -0.143098
0.0673741 0.0209889 0.455146 0.0781449 0.931356 0.355625
-0.065736 -0.00737876 0.476879 -0.175885 -0.758275 0.62776
-0.049334 0.0586897 0.0789026 -0.559933 0.703082 0.438349
0.142197 0.0610248 0.0444825 0.579586 0.813704 -0.0443494
-0.0653502 0.00188988 -0.406951 -0.315888 0.208091 -0.925696
-0.185046 0.0359139 0.347764 -0.608531 0.778952 0.151408
0.12207 0.0594214 0.0474674 0.445331 0.786774 -0.427395
-0.0423934 0.0179873 0.46111 -0.00910893 0.949368 0.314035
-0.189502 0.00294605 -0.00102967 -0.976884 0.211245 0.0327562
0.141491 0.0613161 0.0311631 0.745846 0.537402 0.393589
0 -0.0779237 -0.352808 0.00648593 -0.515916 -0.856615
-0.167779 0.0430372 -0.0411606 -0.253582 0.967241 -0.0118838
5.96046e-08 0.0555244 0.312748 0.00207271 0.84051 0.541792
0.142872 0.05678 -0.0342445 0.669277 -0.450184 -0.591102
-0.143742 0.022767 0.393954 0.284007 0.954149 0.0945483
0.119886 0.0988367 -0.139627 0.793664 0.607067 -0.0395839
-0.165673 0.0425621 0.0746549 -0.727495 0.678961 0.098805
0.137273 0.0541009 -0.16305 0.927539 0.261935 0.266573
-0.125412 0.0608577 0.156719 0.899944 0.428577 0.0801397
-0.118393 0.0958883 -0.170332 -0.768775 0.599463 -0.222776
-0.130701 0.0614496 0.120489 0.851415 0.505118 0.141241
0.137306 0.0672081 0.173812 0.0296609 0.997775 0.0597048
0 0.0586424 0.0851934 0.0286117 0.384443 -0.922705
-0.0231667 0.102767 -0.0392192 -0.0947763 0.936317 0.338125
0.114683 0.00297755 -0.389291 0.318411 0.273435 -0.90766
0 -0.0421134 -0.389474 0.00105274 -0.147578 -0.98905
-0.140227 -0.0916138 -0.300896 0.0597491 -0.952002 -0.300202
-0.17754 0.0415955 0.190044 -0.343548 0.92073 -0.185017
0.156303 0.0415075 -0.210887 0.0276465 0.998991 0.0354009
0.0879236 0.102766 -0.0502311 0.247177 0.951092 0.185278
5.96046e-08 0.0311837 0.401663 -0.00477749 0.640746 0.767738
-0.171959 -0.0897452 0.279807 -0.162567 -0.986605 -0.0135111
0 0.0859098 -0.31257 -0.00571751 0.954587 -0.297877
0.062578 -0.00790814 0.477415 0.189417 -0.759135 0.622764
0.1828 0.00826618 0.430239 0.399041 0.597305 0.695696
-0.0905344 -0.00160554 0.4713 -0.137075 -0.318863 0.937836
0.106463 0.00223207 0.466006 0.259587 0.203537 0.944027
0.00757161 0.057914 0.303925 0.108733 0.950849 0.289937
0.16637 0.0427237 0.0868493 0.686711 0.719828 0.101374
0.184802 0.0374901 0.238104 0.62508 0.685497 -0.37332
0 0.0978975 -0.234718 -0.00467114 0.992498 -0.122171
-0.1887 0.00874764 0.0900109 -0.94774 0.231963 0.219046
-0.11204 0.0570514 0.237719 0.730879 0.674327 -0.10535
-0.187419 0.027908 0.198064 -0.985817 0.0135125 -0.167282
0 0.0838817 -0.32361 -0.00446952 0.938403 -0.345514
0.188332 0.0139291 0.123251 0.973631 0.187289 0.130254
0.094747 -0.0895387 0.454208 0.405843 -0.805813 0.431228
0 0.106353 -0.0636826 0.0111765 0.988871 0.148354
0.188157 0.00129929 -0.113767 0.962602 0.24728 -0.110682
-0.158481 -0.0917556 -0.280442 -0.472757 -0.854567 -0.214979
0.0385664 0.102767 -0.0407355 0.0697373 0.928217 0.365444
0.165149 0.042174 0.00755638 0.641973 0.757468 -0.118797
-0.117456 -0.089689 0.446376 -0.56515 -0.780838 0.266265
-0.0941782 0.0285823 0.427473 -0.346072 0.845497 0.406656
0.136052 0.0542049 -0.178172 0.982575 0.184883 0.0190768
-0.185654 0.0389636 0.314491 -0.673696 0.738829 -0.0162777
-0.142834 0.0566303 -0.0380372 -0.630771 -0.379073 -0.677075
0.117866 0.00297987 -0.38779 0.301383 0.262839 -0.916561
0.162986 -0.0272593 -0.342425 0.532018 -0.250741 -0.808756
0.115628 0.0800149 -0.271516 0.597602 0.548379 -0.584937
-0.0551919 0.00138566 -0.409406 -0.343651 0.250913 -0.904957
-0.174896 -0.0911641 -0.126071 -0.260412 -0.915851 -0.305618
-0.136913 0.0671374 0.178926 -0.0388368 0.997303 0.0622801
-0.160804 -0.0902499 0.42532 -0.78111 -0.518575 0.347774
0.168557 -0.0901003 0.347843 0.172092 -0.983001 -0.06398
0.136288 0.0612543 0.0795974 -0.530671 0.785296 0.318902
0.0551919 0.00138566 -0.409406 0.304653 0.295119 -0.905589
5.96046e-08 0.0489641 0.338823 -0.00658371 0.884247 0.466973
-0.184037 0.0305718 0.380448 -0.411054 0.864652 0.288809
0 0.102767 -0.03834 0.0145547 0.991442 0.129738
0.131313 0.0553374 -0.227249 0.915111 -0.334151 0.225644
-0.1396 0.0542378 -0.128995 -0.855411 0.506573 0.107961
-0.132846 0.00942826 0.436181 -0.321034 0.92286 -0.212761
-0.182431 0.00166154 -0.215656 -0.948661 0.27845 0.150025
-0.0521078 -0.0913157 -0.326535 -0.0154094 -0.984377 -0.1754
-0.123407 0.0589372 -0.29123 -0.838972 -0.543043 0.0350694
0.0810138 -0.0913858 -0.32072 0.108615 -0.986484 -0.122684
0.189448 0.00200552 -0.0417096 0.981357 0.1919 0.0106739
-0.115658 -0.0915046 -0.310467 -0.286668 -0.94201 -0.174464
-0.135195 0.0665909 0.199325 0.0100779 0.996108 0.0875575
0.16929 -0.0900564 0.336032 0.1761 -0.983274 -0.0464849
0.125436 0.0578519 -0.276199 0.791542 -0.591685 0.152875
-0.162328 -0.0407782 -0.333062 -0.657874 -0.259234 -0.707106
0.136857 0.042554 -0.319096 0.616033 0.787442 0.020917
0.165673 0.0425621 0.0746549 0.75003 0.653402 0.102576
-0.175206 -0.0911219 -0.121784 -0.229681 -0.922935 -0.308931
0.165145 0.0424015 0.0624559 0.75977 0.628625 0.166075
0.189388 0.00186974 -0.0497873 0.981143 0.193199 0.00565134
-0.0545924 0.105185 -0.150486 -0.161982 0.985798 -0.0443087
0.170277 -0.089978 0.3183 0.160643 -0.986516 -0.0312993
-0.130446 0.00292102 -0.381373 -0.158107 0.376388 -0.912871
-0.187987 -0.00510919 -0.150285 -0.975388 -0.207183 0.0754561
0.0458045 -0.00973183 0.479838 0.101199 -0.80162 0.589206
0.129321 0.0628287 0.254945 0.0103008 0.99598 -0.0889837
0.172468 -0.0914275 -0.156082 0.272887 -0.937234 0.217084
0.0920642 -0.0295172 -0.375271 0.111597 -0.925199 -0.362703
0.0715185 -0.0894327 0.460294 0.149651 -0.72578 0.671452
-0.0944438 0.0493711 0.305128 -0.919255 0.346162 -0.187463
0.179 -0.0889587 0.0409207 0.211203 -0.973235 0.0905898
-0.142249 0.0555577 -0.068373 -0.638748 0.293538 -0.711222
-0.157527 -0.0854342 -0.298613 -0.728479 -0.379614 -0.570274
0.136411 -0.0898774 0.438244 0.441843 -0.820977 0.361624
0.0308739 0.102767 -0.0398879 0.0658575 0.930595 0.360077
5.96046e-08 0.00860083 0.47109 0.0375888 0.804319 -0.593007
0.0756454 0.0588168 0.070563 0.634975 0.728796 0.256248
0.12508 0.101557 -0.0586609 0.710383 0.676608 0.193798
-0.169977 0.0430377 0.129466 -0.538803 0.840658 -0.0546391
-0.172459 -0.0918845 -0.147735 -0.0961794 -0.995314 -0.0099679
0.0103011 -0.0891425 0.468196 -0.0865763 -0.422813 0.902072
0.142909 0.0579106 -0.00769332 0.610355 -0.560135 -0.560103
-0.111226 0.0567445 0.242195 0.717573 0.67358 -0.177141
5.96046e-08 0.0398619 0.372177 -0.00709072 0.864167 0.503155
-0.147261 0.0255975 0.382372 0.542952 0.807423 0.230805
0.0905475 -0.0914146 -0.318263 0.160805 -0.978268 -0.130892
0.109427 -0.0914804 -0.312584 0.285467 -0.93794 -0.196919
0.179389 -0.0900278 -0.031813 0.196479 -0.980021 0.0308926
0.0859241 0.0253942 0.439979 0.245637 0.910933 0.331456
-0.0964738 0.000139087 0.469465 -0.0926021 -0.0475813 0.994566
0.168749 -0.0916731 -0.194675 0.188028 -0.971424 0.144846
0.164634 0.0421226 0.0319513 0.784736 0.605261 0.1336
0.139662 0.0187558 0.408403 -0.162535 0.979375 -0.120032
-0.0859241 0.0253943 0.439979 -0.264579 0.915155 0.30412
-0.190184 0.015909 -0.150351 -0.891464 0.452184 0.0286794
-0.0817264 -0.0291793 -0.379148 -0.229304 -0.929618 -0.288496
0.122458 0.101682 -0.0950345 0.621154 0.781427 0.0594948
-0.0109665 -0.0254684 -0.399019 -0.555152 -0.470316 -0.68601
-0.0970835 0.0590203 0.0612423 -0.565291 0.820683 -0.0832218
0.103512 0.0535549 0.282345 -0.253951 0.785198 -0.564777
-0.117897 0.0623539 -0.328738 -0.785505 0.615267 -0.0665488
-0.142939 0.0575738 -0.0152797 -0.624386 -0.544511 -0.560045
0.136889 0.0611746 0.0750463 -0.408406 0.857966 0.311606
0.159613 -0.0917804 -0.271867 0.409015 -0.883763 -0.227311
-0.0476581 0.0185008 0.460402 -0.0114807 0.930149 0.367004
5.96046e-08 0.0518332 0.327662 -0.00466102 0.903036 0.42954
0.161176 0.0419832 -0.174641 0.0379504 0.998748 -0.0325805
-0.0979471 0.0510153 0.30897 -0.702752 0.706296 -0.085359
-0.126998 -0.089775 0.442475 -0.544902 -0.766311 0.340367
0.162396 -0.00063777 -0.359537 0.889346 0.168491 -0.425058
0.00386283 0.102767 -0.0383652 0.0944832 0.97529 0.199708
-0.141701 0.0645892 0.0861514 -0.338371 0.933298 0.120247
0.173033 -0.0894047 0.241203 0.175265 -0.984111 0.0284025
0.175041 0.0423719 0.17192 0.368193 0.915677 -0.161152
0 0.0592424 0.250384 -0.00287885 0.937457 0.34809
0.187082 0.0321503 0.223009 0.887236 0.0560368 -0.457899
0.160729 -0.0587831 -0.319847 0.75482 -0.498932 -0.425808
0.041977 0.0340691 0.426882 0.050903 0.916122 0.397654
-0.118476 0.061965 -0.324992 -0.874531 0.225755 0.42922
-0.163922 -0.0918024 -0.23756 -0.249023 -0.965213 -0.0796998
-0.119615 0.0612196 -0.317497 -0.827096 -0.129475 0.546945
-0.179585 -0.0898467 -0.0189699 -0.217221 -0.976076 0.00951639
0.047899 -0.0893394 0.464672 -0.00907656 -0.626666 0.779235
0.0431397 -0.027505 -0.391302 0.241706 -0.908575 -0.340689
-0.183831 0.0201371 0.405984 -0.519207 0.838228 0.166728
0.0920114 0.0481595 0.335472 -0.305071 0.94702 0.100423
0.0208497 -0.00116244 -0.415054 -0.0390133 0.251276 -0.967129
0.121876 0.00215352 0.460731 0.695512 0.0938629 0.712357
-0.130481 0.0556289 -0.234789 -0.871581 -0.453628 0.185927
-0.128286 0.0565059 -0.253624 -0.755233 -0.596484 0.271715
-0.158896 -0.0745338 -0.30755 -0.80115 -0.24436 -0.546302
0.16544 -0.0917809 -0.224695 0.216571 -0.976231 -0.00832556
-0.0171629 -0.0891873 0.467855 0.234663 -0.441849 0.865854
0.162868 -0.0902689 0.418551 0.783916 -0.620771 -0.0109131
0.0404501 0.0586684 0.0809453 0.468218 0.703328 0.534885
-0.104406 0.0539467 0.277896 0.349753 0.785806 -0.510079
0.116596 0.0593154 0.0507589 0.537941 0.801322 -0.261729
-0.0196039 -0.0912664 -0.330196 0.176204 -0.984227 0.0157695
0.182098 0.000218481 0.43791 0.247705 -0.354144 0.901789
-0.189448 0.00200552 -0.0417096 -0.976752 0.213719 -0.0167261
-0.179672 -0.0896616 -0.00612983 -0.208592 -0.977162 0.040544
0.0410967 -0.0893107 0.465615 -0.0653265 -0.509763 0.857831
0 0.0598894 0.206178 0.000617924 0.990273 0.13914
-0.140455 0.0419813 -0.301122 -0.374788 0.906131 -0.196116
-0.185798 0.0391671 0.306174 -0.686342 0.722625 -0.0821428
-0.0678096 -0.0286571 -0.383934 -0.19006 -0.93217 -0.308117
0.00326446 -0.0912532 -0.330896 -0.0662201 -0.989336 0.129727
0.14182 0.0642213 0.0809557 0.373736 0.917477 0.136223
-0.0701338 0.0391884 0.403765 -0.118154 0.987427 0.105016
0.178347 -0.0886983 0.0580172 0.203692 -0.972834 0.110015
0.154784 0.00253633 -0.366544 0.515173 0.477396 -0.711821
0.159668 0.0418051 -0.186731 0.100622 0.994924 -0.000962362
-0.181555 -0.00374219 0.437589 -0.364567 -0.49452 0.789012
0.065736 -0.00737876 0.476879 0.149757 -0.763422 0.628299
-0.141167 0.0547433 -0.0986945 -0.619929 0.784514 -0.0150519
-0.157908 -0.0917403 -0.28473 -0.494645 -0.827345 -0.266133
-0.167556 0.04296 -0.0350758 -0.256339 0.966204 -0.0271908
-0.0416608 -0.00991341 0.480351 -0.107171 -0.795519 0.596375
0.0578837 0.0367134 0.417039 0.105281 0.977523 0.18266
-0.0553391 -0.0913222 -0.326005 -0.0460942 -0.981775 -0.184372
0.116264 0.0873756 -0.232 0.526382 0.756342 -0.388417
-0.181736 -0.0469659 -0.149671 -0.999667 0.0181276 0.0183445
-0.158211 -0.0800072 -0.303108 -0.781512 -0.196634 -0.592093
0 -0.068987 -0.363179 0.00896067 -0.724382 -0.689341
0.117953 0.0510156 0.334432 0.339875 0.929166 0.145382
-0.120326 0.0538327 0.319667 -0.273568 0.958878 -0.0755922
-0.179343 -0.0891529 0.0280936 -0.204585 -0.974326 0.093986
0.157077 -0.0890259 -0.295589 0.627043 -0.590513 -0.508047
0.179672 -0.0896616 -0.00612989 0.206453 -0.977639 0.0399991
-0.14276 0.00276691 -0.374293 -0.166838 0.431399 -0.8866
-0.179128 -0.0890235 0.0366454 -0.197728 -0.977777 0.0696784
0.0873761 -0.0914047 -0.319111 0.124483 -0.985584 -0.114575
-0.186169 -0.019093 -0.150169 -0.972173 0.233958 0.0119395
0.126115 0.0599723 0.279976 0.123821 0.991264 -0.0454378
0 0.106761 -0.0791606 0.00972176 0.995999 0.0888363
0.15733 -0.091723 -0.289018 0.519081 -0.807211 -0.281008
-0.138067 0.0423403 -0.313107 -0.532652 0.84523 -0.0432192
-0.178679 -0.0903747 -0.0575075 -0.184438 -0.981958 -0.0417291
-0.16476 -0.0902315 0.397953 -0.446227 -0.878622 -0.170013
0.185939 0.0391707 0.297856 0.704054 0.696943 -0.136302
0.153502 0.041364 -0.228979 -0.0298689 0.998751 0.0400641
-0.132873 0.0596659 0.0405103 0.590321 0.774743 -0.226483
-0.162873 -0.0085969 -0.3546 -0.813545 -0.522893 -0.254418
0 0.106515 -0.12525 0.0133716 0.997049 -0.0755996
0.137685 0.0672528 0.168694 0.0735208 0.996419 0.0417604
0.170623 0.0430205 0.135543 0.533873 0.84324 -0.0626542
-0.17343 -0.0890918 0.214403 -0.158735 -0.985441 0.0609106
0.0713913 0.00256059 0.475954 0.180946 0.517961 0.836047
-0.142803 0.0584341 0.00368637 -0.634932 -0.588033 -0.501077
0.170059 -0.0916039 -0.18181 0.171739 -0.953509 0.247642
0.161813 -0.0918062 -0.254714 0.285909 -0.93463 -0.211476
0.17687 -0.0908471 -0.0960676 0.17746 -0.979879 -0.0913536
0.142527 0.0559323 -0.0569984 0.480676 -0.0100277 -0.876841
-0.108886 0.0999467 -0.150356 0.244632 0.959996 -0.136244
0.0713022 -0.028796 -0.382778 0.182545 -0.940143 -0.287764
0.116404 0.0883003 -0.226374 0.536428 0.778182 -0.326617
-0.19028 0.00833219 0.0854254 -0.964537 0.222768 0.141573
0.179488 0.00190526 -0.246587 0.928381 0.363114 0.079105
0.084848 -0.0894897 0.457028 0.344234 -0.731184 0.58896
0 0.105877 -0.0520348 0.0123898 0.998887 -0.0455044
0 0.0959402 -0.249629 -0.00642441 0.99139 -0.130789
-0.142872 0.05678 -0.0342444 -0.665378 -0.427392 -0.612053
-0.0277685 0.0319335 0.431486 0.106535 0.888205 0.446926
0.103164 -0.0914572 -0.31459 0.250547 -0.958062 -0.13908
0.121203 0.0599597 0.183805 -0.889393 0.457141 -0.00118549
0.147297 0.0413861 -0.265098 0.142283 0.989407 0.028779
0 0.0639686 0.0697056 0.0124376 0.999919 -0.00253229
-0.0854045 0.00258809 -0.400972 -0.331386 0.260586 -0.906796
-0.0385664 0.102767 -0.0407355 -0.0484451 0.916236 0.397699
0.0875132 -0.00244477 0.472144 0.0950097 -0.48795 0.867685
0.0985481 0.00284886 -0.396186 0.324909 0.298885 -0.897275
-0.0488724 -0.0913094 -0.327035 -2.18734e-05 -0.989524 -0.144368
-0.0625597 0.0587398 0.0751372 -0.567205 0.72953 0.382184
-0.183519 -0.0365305 -0.149907 -0.980115 0.189382 0.0592291
5.96046e-08 0.0219948 0.430998 0.0104615 -0.829406 0.558549
-0.0674251 0.0385818 0.407357 -0.175784 0.973229 0.148074
0.189491 0.00215784 -0.0336129 0.979371 0.20145 0.0158353
-0.112888 0.0445098 0.363752 -0.415271 0.820932 0.391946
0.0782609 -0.0290569 -0.380385 0.17842 -0.944153 -0.277024
0.17557 -0.0781223 -0.148513 0.477294 0.876121 -0.067839
-0.130225 0.0879244 -0.0265664 -0.696634 0.622653 0.356377
-0.0391437 -0.0912924 -0.328357 0.15921 -0.979913 -0.120093
0.0491354 0.0556026 0.305299 0.426521 0.902793 0.0551809
-0.102252 0.00194922 0.46742 -0.180563 0.259816 0.948626
0.164435 -0.0917969 -0.233272 0.231744 -0.970772 -0.0624163
-0.174042 -0.0850106 -0.148147 -0.728573 0.675683 -0.112399
-0.13805 0.0672717 0.163571 -0.117861 0.991733 0.0507324
0.181088 0.0399547 0.214128 0.359661 0.8657 -0.348149
-0.0909382 0.00235555 0.47078 -0.0955479 0.413018 0.905697
-0.147297 0.0413862 -0.265098 -0.20448 0.978773 -0.0138588
0.138946 0.0668423 0.0196764 0.777281 0.470708 0.417455
0.0151394 0.0578758 0.304346 0.11425 0.957377 0.265286
0.0643085 -0.0285122 -0.385064 0.172408 -0.941035 -0.291082
0.171851 -0.0897667 0.282772 0.146341 -0.98923 -0.00268824
0.129539 0.00213352 0.457923 0.783918 0.162528 0.599213
-0.0727319 0.103942 -0.150405 -0.225675 0.972596 -0.0559245
-0.0159303 0.0160805 0.463366 0.415355 0.887918 0.197693
0.0164334 -0.0108927 0.482544 0.00703688 -0.794503 0.60722
-0.177936 -0.088568 0.0665626 -0.184211 -0.977527 0.102502
0.106881 0.0370058 0.393283 0.534898 0.771184 0.345194
0 0.0766419 -0.360283 0.00466586 0.948484 -0.316789
-0.170894 -0.0915505 -0.173234 -0.210972 -0.940085 0.267826
-0.117866 0.0029799 -0.38779 -0.283396 0.284363 -0.915873
0.0594189 -0.00838324 0.477921 0.185738 -0.76698 0.614201
-0.142171 0.0620471 0.0549212 -0.543664 0.837842 -0.0494975
-0.188787 0.00141576 -0.0899031 -0.973467 0.210905 -0.0887761
0.179128 -0.0890235 0.0366454 0.201562 -0.977032 0.0691487
0.126412 0.0573664 -0.268677 0.789225 -0.598199 0.13886
0.0212361 0.0163511 0.463083 -0.199698 0.943314 0.265104
0.054242 0.0360708 0.419855 0.090418 0.968136 0.233531
-0.141567 0.0649345 0.091343 -0.307916 0.942294 0.131413
-0.117076 0.0916922 -0.203915 -0.582047 0.766562 -0.271302
-0.110195 0.0408132 0.378312 -0.520191 0.799493 0.300355
5.96046e-08 0.0527706 0.323937 -0.00310762 0.896705 0.442618
-0.188518 0.0111727 0.10663 -0.933386 0.239233 0.267504
0.131934 0.0436571 -0.34302 0.561604 0.757146 -0.333662
0.153936 0.0297796 0.362084 -0.844328 0.386025 0.371611
0.0751681 -0.00550002 0.475078 0.122472 -0.668619 0.73345
-0.106164 0.0547024 0.268989 0.516341 0.709711 -0.479273
-0.142609 -0.089956 0.435238 -0.30834 -0.839152 0.448051
0.0059478 0.0288283 0.433215 -0.571618 0.547047 0.611549
0.179504 -0.0892817 0.0195401 0.205554 -0.976167 0.0696103
5.96046e-08 0.0460111 0.349963 -0.00696949 0.913879 0.405927
0.0682181 -0.0913517 -0.323595 0.0900452 -0.973573 -0.209876
0.0359904 0.0586607 0.0818223 0.442401 0.711914 0.545398
-0.164634 0.0421226 0.0319513 -0.777029 0.617066 0.124319
-0.145684 -0.0899987 0.433679 -0.354121 -0.809714 0.467933
0.136665 0.0151538 0.419928 -0.0938677 0.984274 -0.149647
0 0.0593295 0.108918 0.00733307 0.790212 -0.61279
-0.135646 0.0667675 0.194233 -0.0042288 0.998069 0.0619777
-0.13889 0.0541382 -0.140351 -0.892971 0.367979 0.25922
-0.0953734 0.102766 -0.052248 -0.150041 0.970748 0.187446
0.10002 -0.0914462 -0.31555 0.197858 -0.969921 -0.141796
0.102609 0.0531542 0.28679 -0.0908994 0.774799 -0.625638
0.124938 0.0581087 -0.279958 0.780581 -0.603537 0.162592
-0.170623 0.0430205 0.135543 -0.514119 0.855489 -0.0618085
0.121776 0.101125 -0.106179 0.632173 0.774827 -0.000823479
0.0878343 0.0460864 0.353068 -0.361749 0.930372 -0.0595548
-0.121024 0.102765 -0.0603192 -0.238631 0.946368 0.217813
0.173531 -0.088887 0.199487 0.166562 -0.983528 0.0702152
0.142794 0.0417073 -0.289125 0.275368 0.958424 -0.0748088
-0.0920643 -0.0295172 -0.375271 -0.124491 -0.918943 -0.374226
0.172723 0.0428267 0.153751 0.460857 0.883224 -0.0867523
5.96046e-08 0.0377424 0.379563 -0.00752874 0.830306 0.557256
0.119615 0.0612195 -0.317497 0.846621 -0.184646 0.499137
0.0792754 0.0234786 0.447038 0.149009 0.911327 0.383769
0.114249 -0.0896637 0.447603 0.518099 -0.814243 0.261883
0 0.106052 -0.0559212 0.0119835 0.99936 -0.0336936
-0.0681652 -0.0894193 0.461023 -0.140875 -0.66907 0.729726
0 0.0796219 -0.345637 -5.28606e-05 0.948821 -0.315815
0.161271 -0.0918026 -0.259002 0.319523 -0.917322 -0.237542
0.115746 0.0822791 -0.260199 0.594471 0.608221 -0.525997
0.111028 -0.0896397 0.448794 0.461193 -0.846195 0.266936
0.178457 -0.0643053 -0.14912 0.84747 0.53065 -0.0143489
0.16642 -0.0917582 -0.216117 0.211394 -0.977389 0.00477924
-0.140443 0.0544488 -0.113848 -0.658139 0.600052 0.454742
0.121277 0.06018 -0.306246 0.868508 -0.469145 0.15999
0.0462854 0.0347497 0.424791 0.111114 0.924308 0.365115
-0.0358939 -0.0912873 -0.328739 0.164908 -0.980611 -0.105867
0.189167 0.00539449 -0.150331 0.964274 -0.227651 0.135465
0.141901 0.0552194 -0.0797456 0.786113 0.43932 -0.434769
-0.142923 0.0570889 -0.0266587 -0.615935 -0.401919 -0.677559
0.120184 0.0992839 -0.13405 0.754803 0.652654 -0.0656902
0.181555 -0.00374219 0.437589 0.2418 -0.582825 0.775788
0.179585 -0.0898468 -0.0189699 0.21386 -0.976851 0.0051483
0.0604411 0.0542307 0.305383 0.63247 0.773557 -0.0398874
-0.162349 -0.091808 -0.250425 -0.267714 -0.954443 -0.131788
0 0.0927031 -0.271921 -0.00766109 0.980099 -0.19836
0.141769 0.055115 -0.083536 0.754059 0.501639 -0.423972
0 0.100104 -0.216019 -0.00183889 0.998942 -0.0459576
0.15446 0.0414025 -0.22295 0.0101334 0.998953 0.0446207
-0.0756454 0.0588169 0.070563 -0.604707 0.75277 0.260129
-0.131339 0.0614737 0.115952 0.830431 0.552616 0.0707162
0.0538911 0.102767 -0.0429454 0.171912 0.939662 0.295774
0.110327 0.00220793 0.464732 0.36414 0.127366 0.922594
-0.0566742 0.0547155 0.305363 -0.520979 0.851747 0.0557516
-0.113643 0.057636 0.228759 0.757337 0.644725 -0.103777
-0.127436 0.0611621 0.143147 0.898293 0.435113 0.0611991
-0.084848 -0.0894896 0.457028 -0.369766 -0.679577 0.633599
0.119694 0.0983903 -0.150355 0.801266 0.583711 -0.131358
0.140443 0.0544488 -0.113848 0.716339 0.635387 0.288343
0.189524 0.00889829 -0.15034 0.981629 -0.105299 0.159112
0.128738 0.0563131 -0.249859 0.720291 -0.56202 0.406588
-0.078762 0.00239861 -0.403125 -0.37526 0.197358 -0.905666
0 0.104489 -0.167071 0.0126841 0.995522 0.0936792
-0.165408 0.0426394 -0.13226 -0.0157424 0.998034 0.0606736
-0.164681 0.0421058 0.0258511 -0.74106 0.664259 0.0979272
-0.129184 0.0561291 -0.246093 -0.809069 -0.481072 0.337605
-0.180283 0.00184384 -0.23887 -0.938634 0.339839 0.0589494
0.167773 0.0431128 -0.0897904 0.22976 0.973147 0.0139611
-0.0503748 0.0354167 0.422444 -0.129449 0.945751 0.297989
-0.0920114 0.0481596 0.335472 0.299899 0.949471 0.0925493
5.96046e-08 0.0470046 0.346252 -0.00646954 0.920415 0.390888
0.0944438 0.0493711 0.305128 0.930646 0.313277 -0.189094
0 0.0600048 0.184072 0.00280467 0.998506 0.0545664
-0.108735 0.0557661 0.255605 0.665923 0.654738 -0.357582
-0.115795 0.0681629 -0.322758 -0.302056 0.952275 -0.0439787
-0.0562623 -0.00880072 0.478401 -0.19253 -0.77776 0.598349
0.178858 -0.0888937 0.0451954 0.20567 -0.974355 0.0912832
0.164911 0.0425497 -0.13832 -0.0173036 0.999379 0.0306998
-0.12479 0.0594784 0.0457743 0.0082205 0.875879 -0.482462
-0.187309 0.0293846 0.206379 -0.965862 -0.0421779 -0.255602
0.135062 0.0543549 -0.189508 0.978465 0.0909538 0.185294
-0.120479 0.0597733 0.188311 0.872231 0.488982 -0.0104406
-0.167562 0.043068 -0.0958625 -0.171945 0.985101 0.00327195
0.00348309 -0.00300258 -0.416438 -0.116465 0.0707475 -0.990672
0.184382 0.0287223 0.381039 0.371884 0.906916 0.198005
0.107795 -0.0896171 0.449949 0.437633 -0.854556 0.279662
-0.158041 0.0416442 -0.198813 -0.14029 0.98969 -0.0288577
0 0.101795 -0.0327332 0.0127076 0.957397 0.288494
-0.0381012 0.000288129 -0.412715 -0.0817722 0.259774 -0.962201
-0.177466 -0.0884379 0.0751061 -0.199017 -0.970798 0.133951
-0.124726 0.0607346 0.161238 0.903461 0.428617 0.00668005
-0.164638 0.0421554 0.0380521 -0.789631 0.613526 -0.00831062
-0.128305 0.0929576 -0.038207 -0.747708 0.592559 0.299678
-0.168072 0.043141 -0.0533264 -0.179859 0.982666 -0.0449287
0 0.0931539 -0.00997189 0.012005 0.969817 0.243538
-0.0785258 0.0415623 0.38794 -0.0067689 0.99914 -0.0408983
5.96046e-08 0.0546162 0.31648 1.86205e-05 0.892144 0.45175
0.142171 0.0620471 0.0549212 0.531222 0.846426 -0.0369766
-0.0653152 0.102767 -0.0450323 -0.206239 0.947572 0.244075
-0.0145609 -0.0257301 -0.398254 -0.435052 -0.631502 -0.641822
0.172906 -0.0894651 0.24715 0.157598 -0.987055 0.0297371
0 -0.0472649 -0.38496 0.00317401 -0.315584 -0.948892
0 0.0707769 0.0507177 0.00822051 0.868993 0.494757
-0.138081 0.0609796 0.0659402 0.149253 0.963409 0.222637
-0.142546 0.0591618 0.0188589 -0.728112 -0.537939 -0.424822
0.0766641 0.102766 -0.0474669 0.220076 0.968201 0.118972
0.0581656 0.0587204 0.0764841 0.594014 0.710239 0.377767
-0.0980592 0.101344 -0.15036 0.297037 0.952111 -0.0724873
-0.0228667 -0.09127 -0.329965 0.158849 -0.986636 -0.036293
-0.12508 0.101557 -0.0586609 -0.705816 0.684409 0.182777
0.159457 -0.069938 -0.311212 0.764729 -0.430317 -0.479601
0.150043 0.0275074 0.373678 -0.756722 0.567208 0.325035
-0.178652 0.00196603 -0.254294 -0.933377 0.358896 -0.000649199
0.172087 -0.0914602 -0.16037 0.269982 -0.931619 0.243302
-0.173797 -0.0877354 0.122058 -0.0818558 -0.979691 0.183044
0.189502 0.00294599 -0.00102967 0.980647 0.193838 0.0275457
-0.10703 0.0550664 0.264531 0.562185 0.731815 -0.385221
-0.0172586 0.0304213 0.433026 0.415926 0.757516 0.503165
0.185746 0.0367283 0.24408 0.75554 0.573267 -0.317054
-0.171577 0.00231329 -0.307999 -0.792155 0.569658 -0.219045
0.19028 0.00833213 0.0854254 0.973185 0.195518 0.121176
-0.115716 0.0696177 -0.317037 -0.396249 0.914051 -0.0865922
0.176082 -0.090989 -0.108925 0.178382 -0.946163 -0.270102
-0.115574 0.0737725 -0.299916 -0.481178 0.675586 -0.558616
0.133551 0.00289068 -0.379666 0.0978722 0.365658 -0.925589
0.124255 0.102644 -0.0671676 0.670939 0.741089 -0.0250678
0.150492 0.0413156 -0.24705 0.0400782 0.995634 0.0843044
0 -0.018312 -0.407477 -0.00757112 -0.996645 -0.0814993
0.0935225 -0.000743181 0.470408 0.127559 -0.276387 0.952543
-0.101697 0.0527443 0.291233 -0.0118787 0.859459 -0.511067
-0.182346 -0.0434899 -0.149757 -0.996377 0.0584926 0.06173
-0.176313 -0.074673 -0.14868 -0.508793 0.858572 -0.0631227
-0.139844 0.0605973 0.0522715 -0.379786 0.924901 -0.0179244
0 -0.00948337 -0.413069 -0.00899244 -0.976114 -0.217074
5.96046e-08 0.0450085 0.353671 -0.00719025 0.905185 0.424956
0.0944465 0.101773 -0.150363 -0.258605 0.963356 -0.0711943
0.139359 0.0670932 0.143027 0.182857 0.981259 0.060773
-0.0720762 0.00216666 -0.405118 -0.35091 0.194244 -0.916041
-0.0448982 0.058678 0.0799716 -0.520372 0.694735 0.496544
-0.0410967 -0.0893107 0.465615 0.0721501 -0.492542 0.867293
-0.119886 0.0988367 -0.139627 -0.807697 0.589578 0.00489436
-0.189368 0.00374362 0.0236243 -0.97628 0.203967 0.0726238
0.130058 0.0614144 0.125024 -0.882224 0.454856 0.121602
0.179343 -0.089153 0.0280936 0.209337 -0.974158 0.0848161
0.0748637 -0.0894463 0.45953 0.155359 -0.775169 0.612353
-0.0581656 0.0587204 0.0764841 -0.579439 0.719851 0.382184
0.173797 -0.0877355 0.122058 0.0796501 -0.972034 0.220922
0.183519 -0.0365305 -0.149907 0.987387 0.0826049 0.135068
5.96046e-08 -0.0113527 0.483224 0.0195687 -0.699846 0.714026
0.0255029 0.10601 -0.150749 0.169437 0.984659 -0.0416945
0 0.104978 -0.159496 0.0186511 0.995952 0.0879321
-0.175856 0.0421519 0.177967 -0.354882 0.924361 -0.140052
-0.172163 -0.0897005 0.273876 -0.178667 -0.9839 -0.00434404
-0.170428 -0.0899633 0.315343 -0.182597 -0.982827 -0.0266377
-0.142618 0.0217495 0.397811 0.230355 0.971917 0.0481104
0.18861 0.00991282 0.0983202 0.950532 0.213424 0.225695
-0.164376 0.0424572 -0.144379 0.0428143 0.999069 0.00530455
0.119547 0.0529255 0.324596 0.251388 0.966705 0.0478051
0.169362 0.0430348 0.123386 0.576726 0.816804 -0.0147732
0.109322 0.0500407 0.304271 -0.524157 0.62245 -0.581219
0 0.096445 -0.245905 -0.00616264 0.990142 -0.139933
-0.173547 -0.0886581 0.184549 -0.153171 -0.985588 0.0717929
-0.138946 0.0668423 0.0196764 -0.781025 0.481318 0.397911
0.101308 0.0590742 0.0591358 0.570323 0.816879 -0.086256
0 -0.0314336 -0.398109 -0.00311795 0.128249 -0.991737
0.0782863 -0.00478825 0.474406 0.0536538 -0.650894 0.75727
5.96046e-08 0.0208123 0.434655 0.0120042 -0.647326 0.762119
0 0.0917274 -0.00617939 0.0110383 0.96383 0.266291
-0.160216 -0.063452 -0.316276 -0.790633 -0.505868 -0.344959
0.0378155 0.0566994 0.305122 0.256824 0.954299 0.152824
-0.112007 -0.0619716 -0.341556 -0.0981587 -0.299159 -0.949141
-0.17355 -0.0887527 0.190527 -0.144305 -0.987984 0.0553567
0 0.0735592 -0.374901 0.0110719 0.979125 -0.202958
0 0.0974239 -0.238449 -0.00525026 0.993931 -0.109881
-0.134367 0.0544907 -0.197062 -0.987394 0.0336105 -0.15467
-0.116136 0.0864197 -0.237629 -0.545363 0.717313 -0.433637
0.189224 0.00438356 0.0401685 0.978813 0.190887 0.074073
-0.169112 -0.0900679 0.338986 -0.188197 -0.98116 -0.0436723
0.171385 -0.0898461 0.294625 0.170052 -0.985241 -0.019574
0.112491 0.0994452 -0.150355 0.0861611 0.989673 -0.114556
-0.130511 0.0637667 0.244887 -0.010389 0.999322 0.0353186
0.167562 0.043068 -0.0958625 0.175231 0.98446 0.0114757
-0.164796 0.0422599 0.0502543 -0.776476 0.621501 0.104024
-0.137392 0.0160878 0.41705 0.0979425 0.99516 0.00797624
0.158481 -0.0917557 -0.280442 0.484833 -0.862132 -0.147196
0.0500688 0.102767 -0.0423303 0.137079 0.93525 0.32637
-0.133267 0.0802023 -0.00916731 -0.694731 0.398078 0.599069
-0.133551 0.00289068 -0.379666 -0.0752959 0.421759 -0.903576
-0.172529 -0.089603 0.262005 -0.179538 -0.983714 0.00856961
0.174813 -0.0815682 -0.148335 0.567661 0.820005 -0.0731595
-0.186578 0.00130749 -0.15323 -0.944072 -0.328768 -0.0252941
-0.183134 0.0124215 0.422242 -0.480053 0.836084 0.265542
-0.129623 0.0559539 -0.242326 -0.874357 -0.448721 0.184798
0.168777 0.0430142 0.117303 0.590793 0.806772 -0.00913953
-0.119339 0.0593671 0.0491292 -0.442392 0.847417 -0.293552
-0.0754243 0.00228807 -0.404141 -0.349164 0.210388 -0.913138
-0.119597 0.0983624 -0.145206 -0.839141 0.543427 -0.0230164
5.96046e-08 0.0355891 0.386939 -0.00731112 0.795233 0.60626
0.0318972 0.00307983 0.483229 0.106692 0.364601 0.925031
-0.0261273 -0.0912738 -0.329704 0.1745 -0.982672 -0.0624974
0.140997 0.0546622 -0.102483 0.82484 0.548206 0.138235
0.142939 0.0575737 -0.0152797 0.635542 -0.535468 -0.556202
0.0240168 -0.0892273 0.467382 -0.195168 -0.438854 0.877107
0.182431 0.00166148 -0.215656 0.933856 0.299812 0.195003
0 0.106683 -0.0752967 0.00938645 0.995721 0.0919343
-0.188332 0.0139292 0.123251 -0.960997 0.224365 0.161697
0.134881 0.0762604 -0.00049451 0.602816 0.239854 0.760975
0.172725 0.00227663 -0.300351 0.814776 0.540527 -0.209691
-0.124034 0.0606008 0.165756 0.880136 0.474033 0.0255577
0.115574 0.0737725 -0.299916 0.459926 0.669607 -0.583176
-0.0577066 0.102767 -0.0436013 -0.1322 0.947497 0.291158
0.142751 0.0586129 0.00747955 0.649538 -0.563405 -0.510564
0.138067 0.0423402 -0.313107 0.501666 0.862384 -0.0680015
-0.179814 -0.0573781 -0.149366 -0.987902 0.153018 0.0251891
0.12991 0.00374544 0.450432 0.843264 0.509105 -0.172391
-0.177774 0.00202528 -0.261992 -0.917978 0.393154 -0.0524032
0.166778 0.0427993 0.0929442 0.663216 0.741861 0.0989298
0.100621 0.032065 0.413341 0.46387 0.801979 0.37637
0.162142 0.0023616 -0.361359 0.810192 0.389447 -0.438087
0.118266 0.0591519 0.201817 -0.873558 0.476632 -0.0985864
0.142605 0.0560648 -0.0532065 0.56555 -0.132362 -0.814023
0.140838 0.0627078 0.028294 0.694488 0.590672 0.410844
-0.049971 -0.00944895 0.479291 -0.116306 -0.7895 0.60263
0.17778 -0.0906453 -0.0789274 0.195635 -0.978177 -0.0699768
-0.186846 0.0345876 0.23964 -0.897363 0.309804 -0.314264
0.0196038 -0.0912664 -0.330196 -0.187196 -0.982304 0.00600638
0.162557 0.0421715 -0.162542 -0.0268017 0.999338 -0.0246026
-0.163805 0.0423627 -0.150435 0.00105062 0.999949 -0.0100883
0.122883 0.0566867 0.302829 0.074179 0.994524 -0.0736159
-0.00665864 -0.0111898 0.48301 0.0524864 -0.719979 0.692009
0.0748247 0.0403836 0.396117 0.00185812 0.999883 -0.0152121
-0.171296 0.0429812 0.141616 -0.460753 0.884957 -0.0675064
0.127497 0.0595381 0.0440501 -0.231629 0.888537 -0.396043
0.139844 0.0605973 0.0522715 0.389709 0.920891 0.00931202
-0.1713 -0.0915217 -0.168945 -0.237778 -0.928693 0.284588
-0.154784 0.00253636 -0.366544 -0.514493 0.523406 -0.679223
-0.176347 -0.0881792 0.092187 -0.171127 -0.976218 0.133094
0.107887 0.0554209 0.260069 -0.610117 0.68852 -0.392042
-0.10167 0.100897 -0.150358 0.308957 0.94663 -0.0918586
-0.0240167 -0.0892273 0.467382 0.281681 -0.431193 0.857163
0.0886284 -0.0294093 -0.376591 0.186418 -0.923521 -0.335199
0.0381012 0.000288129 -0.412715 0.0500823 0.283341 -0.957711
-0.172087 -0.0914602 -0.16037 -0.271599 -0.93426 0.231068
-0.172925 -0.0876118 0.130587 -0.000501398 -0.98121 0.192941
-0.109574 0.0561018 0.251138 0.674889 0.687329 -0.268521
0.179564 -0.0893458 0.0152628 0.20473 -0.977594 0.0489371
-0.178858 -0.0888937 0.0451955 -0.203522 -0.974841 0.0909042
0.115681 0.0811634 -0.265854 0.604433 0.583972 -0.541883
0.131084 -0.0915706 -0.30469 0.133321 -0.981506 -0.13737
0.175697 -0.0880511 0.100724 0.161084 -0.979981 0.116997
0.135638 0.0427915 -0.325081 0.701232 0.698872 0.140897
-0.167279 0.0428649 -0.0289898 -0.323756 0.945778 -0.0261858
0.0171629 -0.0891873 0.467855 -0.123529 -0.448979 0.884963
0 0.0983606 -0.230983 -0.00416532 0.994305 -0.106488
0.14208 0.0629829 0.065346 0.489408 0.867682 0.0872271
-0.168142 0.0431694 -0.0594073 -0.226099 0.974103 -0.00150038
-0.176082 -0.090989 -0.108925 -0.178072 -0.946039 -0.270742
-0.185275 0.0014044 -0.176735 -0.947815 0.185787 0.259093
-0.115654 0.0710374 -0.311322 -0.522839 0.831117 -0.189428
0 0.104225 -0.170854 0.0117888 0.988976 0.147608
5.96046e-08 0.047989 0.342539 -0.00687525 0.909467 0.415719
0.140635 0.0545149 -0.11006 0.661116 0.464502 0.589206
0.0674646 0.00260705 0.476874 0.17149 0.528224 0.831607
0.13838 0.054101 -0.14792 0.927968 0.305456 0.213478
5.96046e-08 0.0123358 0.460184 0.127202 0.977622 0.167554
0.131648 0.0645899 0.234804 -0.00871264 0.999917 -0.00953226
-0.124743 0.0586212 0.289941 -0.179383 0.98355 -0.0212271
-0.0691069 0.104233 -0.150417 -0.211949 0.976899 -0.0273074
-0.0614362 -0.089393 0.462377 -0.129691 -0.600989 0.788665
-0.184082 -0.0330472 -0.149971 -0.983136 0.169749 0.0680397
0 0.058466 0.281318 -0.00073954 0.94201 0.335585
0.126446 0.0979031 -0.0498817 0.815093 0.487465 0.313052
-0.020591 -0.0892078 0.467635 0.273235 -0.417523 0.866612
0.185203 0.0370352 0.339446 0.58989 0.802056 0.093468
-0.00364542 0.105611 -0.15109 0.0619231 0.997211 0.0416507
0.18814 0.0169228 0.139873 0.977979 0.15333 0.141585
0.0509603 0.105369 -0.150509 0.177037 0.983843 -0.0266541
0.0654805 0.104503 -0.150431 0.21143 0.976476 -0.042322
0.132744 0.0815041 -0.0120622 0.701115 0.30883 0.642699
-0.0445003 -0.0893253 0.465161 0.0558589 -0.556992 0.828637
-0.00386277 0.102767 -0.0383652 -0.0666506 0.977405 0.20059
0.0260043 -0.0105477 0.481892 0.0690663 -0.809383 0.583206
0 0.0596347 0.228283 -0.00136883 0.98644 0.164116
-0.137147 0.0709172 0.0110428 -0.626921 0.40434 0.665943
0.10529 0.0543292 0.273444 -0.528208 0.711428 -0.463538
0.135195 0.0665908 0.199324 -0.0630264 0.996301 0.0584209
0.136083 0.0669172 0.189136 -0.0222556 0.998092 0.0575859
-0.123161 0.10214 -0.0838893 -0.603515 0.797185 -0.0162903
-0.189053 0.00526929 0.0567786 -0.971139 0.207745 0.117182
0.142882 0.0580828 -0.00390011 0.647968 -0.579544 -0.494233
0.173328 -0.0892038 0.223344 0.150845 -0.987389 0.0480484
0 0.0642088 -0.406586 0.0248015 -0.159125 -0.986947
-0.0542419 0.0360708 0.419855 -0.105076 0.966101 0.235815
0.0716123 0.0217631 0.452812 0.100467 0.931174 0.350458
-0.129922 0.0633121 0.249919 -0.0572709 0.998241 -0.0152983
0.162349 -0.091808 -0.250425 0.268561 -0.945914 -0.181992
-0.124941 -0.0915433 -0.307083 -0.188853 -0.972616 -0.135468
0.141416 0.0652567 0.0965307 0.33338 0.934437 0.125242
-0.0199623 0.00324923 0.484506 0.0158019 0.434071 0.90074
0.019309 0.102767 -0.0389536 0.0837079 0.949402 0.302704
0.125711 0.0021418 0.45934 0.751864 0.135119 0.645325
0 0.0600115 0.175229 0.00365072 0.99975 -0.0220688
-0.185203 0.0370352 0.339446 -0.621172 0.77443 0.120014
0.112846 0.0573486 0.233241 -0.778771 0.598114 -0.189145
0.184028 0.0233377 0.397677 0.331014 0.92758 0.173275
5.96046e-08 -0.0224704 0.48148 0.00676879 -0.742103 0.670252
0.11602 0.0854324 -0.243264 0.524163 0.721902 -0.451786
0.174247 0.0425562 0.165868 0.421261 0.895336 -0.144609
0 0.0878658 -0.30151 -0.00672279 0.968094 -0.250498
-0.0255029 0.10601 -0.150749 -0.121426 0.991597 -0.0446171
-0.174576 -0.0912052 -0.130358 -0.280141 -0.91806 -0.280514
0 0.057905 0.298989 0.0046423 0.975166 0.221425
-0.125711 0.0021418 0.45934 -0.720507 0.151013 0.676805
-0.087041 0.00239247 0.471888 -0.0856817 0.473618 0.876553
-0.0173843 -0.00149813 -0.415407 0.0872053 0.170585 -0.981476
-0.116311 0.0489774 0.344236 -0.356338 0.875253 0.32704
0.173206 -0.0913582 -0.147507 0.297397 -0.954039 -0.0369307
0.168136 0.0431839 -0.0715649 0.258691 0.965946 -0.0051938
0.139267 0.0421497 -0.307116 0.428874 0.89352 -0.133003
0.124034 0.0606008 0.165756 -0.89533 0.445308 -0.00926654
-0.17665 -0.0882436 0.0879175 -0.186541 -0.973051 0.13555
-0.0340393 0.0569956 0.305036 -0.203954 0.965623 0.161164
0.13805 0.0672717 0.163571 0.0781805 0.996325 0.0349831
0 0.0845656 -0.319932 -0.00488235 0.946882 -0.321545
-0.0682182 -0.0913517 -0.323595 -0.0858126 -0.977965 -0.19032
-0.0782007 -0.0894603 0.458731 -0.273613 -0.688807 0.671328
-0.00343433 -0.089092 0.468405 0.0924943 -0.40385 0.910137
-0.150492 0.0413156 -0.24705 -0.0841965 0.995488 0.0437441
0.115473 0.0479097 0.349127 0.429864 0.858625 0.279248
-0.115589 0.0788335 -0.277183 -0.578666 0.588694 -0.564434
0 0.103358 -0.182185 0.00667648 0.994907 0.100576
-0.17353 -0.0885595 0.178568 -0.158354 -0.984684 0.0729557
0.142025 0.0553279 -0.0759551 0.634199 0.27754 -0.721639
0.167951 0.0430971 -0.0472442 0.318538 0.946883 -0.0441079
0.161883 0.0420766 -0.168592 0.0675401 0.997695 -0.00653683
-0.187896 0.00128251 -0.12169 -0.963963 0.214943 -0.156761
-0.127436 0.0612035 0.269983 -0.132299 0.989552 -0.0572955
0.176313 -0.074673 -0.14868 0.493492 0.86825 -0.0510683
0.173292 -0.0880626 0.151609 0.117728 -0.988403 0.0959116
0 0.0595671 0.232703 -0.00179627 0.984679 0.17437
0.0327819 0.105945 -0.150665 0.0938866 0.9938 -0.0595621
0.0980258 -0.0895567 0.453197 0.432878 -0.814705 0.385841
-0.0582232 0.10498 -0.150465 -0.177249 0.98346 -0.0372797
-0.184554 0.0309499 0.37272 -0.548237 0.799458 0.245567
0 0.060011 0.17965 0.00314513 0.999981 0.00535861
-0.142009 0.0634179 0.070553 -0.423622 0.905771 0.011096
-0.0517046 0.0028072 0.480141 -0.231546 0.481206 0.845475
0.16794 0.0431477 -0.0837167 0.21606 0.976373 0.00376866
0.111227 0.0567445 0.242195 -0.759918 0.609911 -0.224796
-0.124255 0.102644 -0.0671676 -0.667372 0.743361 -0.0450508
-0.12941 0.0613679 0.129558 0.876625 0.480983 0.0135136
-0.106707 0.0428555 -0.375767 -0.0682303 0.886428 -0.457811
-0.165933 -0.0917704 -0.220406 -0.216143 -0.976275 -0.0130341
0.106452 0.102765 -0.0555211 -0.133879 0.959227 0.248918
-0.173369 -0.0876734 0.126323 -0.0425151 -0.97741 0.207031
0.0854044 0.00258803 -0.400972 0.326811 0.291048 -0.899158
-0.115825 0.0833623 -0.254549 -0.539111 0.669577 -0.510908
-0.184243 0.0014962 -0.19234 -0.936182 0.250601 0.246502
0.0376885 -0.0892956 0.466036 -0.0712612 -0.522413 0.849709
0 -0.0447045 -0.387233 0.00205649 -0.251706 -0.967801
-0.134463 0.0614232 0.093242 0.701342 0.622371 0.347527
-0.186077 0.0389863 0.289539 -0.719945 0.680949 -0.134117
0 0.0703815 -0.389492 0.0216703 0.992965 -0.116408
-0.118907 0.0970575 -0.159159 -0.824469 0.508578 -0.248192
0.121093 0.0547085 0.314731 0.170132 0.978133 -0.119625
0.1758 -0.0910344 -0.113211 0.187654 -0.932647 -0.308149
-0.0293856 -0.091278 -0.329412 0.17187 -0.982909 -0.0659539
0 0.0743391 -0.371249 0.00931201 0.969914 -0.243269
0.134718 0.0544192 -0.193285 0.998566 0.013014 -0.0519311
-0.067374 0.0209891 0.455146 -0.102667 0.931394 0.349236
0.174895 -0.0911642 -0.126071 0.266539 -0.908783 -0.321045
0.0374526 0.0333734 0.428704 -0.00502104 0.898818 0.438293
-0.157742 0.00246891 -0.364502 -0.656707 0.5008 -0.563858
0.128757 0.0613104 0.134089 -0.89168 0.452663 0.00170628
