-0.070754629 -0.090535111 0.30978566 -0.12196034 -0.74244887 0.65870733
0.16590874 -0.092626128 0.12396728 -0.12402046 0.99227671 -0.002420043
0.12130159 0.052031481 0.36690396 -0.13479711 0.98620364 -0.096083936
0.11470556 -0.072962569 0.31839516 0.21958902 0.80135515 -0.55642662
0.018060331 0.095927979 -0.16034758 -0.012717432 -0.995139 0.097655724
-0.16681244 0.060372273 0.23327309 -0.99505917 -0.099283637 -2.3771384e-05
-0.058676338 0.032689875 0.40205385 -0.053633688 -0.49632442 0.86647879
-0.14983493 0.018858612 -0.38170271 0.58980129 0.74606569 -0.30906377
0.099756481 0.087484586 0.040006284 -0.90922258 0.41629114 -0.0039980719
0.15634191 -0.016015011 0.31463816 0.18850696 0.9730065 0.13312955
0.16747832 0.035960538 0.03147028 -0.82339389 0.54704689 -0.15087149
-0.15351573 0.0076490306 -0.41624374 -0.94996246 -0.25934234 0.17410592
-0.11828149 -0.080637856 0.30886024 0.021441849 0.77246265 -0.63469812
0.16608818 0.033373254 -0.30854629 -0.96703705 -0.25174316 0.038271656
-0.16647942 0.052921359 0.30674795 -0.94661968 0.2106403 0.24401198
0.14317032 0.034542586 -0.33184636 0.39459137 0.89288813 -0.21690651
-0.10874625 -0.038867637 0.35868149 -0.19243335 -0.73513332 0.65003723
0.17011912 -0.092609496 -0.24724989 0.21217022 0.97721616 0.005689005
-0.11781552 0.07609475 -0.1869862 -0.96368535 -0.14674083 0.22310911
-0.16670692 0.058768019 0.26001566 -0.99894041 0.045321692 0.0079995334
-0.16724606 0.049953371 0.093581065 -0.80918103 -0.57772318 0.10706066
0.16677329 -0.09236984 0.17708932 -0.54251059 0.84002886 0.0058114233
-0.16029412 -0.09281837 -0.14277558 0.010770335 0.99993618 0.0034106489
0.16677464 0.059914725 0.24330232 -0.86678462 0.49812227 0.023635344
0.10362693 0.093522678 -0.081541223 0.14962004 0.98855629 0.019243258
0.16359394 0.0039029994 -0.3851445 -0.98509802 -0.045634972 0.16582926
0 0.060182839 0.34778398 -1 0 0
-0.0003365866 -0.090885792 0.3159662 -0.00064150132 -0.69794655 0.71614956
0.11175442 0.05178945 0.37764185 -0.098049762 0.99300637 -0.065761687
0.16771965 0.02060721 -0.02338421 -0.90547928 -0.42438804 0.0014387355
-0.16754674 -0.092160966 0.21266355 0.21743757 0.97607392 -0.00078451606
-0.095348293 0.078091427 0.12639499 -0.31851429 0.93467713 0.15788383
0.16807703 0.0090826962 0.30171568 0.99938017 0.027752112 0.021658662
-0.010808896 0.095948877 -0.16088435 0.0084692356 -0.99342089 0.11420688
0.0074417877 -0.090829361 0.31593639 0.014284033 -0.69621197 0.71769413
-0.097816235 0.094259626 -0.12485138 0.28973357 -0.93548547 0.20229037
0.12699861 -0.064469495 0.32384523 0.17921247 -0.7493093 0.63750958
0.16719439 0.052737055 0.11007662 -0.5233183 -0.84211425 0.13031326
-0.1547356 0.052770319 0.3247107 0.0063541825 0.99995421 0.007156063
0.16527698 0.016020819 -0.37040861 -0.96845238 -0.13957802 0.20644117
-0.092274031 0.071019545 0.17363413 -0.90438096 0.40623983 0.13063032
0.14352489 -0.093184117 -0.4582582 0.75819647 -0.059609073 -0.64929567
0.097816235 0.094259626 -0.12485138 -0.28995671 -0.93536765 0.20251535
0.16710372 0.029602221 -0.11025412 -0.97924053 -0.20215523 -0.014874515
-0.14916429 0.043613198 -0.11866273 -0.64442158 0.76286698 0.052486232
0.16935576 -0.092626938 -0.22904586 -0.45252108 0.89135949 -0.026512863
-0.12874602 -0.090619082 0.29409466 -0.22003615 -0.75883726 0.61298459
-0.05018861 0.095677632 -0.15415548 0.07515905 -0.97616808 0.20358536
-0.16607673 0.032900154 -0.31196907 -0.97885328 0.2020479 -0.031982686
-0.13294496 0.052317361 0.35321089 0.04014128 0.99910211 -0.013551515
0.12461637 -0.015887839 0.35408997 0.037060267 0.99882033 0.031376492
-0.16700862 0.059625767 0.17316233 -0.97734118 0.21143668 -0.0099367754
0.1650194 0.014039586 -0.37290982 -0.97700449 -0.10392952 0.18617435
0.16821095 -0.092616246 -0.30820792 -0.29845039 -0.95391173 0.031301357
0.13899131 0.062866999 -0.1980253 0.16431796 0.96424917 -0.20790179
-0 -0.00070515358 -0.46760524 -0.99989486 0.0063367822 -0.013043005
0.14709374 0.025812287 -0.3598398 -0.39960195 0.85776557 -0.323352
-0.16165888 -0.092903152 -0.10801903 -0.2686412 0.96321151 -0.0074492613
-0 0.055966353 -0.3047665 -1 0 0
-0.1224889 0.069518918 -0.2115575 -0.69972911 -0.64492973 0.30731875
0.12472286 0.075745905 -0.14725807 0.96158635 0.13652406 0.23814465
0.13918847 0.047163369 -0.052500112 0.92157797 0.36568902 0.13025203
0.096208795 -0.021309999 0.38196763 -0.70976538 0.31742799 -0.6288661
-0.036107701 0.095824946 -0.1577098 0.043566063 -0.98341962 0.17603364
0.16731643 0.026225068 -0.07885771 -0.99985103 -0.016465522 0.005178045
0.022330439 -0.092501548 -0.50336783 0.10020216 -0.5985647 -0.79478288
0.13522379 0.052370984 0.35043174 0.15764428 0.97650289 0.14693665
-0.15325058 -0.0007869647 -0.42547408 0.42843378 0.37746884 -0.82095175
0.16683879 0.033706007 -0.15221777 -0.47592567 0.8758956 0.079382985
0 0.075194072 0.2394552 -1 0 0
-0.16688285 0.060779493 0.21321819 -0.86296551 -0.50526172 0.0010563205
0.16009982 -0.092805356 -0.14711713 0.0024751224 0.99999259 0.0029476251
-0.092371772 -0.015908305 0.38899993 -0.66644315 -0.36792442 0.64844826
-0.016085902 0.028425221 -0.38786117 0.020517778 -0.91572118 0.40129009
-0.16066624 -0.092842779 -0.13409058 -0.036182457 0.99934451 0.0011785861
0.11604931 0.078506153 -0.17777313 -0.95007454 -0.29345169 -0.10603998
-0.064343661 0.027846765 -0.38671376 0.011801482 -0.99990036 -0.0077451753
0.070754683 -0.090535111 0.30978566 0.13950937 -0.60487253 0.7840066
0.14946124 0.019860649 -0.37857412 0.14011962 0.94782456 -0.28634785
-0.17783145 -0.013260919 -0.020033194 -0.023638021 0.0051495436 -0.99970732
-0.16636877 0.037860121 -0.23949489 -0.51515992 0.85706807 -0.0066765769
-0.16688134 0.033079922 -0.14522035 0.54356885 0.8355616 0.079810517
-0 -0.041763319 -0.48421128 0.39794887 0.32902845 -0.85637432
0.16692022 0.044135439 0.30604195 0.81388789 0.10407119 -0.57162548
-0.14872667 -0.039623917 -0.44002177 0.78837008 -0.12581967 0.60219766
0.16604374 0.031318796 -0.3222169 -0.95934448 -0.27789906 0.049297823
-0.091302612 -0.03659696 0.36503397 -0.13308802 -0.73821761 0.66130352
0.11003099 -0.015886111 0.37037081 0.64205916 -0.48830834 0.59102876
0.16821214 0.0047101484 0.30098753 0.82443075 -0.07097053 0.56149543
0.05018861 0.095677632 -0.15415548 -0.1097689 -0.94172468 0.31797077
0.022520252 0.028348053 -0.38770818 -0.019035256 -0.94597242 0.32368789
-0.12222338 -0.015885841 0.35682618 -0.4866818 0.76194061 0.42730239
-0.11981489 -0.015884545 0.35955295 -0.58722548 0.61944666 0.52101063
0.13631649 0.047641653 -0.28851433 -0.30915799 0.89650984 -0.31731916
0.16908743 -0.09260631 -0.2960044 -0.30095161 -0.95356933 0.011561275
-0.10214142 0.091716894 -0.025062121 -0.89080362 -0.45434647 0.0061810478
0.16005122 0.039314847 -0.22079708 -0.85826221 0.50489063 -0.092040423
-0.17890121 -0.027320767 -0.020059385 -0.026323215 0.0023439983 -0.99965074
-0.12003732 -0.084496101 0.30412519 -0.36724935 0.78779459 -0.49447709
-0.15689337 0.040879519 -0.18520952 -0.25840175 0.96592941 -0.014453731
-0.12650693 0.063593795 -0.23307016 -0.96727951 -0.13339106 0.21581746
0.16727852 0.048098067 0.083710486 -0.9995547 0.028479401 -0.0089066039
-0.1320695 0.054857178 -0.26384361 0.56254622 0.762578 -0.31940028
-0.15513424 -0.090783731 0.28332675 0.055983043 -0.99281235 -0.10578058
-0.099570395 0.087118245 0.044337576 -0.99901852 0.0061960775 0.043858917
0.165994 0.028118496 -0.33922367 -0.93065299 -0.35754684 0.077751349
-0.039271389 -0.090633825 0.31419104 0.03165885 -0.92799266 -0.37125105
0.10505271 -0.015890269 0.37573001 0.6426864 -0.47431455 0.60164765
0.16593579 0.022365204 -0.36286476 -0.99198876 0.12455463 -0.021081653
0.10488428 0.067587042 0.10762358 -0.61341695 -0.78960118 -0.01579941
0.16730082 0.046785471 0.07714216 -0.92568577 -0.3712319 0.072751131
-0 0.069029185 -0.26133085 -1 0 0
-0.13510628 -0.093068664 -0.4627158 0.026902004 0.99681978 0.075010682
0.16648806 0.037556097 -0.21512355 0.99958591 0.028414138 -0.0045442948
0 0.042513365 0.39598612 -1 0 0
-0 0.093847115 -0.17072701 7.1770365e-05 0.97149765 -0.23704916
0.090081115 0.027538204 -0.38610182 -0.017428047 -0.96958152 0.24414736
-0.15409499 0.0055744302 -0.4225507 -0.88205984 -0.41414035 0.22462904
-0.12098849 -0.092906284 -0.46993521 0.013214368 -0.99989437 0.0060515159
0.1703017 -0.06164153 -0.020371779 0.0045370426 0.014884472 -0.99987893
0.15040205 0.051663628 -0.23946719 -0.94186246 0.15476133 -0.29823487
-0.16959088 -0.074091455 0.2812467 0.95216757 -0.092722564 0.2911691
-0.12273023 0.036835079 -0.34584854 -0.72212729 -0.67502924 -0.15122069
-0.099732667 0.027422535 -0.38587232 0.017803143 -0.96479072 0.26241552
-0.16678744 0.060086285 0.23995925 -0.9996573 -0.02605453 0.0025404593
-0.16101719 -0.092865027 -0.12540294 -0.21404503 0.97680532 -0.0060078133
-0.1483039 0.022849482 -0.36919921 0.21730363 0.92202354 -0.32039308
-0 -0.0045031875 -0.46921198 0.99821043 -0.023381534 0.05503863
0.090061945 0.065791085 0.20356496 -0.87150019 0.48985866 0.022932851
-0.16266664 -0.092703943 -0.35689882 -0.21262697 0.97656984 -0.033183243
-0.10450498 0.051605685 0.38558752 0.059121819 0.99776045 -0.031284097
0.16717338 0.028486403 -0.099778082 -0.99930245 -0.037246372 0.0027059558
0.16707693 0.05778742 0.14985847 -0.97424089 0.22416958 -0.024549892
0.10429249 0.093804778 -0.1163009 0.32206471 0.94267238 -0.087424835
-0.14481189 -0.093143509 -0.45242396 -0.48095002 0.8644368 -0.14641073
-0.16484659 -0.078801939 -0.02071247 0.0063872363 -0.021908296 0.99973958
-0.1664704 0.037648277 -0.21860973 -0.99768488 0.067909122 -0.003636368
0.16760193 0.02854791 0.0056494488 -0.86641963 -0.47884262 0.14151594
-0 0.017011193 -0.42156843 -1 0 0
-0.087280043 0.059106496 0.23762857 -0.86504092 -0.50081438 -0.02981865
0.16447318 -0.092934526 0.014086362 0.298024 0.95454113 -0.0057386115
-0 0.068119327 -0.26444021 -1 0 0
0.16688474 0.030855794 -0.29940428 -0.91660393 -0.19186394 0.35074987
-0.060367047 0.095521354 -0.15057641 0.0018364717 -0.9991992 -0.039969858
-0.09508855 0.077505465 0.1306988 -0.47506183 0.86218285 0.17594601
-0.15969417 0.039524208 -0.21634634 0.86368126 0.49527403 -0.093585862
-0.10008454 0.094115714 -0.12211797 -0.61971603 0.61676108 -0.485343
-0.1502024 0.017853766 -0.38483302 0.51954053 0.79401614 -0.31562003
0.11250795 0.083238616 -0.15934451 -0.74549118 -0.66602628 0.025532035
0 -0.036200973 0.37342493 -0.51950966 0.58521082 -0.62260583
0.019303104 0.02838661 -0.3877847 -0.025748516 -0.66157698 0.74943506
-0.13169943 -0.015898693 0.34582175 -0.30087669 0.91975479 0.25204036
0.11739863 -0.078713 0.31123752 0.12769202 0.79413694 -0.59417277
0.16968598 -0.092620188 -0.23510652 -0.45154788 0.89200447 -0.020797652
0.14845451 0.052656702 0.33343544 0.2587354 0.94389664 0.20521968
0.16264795 -0.092725057 -0.17496585 0.0018738329 0.99999439 0.0027779591
0.089729246 0.064997166 0.20783161 -0.87425095 0.48496164 0.022304546
-0.11470551 -0.072962569 0.31839516 0.20898461 -0.80136403 0.56048294
-0 0.020270839 -0.41240844 -1 0 0
0.11561266 -0.074874789 0.31600611 0.13565555 0.7973156 -0.58812023
0.11957556 0.073653485 -0.19619948 -0.87388641 0.40177753 -0.27367382
-0.16716441 0.054218511 0.1199985 -0.99546848 0.094516859 -0.010443163
-0 0.097024572 -0.070290925 -1 0 0
0.15473566 0.052770319 0.3247107 -0.11855853 0.99037846 -0.071374963
0.092971613 0.09452531 -0.12997621 -0.26828492 -0.93596036 0.22803818
-0.10096108 0.070415816 0.1201652 -0.63381234 0.77308589 0.024902456
-0.12262088 0.055372129 0.034812817 -0.78968612 0.6069394 0.089556679
-0.14625884 0.027772946 -0.35360839 0.51250882 0.79693643 -0.31972962
0.097850633 -0.023615831 0.37894553 0.6423054 -0.40050116 0.65348496
0.16723494 -0.092662524 -0.20489397 0.41174055 0.90996989 0.049239373
0.14064363 0.046596955 -0.061293214 0.73210462 0.67679221 0.077298994
-0 0.08309762 -0.21144383 -1 0 0
0.1398462 0.041166317 -0.31015167 0.98860622 0.018888319 0.1493351
0.075114919 -0.092596535 -0.49001431 -0.090201169 -0.96735821 0.23681604
-0.10080064 0.089459717 0.013998935 -0.97504559 -0.22094442 0.021671464
0.16840557 -0.091953819 0.2439047 0.20460907 0.97875622 -0.013091759
0.093447791 0.073751442 0.15648339 -0.93189604 0.36267255 -0.0061966887
-0.16640182 0.037857259 -0.23253971 -0.85146978 0.5244015 -0.0015067288
0.16506341 -0.092848395 0.057923459 -0.49184345 -0.8706433 0.0083819322
0.16686001 0.033396636 -0.148719 -0.52020987 0.8503517 0.079269671
-0.14706388 -0.054694011 -0.44532718 0.93929164 -0.018293824 0.34263179
0.084162904 0.012107494 -0.43436071 -0.72080185 0.68606884 0.098763557
-0.098991129 0.085954907 0.057325131 -0.94269745 -0.3334294 0.012097405
-0.16671529 0.035386078 -0.17320748 0.27129011 0.95990066 0.070656943
0.070762081 -0.092580659 -0.49156829 0.023270747 -0.99679768 -0.07650401
-0.17729177 -0.041251176 -0.020122457 -0.029757096 0.0003200562 -0.99955711
0.098221672 0.0724254 0.12847494 0.027883469 -0.96776103 0.25032198
0.10265378 0.092453248 -0.04243594 -0.86622185 0.49962988 -0.0054493159
-0.14960386 -0.067916524 -0.44641438 -0.43900561 0.36108814 -0.82273291
-0.11604931 0.078506153 -0.17777313 -0.95069933 0.29115957 0.1067562
-0.17022788 -0.092600586 -0.26550835 0.017181858 0.99985229 0.00043356999
-0.11037432 0.087648316 -0.096302109 -0.96367756 0.099853367 0.24769916
0 0.075895379 0.23374074 -1 0 0
0.10112891 -0.028212212 0.37288703 -0.41668573 0.60276682 -0.68047422
-0.075467111 -0.087946694 0.31186009 -0.12692956 -0.74176637 0.65853743
-0.15732548 0.040695052 -0.18965529 -0.7114907 0.70161305 0.03898863
-0.16359767 -0.089429662 -0.020971187 -0.1465135 -0.023324354 0.98893365
-0.16774654 0.020296759 -0.019936371 -0.9215224 0.38356273 -0.060630833
0.16606545 0.032400323 -0.3153885 -0.98818286 -0.15112489 0.025610538
-0.043207179 0.095759389 -0.15610096 0.079193538 -0.95825 0.27474594
0.16489557 -0.092879499 0.044757431 0.81649499 0.57723088 -0.011850917
0.095443874 0.09439614 -0.1274702 -0.27926346 -0.93569422 0.21561134
0.080429563 0.027653928 -0.38633127 -0.0173949 -0.96997242 0.24259209
0.16544617 -0.09275843 0.088697886 -0.47299516 0.88105991 0.0030020232
-0.14495532 -0.075910685 -0.45254892 -0.61365919 0.19903846 -0.76407205
-0.13616567 0.048410732 -0.034944202 -0.75216431 0.65369238 0.083277391
-0.17372334 -0.031626516 -0.30060261 0.085668418 0.0066257662 -0.99630167
-0.11252658 0.031223053 -0.37076496 -0.6681291 -0.73752769 -0.098267037
-0.10488428 0.067587042 0.10762358 -0.61327144 0.78971558 0.015730447
-0.15877886 0.052832852 0.3188021 -0.4619297 0.82825154 0.31720707
0.10360301 0.06850554 0.11181485 -0.60894887 -0.79309647 -0.013389008
-0.16624538 0.037116693 -0.26723637 0.12879287 0.99044041 -0.049398343
0.16734742 0.043981537 0.064036235 -0.99783714 -0.064838635 0.010815893
0.088705446 0.062544237 0.22061688 -0.91505239 0.40331082 0.0044173508
-0.095394734 0.074536181 0.13674661 -0.1280462 0.96480096 -0.2297026
0.099380852 0.086741212 0.048667841 -0.9242701 0.38167246 -0.0071346914
-0.1338182 0.041940147 -0.31738572 -0.87769268 -0.3948246 -0.27160467
-0.13474831 0.050370796 -0.27925634 0.58123059 0.74856497 -0.3190948
0.14583315 0.028748847 -0.35049503 -0.51752089 0.79370127 -0.31970365
0.1677082 0.022435783 -0.01356342 -0.80650467 -0.56633495 0.16974965
-0.14478046 0.045090712 -0.087728249 -0.34680504 0.93793231 0.0030414679
-0.17288838 -0.05486325 -0.020268745 -0.0042238977 0.012179261 -0.99991691
-0.16694771 0.060524663 0.19317749 -0.99955957 0.029589392 0.0022676741
-0 0.023499111 -0.40323766 0.99999999 -0.00012666843 4.4364713e-05
-0 0.041196935 -0.35106965 -1 0 0
0.16475355 -0.092697787 -0.18689688 0.0019185626 0.99999512 0.0024663915
0.15164763 0.050384027 -0.24406827 -0.95718829 0.075426684 -0.27946627
-0.10603909 0.09159739 -0.12553233 -0.28659017 0.94237185 -0.17263073
0.16683668 0.060582714 0.2265872 -0.97647328 -0.21544839 -0.0090516886
0.16929064 -0.039004097 0.29152622 0.97586424 -0.039218791 0.21482755
0.096826131 0.081371594 0.10053739 -0.84549666 -0.52289382 -0.10824718
0.0096515519 0.028502334 -0.38801415 -0.022832934 0.088915316 0.99577745
-0.16736514 0.02547462 -0.071895773 -0.9995982 0.028058479 -0.0040211116
0.16511838 -0.092837001 0.062315123 -0.68257178 -0.73074387 0.010448538
-0.13122946 -0.070464495 0.31559311 0.48567493 0.5707915 -0.66205507
-0.16729223 0.02660194 -0.082340974 -0.99991802 0.011476624 -0.0056777438
-0.17011917 -0.092609496 -0.24724983 -0.39224766 0.91980667 0.0098729031
0.073216091 0.095242278 -0.14449998 -0.0087953317 -0.99947296 -0.031248046
-0.1677082 0.022435783 -0.01356342 -0.80650959 0.56632868 -0.1697472
-0.1386335 -0.015917539 0.33745871 0.21917558 0.95869519 -0.18128873
0.14270986 -0.086956104 0.2928224 0.25775646 -0.71716817 0.64748083
0.10692773 0.051666868 0.38294829 -0.071856789 0.99650141 -0.042679555
0.10046621 0.088843568 0.022671507 -0.83656669 0.54781594 0.0073397531
0.16706797 0.039744153 0.30564979 0.39948375 -0.074578304 0.91370171
-0.16801401 -0.09204535 0.23050215 0.25667192 0.96649834 0.00069626581
0.032222834 -0.090668979 0.31480767 -0.0055277748 -0.99038488 -0.13822895
-0 0.026695955 -0.39405613 -0.64788939 0.72082532 -0.2462726
0.11415491 -0.046429576 0.3484808 0.23056024 -0.72072861 0.65375243
-0.15407977 0.041956671 -0.15855605 0.092725994 0.99440821 -0.050539132
-0.13527449 0.049464178 -0.2823414 0.69721613 0.64688833 -0.30890963
0.16000483 -0.090823637 0.2810639 0.26586347 0.78877174 0.55421634
0.16662646 0.052929243 0.30669568 -0.949835 -0.20187217 -0.23887466
-0.16064318 -0.014227478 -0.40472462 0.98792825 0.019778781 0.15364431
-0.15553363 0.041422172 -0.17187792 -0.23026594 0.97301252 -0.014974298
-0.16669266 0.058480303 0.26335749 -0.9993593 0.035011146 0.0074300368
0.10855493 0.064974972 0.09498179 -0.78427154 -0.61273601 -0.097327947
0.16495211 -0.092869617 0.049144613 0.91371976 0.40614837 -0.012637074
-0 0.07173716 -0.25199666 -1 0 0
0 0.081766286 0.18226124 -0.99999044 0.0043474124 0.0004608091
-0.15048645 -0.06407124 -0.44419409 0.4459896 -0.37835313 0.81113635
-0.096826131 0.081371594 0.10053739 -0.84496199 0.52374275 0.10831794
-0.10548758 -0.034311973 0.36478098 -0.1566107 -0.74830267 0.64460546
-0.16709621 0.057109765 0.1432119 -0.7636962 0.64214088 -0.066507161
0.16684851 0.060659773 0.2232445 -0.95735256 -0.28877531 -0.009213833
0.097956637 0.021963492 -0.40441212 -0.4385944 0.89547656 -0.075872779
-0.14177284 0.037399333 -0.32254101 0.86780821 0.42284195 -0.2609858
-0.092502184 0.018178851 -0.41646606 -0.88229703 0.14006719 -0.4493697
-0.11531409 -0.090567026 0.29866194 -0.21367049 -0.69668318 0.6848193
0.11427885 0.084503961 -0.11022166 0.86723301 0.47947269 0.13421195
-0.12602768 0.074614158 -0.1518801 -0.96217242 0.12941951 0.23973907
0.082995138 0.048652709 0.28418407 -0.88471208 -0.4257707 -0.18974679
-0.17312912 0.0072502891 -0.01998346 0.81407229 -0.27016157 -0.51410021
0 0.085216123 0.14789673 -0.99999067 0.0042999736 0.00040716348
0.14830385 0.022849482 -0.36919921 -0.040911936 0.95075788 -0.30722249
-0.16882461 -0.01714233 0.29674453 0.82629977 0.099446487 -0.55438172
0.17890121 -0.027320767 -0.020059385 0.02571799 0.0023373003 -0.99966651
0.10106584 -0.048796645 0.34919556 -0.15260057 0.7404348 -0.65457572
0.1338182 0.041940147 -0.31738572 0.87756921 -0.39516404 -0.27150998
0.11545963 0.079303258 -0.174702 -0.93191593 -0.35187261 -0.087854233
-0.088067752 -0.03325345 0.36938935 -0.11287855 -0.74390784 0.65868016
-0.10046621 0.088843568 0.022671561 -0.96331979 -0.26773635 0.018227207
-0.1184592 -0.052456599 0.34029143 -0.24274198 -0.71706936 0.65336657
0.14552459 -0.0698349 -0.45050699 0.7955151 0.1231715 -0.59328282
0.1350248 0.042425074 -0.31419573 -0.84394754 0.47527834 0.24872284
0.16898813 -0.091825297 0.26180703 0.97068227 0.23792678 -0.034158075
0.17731407 -0.0097833797 -0.02002612 0.47628343 0.07999623 -0.87564531
-0.15056351 0.016846004 -0.38796528 0.53870689 0.78202134 -0.31342865
0.16668953 -0.092393817 0.17265186 -0.51854147 0.85503748 0.0050650448
0 0.06275295 0.3307131 -1 0 0
-0.17877987 -0.023788525 -0.020053013 -0.025133483 0.0030057906 -0.99967959
-0.13791686 -0.093105546 -0.46123856 0.05706544 0.98948293 0.1329175
-0.12365975 0.052090558 0.36419091 0.096874062 0.99334299 -0.062330713
0.097288486 0.082376008 0.0919058 -0.83287849 -0.54327111 -0.10568788
-0.16719439 0.052737055 0.11007667 -0.99168522 -0.1266387 0.022870396
0.10861519 0.028870079 -0.38001291 0.010040298 0.96616564 -0.25772688
0.17824693 -0.016756009 -0.020040052 0.02630771 0.0046473972 -0.99964309
-0 0.021350422 -0.40935276 -1 0 0
-0.16658455 0.055911434 0.28673695 -0.89648406 -0.43987345 -0.053175843
0.10754884 -0.015887947 0.37305432 0.64387518 -0.47759411 0.5977697
-0.094777559 0.051364626 0.39606107 -0.095562613 -0.99317499 0.066867293
0.16460532 0.052904133 0.30979219 -0.89435876 0.053573934 -0.44413087
-0.14416161 -0.085044694 -0.4555843 0.60316213 -0.16419996 0.78053431
0.16645819 -0.090881364 0.27792641 0.54813966 0.12107444 0.82757712
-0.10277404 0.09261201 -0.046780192 -0.90227907 -0.43104996 0.0094021657
0.14983099 -0.092997275 -0.42889643 -0.87861906 0.44266565 0.17909683
0.16453712 -0.092928154 0.018463878 0.28962191 0.95712458 -0.0056292775
-0.14135703 0.046326789 -0.065693356 -0.72922025 0.68001153 0.076302958
-0 0.053076287 -0.31404691 -1 0 0
0.16767137 0.024524477 -0.0071744845 -0.99274079 -0.11599107 0.031808612
-0.088001439 0.06084937 0.22912794 -0.77426672 -0.62977648 -0.062390976
-0.1260043 0.052148879 0.3614655 -0.13179278 0.98223886 0.13355705
-0 0.09699444 -0.11628287 -1 0 0
-0.17596545 -0.0028913195 -0.020010676 0.36202596 -0.080374692 -0.92869646
-0 0.057875279 -0.29857408 -1 0 0
0.15340951 -0.092904178 -0.41107209 -0.033797726 0.99942715 0.0017549392
-0.10487348 0.093072474 -0.11937862 -0.19454066 0.96636084 -0.168228
-0.14362668 0.033584343 -0.33495086 0.74584482 0.59783005 -0.29379369
-0.13380141 0.049458508 -0.021805552 -0.73638019 0.67198111 0.078648561
-0.16761359 0.026978811 -0.29950014 0.98254401 -0.18396366 0.027652102
-0 0.088961992 -0.18953924 -1 0 0
-0.1397227 0.052473639 0.34482927 0.36013106 0.89320148 -0.26925218
-0.11650967 -0.076791815 0.31361987 0.098275234 -0.79289118 0.60138637
-0.16251241 0.037425956 -0.25641656 -0.40289181 0.91474694 -0.030269061
0.17310628 -0.070951744 -0.30079923 -0.61457923 0.036922519 -0.78799054
0.11297597 0.085560755 -0.10558381 0.88372041 0.44415834 0.14751817
-0.093298317 0.027499648 -0.38602536 0.017529712 -0.96833452 0.24904011
0.11815216 -0.092878095 -0.47133918 -0.13249328 -0.95903595 0.25039086
0.16682464 0.060486917 0.22993007 -0.89717255 -0.44134761 -0.017137737
-0.16868783 -0.091890476 0.25285117 -0.43997272 0.89777127 -0.020754717
0.17637035 -0.044672662 -0.020151402 0.0038520213 0.0081024385 -0.99995976
-0.14219329 -0.086205386 0.29385943 0.25530503 0.71829608 -0.64720174
0.16755333 0.031428202 0.015306131 -0.86352199 0.48299914 -0.14505725
-0.11175437 0.05178945 0.37764185 0.11314565 0.99039588 -0.079461058
0.044467286 -0.092519692 -0.49931826 -0.047864912 -0.97938489 0.19625033
-0 0.06351652 -0.27997136 -1 0 0
-0.12964611 -0.068216822 0.31868968 -0.12233492 -0.7721898 0.62350388
-0.13522379 0.052370984 0.35043174 -0.0028516037 0.99976898 0.021303862
0.15567943 -0.092849637 -0.39911546 0.094818503 0.9952552 -0.02182987
0.049811793 -0.090590084 0.31301971 -0.050043571 -0.9037061 -0.42521868
-0.12763825 0.061871874 -0.2392203 -0.98469614 0.033319192 0.17106532
0.16150568 -0.092894404 -0.11236614 0.30601396 0.95198466 -0.0089815192
0.10406417 0.093771676 -0.10326734 0.1839735 0.98289085 0.0089060976
-0.10730109 0.028056504 -0.38308372 -0.014200785 0.96438645 -0.2641157
-0.1722859 -0.082742211 -0.30081316 0.0345489 0.0039360739 -0.99939526
-0.086863913 0.027576815 -0.38617829 0.020978418 -0.90426608 0.42645371
0.16926953 0.017093868 -0.019949547 -0.9203424 -0.38939485 0.03662682
-0 0.096612762 -0.13927849 0.87518366 0.48366902 -0.010855911
0.16075393 0.052859744 0.31581889 -0.13985883 0.98665731 -0.083347879
-0.16747832 0.035960538 0.03147028 -0.85380509 -0.50174495 0.13881238
0.040055911 -0.092514238 -0.50031813 -0.031350805 -0.98967111 0.13988648
-0.1409105 -0.015925802 0.33464868 0.29261338 0.92598625 -0.23859355
0.15455724 -0.092876151 -0.40510068 0.10702098 0.99394604 -0.024855035
0.017879536 -0.092500144 -0.50387694 0.082803722 -0.57687328 -0.81262584
-0.11739118 -0.015884005 0.36227054 -0.34951895 0.88305057 0.31314244
-0.15987631 -0.092758052 -0.37505273 0.44322799 0.89372419 0.069325386
-0.16704788 0.05867773 0.15983857 -0.89158366 0.45156255 -0.034202862
0.096104357 0.079781812 0.11347348 -0.88916485 0.45754104 0.0064852851
0.16459976 -0.092921296 0.02284269 0.46271597 0.88647066 -0.0079818054
0.12016044 0.072833105 -0.19927072 -0.78369574 0.54642531 -0.2953648
-0.15194333 0.012786607 -0.40051338 0.415303 0.8513651 -0.32046979
-0.11014795 0.086326054 -0.14705449 -0.89538071 0.44097552 0.0619191
0.10063513 0.089156935 0.018335626 -0.82937888 0.55863338 0.0077083035
0.16867741 -0.092610684 -0.30210654 0.37923392 0.92423044 -0.044494183
0.10227427 0.09191621 -0.029405022 -0.94327393 0.33173416 -0.013665511
-0.12169941 0.055934439 0.039144703 -0.63755706 0.769615 0.034838921
-0.090714814 0.067343552 0.19502464 -0.79552291 -0.6040133 -0.048075275
0.088001439 0.06084937 0.22912794 -0.97962998 -0.16441102 -0.11530009
-0.16650593 0.037448744 -0.21163607 -0.99729268 0.073473897 -0.0029827184
0.089751765 -0.088917087 0.30724033 0.15222235 -0.74072741 0.65433269
-0.16772716 0.021372508 -0.016751893 -0.85049158 0.50645524 -0.14201114
0.00053773935 -0.024224689 0.38436289 0.89412014 0.30735447 -0.32570295
0.15227161 0.011764697 -0.4036553 0.035281246 0.95134517 -0.30610065
0.16709627 0.057109765 0.1432119 -0.97327703 0.22801349 -0.027233578
0.16714476 0.055125993 0.12662244 -0.99140799 -0.13002796 0.014245302
0.16779774 0.017832058 0.3030489 0.83833512 -0.050321115 0.5428278
-0.16075393 0.052859744 0.31581889 -0.1494444 -0.98472797 0.089315167
0.16955379 -0.0609109 0.28537208 0.99838983 0.022228315 -0.052188653
0.097514101 0.082861637 0.087587847 -0.94311491 0.33225292 -0.011927523
-0.16005333 -0.017546526 -0.4079961 0.98479012 0.008576971 0.17353635
-0.082157047 0.046592203 0.29261034 -0.91533477 -0.40262197 -0.0076027215
0.16694641 0.032090089 -0.13472563 -0.96572231 0.25771576 0.031032248
0.099307195 0.022875781 -0.40138333 0.038642934 0.95262836 -0.30167188
-0.14316989 -0.01593509 0.33182703 0.28096692 0.932517 -0.22686919
0.12076941 0.056514028 0.043473024 -0.93354401 -0.32184539 -0.15783259
-0.1670866 0.057456935 0.14653446 -0.80926002 0.58465299 -0.057263449
-0.16734742 0.043981537 0.064036289 -0.99495738 0.09860278 -0.018365765
0.066908534 0.095392562 -0.14773014 -0.14069189 -0.95689753 0.25407264
0.12398262 0.037466834 -0.34270834 -0.8055292 0.55395699 0.2103672
-0.0568145 -0.090566918 0.31207404 0.055993877 -0.91228413 -0.40571215
-0.08499673 0.094871239 -0.13683393 0.26540886 -0.91522815 0.30317579
0.16768995 -0.092622942 -0.31430768 -0.32912655 -0.94357261 0.036693908
-0.16721572 0.035356161 0.30521455 0.82803041 0.03244031 -0.55974393
0 0.087789798 0.11923574 -1 0 0
0 0.079256925 0.20515167 -1 0 0
-0.17116133 0.0036358577 -0.30009425 0.14573944 0.0029718483 -0.98931855
0.099732613 0.027422535 -0.38587232 -0.017803168 -0.96479008 0.26241789
0.16753772 0.032361712 0.018532135 -0.88014587 0.45513406 -0.13489343
-0.066400711 -0.092566673 -0.49305255 0.0077525143 -0.999868 0.01427895
-0.11523293 -0.047938033 0.34643579 -0.23412615 -0.71960016 0.6537282
-0 0.076178613 -0.23641934 -1 0 0
0.15407977 0.041956671 -0.15855605 -0.092790535 0.99440183 -0.050546151
-0 0.087304601 -0.19580246 -1 0 0
-0.10172384 0.091057491 -0.012036441 -0.93954593 -0.34218986 0.012631275
-0.16788878 -0.092652372 -0.21091679 -0.20777211 0.97791464 0.02266512
-0.018080851 -0.090753544 0.31564825 0.0011290115 -0.98235319 -0.1870319
-0.1176695 0.034151621 -0.35835273 -0.87040722 -0.41645433 -0.26259676
-0.083794403 -0.092634066 -0.48671 0.033114048 -0.99688743 0.071546511
-0.10390476 0.092712343 -0.073060353 -0.76410417 0.64314265 0.050123329
-0 0.015917678 -0.42461925 -1 0 0
0.16741001 0.040148457 0.047715808 -0.96567497 0.25128446 -0.065787403
-0.16789153 -0.092074996 0.2260392 0.22998308 0.97319461 -0.0001922154
0.10730109 0.028056504 -0.38308372 0.014203853 0.96438607 -0.26411692
0.15290768 0.0097124528 -0.40994536 -0.91436708 0.3493823 -0.20460902
0.16736303 0.030971247 0.30473653 0.70678723 -0.056631449 0.70515579
0.15969417 0.039524208 -0.21634634 -0.86427254 0.49424144 -0.093586199
0.10955891 0.087089354 -0.14398114 -0.94174472 -0.3208341 -0.1009077
0.10127709 0.090305368 0.00098421701 -0.76722071 0.64126814 0.012147256
-0.16702833 0.059186201 0.16649821 -0.92152033 0.3875331 -0.024867151
0.1664914 -0.092639898 -0.32649959 -0.67735641 -0.73198384 0.073402628
-0.16943925 -0.092603016 -0.28990221 -0.020645686 -0.99969804 0.013326095
0.1529066 -0.0037561953 -0.42663807 0.45521759 -0.36964951 0.81002234
0.12147272 0.036187557 -0.34898312 -0.9080619 0.2866526 0.30537496
0.14270921 0.035497805 -0.32874326 0.40563221 0.88895012 -0.21267392
0.0064343499 0.02854089 -0.38809061 -0.024520078 0.0078806135 0.99966828
-0.17364445 -0.059152636 -0.30076878 0.36709944 0.015388775 -0.9300544
0.09660084 0.021037542 -0.40743481 -0.49293545 0.86881588 -0.046621944
0.0749419 -0.085299902 0.31485487 0.14245475 -0.72926539 0.66923735
-0.15300812 -0.052767535 -0.43700551 0.50983473 -0.4050619 0.7589423
-0.16735952 0.043243833 0.06076649 -0.99775452 0.066012997 -0.011322692
-0.16721474 0.051670378 0.10347206 -0.94373423 -0.32573308 0.057128542
-0 0.077056071 -0.23330085 -1 0 0
-0.092869011 0.072408552 0.16506287 -0.66157042 -0.74626315 -0.073592787
0.17596545 -0.0028913195 -0.02001073 0.15520365 0.037770435 -0.98716018
-0 0.0070443303 -0.44898212 -0.99956842 0.027556601 -0.010178786
-0.16506341 -0.092848395 0.057923513 -0.49081741 0.87122225 -0.008370535
0.14391477 -0.088094764 -0.45658947 0.77372001 -0.2813264 0.56763791
0.13369508 0.019248875 0.34896341 0.7673393 -0.08151842 0.63603864
0.17359461 -0.027697962 -0.30056886 0.048800205 0.01180662 -0.99873878
0.14411501 0.045323887 -0.083316929 0.53798863 0.8421563 0.03661978
-0.14667902 0.026794074 -0.35672326 0.54316182 0.77734082 -0.31735863
0.16397654 -0.092964712 -0.016520284 -0.11524797 -0.99333236 0.0029543498
-0.053624731 0.095630219 -0.15305224 0.07947367 -0.97773192 0.19422728
-0.15259313 0.010739979 -0.40679928 0.53140181 0.78802672 -0.31084724
0.16690505 0.060767235 0.20653581 -0.91224239 -0.40965085 9.4845784e-06
0.15145047 0.04285708 -0.13637832 0.59594444 0.80198434 0.040882189
-0.169581 0.01532853 -0.29982662 0.43464607 -0.043142836 -0.89956739
0.13383046 0.067657783 -0.17958221 -0.21797984 0.92891271 -0.29934256
-0.092438463 -0.092680075 -0.48316507 0.0036516429 -0.99997969 -0.0052236072
-0.16533654 -0.092786618 0.079897332 -0.95077999 -0.30967724 -0.010836027
-0.16699869 0.059819522 0.17649596 -0.98902524 0.14765383 -0.0052363325
-0.025158728 -0.090708886 0.31529324 0.0044022097 -0.98487824 -0.17319202
0.16576466 0.019937439 -0.36535717 -0.97616919 -0.13162446 0.17253615
-0.087743855 0.094762697 -0.13465635 0.11705758 -0.98882761 0.092290162
-0.15032752 0.043229415 -0.12751729 -0.6181133 0.78472293 0.046323552
-0.093447737 0.073751442 0.15648339 0.30020751 0.94562657 0.12516328
0.14523623 -0.072871416 -0.45152993 0.76391055 0.13941361 -0.63008294
0.16266907 -0.016072198 0.30586504 -0.78514443 -0.28041016 -0.55219413
-0.10065252 0.023774299 -0.39834843 -0.035088379 0.95464014 -0.29568735
-0 0.011508787 -0.43681062 -1 0 0
0 -0.021333274 0.38711271 -0.97188861 0.15789678 -0.17464574
-0.14275522 0.045810488 -0.074500661 -0.59126589 0.8051198 0.046762692
0.084616294 0.052625327 0.26729512 -0.98969146 -0.088091726 -0.11291886
-0.16753772 0.032361712 0.018532135 -0.91518387 -0.38620172 0.11526803
-0.10372014 0.093591961 -0.085886608 0.18618583 0.98244674 0.01154253
-0.16377727 0.037230041 -0.29005789 0.010635504 0.96012335 -0.27937437
-0.17258981 -0.078813495 -0.30080992 0.45035716 0.032210243 0.8922673
-0.082166227 0.0949733 -0.13890534 0.14226526 -0.97771007 0.15441375
-0.10861525 0.028870079 -0.38001291 -0.010042194 0.96616541 -0.25772766
-0.16723348 -0.092242831 0.19930744 0.033231251 0.99943401 -0.0052283938
0 0.09277412 0.050376154 -1 0 0
0.11792827 0.058359882 0.056435847 -0.092197077 -0.98765634 0.12662799
-0.10711808 -0.036591668 0.36173329 -0.17242622 -0.74277346 0.64695965
0.15989986 -0.092791802 -0.15145803 0.0023900131 0.99999242 0.0030723828
-0.14674447 -0.057716595 -0.44637248 0.91490314 -0.04214028 0.40146787
0.15969417 -0.092777708 -0.15579839 0.0017383483 0.99999325 0.0032365532
-0.15186314 -0.012682409 -0.43008175 0.97431707 0.17048576 -0.14710827
-0.070762135 -0.092580659 -0.49156829 -0.041852699 -0.99066695 -0.12972028
0.13748339 0.052423149 0.34763801 0.24395801 0.9460453 0.21326692
1.6740229e-05 0.0017274717 -0.46488755 -0.99973704 0.022890088 -0.0013738258
0.09674702 -0.092706589 -0.48131025 -0.05430963 -0.99248355 0.10966711
-0.11378625 -0.071055641 0.32078577 -0.23260762 0.80271883 -0.54912309
0.16617566 0.035971554 -0.28449851 0.548385 0.83318603 -0.071238645
0.13512453 0.066471387 -0.18419468 -0.1007853 0.95614343 -0.27501286
0.013420965 -0.09249928 -0.50427844 -0.051669164 0.80498974 0.59103453
0.082578415 0.047628693 0.28839872 -0.87478615 -0.44335234 -0.19541722
-0.16259422 0.038573795 -0.28545994 -0.64491821 0.76221283 -0.055786328
-0.14411501 0.045323887 -0.083316875 -0.51780873 0.85486465 0.03287173
-0.16699059 0.031401309 -0.12773081 -0.99007215 0.14034743 0.007729418
-0.097956637 0.021963492 -0.40441212 -0.81485175 0.34173912 -0.4682211
-0.1662356 -0.092527739 0.14606827 -0.52146475 0.85318536 -0.01221712
0.16659822 0.03669916 -0.19418136 -0.69854228 0.71437313 0.041348829
0.16774654 0.020296759 -0.019936371 -0.92152232 -0.38356291 0.060630866
-0.16630532 0.037646009 -0.25338264 0.38045227 0.92451631 -0.022927491
-0.16749274 0.035081244 0.028230721 -0.83631202 -0.52783941 0.14821527
0.1194991 0.08019157 -0.12875391 0.96190238 0.12976406 0.2406348
0.10992417 0.029669074 -0.37693611 0.006488381 0.96782178 -0.25155296
-0.16552544 0.017986716 -0.36789083 -0.96502609 0.15810911 -0.209108
-0.10736146 0.065821974 0.099207401 -0.7896911 0.60476961 0.10315854
-0.16224354 0.037686401 -0.25196329 -0.28448188 0.95794907 -0.037465228
0.15815882 -0.027722479 -0.41743721 -0.73079345 -0.36804078 0.57487991
0.16657937 0.036876066 -0.1976744 -0.77612173 0.62961129 0.034995581
0.17161111 -0.00026812561 -0.30018281 0.23329148 0.043299639 -0.97144234
0.16936127 -0.043380695 0.29036904 0.99013854 -0.022126242 0.1383333
-0 0.034032549 -0.37259132 -1 0 0
-0.16659822 0.03669916 -0.19418136 0.69698625 0.71588729 0.041419276
0.083794349 -0.092634066 -0.48671 -0.06297679 -0.98711445 0.14710195
0.16715459 0.054680325 0.12330955 -0.99765249 -0.068182027 0.0063809247
0.16167232 0.038184558 -0.24305721 -0.07751076 0.99523419 -0.059169081
0.058190655 0.00077306262 0.3952098 0.65521654 0.49946488 -0.56676813
0.11650967 -0.076791815 0.31361987 0.102526 0.79330551 -0.60012897
-0.12327472 -0.059219003 0.33105066 -0.22589886 -0.72727762 0.64810259
-0.16731221 0.046106682 0.073861777 -0.94680997 -0.31428998 0.069084623
-0.15567948 -0.092849637 -0.39911546 0.027253869 0.99962827 0.00074194931
0.14316989 -0.01593509 0.33182703 -0.1645561 0.97717229 -0.13437114
0.15409499 0.0055744302 -0.4225507 -0.8821111 0.41404665 -0.2246005
-0.040055911 -0.092514238 -0.50031813 0.029985227 -0.99058637 0.13356472
0.025737454 0.028309497 -0.38763172 -0.024716981 -0.74929279 0.66177745
0.13706359 -0.090661797 0.29096429 0.25189005 -0.71228418 0.65513559
-0.16140399 0.039911394 -0.28086189 -0.66750016 0.74339871 -0.042448712
-0.14537161 0.056713453 -0.2210565 -0.40446777 0.90467184 -0.13406966
0.14789603 0.054202365 -0.2302632 -0.64936259 -0.75984798 0.030972064
0.1672148 0.051670378 0.103472 -0.92893321 0.36474889 -0.063571476
0 0.085753214 0.14216612 -0.99999072 0.0042899297 0.00039789993
-0.15944263 -0.020901916 -0.41120687 -0.7689766 0.35776503 -0.52979163
-0.11684761 -0.050198504 0.34336526 -0.24004387 -0.71757864 0.65380412
-0.10662354 0.090854718 -0.12860837 -0.27498862 0.94510941 -0.17649209
-0.16664811 0.057498948 0.27338063 -0.99046621 -0.13738178 -0.010145517
0.073995159 0.027731041 -0.38648425 0.014569948 -0.5010066 -0.86532081
0.1738402 -0.051284999 -0.30073783 -0.5471406 0.012841589 -0.83694221
-0 0.091420916 -0.18013734 -1 0 0
-0.12622008 0.053287646 0.01745023 -0.92550365 0.3483581 0.14862578
0.16581747 -0.092650158 -0.33259011 -0.21107074 0.97721306 0.022444825
-0.16440762 -0.092940358 0.0097101963 -0.23243962 0.97259916 -0.0047646733
0.17342688 -0.023771839 -0.30052766 -0.059153564 0.0082100664 -0.99821513
-0.15134798 -0.060264782 -0.44188437 0.4573062 -0.39292347 0.79779834
-0.14496601 0.030691902 -0.34427296 0.58519524 0.74708617 -0.31529158
-0.074941846 -0.085299902 0.31485487 -0.11179808 -0.73516975 0.6686005
0.10598174 0.027228456 -0.38614864 0.018588942 0.9625207 -0.27057043
-0 0.097051086 -0.11053379 -1 0 0
0.028923389 0.095875814 -0.15899551 -0.047768059 -0.96228185 0.26782804
-0.10300538 0.092899456 -0.055469559 -0.85400923 0.51886122 0.038095489
-0.14081826 0.039288873 -0.31634388 0.78300697 0.55102079 -0.28857612
-0.092573519 0.07171988 0.1693495 -0.96974651 0.22124352 0.10316493
-0 0.088135133 -0.19267134 -1 0 0
-0.15989986 -0.092791802 -0.15145803 -0.0023888449 0.99999243 0.0030724317
-0 0.080530047 -0.22081701 -1 0 0
0.15351567 0.0076490306 -0.41624374 -0.94962665 0.2603649 -0.17441144
-0.16511838 -0.092837001 0.062315177 -0.7937509 0.60813401 -0.01151288
-0.12967899 0.051448705 3.4290028e-05 -0.93469537 0.32239558 0.1496852
0.15186314 -0.012682409 -0.43008175 0.87435615 0.079843147 -0.47867149
-0.16973096 -0.092600802 -0.28380077 0.12483298 -0.99215319 0.006984421
-0.1670185 0.059414678 0.16982973 -0.95542016 0.29478143 -0.016620074
-0.12147277 0.036187557 -0.34898312 -0.70623291 -0.69422462 -0.13887855
0.1737592 -0.055218737 -0.30075495 -0.42529235 0.014192864 -0.90494474
0.1567724 0.05280299 0.32176588 -0.064464458 0.99735566 -0.033556176
0.11981489 -0.015884545 0.35955295 0.011174764 0.99989162 0.0095849567
-0.13693534 0.048083649 -0.039329278 -0.75599459 0.64913669 0.084224324
0.16419508 -0.082307667 -0.020794335 -0.0023093712 0.024298948 -0.99970207
-0.12190866 0.070352366 -0.20848551 -0.68597917 -0.65912187 0.30820599
0.16674828 0.059514039 0.24998826 -0.72430382 0.68818196 0.042303188
-0.014537269 -0.090777629 0.31577677 -0.028001482 -0.6775412 0.73495159
-0.13459862 0.049097837 -0.026182312 -0.7539954 0.65152394 0.08371078
0 0.093109735 0.044633932 -1 0 0
-0 0.062585223 -0.28307446 -1 0 0
0.03967013 0.095794057 -0.15694667 -0.052809664 -0.97972496 0.19326183
-0.02869259 -0.090688311 0.31506682 0.0055249169 -0.98685952 -0.16148612
0 0.071547564 0.26800933 -1 0 0
-0.14608215 0.044642884 -0.096557046 -0.37563562 0.92672614 0.0087490768
0 0.055748136 0.37620435 -1 0 0
-0.16958046 -0.078492785 0.27980126 -0.71567508 0.21468297 -0.66462049
0.13683215 0.046725801 -0.29160226 -0.51060129 0.79732669 -0.32180192
-0.13299502 0.049831113 -0.017431655 -0.77120881 0.63041042 0.088428891
-0.088356224 0.015201196 -0.42544163 -0.8807698 0.13126101 -0.45498913
-0.081146045 -0.090524041 0.30772056 -0.14254303 -0.73600154 0.661803
-0 0.05210584 -0.31713823 -1 0 0
-0.1675692 0.030481353 0.012083691 -0.95225664 -0.29141512 0.091019281
-0.16743922 0.024363393 -0.061465746 -0.9914846 -0.12857383 -0.02066553
-0.0857846 0.055475972 0.25459766 -0.84816126 -0.5282577 -0.039576297
0.085565951 0.013151436 -0.43139397 -0.73691929 0.66617188 0.11473879
-0.16694874 -0.09232043 0.18597039 -0.12756956 0.99179559 -0.0082162544
-0.16806407 -0.090896592 0.27712055 -0.63449076 -0.54038288 0.55263715
-0.10254287 -0.015893131 0.37839808 -0.6449568 -0.46211424 0.60867163
0.14941464 -0.033616173 -0.43785926 0.85326545 0.087817846 -0.51402928
0.1085444 -0.090548503 0.30074264 0.11448137 -0.91457484 0.38787481
0.10545567 0.09233666 -0.1224558 -0.30269971 0.91371153 -0.27111645
-0 0.048188519 -0.32949247 -1 0 0
0.11402067 0.061085461 0.07366543 0.097877379 0.98493604 -0.14255179
0.16597111 -0.092607444 0.12838384 -0.30858179 0.95119776 0.00032052912
-0.16723494 -0.092662524 -0.20489397 -0.24766943 0.96836887 0.030357614
-0.081300433 0.044481962 0.30102404 -0.91527959 -0.40273948 -0.008012034
0.054692109 0.027962434 -0.38694326 0.023433941 -0.02726327 -0.99935357
-0.082995138 0.048652709 0.28418407 -0.81881191 -0.57118429 -0.057406997
-0.11898971 0.07447057 -0.19312829 -0.89408576 -0.36012847 0.26630459
0.16679694 0.034301311 -0.15921513 -0.45064262 0.88944273 0.076242107
-0.10519387 0.091717488 -0.077713165 -0.45961656 0.88505585 -0.073680166
-0.16623101 0.036932011 -0.27069393 0.087248987 0.99463398 -0.055595447
0.10838251 0.088605803 -0.13783337 -0.91175058 -0.4038202 -0.075100846
0.067278277 -0.090541213 0.31040747 0.13612369 -0.57613718 0.80593814
-0.16759053 0.022233982 -0.040659154 -0.98148219 -0.18978875 -0.025941223
-0.16447674 0.010031273 -0.37785996 -0.84460425 -0.45687833 0.2791162
0.16681244 0.060372273 0.23327309 -0.9250385 -0.37947078 -0.017484379
-0.086365918 -0.031608264 0.37153312 -0.1095933 -0.74333229 0.65988364
0.018080905 -0.090753544 0.31564825 0.037349865 -0.5700563 0.82075624
0.087642928 0.059983954 0.23337958 -0.9959762 0.050229887 -0.074218416
-0.0038902672 -0.09085701 0.3159675 -0.0075113851 -0.69666171 0.71736047
-0.096600894 0.021037542 -0.40743481 -0.89612958 0.096957474 -0.43307162
-0.16993984 -0.092614356 -0.2411748 -0.30974448 0.95074572 0.011871706
-0.16649783 0.053471087 0.30341513 -0.97152494 0.19193501 0.13892534
-0.16677286 0.048530397 0.30639068 0.92736161 -0.08170054 -0.36513761
0.051474908 0.028000991 -0.38701973 -0.02407449 -0.02614649 0.99936819
0.16756505 0.022577535 -0.044121465 -0.93032504 0.36417847 0.043236209
0.039271443 -0.090633825 0.31419104 -0.027293699 -0.94462893 -0.32700341
-0 0.096731618 -0.13352973 0.99998122 0.0061267971 -0.00011829308
-0.16847107 -0.004032031 0.29940985 0.82570369 0.082165872 -0.55808797
0.14283049 0.059196461 -0.21184668 0.36611723 0.91919527 -0.14504563
-0 0.078800295 -0.2270609 -1 0 0
-0.16121229 -0.010944612 -0.40139451 -0.99014537 -0.13628274 -0.032236098
0.12220723 -0.057717567 0.33310652 0.2327086 -0.72361943 0.64978584
0.16473805 -0.016094068 0.30291244 0.81847336 -0.082088738 0.56864998
0.1604829 -0.092830845 -0.13843343 -0.010874325 0.99993551 0.0032757066
0.11738513 -0.050951436 0.34234097 0.24288611 -0.71646432 0.65397646
-0.13135501 0.050613746 -0.0086926072 -0.47941015 0.87753624 0.009801072
-0.077212361 0.027692485 -0.38640779 0.022848606 -0.84436327 0.53528367
0.16675574 0.034862433 -0.1662119 -0.43442751 0.89780782 0.07220704
-0.17015006 0.011435292 -0.29992204 0.13585948 0.0043636564 -0.99071851
-0.097736044 0.083336303 0.08326849 -0.63962818 -0.76700985 -0.050711796
0.12222338 -0.015885841 0.35682618 0.094573456 0.99209095 0.082531213
-0.080425135 0.042321716 0.30942493 -0.91522257 -0.40286068 -0.0084210018
-0.1574857 -0.03118803 -0.42045245 -0.66685574 0.40474813 -0.62568552
0.10011823 0.088185299 0.031340732 -0.94595382 0.32402751 -0.013324694
-0.075633542 0.0055841504 -0.45202727 -0.47591809 -0.87359275 0.10167438
-0 0.089785287 -0.18640623 -1 0 0
-0.1636447 -0.092970707 -0.033983367 -0.27470079 -0.96151387 -0.0055275295
0.0071927363 0.095955681 -0.16104845 0.0039471324 -0.99996901 -0.0068115504
-0.14983979 -0.01596965 0.32328973 0.40522442 0.8583814 -0.3146022
-0.028923443 0.095875814 -0.15899551 0.048190772 -0.96149598 0.27056079
0.16677626 0.034586327 -0.16271362 -0.44264977 0.89361209 0.074287382
-0.16710372 0.029602221 -0.11025412 -0.98001347 0.19840391 0.014473737
0 0.095546734 -0.007066375 -1 0 0
-0.15357443 0.042134766 -0.15411784 0.029468282 0.99860814 -0.043742387
-0.10816672 -0.027440595 -0.45490492 0.54138767 -0.50048961 0.67558089
-0.164738 -0.016094068 0.30291244 0.81847082 0.082123343 -0.56864864
0 0.095329003 -0.0013203185 -1 0 0
-0.16459976 -0.092921296 0.02284269 -0.45879932 0.88850453 -0.0079297018
-0.16262846 -0.0023656223 -0.39224478 -0.89527299 -0.38665944 0.22131596
-0.16769362 0.020919064 -0.026834047 -0.76619595 0.64108185 0.044247341
0.043207179 0.095759389 -0.15610096 -0.085562122 -0.94997775 0.30036877
0.10613753 0.066692574 0.10342119 -0.77455929 -0.62499841 -0.09713341
0.094285937 0.0756797 0.14359946 -0.93584083 -0.3353495 -0.10836353
0.16719687 0.028110882 -0.096288176 -0.99995412 -0.0075120327 0.0059438944
0.15419365 -0.015998649 0.31753514 0.028606219 0.99946407 0.015914076
0.081340934 0.0099820785 -0.44027515 -0.62361225 0.78159869 0.014534668
-0 0.035066609 -0.36952025 -1 0 0
0 -0.08578553 0.3214955 0.61457577 -0.5901415 0.5234784
-0.14663603 0.055461392 -0.22566017 -0.64972259 0.75961698 -0.029027638
-0.12132713 0.071182573 -0.20541373 -0.77510801 -0.55751722 0.2972913
-0.10332755 0.025529593 -0.39226055 -0.027027157 0.95866293 -0.28325768
0.16903176 -0.025883916 0.29477205 0.8259964 -0.11122945 0.55259204
0 -0.026852635 0.38209232 -0.9797163 0.13531161 -0.14780643
0.09523986 0.020098037 -0.4104514 -0.70792401 0.6990535 0.10083549
0.16914532 -0.091792032 0.26628855 -0.10241942 0.99217995 -0.071338622
0.16687162 0.060758108 0.21655997 -0.91690649 -0.39904452 -0.0067799532
-0.13579722 0.048554482 -0.28542738 0.73283626 0.60896418 -0.30350231
-0.022330493 -0.092501548 -0.50336783 -0.1002015 -0.59857268 -0.79477695
0.16728959 0.047449303 0.080425081 -0.9985305 -0.053693508 0.0073378595
-0.16652397 0.037326648 -0.2081473 -0.99379855 0.11118755 -0.0013330461
-0.12076941 0.056514028 0.043473024 -0.92071411 0.36032845 0.14982972
0.16420091 -0.09295483 -0.0034105791 -0.99203131 0.12495229 0.016149617
-0.1675854 0.02952122 0.0088647607 -0.96130399 0.26514422 -0.074787555
-0.16681778 0.034007763 -0.15571647 0.45751497 0.88576482 0.078107251
0.16597602 0.026630992 -0.3459992 -0.99999679 0.00082807585 0.0023927225
0.016085902 0.028425221 -0.38786117 -0.020207845 -0.92283375 0.38466806
0.11916046 -0.082565736 0.30648907 -0.84239234 0.21907838 -0.49232083
0.16084433 -0.092854173 -0.12974714 0.045179666 0.99897861 0.00073418983
-0.078497903 0.0078073608 -0.44616409 -0.47674231 -0.87383976 0.095503063
0.16377722 0.037230041 -0.29005789 -0.009722656 0.96032303 -0.27872055
-0.10613753 0.066692574 0.10342119 -0.7746945 0.62481895 0.097209661
-0.17856246 -0.020266111 -0.020046586 -0.024673151 0.0037033247 -0.99968871
0.16328128 0.0018291011 -0.38753262 -0.78087262 -0.41465477 0.46722518
-0.13770518 0.064075914 -0.19341617 -0.091821988 0.96937041 -0.22779319
-0.16654227 0.037190242 -0.2046574 -0.99525805 0.097257865 -0.0015221459
-0.15160826 0.013805709 -0.3973734 0.37186801 0.8705292 -0.32232452
-0.16760193 0.02854791 0.0056494488 -0.85453373 -0.49555789 0.15554578
0.14540217 0.029721832 -0.34738318 -0.45549715 0.82973093 -0.32259717
-0.06203081 -0.092554307 -0.49446397 0.030072831 -0.99572062 0.087384618
-0.12664847 -0.092966927 -0.46708457 0.0013946444 -0.9998128 -0.019298404
0.14037303 -0.090681129 0.28965251 0.25808822 -0.71251312 0.65246879
0.12262088 0.055372129 0.034812763 -0.85978119 -0.49672926 -0.11847512
0.15359187 0.0021791338 -0.42430173 0.50132443 -0.38240533 0.77617007
-0.16682464 0.060486917 0.22993007 -0.95001938 -0.31212568 -0.0063818753
0.16640176 0.037857259 -0.23253976 0.85191413 0.52367933 -0.0015114259
0.10289122 0.092760728 -0.051124767 -0.90338434 0.42871828 -0.0098678593
0.16316744 -0.092966549 -0.055787515 0.54236944 0.84004804 -0.012437058
0 0.093742731 0.033148029 -1 0 0
-0.16420091 -0.09295483 -0.0034105791 -0.99205355 -0.12477551 -0.016150194
0.1176695 0.034151621 -0.35835273 -0.92613048 0.15301005 0.34477566
0.062030756 -0.092554307 -0.49446397 -0.05111559 -0.98667741 0.1544503
-0.16328133 0.0018291011 -0.38753262 -0.82131202 0.37040143 -0.4338771
-0.13421883 0.051274283 -0.27617214 0.70801426 0.63557314 -0.30783535
0.12699354 -0.015890593 0.35134398 0.33432124 0.89773244 0.28688981
-0.14845451 0.052656702 0.33343544 -0.10946416 0.98940912 0.095326739
0.10254287 -0.015893131 0.37839808 0.64804796 -0.45384829 0.61160082
0.083646711 0.027615371 -0.38625481 -0.018250112 -0.95855463 0.28432369
