0.199942 -0.440508 0.0397762 -0.724059 0.25519 0.640794
0.00568688 0.0395063 -0.144647 -0.0575602 0.978613 0.197491
0.00828937 0.126224 0.105224 0.398594 -0.70843 0.582451
0.0514715 -0.440508 -0.197307 0.772366 0.303926 0.557745
-2.98023e-08 -0.0424238 0.0717129 0.010377 -0.555385 0.831529
-2.98023e-08 0.00782669 -0.14243 -0.00228192 -0.996982 -0.0775997
-0.00629741 0.370408 0.0194062 -0.183564 0.565471 0.804081
0.0499292 0.0723427 -0.0891272 0.475546 0.871035 -0.1231
-2.98023e-08 -0.163488 -0.0666366 -0.00964964 0.627525 -0.778537
-0.0944607 0.0723427 0.0391337 -0.239527 0.97083 0.0107924
-0.06005 -0.0794049 0.0144261 -0.978207 -0.11257 0.174467
0.0436961 -0.440508 -0.199171 0.907627 0.251733 0.335922
-0.105224 0.126224 -0.00828943 -0.923195 0.379268 -0.0621836
-0.164567 -0.321693 -0.03274 -0.858468 -0.494297 -0.136762
-0.0246434 0.334423 -0.0339288 -0.329799 0.928473 0.170793
0.132084 -0.296632 -0.0209163 -0.930331 0.286616 0.228771
-0.0917297 0.0641818 0.0612709 0.365863 0.669749 -0.646205
0.151009 -0.321693 -0.0732231 0.752127 -0.559574 -0.348112
-0.0230047 -0.321693 -0.166238 0.0952016 0.204243 -0.97428
0.072966 -0.245547 0.0447243 0.829011 0.0603662 0.555965
0.0851431 0.0395063 -0.117176 -0.00406439 0.99694 0.0780616
-0.0129482 0.334423 -0.0399048 -0.147132 0.985268 0.0871685
-0.0523068 0.0476673 0.113449 -0.309657 -0.796119 0.51991
-0.102236 0.0723427 -2.98023e-08 -0.215014 0.976472 0.0164751
-0.0344107 0.315017 -0.0561624 -0.708642 0.189658 -0.6796
-0.115506 0.0560209 0.0478408 -0.932778 -0.0450252 0.357629
-0.152647 0.0313455 -0.00899628 -0.81568 0.577643 -0.0315536
-0.0736087 -0.0376687 0.011663 -0.972999 -0.210452 0.094774
0.111393 0.0560209 0.0567728 0.921277 -0.100182 0.375782
-0.102011 0.0641818 0.0422502 0.467922 0.816773 -0.337537
0.0422502 0.0641818 -0.102011 -0.0827051 0.708552 0.700796
0.132084 -0.296632 0.0209163 -0.935243 0.281295 -0.214928
0.0353746 0.103251 0.0958423 0.75913 -0.490216 0.428264
-0.0422503 0.0641818 -0.101979 0.138995 0.768352 0.624753
-0.0317118 0.0641818 -0.112389 -0.131547 0.95947 -0.249223
-0.114574 0.00846925 -0.090316 -0.210476 -0.968341 -0.134219
0.0243863 0.0476673 -0.122542 0.209117 -0.676473 -0.706155
0.20354 -0.440508 -0.0120164 -0.968861 -0.246394 -0.024472
0.0602748 -0.0376687 -0.0437925 0.890777 -0.216729 -0.39943
0.105224 0.126224 -0.00828943 0.939897 0.331396 -0.0822862
-0.103104 -0.440508 -0.175909 -0.383719 0.272545 0.882315
0.167395 -0.321693 0.0131731 0.843589 -0.531304 0.0779405
-2.98023e-08 0.21323 -0.111521 -0.0118511 0.0345478 -0.999333
0.083858 -0.245547 -0.0166752 0.979968 0.0757566 -0.184184
0.111168 0.0641818 -0.0361136 0.363521 0.928849 -0.071358
0.0756971 0.0395063 0.123506 -0.00554002 0.999727 -0.0226823
0.109015 0.0476673 -0.0610461 0.660379 -0.736808 -0.144961
-0.0819945 -0.321693 0.146382 -0.447662 -0.474914 0.757665
-0.129739 -0.321693 0.106477 -0.678705 -0.45856 0.573657
-0.189885 -0.440508 -0.0743155 0.94894 0.00366882 0.315436
-0.064259 -0.321693 -0.155121 -0.311143 -0.425224 -0.849926
0.0411578 0.0395063 0.126687 -0.0302352 0.789897 -0.612493
-0.097513 0.126224 0.0403868 -0.88912 0.374407 0.263219
-0.144422 0.0395063 0.0113738 0.0337406 0.999109 0.0253627
0.113899 -0.321693 0.123217 0.595496 -0.524837 0.608219
-0.0219123 0.334423 -0.0357602 -0.327184 0.93239 0.15362
-0.011663 -0.0376687 -0.0736087 -0.696674 -0.497566 -0.516792
0.0296555 0.334423 -0.0296555 0.22246 0.943171 0.246861
-0.0315833 0.103251 0.0972238 -0.70894 -0.512465 0.484545
-0.0501221 0.0641818 -0.0983805 -0.099074 0.700276 0.706964
0.060532 -0.245547 -0.060532 0.695386 0.0207241 -0.718338
-0.0447564 0.0395063 0.137771 0.00598653 0.999429 -0.0332624
0.0238722 0.103251 0.0994087 0.777744 -0.425353 0.462806
0.0052371 -0.296632 0.13353 0.725421 0.143099 -0.673266
-0.0889987 -0.440508 -0.183459 -0.83555 0.0711613 0.544786
0.128614 -0.296632 0.0362742 -0.903768 0.258976 -0.340785
-0.0514715 -0.440508 -0.197307 -0.806106 0.248042 0.537279
-0.113256 -0.440508 -0.169515 -0.296221 0.591688 0.749772
0.14635 0.0313455 0.0444029 0.766536 0.575999 0.283985
0.108212 -0.296632 -0.0786209 -0.655903 0.341128 0.673367
-2.98023e-08 -0.0846741 -0.0618171 0.00701184 0.800359 -0.59948
-0.0777534 0.0723427 -0.0664116 -0.331464 0.943331 -0.016037
-0.0884204 0.0476673 -0.0884204 -0.405861 -0.843936 -0.350782
-0.071713 0.0641818 0.0839543 0.397811 0.724319 -0.563124
-2.98023e-08 0.340849 0.0330612 0.0624498 0.978197 0.198068
0.0478408 0.0476673 0.115505 0.207422 -0.789959 0.577011
0.147988 -0.321693 0.0791027 0.73384 -0.53951 0.412806
-0.0961314 -0.440508 0.179829 0.246988 0.0626639 -0.96699
0.061271 0.0313455 -0.140117 0.33034 0.555547 -0.763048
0.0653192 0.0560209 0.106606 0.548173 -0.215375 0.808158
0.0605962 0.0395063 -0.131442 -0.068043 0.995361 0.068019
0.0553269 -0.440508 -0.196215 0.511843 0.301355 0.804489
0.0711025 -0.245547 -0.0475196 0.83127 0.0594856 -0.552676
0.111393 0.0476673 -0.0567728 0.642352 -0.7432 -0.187182
0.125433 -0.321693 0.111457 0.631109 -0.529041 0.567289
0.10018 0.103251 -0.0199203 0.825901 -0.563804 0.00335893
-0.0058476 -0.0376687 0.0742834 -0.510362 -0.606216 0.609944
-0.166624 -0.321693 -0.0197275 -0.857573 -0.499399 -0.123162
0.0891272 0.103251 0.0499292 0.75525 -0.594702 0.275549
-0.0664117 0.103251 0.0777533 -0.747552 -0.547255 0.3764
-2.98023e-08 0.134353 -0.10757 0.0038295 -0.803362 -0.595479
0.0649015 0.0641818 0.08932 -0.324092 0.635135 -0.701118
0.0368525 0.00846925 0.141209 0.0885934 -0.954728 0.283983
0.152776 0.0165338 0.00600821 0.980595 -0.194567 0.0240159
0.0461701 0.0641818 -0.10018 -0.2859 0.521474 0.803944
0.0353746 0.0723427 0.0958423 0.285 0.923204 0.257816
-0.0824443 0.0313455 0.128807 -0.478246 0.549803 0.684834
-0.111393 0.0560209 0.0567728 -0.933897 -0.0242044 0.356722
0.106284 0.0395063 0.0982519 0.0455736 0.998609 -0.0265217
0.0529494 -0.245547 -0.0671507 0.551981 0.00365411 -0.833849
-0.202448 -0.440508 0.0239686 0.968018 0.186885 -0.16738
-2.98023e-08 0.315017 -0.0658655 0.0102392 0.99944 0.0318422
0.131924 0.0313455 0.0773357 0.721197 0.548861 0.422643
-0.0534313 0.0723427 0.0871673 -0.451002 0.889666 -0.0713569
0.166623 -0.321693 0.0197274 0.830493 -0.542432 0.126685
-0.0792635 0.0641818 0.0857535 -0.375077 0.915289 0.146846
-0.0762433 -0.245547 -0.0388446 -0.868613 0.136291 -0.476379
-0.164567 -0.321693 0.0327399 -0.855755 -0.497223 0.143013
0.0427643 0.315017 0.0500898 0.768388 0.120361 0.628564
0.103875 0.0560209 -0.0693997 0.834873 -0.120733 -0.537039
-0.148792 0.0165338 0.035728 -0.955089 -0.179708 0.235605
-0.0362742 -0.296632 0.128614 -0.162566 0.223977 -0.960941
0.103104 -0.440508 -0.175909 0.108128 0.35196 0.929749
0.0762433 -0.321693 -0.149627 0.384977 -0.492378 -0.780613
-0.139313 0.0395063 -0.0392944 -0.0564963 0.998229 0.0186099
-0.0958423 0.0723427 -0.0353746 -0.213523 0.96877 0.126062
-0.0868461 -0.296632 0.10169 0.49909 0.354731 -0.790617
-0.0259607 0.0395063 -0.130542 0.0850316 0.76805 0.634719
-0.0437925 -0.0376687 -0.0602749 -0.792296 -0.230921 -0.56475
0.0557125 0.0395063 -0.120871 -0.24251 0.785922 0.568784
0.0982519 0.0395063 -0.106284 0.0196051 0.999373 -0.029486
-0.00523713 -0.296632 0.13353 -0.686 0.150776 -0.711808
0.058058 -0.245547 0.062781 0.644407 0.00725153 0.764648
-0.0854645 -0.245547 0.00334144 -0.98461 0.167982 0.048212
0.122542 0.0476673 -0.0243863 0.735515 -0.6493 -0.193464
0.0319045 -0.440508 0.201516 0.871922 -0.429331 -0.235428
-2.98023e-08 -0.194557 -0.072452 -0.00215506 0.466089 -0.884735
-0.133402 0.0165338 -0.0747011 -0.865078 -0.150845 -0.478419
-0.0587327 -0.0794049 -0.019085 -0.97322 -0.112987 -0.200192
0.0961314 -0.440508 -0.179829 -0.473083 0.0790365 0.877465
0.131313 0.00846925 0.0636806 0.250809 -0.963968 0.0886544
0.152904 0.0313455 -0.00298804 0.8235 0.567279 0.00652901
0.141338 -0.321693 0.0904766 0.742252 -0.486362 0.460992
-2.98023e-08 0.126224 0.105545 0.0105406 -0.88215 0.470851
-2.98023e-08 0.146594 -0.110268 -0.00103852 -0.690393 -0.723434
-0.0157113 -0.296632 0.132727 -0.633815 0.141453 -0.76044
-0.00523713 0.0395063 0.132984 0.265271 0.780496 -0.56609
0.140856 0.0395063 -0.0338002 0.0309862 0.999223 0.0243742
0.0874565 0.0313455 0.125466 0.470835 0.55373 0.686802
-2.98023e-08 -0.00139451 0.114767 0.0129237 -0.856397 0.516156
-0.0353746 0.103251 -0.0958423 -0.746446 -0.500584 -0.438445
-0.145515 0.0165338 -0.0472946 -0.937869 -0.164268 -0.305644
0.0327399 -0.245547 0.0790707 0.125737 -0.306338 0.943582
0.0279526 -0.440508 0.201966 0.629348 -0.624725 -0.462212
0.0615601 -0.0794049 -0.00485158 0.992391 -0.122137 -0.0155754
-0.0397763 -0.440508 -0.199942 -0.859725 0.156751 0.48611
0.135811 0.0395063 0.0500898 0.0286992 0.999409 0.0189391
-0.0427644 0.0723427 0.0927899 -0.285174 0.955485 -0.0756519
0.0215267 0.0641818 0.10818 0.324139 0.697644 -0.638926
-0.132502 0.00846925 0.0610781 -0.248753 -0.965518 0.0767994
-0.061271 0.0641818 0.0917297 0.552642 0.570183 -0.607848
0.0695925 0.0395063 -0.113578 -0.22326 0.764948 0.60416
0.1281 0.0395063 -0.0361457 -0.567299 0.805386 0.171829
-0.107987 0.0641818 -0.0447243 -0.322993 0.946306 -0.0134566
0.01886 0.370408 0.00780743 0.80553 0.547739 0.226063
-0.0884204 0.0476673 0.0884204 -0.392745 -0.846972 0.358315
-0.201516 -0.440508 0.0319367 -0.955018 0.289275 -0.0652675
-0.0373666 0.334423 0.0190527 -0.238505 0.959614 -0.149185
-2.98023e-08 0.209086 -0.112196 -0.0108751 0.0240503 -0.999652
-2.98023e-08 -0.173833 -0.0685644 -0.00803171 0.57737 -0.816443
0.0469412 -0.0794049 0.0400976 0.877217 -0.00816709 0.480025
-2.98023e-08 -0.163488 0.0666366 -0.0138832 0.640788 0.767593
-0.0501221 0.0641818 0.0983805 -0.0846518 0.449619 -0.8892
-0.0509574 0.0395063 0.123056 0.107296 0.845764 -0.522658
0.0361135 0.0641818 -0.111168 0.176891 0.9201 -0.349464
-0.0427644 0.103251 -0.09279 -0.765357 -0.533754 -0.359634
-0.00780749 0.36742 -0.01886 -0.207127 -0.18589 -0.960491
-0.0338324 -0.0376687 0.0664116 -0.703839 -0.213695 0.677455
-0.066733 0.0313455 -0.137611 -0.337879 0.591421 -0.732161
0.038716 0.315017 0.0533028 0.730825 0.16379 0.662622
0.0899947 0.126224 0.0551342 0.84099 0.34982 0.412749
0.0146832 0.0476673 -0.124084 0.079194 -0.732793 -0.675828
-0.141338 -0.321693 -0.0904767 -0.741386 -0.470891 -0.478131
-0.106606 0.0560209 0.0653193 -0.876837 -0.0825364 0.47365
-2.98023e-08 0.0239557 0.153033 -0.00207246 0.140282 0.990109
0.106606 0.0560209 -0.0653193 0.876226 -0.0740641 -0.476174
0.149627 -0.321693 -0.0762433 0.769357 -0.51029 -0.384308
-0.0750224 0.0723427 -0.0693354 -0.267668 0.963275 -0.0213415
0.116309 -0.321693 -0.120968 0.612206 -0.48811 -0.622055
0.104517 0.0395063 0.08238 -0.333801 0.877531 -0.344261
0.0927899 0.103251 0.0427643 0.815343 -0.555532 0.163096
-2.98023e-08 0.261521 -0.0982199 -0.0158435 0.487213 -0.87314
-0.0432463 0.0560209 0.117208 -0.386897 -0.30599 0.869874
-0.140117 0.0313455 -0.061271 -0.77303 0.560382 -0.297317
-0.159684 -0.321693 0.0518891 -0.844837 -0.453242 0.284292
0.0722914 0.0723427 0.0722913 0.189167 0.978749 -0.079163
-0.0392944 0.0395063 -0.139313 0.00802827 0.99919 0.0394386
-0.095778 0.126224 0.0441459 -0.859737 0.417257 0.29453
-0.103489 0.0641818 0.0381698 0.515008 0.83948 -0.173319
0.0339287 0.0560209 0.120261 0.282845 -0.344226 0.895269
-0.0432463 0.0560209 -0.117208 -0.368798 -0.278879 -0.886687
0.1984 -0.440508 -0.0476481 0.248983 0.23588 -0.939345
0.141306 -0.440508 0.146992 -0.56999 0.813679 -0.114183
0.0983163 0.0723427 0.0277277 0.0944348 0.9953 0.0214238
-0.0155186 0.36742 -0.0132374 -0.725396 -0.15288 -0.67114
0.0478086 0.00846925 -0.137868 0.112252 -0.95027 -0.290495
-0.0970311 0.0313455 -0.118204 -0.572216 0.569472 -0.590145
-0.104517 0.0395063 0.0824122 0.344748 0.883129 -0.31817
-0.0469412 -0.0794049 0.0400976 -0.87021 -0.021964 0.492192
-0.167266 -0.440508 -0.116598 0.71959 0.280517 0.635216
0.0478408 0.0560209 0.115505 0.403674 -0.302759 0.863356
0.101272 -0.321693 0.133819 0.540593 -0.50208 0.675036
0.0392943 0.0395063 0.139313 0.0291778 0.99595 -0.0850379
-2.98023e-08 -0.179006 -0.0695283 -0.0068688 0.51647 -0.856278
-0.0114702 0.00846925 0.145579 0.0504217 -0.951395 0.303817
0.124855 0.0395063 -0.0460737 -0.372731 0.887041 0.272453
-2.98023e-08 -0.301163 -0.143458 0.0252443 0.981321 0.190712
0.0711025 -0.245547 0.0475195 0.826712 0.0588112 0.559543
0.100373 0.126224 -0.0326114 0.91936 0.338651 -0.200231
-0.137675 -0.321693 0.0959708 -0.70614 -0.536893 0.461641
0.0129803 0.0641818 -0.109562 0.255829 0.424498 0.868535
-0.0802274 -0.245547 -0.0295913 -0.943764 0.162892 -0.287707
-0.0849504 0.0165338 -0.127136 -0.559935 -0.171967 -0.810494
-0.142398 0.0313455 -0.0557447 -0.777364 0.558887 -0.288705
0.069239 -0.245547 0.0503148 0.789399 0.0855091 0.607895
-0.121578 0.0476673 0.0291736 -0.671972 -0.722633 0.162032
0.0172535 0.0641818 -0.109048 0.0693837 0.59984 0.797106
-0.0777534 0.0723427 0.0664116 -0.350863 0.93302 0.079809
-0.126687 0.0395063 -0.0411579 0.488288 0.846931 0.210435
-2.98023e-08 0.0839092 0.102236 0.0108161 -0.405852 0.913875
-0.0923081 0.0313455 0.121931 -0.507888 0.578792 0.638004
0.02037 0.315017 -0.0626525 0.632647 0.587751 -0.504288
0.0230047 -0.321693 0.166238 -0.125765 0.355606 0.926136
-0.0299126 0.315017 -0.0587006 -0.676503 0.281689 -0.680438
0.0113738 0.0395063 0.144422 -0.0266811 0.98362 -0.178268
0.0227798 0.0641818 0.114542 0.344355 0.913069 0.218461
0.138864 0.0165338 -0.064002 0.901656 -0.198368 -0.384275
-0.13157 0.0395063 -0.0208521 0.509517 0.856848 0.0787693
0.0983163 0.0723427 -0.0277278 0.114224 0.993447 -0.00403727
0.103875 0.0560209 0.0693996 0.832471 -0.13464 0.537461
-0.140856 0.0395063 -0.0338002 -0.0380273 0.998466 0.0402498
-0.00523713 0.0395063 -0.132984 0.287093 0.803836 0.520984
-0.0340894 0.00846925 -0.14198 -0.0415303 -0.944722 -0.325233
0.0683073 0.0641818 0.0866211 -0.321129 0.638161 -0.699734
-0.0181853 0.370408 -0.00925332 -0.732661 0.557983 -0.389697
0.0983805 0.0641818 0.050122 -0.579024 0.796722 -0.173103
-0.0363064 -0.0794049 -0.0499614 -0.747528 0.0666748 -0.660875
-0.0120164 0.0165338 0.152551 -0.0290689 -0.266631 0.96336
-0.111168 0.0641818 -0.0361136 -0.345921 0.936269 -0.0611426
-0.039198 -0.321693 0.163282 -0.00181383 -0.296734 0.954958
-2.98023e-08 0.0993636 0.102236 0.00921989 -0.308763 0.951094
-2.98023e-08 0.233729 0.107377 -0.0270857 0.183204 0.982702
-0.01886 0.36742 0.00780743 -0.938832 -0.185366 0.290232
-0.0104421 0.0395063 -0.132791 0.17636 0.799924 0.573602
0.147988 0.0313455 -0.0386197 0.788446 0.578748 -0.208338
-0.12357 -0.296632 0.0511823 0.874945 0.338449 -0.3463
-0.131924 0.0313455 0.0773357 -0.716189 0.564999 0.409694
0.177869 -0.440508 0.0996014 -0.957854 0.0968972 -0.270421
0.20338 -0.440508 0.0160005 -0.376675 -0.644675 -0.665215
0.113449 0.0476673 -0.0523068 0.613606 -0.745814 -0.259325
-0.0201452 0.370408 0.0031808 -0.822451 0.567874 0.0330529
-0.0763076 0.00846925 0.124502 -0.13841 -0.96837 0.20761
-0.0286274 0.126224 -0.101497 -0.557638 0.00675411 -0.830057
0.101915 0.103251 0.00803238 0.787219 -0.616629 0.00742035
-0.123795 0.0165338 -0.0899305 -0.815712 -0.188825 -0.546771
0.0799381 0.0165338 -0.130478 0.551645 -0.185229 -0.813252
-0.152422 -0.440508 -0.135426 0.683695 0.305147 0.662907
-2.98023e-08 0.158996 -0.112293 -0.0042933 -0.548813 -0.835934
-0.0587006 0.315017 -0.0299126 -0.924923 0.0643295 -0.374671
-2.98023e-08 0.217343 -0.110815 -0.0126315 0.0777671 -0.996892
-0.0358565 -0.440508 0.200713 -0.837035 0.0819207 -0.540982
-0.0353746 0.0723427 0.0958423 -0.247627 0.923021 0.29447
0.0983805 0.0641818 -0.050122 -0.56958 0.772074 0.281922
0.124084 0.0560209 0.0146832 0.990543 -0.0806732 0.110983
0.0849503 0.103251 0.0567406 0.783473 -0.575331 0.234871
0.061271 0.0641818 -0.0917297 -0.539902 0.599114 0.591243
0.0476159 -0.440508 0.1984 0.916808 0.370512 -0.148945
0.0362742 -0.296632 0.128614 0.202278 0.203305 -0.957993
0.0802595 0.126224 0.0685322 0.807048 0.345027 0.479197
-0.0357602 0.334423 0.0219123 -0.222413 0.968376 -0.113052
0.0782995 0.0395063 0.107762 -0.247856 0.881296 -0.402348
-0.0620421 0.126224 -0.0853681 -0.718108 0.311251 -0.62245
0.20354 -0.440508 0.0120164 -0.964567 -0.169061 -0.202554
-0.0414471 0.334423 -0.00655445 -0.231935 0.967741 0.098404
0.0567406 0.0723427 0.0849503 0.238343 0.970443 -0.037844
0.129739 -0.321693 -0.106477 0.676041 -0.463651 -0.572709
-0.133337 -0.296632 -0.0105063 0.92931 0.353638 0.106409
0.124084 0.0560209 -0.0146832 0.991768 -0.0931254 -0.0878838
0.0635521 -0.0376687 -0.038941 0.923887 -0.21509 -0.316496
0.152551 0.0165338 -0.0120164 0.976312 -0.203699 -0.0729533
-0.1984 -0.440508 0.047648 -0.540073 0.632845 0.554823
0.188504 -0.440508 0.0780747 -0.530219 0.115666 0.839934
0.139635 0.00846925 -0.0423788 0.29753 -0.952175 -0.0695582
-0.157402 -0.321693 -0.058058 -0.822649 -0.470649 -0.318963
0.0925651 0.00846925 -0.112807 0.189531 -0.963674 -0.188176
0.02037 0.315017 0.0626524 0.628237 0.616971 0.473989
-0.0461701 0.0641818 -0.10018 0.246967 0.506401 0.826175
-2.98023e-08 -0.158219 0.0661225 -0.0141483 0.632607 0.774344
0.0866211 0.0641818 -0.0683073 -0.504544 0.730011 0.460998
0.116694 0.0641818 -0.0045945 0.182222 0.980199 0.0774878
-0.0972238 0.0723427 -0.0315833 -0.254301 0.958288 0.130443
0.0667329 0.0313455 0.137611 0.36695 0.562713 0.740744
-0.136872 0.00846925 -0.0505076 -0.296233 -0.951111 -0.0873772
-0.0415113 0.0165338 -0.147153 -0.266917 -0.19044 -0.944716
0.0585721 0.0165338 0.14137 0.398212 -0.245285 0.88389
-0.20354 -0.440508 0.0120164 0.9054 0.173709 -0.387398
-0.101915 0.103251 0.00803238 -0.822148 -0.568263 0.0339062
-2.98023e-08 0.192411 0.11361 -0.0169344 -0.158163 0.987268
0.0977378 0.0395063 0.0903482 -0.363877 0.789485 -0.494274
-2.98023e-08 0.00419608 -0.128261 0.0104849 -0.965497 -0.260202
-0.0230369 -0.0376687 0.0708776 -0.732654 -0.270254 0.624645
-0.0828298 0.126224 -0.0652871 -0.809048 0.367341 -0.458805
-0.14137 0.0165338 -0.0585721 -0.918489 -0.165257 -0.35926
0.0238722 0.0723427 -0.0994087 0.731465 0.679214 0.0602236
0.0419611 0.334423 -2.98023e-08 0.140558 0.989421 0.0359236
0.0268924 0.0313455 -0.150559 0.149209 0.585216 -0.797031
-2.98023e-08 0.0165338 -0.153033 0.00375406 -0.298572 -0.95438
0.128807 0.0313455 0.0824443 0.700755 0.546328 0.458768
0.00967094 -0.0794049 -0.0609818 0.411555 0.657752 -0.63086
-2.98023e-08 -0.0576532 0.0652871 0.0111146 0.307135 0.951601
-0.100983 0.103251 -0.0160005 -0.8288 -0.558783 0.0291896
-0.0252217 0.315017 -0.0608533 -0.696361 0.379824 -0.608946
-0.131763 -0.321693 -0.103875 -0.688725 -0.450058 -0.568425
-0.09626 0.0641818 -0.0539133 0.297862 0.902567 0.310888
-0.0712954 0.00846925 -0.127297 -0.131338 -0.96751 -0.216045
-0.0648695 0.0641818 0.0970953 -0.192572 0.936107 0.294312
-0.0209163 -0.296632 -0.132084 -0.530882 0.207191 0.821728
-0.0423788 -0.321693 -0.162382 -0.158618 -0.237272 -0.958406
0.101272 0.0395063 -0.0864926 -0.45852 0.691473 0.558233
-2.98023e-08 -0.437327 0.204183 -0.0408651 -0.846437 -0.530919
-0.128614 -0.296632 0.0362742 0.928306 0.301412 -0.217712
-0.123506 0.0476673 -0.0195669 -0.738765 -0.673593 0.0223235
0.0996014 -0.440508 0.177869 -0.29261 0.191161 -0.936929
-0.0391338 0.0723427 0.0944607 -0.484687 0.855515 0.182134
-0.167395 -0.321693 0.0131731 -0.864833 -0.493731 0.0910665
-0.0357923 -0.245547 0.077657 -0.1193 -0.224331 0.967183
0.139635 0.00846925 0.0423788 0.291059 -0.9528 0.0863556
0.173949 -0.440508 0.106606 -0.056951 0.175256 0.982874
-2.98023e-08 -0.310223 0.156696 0.00776958 0.939391 -0.342758
0.104999 0.0641818 -0.0341215 -0.467769 0.772826 0.428874
-0.105545 0.126224 -2.98023e-08 -0.920473 0.390804 0.00128622
0.139313 0.0395063 0.0392944 0.00733806 0.999951 0.00663669
0.082637 0.0641818 -0.0826371 0.304243 0.927644 -0.216594
-0.122542 0.0560209 0.0243863 -0.972273 -0.0795562 0.2199
0.0534313 0.0723427 0.0871673 0.437019 0.894255 -0.0965497
-0.0499614 -0.0794049 0.0363063 -0.910841 -0.0485149 0.409896
0.103778 0.0165338 -0.112293 0.676599 -0.207592 -0.706483
-0.146382 -0.321693 0.0819944 -0.753445 -0.4843 0.444719
0.0381698 0.0641818 0.103489 0.0899673 0.547179 -0.832167
0.128807 0.0313455 -0.0824443 0.703413 0.549483 -0.450865
-0.0720986 0.0313455 0.13488 -0.388076 0.559037 0.732717
0.00459448 0.0641818 0.116694 -0.134244 0.960331 0.244422
-0.123795 0.0165338 0.0899304 -0.806911 -0.200588 0.555571
-0.102236 0.103251 -2.98023e-08 -0.802218 -0.597023 -0.00329227
-0.0299126 0.315017 0.0587006 -0.656524 0.27266 0.703301
-2.98023e-08 0.342809 -0.0311335 0.0283482 0.960785 -0.275841
-0.00298807 0.0313455 -0.152904 -4.05215e-05 0.592952 -0.805238
-2.98023e-08 0.134353 0.10757 0.00542888 -0.806348 0.591416
0.0917297 0.0641818 0.0612709 -0.406857 0.623853 -0.667289
-0.00671506 -0.245547 -0.0853038 -0.214693 0.408052 -0.887356
0.00800025 -0.440508 -0.203701 0.219653 -0.9369 0.271976
-0.201998 -0.440508 -0.0279527 0.969267 0.177687 -0.170141
-0.0364991 0.126224 0.0989266 -0.580147 0.150005 0.80058
0.167395 -0.321693 -0.0131731 0.847717 -0.524511 -0.079146
-0.0712954 0.00846925 0.127297 -0.127679 -0.968856 0.21217
-0.138382 -0.440508 0.149691 0.496332 0.278097 -0.822385
-0.03274 -0.321693 -0.164567 0.0691875 -0.0908941 -0.993454
-0.020338 0.36742 -0.00160646 -0.982038 -0.165062 -0.0914151
-0.152197 0.0313455 0.0150045 -0.805392 0.589787 0.0591136
0.0338323 -0.0376687 0.0664116 0.721178 -0.21136 0.659719
-0.0810627 0.00846925 0.121321 -0.180093 -0.963244 0.199317
-0.125369 -0.296632 -0.0462665 0.896799 0.301968 0.323367
0.144775 -0.321693 -0.084854 0.751284 -0.462268 -0.471042
-0.0119843 0.370408 0.0165146 -0.523647 0.554677 0.646627
0.201998 -0.440508 0.0279526 -0.613775 -0.656375 0.438695
0.0899305 0.0165338 -0.123795 0.579775 -0.204382 -0.788726
-2.98023e-08 -0.359767 0.190721 -0.0279544 0.773787 0.632828
-2.98023e-08 -0.220132 -0.0785888 0.013992 0.451689 -0.892066
0.0632308 0.0723427 0.0802273 0.119621 0.992464 0.0265641
-0.09626 0.0641818 0.0539132 0.372075 0.860686 -0.347535
0.171732 -0.440508 -0.109915 -0.283067 0.347335 -0.893997
-0.0460737 0.0395063 0.124855 0.217672 0.862171 -0.45747
0.062781 -0.245547 -0.058058 0.72747 0.0420925 -0.684848
0.149948 0.0165338 -0.0298162 0.966743 -0.207394 -0.149649
0.144261 -0.440508 0.144261 0.520508 0.412099 0.747827
0.133819 0.0395063 -0.0554234 0.0526704 0.998535 0.0124362
-0.064002 0.0165338 -0.138864 -0.40093 -0.172774 -0.899669
0.109562 0.0641818 0.0129803 -0.480769 0.875668 -0.0454717
-0.0327721 0.0313455 -0.14937 -0.145985 0.594015 -0.791097
-0.160101 -0.440508 -0.126205 0.692794 0.431272 0.577963
-0.0916976 0.0641818 -0.0722913 -0.25162 0.960247 -0.120885
0.0243863 0.0560209 -0.122542 0.268018 -0.327977 -0.905868
-2.98023e-08 -0.0132824 -0.0963885 0.00857068 -0.935029 -0.354467
-2.98023e-08 -0.362691 0.191974 -0.0344615 0.730875 0.681641
-0.012402 0.126224 0.104742 -0.478682 -0.577094 0.661684
-0.0483871 -0.0376687 -0.0566764 -0.808218 -0.217432 -0.547272
-0.035728 0.0165338 -0.148792 -0.218011 -0.202372 -0.954734
-0.0742834 -0.0376687 -0.0058476 -0.978558 -0.205868 -0.00646884
0.0610461 0.0476673 -0.109015 0.176477 -0.751341 -0.63588
0.0567728 0.0560209 0.111393 0.430696 -0.219159 0.875483
0.133402 0.0165338 0.074701 0.848029 -0.212151 0.485633
0.0607247 -0.296632 -0.119168 -0.1068 0.298242 0.948496
-2.98023e-08 -0.251233 -0.0876493 0.0932059 -0.472039 -0.876637
-0.0600821 0.103251 -0.0827013 -0.717036 -0.560463 -0.414416
-2.98023e-08 0.126224 -0.105545 0.00585559 -0.884075 -0.467308
-2.98023e-08 0.142449 -0.109594 0.000424906 -0.69637 -0.717683
-0.0341215 0.0641818 -0.104999 0.414768 0.664696 0.621407
0.143073 0.0395063 -0.0226513 -0.0218735 0.999437 -0.025435
0.0685322 0.126224 -0.0802595 0.740798 0.341502 -0.578442
-2.98023e-08 -0.158219 -0.0661225 -0.00991769 0.604652 -0.796428
-0.131442 0.0395063 0.0605962 -0.00755935 0.996512 -0.0831109
-0.077657 -0.245547 0.0357922 -0.891171 0.145043 0.429857
-0.0591825 -0.440508 0.195122 -0.514695 0.173582 -0.839618
-0.00459453 0.0641818 0.116694 0.142703 0.959215 0.244012
-2.98023e-08 0.0165338 0.153033 0.00234078 -0.334409 0.942425
-0.00491583 0.0560209 0.124855 0.0191346 -0.36859 0.929395
-0.123506 0.0476673 0.0195668 -0.715087 -0.698743 0.0201958
-0.162575 -0.440508 -0.123056 0.618443 0.218549 0.754828
0.0413185 -0.296632 0.127201 0.112318 0.21773 -0.969525
0.0791028 -0.321693 -0.147988 0.430389 -0.49298 -0.756132
0.18513 -0.440508 0.0853681 -0.433311 -0.105658 0.895029
-0.132181 0.0395063 0.015647 0.475542 0.87437 -0.0966313
-2.98023e-08 -0.408764 -0.203572 -0.0369962 -0.660945 -0.749521
-2.98023e-08 0.188234 -0.11361 -0.00888331 -0.179146 -0.983782
0.0987017 -0.321693 0.135843 0.505854 -0.51296 0.69353
-0.101883 0.0641818 0.057062 -0.247595 0.966189 0.0719389
0.0917297 0.0641818 -0.061271 -0.412784 0.636541 0.651479
-0.127136 0.0165338 -0.0849504 -0.827058 -0.166319 -0.536948
-0.0465878 0.315017 -0.0465878 -0.801888 0.0522326 -0.595187
-0.138864 0.00846925 -0.0451098 -0.322374 -0.944643 -0.0610283
-0.0804201 0.0395063 0.120357 -0.0468031 0.997741 -0.0482
-0.0823158 -0.245547 0.0231975 -0.943453 0.159362 0.290689
-0.124662 0.0476673 -0.00979954 -0.74616 -0.663209 -0.0583069
0.113256 -0.440508 -0.169515 -0.223347 0.81796 0.530149
0.0550057 -0.0794049 0.0280169 0.946941 -0.0309178 0.319917
-0.100983 0.0723427 -0.0160005 -0.170168 0.976372 0.133194
-0.0656727 0.315017 0.00517282 -0.997882 0.0556413 0.0336834
0.0845327 -0.245547 0.013398 0.97539 0.0700851 0.209052
-0.0667972 -0.440508 0.192648 -0.182521 0.156062 -0.970737
-0.0144262 -0.0794049 -0.06005 -0.555211 0.532117 -0.639211
-0.0910871 0.0723427 0.0464271 -0.161915 0.983929 -0.0752764
0.107762 0.0395063 0.0782995 -0.271039 0.894726 -0.35497
0.0391337 0.103251 0.0944607 0.794442 -0.481879 0.369667
-0.0923081 0.0313455 -0.121931 -0.523851 0.580158 -0.623697
-2.98023e-08 -0.298721 -0.138671 0.0578562 0.963024 0.26313
-2.98023e-08 -0.340007 -0.180568 -0.0020184 -0.0812553 -0.996691
0.0848219 0.0476673 -0.0917619 0.445209 -0.769434 -0.457996
-0.151844 0.0165338 0.0179604 -0.978789 -0.171617 0.111888
-0.0632308 0.103251 -0.0802274 -0.729382 -0.521837 -0.442366
0.06005 -0.0794049 0.0144261 0.981627 -0.0956608 0.1651
-0.11104 0.00846925 0.0948463 -0.234817 -0.953517 0.188855
-0.0447243 -0.245547 -0.0729661 -0.389216 -0.0579135 -0.919324
-0.0464271 0.0723427 0.0910871 -0.289369 0.956872 0.0257352
0.0959708 -0.321693 0.137675 0.458577 -0.556862 0.69254
-0.0047552 0.36742 -0.0198239 -0.0423167 -0.203084 -0.978247
0.167009 -0.321693 0.0164503 0.83796 -0.533109 0.116698
0.0339287 0.0476673 0.120261 0.168139 -0.781409 0.60094
0.0432463 0.0476673 0.117208 0.226372 -0.824515 0.518584
-0.158559 -0.321693 -0.0549736 -0.828801 -0.464225 -0.312385
-2.98023e-08 -0.421455 0.20444 -0.0556271 0.94259 0.329286
-0.0503148 -0.245547 -0.0692391 -0.463864 0.0254835 -0.88554
-0.0743155 -0.440508 0.189885 -0.491195 -0.0166146 -0.870891
-2.98023e-08 -0.0180697 0.0908621 0.00654474 -0.921345 0.38869
0.0166752 -0.245547 0.083858 0.013277 -0.02854 0.999504
-2.98023e-08 0.138401 -0.108566 0.00200022 -0.762835 -0.64659
0.121578 0.0560209 0.0291736 0.97856 -0.0882904 0.186077
0.135426 -0.440508 -0.152422 -0.708349 0.321414 0.628439
-0.069464 0.0165338 0.136325 -0.454999 -0.208317 0.865783
-0.01539 0.315017 0.0640661 -0.559335 0.759365 0.33243
0.0958423 0.0723427 -0.0353746 0.199344 0.969481 0.142718
0.0437925 -0.0376687 -0.0602749 0.803831 -0.218856 -0.553134
0.0994086 0.0723427 -0.0238723 0.0247963 0.993495 -0.111143
0.0373666 0.334423 -0.0190528 0.244958 0.946569 0.20977
-0.109015 0.0560209 0.061046 -0.955842 -0.092084 0.279081
0.0105063 -0.296632 -0.133337 0.758191 0.281306 0.588229
-0.109048 -0.321693 0.127683 -0.58993 -0.466886 0.658787
-2.98023e-08 -0.0205758 0.0881955 0.00654136 -0.960986 0.276521
-0.095778 0.126224 -0.0441459 -0.857777 0.427539 -0.285356
-0.0891272 0.0723427 0.0499292 -0.216504 0.97419 0.063874
0.0291736 0.0560209 -0.121578 0.263188 -0.260647 -0.928868
0.0381698 0.0641818 -0.103489 0.173529 0.700833 0.691897
0.0199203 0.0723427 0.10018 0.718029 0.693822 0.0551864
0.041447 0.334423 -0.00655445 0.175577 0.97741 0.117653
0.0246433 0.126224 0.102622 0.589359 -0.0608766 0.805574
0.118911 0.0476673 -0.0386518 0.621939 -0.751016 -0.221735
-0.106477 -0.321693 -0.129739 -0.574222 -0.448126 -0.685166
0.130542 0.0395063 0.0259606 -0.587176 0.808868 0.030923
-0.13157 0.0395063 0.020852 0.499814 0.865571 -0.0311746
-0.149627 -0.321693 0.0762433 -0.773095 -0.501766 0.388014
0.0160004 -0.440508 -0.20338 0.424698 -0.8808 0.209339
0.132181 0.0395063 0.015647 -0.519204 0.84462 -0.130558
-0.157402 -0.321693 0.058058 -0.819605 -0.478448 0.315174
-0.0326115 0.126224 -0.100373 -0.524527 0.0882797 -0.846805
0.125466 0.0313455 0.0874565 0.706517 0.550617 0.444584
-0.0990552 0.00846925 0.107152 -0.179694 -0.962673 0.202411
0.010442 0.0395063 -0.132791 -0.112965 0.818011 0.564001
0.125915 0.00846925 0.0738014 0.236804 -0.964556 0.116431
0.110044 0.0641818 0.00867495 -0.507714 0.858662 -0.0701851
0.136325 0.0165338 -0.069464 0.879729 -0.190567 -0.435615
0.144647 0.0395063 0.00568691 -0.0677476 0.997499 -0.0201255
0.0413185 -0.296632 -0.127201 0.113872 0.224897 0.967706
0.0945571 0.0641818 0.0686928 0.275216 0.945505 0.173998
-0.0551342 0.126224 -0.0899947 -0.701794 0.295337 -0.648275
-0.0156471 0.0395063 0.132181 0.277831 0.792943 -0.542265
-0.200745 -0.440508 0.0358565 0.432351 0.860285 0.270153
0.108212 0.0165338 0.108212 0.696068 -0.217574 0.684216
0.00828937 0.126224 -0.105224 0.420564 -0.694954 -0.583236
0.147153 0.0165338 0.0415113 0.934572 -0.21442 0.2839
-0.143747 0.0395063 0.0170286 0.0190599 0.999812 0.0034442
-0.0734802 0.0560209 0.101144 -0.601541 -0.192676 0.775258
0.0357601 0.334423 0.0219123 0.170165 0.96925 -0.17776
0.127136 0.0165338 -0.0849504 0.819773 -0.196181 -0.538038
-0.0926293 -0.440508 -0.181789 -0.318201 0.0360934 0.947336
0.0208199 0.0395063 0.13157 -0.0916043 0.77389 -0.626659
-0.101593 0.0313455 -0.114317 -0.565888 0.587266 -0.578697
0.101593 0.0313455 -0.114317 0.569378 0.584384 -0.578191
-0.0231975 -0.245547 0.0823157 -0.026443 -0.200783 0.979279
-0.0514715 -0.440508 0.197307 -0.810573 0.264328 -0.522591
-0.161483 -0.321693 0.0455596 -0.846157 -0.488756 0.212452
-0.0199846 -0.440508 -0.20293 -0.568214 -0.722977 0.392985
-0.0312299 -0.296632 0.13006 -0.220422 0.217742 -0.95079
-0.038941 -0.0376687 0.0635521 -0.716079 -0.229474 0.659221
0.0227798 0.0641818 -0.114542 0.323663 0.932275 -0.161571
-0.147988 -0.321693 0.0791027 -0.749151 -0.505554 0.428005
0.0236152 -0.0794049 -0.0570298 0.698425 0.314174 -0.643037
0.050122 0.0641818 0.0983805 0.087802 0.397605 -0.913346
-0.0257679 0.0641818 0.107345 -0.295113 0.425703 -0.855386
-0.0228441 0.00846925 -0.144229 -0.019229 -0.956112 -0.292371
0.00979948 0.0476673 -0.124662 0.0646482 -0.728208 -0.682301
-0.120968 -0.321693 0.116309 -0.62731 -0.486907 0.607786
0.0687892 0.00846925 -0.128711 0.183288 -0.958682 -0.217566
-2.98023e-08 -0.0232426 0.0857215 0.00608207 -0.969139 0.246441
0.0557446 0.0313455 0.142398 0.333532 0.558397 0.759572
-2.98023e-08 -0.306914 -0.152487 0.0107048 0.985048 0.171948
-2.98023e-08 -0.288247 0.11769 0.0144187 -0.582409 -0.812768
-0.012402 0.126224 -0.104742 -0.494219 -0.54966 -0.673514
0.0640662 0.315017 -0.0153901 0.982213 0.0689102 -0.17467
-0.0238723 0.103251 -0.0994087 -0.744341 -0.446995 -0.496136
0.149691 -0.440508 -0.138382 -0.83675 0.286252 0.466808
-0.0917618 0.0476673 0.0848219 -0.521536 -0.768701 0.370269
0.0920188 0.126224 0.0515357 0.838748 0.37997 0.390031
0.116598 -0.296632 0.0652871 -0.778134 0.299773 -0.551945
0.0736087 -0.0376687 0.011663 0.972253 -0.216779 0.0879267
-0.062781 -0.245547 -0.058058 -0.716647 0.107344 -0.689125
-2.98023e-08 -0.342674 0.182238 -0.0101611 0.426901 0.904241
-2.98023e-08 -0.105751 -0.0621706 -0.00161051 0.862386 -0.506248
-0.0479051 0.126224 -0.094043 -0.683538 0.280503 -0.673865
0.0113738 0.0395063 -0.144422 -0.0269059 0.982554 0.184021
-0.0047552 0.36742 0.0198239 -0.141194 -0.264609 0.953964
0.152358 -0.321693 -0.0702351 0.766695 -0.558377 -0.31685
-0.0132374 0.36742 -0.0155185 -0.608095 -0.161644 -0.777233
-2.98023e-08 -0.303894 -0.148053 0.0156811 0.990586 0.135994
-0.013398 -0.245547 -0.0845327 -0.149991 0.103947 -0.983208
-0.0996657 0.0641818 0.0610781 -0.274669 0.959259 0.0661739
-0.0948463 0.00846925 -0.11104 -0.20483 -0.953706 -0.220202
0.127683 -0.321693 0.109048 0.656575 -0.478836 0.582773
0.0489011 0.0641818 0.106059 0.267769 0.854306 0.44549
0.00600818 0.0165338 -0.152776 -0.0222545 -0.280126 -0.959705
-0.107345 0.0641818 -0.0257679 0.394869 0.902002 0.17456
0.0418004 -0.245547 -0.0746047 0.355227 -0.111735 -0.928078
-0.0120164 0.0723427 -0.101465 -0.979519 0.130737 -0.153138
-2.98023e-08 0.0723427 -0.102236 0.0105817 -0.934788 -0.355048
0.0279526 -0.440508 -0.201966 0.694318 -0.541602 0.47391
-0.0996657 0.0641818 -0.0610782 -0.264194 0.964383 -0.0129471
-0.11814 0.00846925 0.0858178 -0.198361 -0.969 0.14728
-0.0773357 0.0560209 -0.0981235 -0.635414 -0.131112 -0.760959
0.01539 0.315017 0.0640661 0.570537 0.766156 0.295792
0.0256393 0.00846925 0.143651 0.0706419 -0.96229 0.262694
0.0160004 -0.440508 0.20338 0.442859 -0.877139 -0.185752
0.123795 0.0165338 -0.0899305 0.808787 -0.203694 -0.5517
0.028531 -0.0376687 0.0688535 0.70379 -0.288675 0.649112
0.0849183 -0.245547 -0.0100565 0.986276 0.0808953 -0.143927
-2.98023e-08 -0.345501 -0.183749 -0.00587081 0.330775 -0.943691
-0.0105064 -0.296632 0.133337 -0.758441 0.208083 -0.617632
-2.98023e-08 -0.365614 -0.193227 -0.023897 0.644113 -0.764557
-0.0702351 -0.321693 -0.152358 -0.312204 -0.500352 -0.807575
0.0436639 -0.0794049 0.0436639 0.834274 0.0401837 0.549884
-2.98023e-08 0.000244111 0.118044 0.0131587 -0.870779 0.491499
0.0286274 0.126224 0.101497 0.556468 -0.0152058 0.83073
-2.98023e-08 0.0641818 0.110397 0.00957828 0.0972659 -0.995212
-0.0722914 0.0723427 0.0722913 -0.236682 0.969804 -0.0588311
0.0561623 0.315017 0.0344107 0.913873 0.0741765 0.399168
-2.98023e-08 -0.24047 -0.0841793 0.0367461 0.754464 -0.655312
-0.111393 0.0476673 0.0567728 -0.639495 -0.749163 0.172629
0.0257678 0.0641818 0.107345 0.205014 0.451163 -0.868574
0.0418326 0.334423 -0.00327724 0.14961 0.978372 0.142847
-0.0160005 0.0723427 0.100983 -0.37109 0.830474 0.415458
0.058058 -0.245547 -0.062781 0.656728 0.024795 -0.75372
0.101144 0.0560209 0.0734801 0.824947 -0.131869 0.549611
0.186833 -0.440508 0.0817053 -0.49845 0.0684752 0.86421
-0.0809985 0.0641818 0.0748939 0.223419 0.830879 -0.509631
-0.142398 0.0313455 0.0557447 -0.782573 0.552071 0.287744
0.0475195 -0.245547 0.0711025 0.432932 -0.0924501 0.896673
-2.98023e-08 -0.121527 0.0624276 -0.00812902 0.82853 0.559886
-2.98023e-08 -0.13727 0.0640019 -0.0119825 0.712876 0.701188
-2.98023e-08 0.245778 -0.103971 -0.0147188 0.342171 -0.939522
0.116116 0.0395063 -0.0650301 -0.525724 0.759806 0.382504
0.0205629 0.126224 -0.103425 0.547471 -0.191333 -0.814658
0.133337 -0.296632 0.0105063 -0.948996 0.289381 -0.125158
-0.0849504 0.0723427 -0.0567407 -0.230354 0.971674 0.0527949
-0.0144262 0.370408 -0.0144261 -0.575992 0.540148 -0.613574
0.0667972 -0.440508 0.192648 0.0582758 0.179199 -0.982085
-0.113642 0.0641818 -0.027278 -0.265537 0.963951 -0.0169799
-2.98023e-08 0.0641818 -0.110397 0.00556338 0.0959877 0.995367
-0.124855 0.0395063 -0.0460737 0.360487 0.883285 0.299762
-0.0344107 0.315017 0.0561623 -0.684332 0.167496 0.709672
-0.123506 0.0560209 0.0195668 -0.995542 -0.0417688 0.0845629
-0.12357 -0.296632 -0.0511823 0.869242 0.338866 0.359983
0.0160004 0.0723427 -0.100983 0.474855 0.808908 -0.346671
-0.116309 -0.321693 0.120968 -0.612446 -0.483842 0.625146
-0.104935 -0.296632 0.0827334 0.719645 0.325801 -0.613159
-0.0904767 -0.321693 0.141338 -0.4784 -0.463026 0.74615
0.0732231 -0.321693 -0.151009 0.344606 -0.529137 -0.77541
-0.0462665 -0.296632 0.125369 0.0054888 0.24431 -0.969682
-0.106284 0.0395063 -0.098252 -0.0718626 0.997371 0.00928523
0.106477 -0.321693 -0.129739 0.572675 -0.461084 -0.677824
-0.069464 0.0165338 -0.136325 -0.458262 -0.177991 -0.870813
0.0653192 0.0476673 -0.106606 0.381566 -0.690737 -0.61424
0.0529173 0.0165338 -0.143458 0.383103 -0.217044 -0.897844
0.131924 0.0313455 -0.0773357 0.725093 0.556843 -0.405175
-0.0586042 0.126224 0.0876814 -0.70736 0.285068 0.646821
0.0802273 0.0723427 -0.0632308 0.231866 0.965577 0.117893
-2.98023e-08 0.36742 0.0204022 -0.0118395 -0.269406 0.962954
0.0386517 0.0476673 0.118911 0.291109 -0.776132 0.559352
0.026057 -0.296632 0.131056 0.408687 0.139312 -0.90198
0.0724519 -0.0376687 -0.0173821 0.965307 -0.22123 -0.13871
0.102011 0.0641818 0.0422502 -0.507424 0.809474 -0.295421
-0.0478408 0.0476673 -0.115506 -0.211495 -0.778089 -0.59148
-0.157627 -0.440508 0.129353 -0.424611 0.849521 0.31308
-0.0742834 -0.0376687 0.00584754 -0.97848 -0.199087 0.0542391
0.0317118 0.0641818 0.112389 0.16027 0.946173 0.281195
-0.0652871 -0.296632 -0.116598 0.187249 0.32511 0.926953
-2.98023e-08 0.327772 -0.0524032 0.00727342 0.975012 0.222033
-2.98023e-08 0.175671 -0.113642 -0.00715245 -0.320199 -0.947323
0.0246433 0.126224 -0.102622 0.584222 -0.0895304 -0.80664
-0.121353 -0.296632 0.0559374 0.868794 0.30929 -0.386699
0.101915 0.0723427 -0.00803238 0.076378 0.996965 0.015091
0.0834402 0.00846925 -0.119714 0.174268 -0.968389 -0.178473
-0.108212 -0.296632 -0.0786209 0.711703 0.363563 0.601083
-0.186833 -0.440508 0.0817053 0.643679 0.214216 0.734703
0.119168 -0.296632 0.0607248 -0.794074 0.305323 -0.525571
0.0848219 0.0560209 0.0917619 0.658623 -0.160143 0.735234
-0.0451098 0.00846925 -0.138864 -0.0851664 -0.94461 -0.316954
0.0827013 0.103251 0.0600822 0.810294 -0.55627 0.184357
-0.0946535 0.0165338 0.120068 -0.601464 -0.207946 0.771362
-0.0972238 0.103251 0.0315832 -0.852895 -0.51812 0.0642075
0.00989586 -0.321693 0.167523 0.188749 0.947466 0.258229
0.0272458 0.334423 0.0319046 0.260285 0.918916 -0.296386
0.101272 -0.321693 -0.133819 0.542808 -0.474371 -0.69306
-0.101465 0.0723427 -0.0120164 -0.175112 0.982811 -0.0584719
0.0357601 0.334423 -0.0219123 0.223322 0.95797 0.18006
-2.98023e-08 0.354343 0.0237115 0.00582461 0.0184132 0.999813
0.123217 -0.321693 -0.113899 0.617368 -0.506329 -0.60207
-0.0291736 0.0476673 0.121578 -0.165032 -0.769183 0.61735
-0.177869 -0.440508 -0.0996014 0.909772 0.0752281 0.408235
-0.0809985 0.0641818 -0.0748939 0.115497 0.880821 0.459146
0.122895 0.00846925 -0.0786851 0.22648 -0.96396 -0.139598
0.0389409 -0.0376687 0.0635521 0.733076 -0.219355 0.643803
-0.161483 -0.321693 -0.0455596 -0.840602 -0.497071 -0.215194
0.20338 -0.440508 -0.0160005 -0.291598 -0.702233 -0.649492
0.100983 0.103251 0.0160005 0.813953 -0.580804 -0.0121294
-0.162382 -0.321693 0.0423788 -0.839757 -0.511727 0.181504
0.146992 -0.440508 0.141305 -0.490206 0.848703 -0.198499
0.00989586 -0.321693 -0.167523 0.175577 0.912544 -0.369372
0.191267 -0.440508 0.0705564 -0.927055 0.0364541 -0.373148
-0.0205629 0.126224 -0.103425 -0.542154 -0.189329 -0.818672
-0.111104 -0.296632 -0.0742513 0.746627 0.325451 0.580198
-0.143073 0.0395063 -0.0226513 0.00958322 0.999947 -0.00378747
-0.0199846 -0.245547 0.0832153 0.0612387 -0.141783 0.988002
0.0243863 0.0476673 0.122542 0.228563 -0.694607 0.682114
-2.98023e-08 -0.0629867 0.0638413 0.0129861 0.539609 0.841815
0.0464271 0.103251 -0.0910871 0.773677 -0.534002 -0.340979
-0.0397763 -0.440508 0.199942 -0.820047 0.227422 -0.525168
-0.150559 0.0313455 0.0268924 -0.793793 0.588231 0.154522
0.118204 0.0313455 0.0970311 0.625807 0.563059 0.53975
-0.0441459 0.126224 0.095778 -0.667399 0.239713 0.705065
-0.061271 0.0641818 -0.0917297 0.538892 0.594395 0.5969
0.00800025 -0.440508 0.203701 0.299671 -0.915012 -0.270092
-0.0146832 0.0560209 -0.124084 -0.147053 -0.304247 -0.941174
0.0636806 0.00846925 -0.131313 0.112422 -0.964291 -0.239801
-0.0746368 0.126224 0.0746368 -0.763499 0.337029 0.550891
-0.10018 0.103251 0.0199203 -0.82938 -0.555723 0.05745
-0.175909 -0.440508 -0.103104 0.961818 0.262747 0.0766196
-0.0804201 0.0395063 -0.120357 -0.0440443 0.998709 0.0252969
-0.103778 0.0165338 0.112293 -0.667299 -0.211101 0.714247
-2.98023e-08 0.237777 -0.106349 -0.0145956 0.226325 -0.973943
-0.0386518 0.0560209 -0.118911 -0.402883 -0.330886 -0.853346
-0.169515 -0.440508 -0.113256 0.786564 0.610014 0.0959197
-0.126687 0.0395063 0.0411578 0.489373 0.859055 -0.15013
-2.98023e-08 0.0560209 -0.125048 0.0044177 -0.290059 -0.956999
-0.0746047 -0.245547 -0.0418005 -0.845791 0.124192 -0.518859
0.101144 0.0476673 -0.0734802 0.551966 -0.8043 -0.220079
-0.0156471 0.0395063 -0.132181 0.279546 0.809688 0.516003
0.130478 0.0165338 0.0799381 0.820802 -0.205541 0.532951
-0.0243863 0.0476673 0.122542 -0.21899 -0.696896 0.682919
-0.138382 -0.440508 -0.149691 0.54826 0.299022 0.781023
0.0199203 0.0723427 -0.10018 0.675793 0.712632 -0.188305
-0.0353746 0.0723427 -0.0958423 -0.274583 0.93237 -0.23514
0.10818 0.0641818 0.0215267 -0.377109 0.92303 -0.0761839
-0.129353 -0.440508 -0.157627 -0.632935 0.774083 0.0136882
-0.0983163 0.103251 0.0277277 -0.841763 -0.529283 0.106271
-0.0311013 0.0395063 -0.129514 0.233107 0.675868 0.699188
-0.0104421 0.0395063 0.132791 0.134776 0.786251 -0.603029
0.161483 -0.321693 0.0455596 0.830607 -0.518417 0.203312
-2.98023e-08 0.349427 0.0261855 0.0104553 0.36166 0.932251
-0.0100566 -0.245547 0.0849182 -0.250692 0.276301 0.927799
-2.98023e-08 -0.296632 0.133755 0.0549721 0.337462 -0.939732
0.0326114 0.126224 0.100373 0.539104 0.0759128 0.838811
-0.0917618 0.0560209 -0.0848219 -0.795813 -0.0915417 -0.598583
-2.98023e-08 0.308398 -0.0710062 0.00382075 0.987243 -0.159172
-0.0539133 0.0641818 -0.09626 0.0633416 0.809123 0.584215
0.109562 0.0641818 -0.0404189 0.302684 0.947748 -0.100779
0.07393 0.0395063 0.110654 -0.325922 0.815951 -0.477493
-0.0403868 0.126224 -0.097513 -0.6365 0.18997 -0.747515
0.0515357 0.126224 -0.0920189 0.723692 0.290861 -0.625835
-0.0782996 0.0395063 -0.107762 0.269135 0.873977 0.404636
0.129514 0.0395063 0.0311013 -0.649194 0.744519 -0.15569
-0.0363064 -0.0794049 0.0499614 -0.721332 0.0838913 0.68749
-0.152551 0.0165338 -0.0120164 -0.98202 -0.173065 -0.0753981
0.0958423 0.0723427 0.0353746 0.20665 0.971451 -0.116527
-0.109015 0.0476673 0.061046 -0.671563 -0.73544 0.0901743
-0.113578 0.0395063 0.0695924 0.524069 0.803357 -0.282789
0.0511823 -0.296632 -0.12357 0.00265356 0.284027 0.958813
0.115441 0.0641818 -0.0182817 0.223904 0.974019 -0.0339588
0.0877457 -0.321693 -0.143169 0.491485 -0.441234 -0.750836
0.0792634 0.0641818 0.0857535 0.374985 0.91144 0.169301
-0.151844 0.0165338 -0.0179604 -0.981156 -0.171608 -0.088791
-2.98023e-08 -0.00492874 -0.108373 0.0101319 -0.863677 -0.503944
-0.183459 -0.440508 0.0889987 0.996305 0.0451055 0.0730942
-0.00517288 0.315017 -0.0656727 -0.21818 0.97583 0.012395
0.0358565 -0.440508 -0.200713 0.812605 0.0262139 0.582225
0.0361135 0.0641818 0.111168 0.212581 0.899128 0.382593
0.116309 -0.321693 0.120968 0.60013 -0.507834 0.61802
-0.0981235 -0.296632 0.0907015 0.635481 0.338954 -0.693739
-0.152904 0.0313455 0.00298801 -0.816949 0.576692 0.00456917
-0.066733 0.0313455 0.137611 -0.359654 0.565833 0.741945
0.181789 -0.440508 0.0926293 -0.988791 -0.0448389 -0.142412
-0.124084 0.0560209 -0.0146832 -0.994801 -0.0617339 -0.0809988
-0.0635522 -0.0376687 -0.038941 -0.923154 -0.216982 -0.317342
-0.114317 0.0313455 0.101593 -0.596254 0.580313 0.554724
-0.122542 0.0476673 0.0243863 -0.742785 -0.639395 0.198609
-0.0653192 0.0476673 -0.106606 -0.366777 -0.658155 -0.6575
-2.98023e-08 -0.434147 0.204311 -0.0212999 0.994408 -0.103438
0.0650622 -0.245547 -0.055584 0.733636 0.0584192 -0.677027
0.121353 -0.296632 -0.0559375 -0.81612 0.281169 0.504869
0.135843 -0.321693 0.0987017 0.698134 -0.520998 0.491091
-0.0602749 -0.0376687 0.0437925 -0.868214 -0.212672 0.448303
-0.146992 -0.440508 -0.141306 0.00276307 0.842555 0.538604
0.0640019 0.0165338 -0.138864 0.413804 -0.188362 -0.890666
0.0864926 0.0395063 0.101272 -0.490036 0.639405 -0.592474
0.133755 -0.296632 -2.98023e-08 -0.950511 0.310524 0.0102291
0.0970311 0.0313455 0.118204 0.563899 0.567946 0.599546
-0.0357602 0.334423 -0.0219123 -0.263696 0.955936 0.129037
-0.00459453 0.0641818 -0.116694 0.188 0.952485 -0.239641
-0.00967097 -0.0794049 -0.0609818 -0.401149 0.653373 -0.642016
-0.0146832 0.0476673 -0.124084 -0.0691011 -0.716354 -0.694307
0.0215267 0.0641818 -0.10818 0.281332 0.681727 0.675352
0.0570298 -0.0794049 0.0236152 0.959851 -0.0691427 0.271857
-0.0557447 0.0313455 -0.142398 -0.319749 0.562861 -0.7622
-0.00327721 0.334423 -0.0418326 0.0344763 0.981482 0.188425
-0.124662 0.0560209 -0.00979954 -0.992099 -0.0821758 -0.0948026
-0.107152 0.00846925 -0.0990553 -0.22109 -0.961591 -0.162669
0.109562 0.0641818 -0.0129803 -0.480316 0.875682 0.0497738
0.106606 -0.440508 0.173949 0.897636 0.398914 0.187397
-0.0987018 -0.321693 -0.135844 -0.502979 -0.486224 -0.714561
0.0720985 0.0313455 0.13488 0.404195 0.55649 0.72591
0.113674 0.0395063 -0.0896091 0.00376316 0.998435 0.0557992
-2.98023e-08 0.0761982 0.102236 0.0213717 -0.736015 0.676628
-0.0058476 -0.0376687 -0.0742834 -0.550577 -0.63172 -0.545706
-0.0160647 0.334423 -0.0387482 -0.186462 0.976039 0.11216
-2.98023e-08 -0.00139451 -0.114767 0.0116428 -0.843759 -0.536596
-0.121321 0.00846925 -0.0810627 -0.215926 -0.964364 -0.152902
-0.130542 0.0395063 -0.0259607 0.57697 0.811141 0.0956844
-0.0559374 -0.296632 -0.121353 0.0885533 0.277618 0.956602
-0.071713 0.0641818 -0.0839544 0.342042 0.790845 0.507514
0.0243863 0.0560209 0.122542 0.28073 -0.309071 0.908662
-2.98023e-08 0.163141 0.112614 -0.0105981 -0.509898 0.86017
-0.0164503 -0.321693 -0.167009 0.151291 0.532617 -0.832724
-2.98023e-08 -0.0952126 -0.06201 0.00185394 0.862936 -0.50531
0.0432463 0.0560209 0.117208 0.392321 -0.345233 0.852583
-0.163925 -0.321693 -0.0359529 -0.858707 -0.487618 -0.157643
0.120261 0.0560209 0.0339288 0.962157 -0.122049 0.243633
-0.125434 -0.321693 0.111457 -0.628125 -0.515902 0.582498
-0.0239365 0.0165338 0.151137 -0.126598 -0.241088 0.962211
-2.98023e-08 -0.418275 0.204344 -0.147329 0.206601 0.967269
-0.10018 0.0641818 0.0461701 0.572951 0.718265 -0.394743
-2.98023e-08 -0.408764 0.203572 -0.0409849 -0.85021 0.524845
-0.010667 0.36742 -0.0173821 -0.402998 -0.18925 -0.89542
-0.0695925 0.0395063 -0.113578 0.240118 0.772062 0.588441
-2.98023e-08 0.00782669 0.14243 0.0321672 -0.99913 0.0265368
-0.0201452 0.370408 -0.00318086 -0.808652 0.577771 -0.110735
0.0604677 0.0395063 -0.118686 -0.371448 0.718422 0.588129
-0.102075 0.103251 -0.00401622 -0.830016 -0.552031 0.0795946
0.10018 0.0641818 0.0461701 -0.627287 0.662942 -0.40868
-0.201516 -0.440508 -0.0319367 -0.90639 0.141488 -0.398044
-0.160583 -0.321693 -0.0487083 -0.841565 -0.477494 -0.252524
-0.0858179 0.00846925 0.11814 -0.160274 -0.969208 0.186947
0.0811912 0.0476673 -0.0950712 0.54955 -0.603472 -0.577769
0.118686 0.0395063 -0.0604677 -0.487764 0.72741 0.48266
-0.0662832 0.00846925 -0.130092 -0.147035 -0.960536 -0.236118
0.0142976 0.00846925 0.145225 -0.0566772 -0.952902 0.297935
0.0917618 0.0560209 0.0848219 0.79101 -0.154767 0.591905
-0.0381698 0.0641818 0.103489 -0.157847 0.607954 -0.778124
0.0294949 -0.321693 0.16521 -0.126125 0.00428609 0.992005
0.120357 0.0395063 -0.0804201 0.00924658 0.999748 -0.0204415
0.116502 0.0641818 0.00915688 0.213336 0.975281 0.057572
0.0605962 0.0395063 0.131442 -0.061881 0.994742 -0.0816032
0.0041447 0.126224 -0.105385 0.145234 -0.872457 -0.46661
-2.98023e-08 0.269168 0.0948463 -0.0310628 0.612114 0.790159
0.0828298 0.126224 0.0652871 0.819102 0.333737 0.466574
-0.144229 0.00846925 0.0228441 -0.280419 -0.956493 0.0805348
0.0339287 0.0560209 -0.120261 0.243682 -0.268779 -0.931867
-0.0811913 0.0560209 -0.0950712 -0.640011 -0.146798 -0.754212
0.124855 0.0395063 0.0460737 -0.461169 0.861445 -0.212685
0.122542 0.0560209 -0.0243863 0.971322 -0.0791605 -0.224205
-2.98023e-08 0.323852 0.0571904 0.0105064 0.960167 -0.279228
-0.137675 -0.321693 -0.0959708 -0.704689 -0.530327 -0.471345
0.0652871 0.126224 -0.0828298 0.734601 0.32913 -0.593326
0.118718 -0.321693 0.118718 0.615497 -0.507371 0.603106
-2.98023e-08 0.00419608 0.128261 0.0157757 -0.935165 0.35386
-0.0137193 0.0641818 -0.115988 -0.145693 0.971382 -0.187591
-0.0950712 0.0476673 0.0811912 -0.615204 -0.604637 0.505904
-0.0610782 0.00846925 -0.132502 -0.0993633 -0.965392 -0.241132
0.14937 0.0313455 -0.0327721 0.802718 0.577029 -0.150606
-2.98023e-08 0.0395063 -0.133209 0.00157581 0.888316 0.459231
