0.023131 0.367978 0.299481 -0.39482755 0.90962247 -0.12922138
0.118592 -0.280789 -0.235065 -0.72016217 -0.69378003 0.0059761476
0.118587 -0.280699 -0.231828 -0.44695204 -0.8943186 0.020691151
0.120411 -0.265793 -0.225554 0.7144523 -0.00078347781 -0.69968372
0.12043 -0.267009 -0.225516 0.23409567 -0.029669547 -0.97176074
0.109031 0.205356 0.067133 0.78175441 0.10346205 -0.61494361
0.112867 0.192638 0.070186 0.93414989 0.30913415 0.17832571
0.118693 -0.25142 0.004457 0.99741065 0.019653862 -0.069178855
0.118704 -0.249502 0.00505 0.99991665 -0.0077860859 0.010298595
0.110037 -0.264315 -0.007653 -0.032468761 -0.82299923 -0.56711379
0.134979 -0.101401 0.007168 0.49263905 0.20428954 -0.84591522
0.039628 0.34786 0.11191 -0.046362335 0.27212743 0.96114369
0.045593 0.066221 -0.037984 0.56345528 0.29823641 -0.77043701
0.083406 -0.185373 -0.030703 -0.29733562 0.16480129 0.94044248
0.008583 0.394793 0.354186 -0.11543306 0.28024353 0.95296315
0.133457 0.119807 0.047159 0.95888397 -0.28328366 0.017085048
0.030905 -0.187366 -0.142187 0.056245997 -0.99823533 -0.019042422
0.004078 0.376082 0.360281 -0.012300542 -0.93977218 0.34158008
0.045055 0.135195 -0.00209 -0.11661333 -0.74506461 0.65671917
0.069739 -0.181722 -0.013406 0.66688166 0.56130205 0.49011107
0.135478 0.136147 0.058796 -0.47613918 0.875216 -0.085372305
0.033142 -0.170121 -0.120639 0.96589268 -0.099072141 0.23924053
0.019982 0.137381 0.133971 0.12418282 -0.50327208 0.85515837
0.118707 -0.26488 -0.255511 -0.90714573 0.38027963 -0.18020553
0.120359 -0.264566 -0.225592 0.0085789256 -0.030264012 -0.99950512
0.118582 -0.280599 -0.228502 -0.96235517 0.24038781 -0.1268315
0.118714 -0.247567 0.005425 0.99907119 0.00088531784 -0.043080992
0.145657 -0.08144 0.019043 0.43960489 0.29797694 -0.8473236
0.004422 -0.275058 -0.268643 -0.0045106706 -0.39469269 0.91880212
0.041094 0.346766 0.1123 -0.090866961 -0.42796967 -0.89921363
0.082787 -0.181246 -0.031307 0.26451784 -0.041665967 0.96348028
0.049373 0.071799 -0.032909 0.72285506 0.14276434 -0.6760909
0.010004 0.393875 0.354644 -0.15531793 0.25563577 0.95421522
0.025304 -0.187501 -0.144896 0.0071270313 -0.99953795 0.029548136
0.135258 0.12793 0.049642 -0.40182723 -0.21670782 0.88970366
0.002806 0.376088 0.360254 -0.0090425887 -0.95056538 0.31039279
0.078232 -0.182196 -0.02493 -0.023490986 0.99806619 -0.057550528
0.041741 0.135186 -0.002665 -0.10667597 -0.74984394 0.65295812
0.03316 -0.157928 -0.113878 0.97946377 0.11492208 -0.16566121
0.135702 0.136126 0.057128 -0.92852755 0.35473734 -0.1095354
0.044677 -0.120182 -0.055037 -0.37153801 -0.66280923 0.65011033
0.050891 -0.123019 -0.054635 -0.27934018 -0.55669805 0.7823403
0.118761 -0.260042 -0.244565 -0.98741628 -0.14474895 0.063693272
0.027089 0.137348 0.132774 0.15288767 -0.54242628 0.82607451
0.026819 -0.146632 0.050026 0.48428624 -0.12687096 0.86566194
0.021678 -0.146324 0.05279 0.37248298 -0.4871601 0.78989333
0.118596 -0.280866 -0.238204 -0.98994272 0.14139146 -0.00467627
0.120275 -0.263319 -0.22563 -0.014253644 -0.03170437 -0.99939565
0.024179 0.366707 0.286165 -0.94149427 0.3233638 -0.094996774
0.025015 0.365752 0.273491 0.32388387 0.94498472 -0.045859762
-0.000235 -0.098954 -0.075799 0.017825422 -0.32267232 0.94634287
0.118682 -0.253301 0.003662 0.99675936 0.029565572 -0.074810736
0.003166 -0.271672 -0.225634 0.0055059342 0.36849958 0.92961161
0.116523 0.179401 0.073264 0.24564518 0.2673312 0.93176847
0.119981 0.165635 0.076234 0.78643328 0.29635982 0.541935
0.042284 0.345608 0.112713 -0.034355495 -0.36302405 -0.9311462
0.011313 0.39285 0.355149 -0.10458807 0.33572485 0.93613576
0.001449 0.376094 0.360238 -0.0052214221 -0.96095862 0.27664284
0.028775 0.352335 0.110326 -0.062134592 0.11886478 0.99096441
0.127098 -0.113159 4.7e-05 0.48514025 0.17176233 -0.8574011
0.123115 -0.118618 -0.003233 0.48413614 0.15376493 -0.86137596
0.026013 0.277971 -0.003828 -0.44929312 -0.39291796 0.80234106
0.031384 0.271814 -0.003205 -0.41877694 -0.28647464 0.86171814
0.085285 -0.189438 -0.029215 -0.56790431 0.039036422 0.82216838
0.086611 -0.191822 -0.028186 0.5345813 -0.067724698 -0.84239907
0.022504 0.045094 -0.060042 -0.29192829 -0.44777606 0.8451476
0.017146 0.04263 -0.06315 -0.25781559 -0.44945868 0.85528827
0.033343 -0.187222 -0.138914 0.01688029 0.99858008 -0.050526059
0.034081 -0.18713 -0.136745 0.09051341 0.99389941 -0.063018134
0.109662 0.080831 0.016327 0.65538087 -0.7453381 0.12225802
0.102582 0.073675 0.007751 -0.6968542 -0.14728063 0.7019278
0.062965 -0.181374 -0.005023 -0.0075829654 0.99881871 -0.047996792
0.059258 -0.181197 -0.000779 -0.030686152 0.99712628 -0.06926422
0.061314 0.135252 0.001436 -0.23947853 -0.21144527 0.94759745
0.064511 0.135266 0.00227 -0.25431347 -0.1656976 0.95282158
0.057262 -0.12576 -0.05449 -0.20221226 -0.44965995 0.87000927
0.06369 -0.128397 -0.054517 -0.35434024 -0.873089 -0.33490086
0.033123 -0.178368 -0.123129 0.99141812 -0.026034088 0.12811063
0.033111 -0.182495 -0.1237 -0.98658669 0.00083399451 -0.16323606
0.133443 0.136273 0.066996 -0.029166698 0.99923383 -0.026096889
0.132877 0.136298 0.068584 -0.0050700745 0.99982206 -0.018169812
0.016749 -0.146054 0.055113 0.33401487 -0.46376761 0.8205813
0.012065 -0.14583 0.056968 0.27804024 -0.46893194 0.83832957
0.118679 -0.267896 -0.261321 -0.99022638 -0.11969294 0.071591285
0.118667 -0.269322 -0.263771 0.9998257 0.013523775 -0.012871459
0.007089 -0.226517 -0.226721 -0.055964962 -0.94951644 0.30868503
0.014438 -0.227096 -0.226697 -0.1007076 -0.97336715 0.20594748
0.025691 0.365031 0.261371 0.65646245 0.75431951 -0.0076898931
0.02626 0.364466 0.249719 0.84829185 0.52929758 0.015652477
0.118567 -0.280294 -0.219727 -0.80456259 -0.59298059 0.032450832
0.118557 -0.279994 -0.212424 -0.786842 -0.6164962 0.02849738
0.120276 -0.270676 -0.225403 0.31159554 -0.056016694 -0.94856225
0.120153 -0.271935 -0.225363 0.2775842 -0.061356052 -0.95874003
0.123218 0.15133 0.078962 0.65727353 0.26549763 0.70533859
0.118731 -0.243728 0.005441 0.99988737 -0.0060937136 -0.013715134
0.118739 -0.241864 0.005045 0.99921229 -0.014872694 -0.036791426
0.087596 -0.263005 -0.007665 -0.056651205 -0.69768136 0.7141648
0.081001 -0.262437 -0.007676 0.0071333131 0.096230226 0.99533354
0.031357 0.351578 0.110592 -0.058117474 0.16478353 0.98461604
0.020193 0.282996 -0.004351 -0.50927969 -0.64935672 0.56477432
0.119189 -0.123816 -0.006306 0.37112716 0.24075988 -0.89682736
0.001894 0.397019 0.353048 -0.11270651 -0.99361479 0.0051865813
0.027634 0.048223 -0.056378 -0.34221301 -0.42519372 0.83791441
0.08816 -0.194397 -0.026992 0.48145954 -0.11530453 -0.86885072
0.116089 0.088259 0.024341 0.70304448 -0.69803112 0.1359449
0.034455 -0.187024 -0.13418 0.99712311 0.034596014 -0.067443402
0.058099 0.135239 0.000645 -0.22373469 -0.26108895 0.93902894
0.055343 -0.181021 0.003429 -0.039124742 0.99606951 -0.079465593
0.13396 0.136247 0.065386 -0.13240059 0.9896038 -0.056164054
0.033099 -0.186611 -0.123791 -0.95701331 -0.27867798 -0.080399688
0.118658 -0.270685 -0.265915 0.99986383 0.011188148 -0.012130695
0.120363 -0.269441 -0.225441 0.40492805 -0.051052401 -0.91292219
0.118548 -0.279596 -0.203406 0.35668199 0.93325023 -0.042684516
0.094602 -0.263514 -0.007658 -0.061691629 -0.92523266 0.374351
0.118746 -0.240064 0.004355 0.99815839 0.023010452 0.056127953
0.03375 0.350751 0.110885 -0.063866388 0.1773801 0.98206791
0.131073 -0.107425 0.003519 0.48534031 0.19096206 -0.85321643
0.013912 0.286753 -0.004752 -0.34302 -0.65251319 0.67569506
0.003707 0.396715 0.353206 -0.22191995 -0.9748922 0.018350116
0.084208 -0.187278 -0.030061 -0.39021615 0.14936717 0.90852672
0.032522 0.051959 -0.052248 -0.35965491 -0.43675104 0.8245586
0.032274 -0.1873 -0.140718 0.066650625 -0.99775788 -0.0060755366
0.121773 0.095915 0.031614 0.69994946 -0.67426957 0.23543854
0.06646 -0.181549 -0.009249 0.003056433 0.99923527 -0.038981241
0.054867 0.135227 -0.000103 -0.21578947 -0.15234045 0.96448291
0.033133 -0.174239 -0.122101 0.98761551 -0.04437613 0.15048708
0.134426 0.136221 0.063758 0.19842167 0.97938641 0.037829804
0.070078 -0.130922 -0.054636 -0.35397372 -0.89377559 -0.27544111
0.076328 -0.133328 -0.054763 -0.34645593 -0.89637128 -0.2765625
0.118692 -0.266413 -0.258566 -0.99649475 0.076097814 -0.034746795
0.007665 -0.14566 0.058326 0.19214552 -0.55531895 0.80913594
0.003584 -0.14555 0.059162 0.086626749 -0.67125252 0.73614935
0.118576 -0.280489 -0.225089 -0.765542 0.64267941 -0.030143324
0.120414 -0.268222 -0.225479 0.40703516 -0.039331715 -0.91256528
0.026776 0.363975 0.238447 0.84183039 0.53953512 0.014948014
0.027289 0.363476 0.227468 0.81411181 0.58059966 0.011224499
0.118722 -0.245636 0.005561 0.9999392 -0.0045995988 0.010022435
0.102066 -0.263955 -0.007653 -0.051003745 -0.97511701 0.21574391
0.127635 0.129274 0.082182 0.86198566 0.22352196 0.45499302
0.129172 0.121956 0.082772 0.80806651 0.2080913 0.55111389
0.111752 -0.133492 -0.011783 -0.12746521 -0.39799879 0.90848752
0.108366 -0.137998 -0.014158 -0.095889934 -0.39385313 0.91415799
0.044952 0.247892 -0.000962 0.85342008 0.40122396 0.33270633
0.048671 0.238553 -0.000162 0.89408014 0.3534289 0.27515218
0.043659 0.339387 0.114948 -0.08112724 -0.31203355 -0.94660099
0.091825 -0.199994 -0.024193 0.52049338 -0.08601697 -0.84952206
0.093887 -0.202953 -0.022626 0.5620049 -0.045321212 -0.82589132
0.015328 0.388021 0.357416 0.40325457 -0.17116132 -0.89893801
0.015999 0.386722 0.357989 0.23438945 -0.29365603 -0.92672958
0.033995 -0.186766 -0.127733 -0.84856821 0.5217215 -0.08796971
0.07834 0.054289 -0.01952 0.55358272 0.3492672 -0.75601494
0.069561 0.048669 -0.028519 -0.57303955 -0.29992399 0.76267377
0.046909 -0.180679 0.011528 -0.032623897 -0.99945259 0.0054953484
0.042399 -0.180517 0.015314 -0.02326314 -0.99963673 0.013610444
0.078204 0.135339 0.006336 -0.31301763 0.0077901066 0.94971537
0.083311 0.135373 0.008065 -0.25501187 -0.62377266 0.73883464
0.082341 -0.135608 -0.054816 -0.33998033 -0.90160314 -0.26744186
0.08802 -0.137754 -0.054713 -0.33367552 -0.90649188 -0.25871436
0.118789 -0.230428 -0.011412 0.1333784 0.96442801 0.22822972
0.118803 -0.22878 -0.020121 0.10525982 0.9848329 0.13792946
0.130926 0.136372 0.07318 -0.45215546 0.86214085 -0.22862327
0.130204 0.136395 0.074646 -0.47998702 0.8386708 -0.25737862
0.118642 -0.273194 -0.269267 0.99995722 -0.0088276302 0.0027613241
0.118636 -0.274328 -0.270472 0.99993119 -0.01020841 0.0057796967
0.03657 -0.230564 -0.226585 0.018044013 0.11770752 0.99288436
0.043857 -0.232167 -0.226536 -0.0023637444 0.01974155 0.99980232
0.027855 0.362891 0.216694 0.77457183 0.63247001 0.0044905795
0.028524 0.362137 0.206038 0.72332625 0.69047034 -0.0070600828
0.118526 -0.278536 -0.181136 -0.99994653 -0.010334499 -0.00035522998
0.118516 -0.277887 -0.168338 -0.99998906 -0.00464662 -0.00054185628
0.119548 -0.275945 -0.225235 0.32980568 -0.029987543 0.94357245
0.119266 -0.277389 -0.225189 0.037681408 0.024653163 0.99898565
0.130807 0.114528 0.083092 0.81469636 0.196543 0.54556455
0.132524 0.106996 0.083145 0.8150338 0.1827953 0.54982341
0.118759 -0.236738 0.002017 0.66611262 0.51834677 0.5362934
0.118765 -0.235252 0.000331 0.74702361 -0.57398404 -0.33540729
0.063222 -0.260499 -0.00772 0.0019095333 0.041297295 0.99914508
0.057808 -0.259813 -0.007738 0.0015022305 0.038488032 0.99925793
0.04084 0.256639 -0.001751 0.50360592 0.21210731 -0.83749123
0.105285 -0.142303 -0.016271 0.20731102 -0.52202447 0.82735276
0.043184 0.33836 0.115319 -0.081562974 -0.29947649 -0.95061102
0.005801 0.039928 -0.067327 -0.21026589 -0.27932568 0.93689136
0.096071 -0.205976 -0.020975 0.45724121 -0.15014608 -0.87657666
0.016528 0.385424 0.358541 -0.18520692 -0.43286165 -0.88222967
0.086831 0.06036 -0.010354 -0.62006562 -0.25665615 0.74138131
0.031741 -0.186317 -0.116343 -0.97051608 0.23600866 -0.048974062
0.072991 0.135308 0.004696 -0.2922654 0.036374362 0.95564525
0.037698 -0.180365 0.018853 0.1436023 -0.95909869 0.2439428
0.131615 0.136349 0.07168 -0.23851432 0.9635902 -0.1208505
0.118817 -0.22774 -0.030119 0.039396941 0.99688327 0.068349238
0.029215 -0.229158 -0.226628 -0.17213938 -0.97774081 0.11996229
0.118632 -0.275372 -0.271357 0.99996146 -0.0072020931 0.0050212289
0.119789 -0.27456 -0.22528 0.97130894 -0.1630071 -0.17316935
0.118506 -0.277168 -0.154733 -0.99999172 0.0039686887 -0.00090234655
0.068861 -0.261173 -0.007703 0.0011277159 0.03406533 0.99941897
0.118771 -0.233911 -0.001724 0.67730565 0.64529442 0.35334427
0.115381 -0.128769 -0.009161 -0.40105868 -0.1981156 0.89437249
0.036322 0.264658 -0.002506 0.39754217 0.2005642 -0.89539613
0.042513 0.337311 0.1157 -0.0044439407 -0.33834233 -0.9410126
0.089907 -0.197131 -0.025655 0.27686562 -0.27881345 -0.91956973
0.011573 0.040888 -0.065608 -0.18816992 -0.48351118 0.85487369
0.016907 0.384143 0.359062 -0.16129345 -0.39686856 -0.9035927
0.034438 -0.186903 -0.131186 -0.85793086 -0.51202159 -0.042291135
0.094941 0.066837 -0.001203 -0.61520745 -0.27304294 0.73957241
0.051226 -0.180847 0.007549 -0.027407331 -0.99953013 0.013724151
0.132266 0.136324 0.070146 -0.1373465 0.98790212 -0.072009333
0.093265 -0.139757 -0.054371 -0.32691557 -0.91027036 -0.2540356
0.097978 -0.141613 -0.053707 -0.32074292 -0.91455256 -0.24640939
0.118649 -0.271978 -0.267748 0.9999926 -0.0028233674 -0.0026133552
0.021825 -0.22799 -0.226665 -0.13596675 -0.96130046 0.23961315
0.000892 0.389647 0.392569 -0.21031703 -0.082729772 0.97412655
0.118537 -0.279108 -0.192902 0.42704948 0.90317926 -0.043542617
0.11999 -0.273227 -0.225322 0.10416599 -0.046012262 -0.993495
0.02935 0.361135 0.195414 -0.99527147 0.02025624 -0.094996756
0.030385 0.359803 0.184734 0.99307381 0.051653796 0.10552863
0.118752 -0.238348 0.003352 0.99812354 0.032450973 0.051926172
0.074772 -0.261823 -0.007688 0.0029679461 0.050289665 0.99873026
0.134305 0.099368 0.082934 0.79988584 0.1627053 0.57767605
0.136131 0.091651 0.082463 0.87592545 0.17324318 0.45026815
0.042446 -0.257788 -0.007793 0.00081773373 0.034180854 0.99941533
0.108729 -0.278666 -0.270704 0.026584723 0.9296416 -0.36750476
0.043181 0.344389 0.113149 -0.059108103 -0.36764447 -0.92808608
0.098835 -0.153048 -0.020654 0.57528007 -0.0083560281 -0.81791382
0.057617 0.208324 0.002089 0.79552326 0.15072397 -0.58687736
0.012505 0.391733 0.35569 -0.17896307 0.27810597 0.94373158
0.100692 -0.212087 -0.017498 0.57370041 -0.031120579 -0.81847379
0.103078 -0.215111 -0.015712 0.6908316 0.12721635 -0.7117357
0.028998 0.298321 0.015843 -0.32184351 -0.42552528 0.8457807
0.033044 -0.185784 -0.10338 -0.95064501 -0.086565383 0.29796056
0.035375 -0.185543 -0.097744 -0.88557037 -0.020666046 0.4640453
0.042405 0.034958 -0.052692 -0.5536251 -0.16246375 0.81676482
0.001789 -0.099012 -0.075685 -0.12874298 -0.61555508 0.77750703
0.027746 -0.180098 0.024982 0.42361642 -0.37016209 0.82675822
0.022503 -0.179986 0.027466 0.34849281 -0.41819999 0.83884536
0.097814 0.135494 0.013779 -0.0083636669 -0.99915332 0.040282743
0.102063 -0.143311 -0.05264 -0.31819545 -0.91962535 -0.23030602
0.105419 -0.144846 -0.051085 0.31137267 0.92250206 0.22811623
0.118845 -0.227277 -0.053271 -0.0034842912 0.99975565 -0.02182887
0.118859 -0.227752 -0.066072 -0.99999815 0.0015698813 -0.0011147398
0.127873 0.136451 0.078793 -0.75868452 -0.45743716 -0.46384161
0.118627 -0.277165 -0.272158 0.99997884 -0.001765731 0.0062612883
0.064953 -0.237762 -0.226373 0.00081923511 0.031285376 0.99951016
0.031681 0.358062 0.17391 0.98701479 0.11158739 0.11554249
0.033293 0.355829 0.162856 -0.91812094 0.32539455 -0.226213
0.118488 -0.275548 -0.126009 -0.99996 0.0088855529 -0.0010226724
0.118482 -0.274661 -0.111345 -0.99991432 0.013035006 -0.0011998153
0.115633 -0.280273 -0.225103 -0.039628831 0.58731808 -0.80838545
0.137985 0.083852 0.081735 0.89955237 0.16975621 0.40247777
0.139849 0.075977 0.080753 0.94543697 0.25164637 -0.2069373
0.141705 0.068033 0.07952 0.89838253 0.26724329 -0.34855394
0.043767 0.34311 0.113608 -0.068082923 -0.35657065 -0.93178436
0.05499 0.218633 0.001385 0.51773835 0.080439344 -0.85174909
0.013575 0.390544 0.356256 0.18851374 -0.28673042 -0.9392807
0.019289 0.302713 0.014641 -0.35927018 -0.89560716 0.26232184
0.051503 0.038959 -0.045286 -0.58736874 -0.1743213 0.79032275
0.093134 0.135452 0.011787 0.072392747 -0.98510894 -0.15594763
0.128674 0.136435 0.077456 -0.32935725 -0.9269842 -0.17951073
0.058084 -0.235805 -0.226429 -0.0057677278 0.0080899751 0.99995064
0.047466 -0.258445 -0.007775 0.0010632605 0.035591097 0.99936587
0.044026 0.341774 0.114088 -0.12577653 -0.34293454 -0.93090073
0.102571 -0.146423 -0.01811 -0.48172223 0.5813476 -0.65572758
0.052013 0.228754 0.000627 0.93451254 0.30997774 0.17492887
0.014518 0.389301 0.356835 0.27050091 -0.24136647 -0.93197183
0.098347 -0.209031 -0.01926 0.41980438 -0.18779171 -0.88797441
0.009577 0.305477 0.013878 -0.17699488 -0.76931898 0.61385757
0.031778 -0.186042 -0.10956 -0.81757909 0.57084367 0.075511154
0.060585 0.043544 -0.037168 -0.56554001 -0.27953525 0.7759024
0.032813 -0.180224 0.022093 0.18680686 -0.92068468 0.34269945
0.088294 0.135411 0.009883 -0.22790044 -0.75262525 0.61775126
0.003697 -0.099173 -0.075364 -0.24007057 -0.7051824 0.66714609
0.118831 -0.227256 -0.041227 -0.024007716 0.99956383 0.017198405
0.129452 0.136416 0.076072 -0.34483143 -0.92221157 -0.17497742
0.10795 -0.146209 -0.048963 0.30623705 0.92558141 0.22252622
0.05104 -0.233926 -0.226484 -0.015481857 -0.030880572 0.99940317
0.118497 -0.276386 -0.140547 -0.99997826 0.00652329 -0.00096231557
0.118942 -0.2789 -0.22514 0.052920635 -0.049699209 -0.99736122
0.035272 0.353026 0.151484 -0.92769617 0.28243716 -0.24414969
0.052571 -0.259124 -0.007757 0.001246887 0.036638457 0.99932781
-0.147048 0.043857 0.074354 0.96988414 -0.22522022 0.0927395
-0.148694 0.035705 0.072153 0.94162486 -0.24886033 0.2267403
-0.0757 -0.277401 -0.269997 0.0023565723 -0.54057841 0.84129033
-0.068843 -0.277122 -0.269837 0.0021884125 -0.54026624 0.84149129
-0.016972 -0.255211 -0.007862 0.02546575 -0.39763263 -0.91719125
-0.011476 -0.254917 -0.007869 0.03688168 -0.84136924 -0.53920083
0 -0.1407 -0.115807 1 0 -0
0 -0.146278 -0.120785 0.46261126 0.58293374 -0.66796637
0 0.381763 0.199567 0 0.82695575 -0.562267
0 0.379182 0.187572 0.085547254 -0.97218257 0.21804291
0 -0.16393 0.041974 1 0 -0
0 -0.162294 0.043349 1 0 -0
-0.094702 -0.16002 -0.023476 -0.60634271 -0.041361232 -0.79412705
-0.093413 -0.162031 -0.024353 -0.59931386 -0.036419917 -0.79968524
-0.064901 0.167908 0.003925 -0.038793032 -0.015975958 -0.99911955
-0.065985 0.158683 0.00403 0.0042353592 -0.0030909266 -0.99998625
-0.036177 0.332037 0.11762 -0.15438534 0.089985663 0.98390434
-0.034306 0.331038 0.117984 -0.063494038 0.22722515 0.97177016
0 -0.235249 -0.241684 0 0.83145397 -0.55559364
0 0.302981 0.009109 -1 0 0
0 0.14884 0.133217 -1.7169991e-15 -0.2227443 -0.9748769
0 0.160194 0.130356 -1.1750573e-14 -0.25712425 -0.96637835
-0.110229 -0.223679 -0.0104 0.79243643 -0.58239423 0.18127731
-0.112523 -0.226261 -0.008711 -0.79249138 0.54907032 -0.26547917
-0.066607 0.267815 0.023947 -0.65979312 0.44479701 -0.60566382
-0.075406 0.257785 0.026524 0.44699675 -0.14417013 0.88284137
-0.016389 0.378633 0.360807 0.61298229 0.48809917 0.62129857
-0.015765 0.377836 0.360905 -0.6428459 -0.72061334 0.25974136
0 -0.272715 -0.239826 -1 0 0
0 -0.272504 -0.237143 0 0.99692046 -0.078419406
0 0.160784 -0.004726 -4.0265681e-08 -0.024066882 -0.99971035
0 0.153208 -0.004425 0.99989115 -0.00016046935 -0.014753701
0 0.362317 0.273951 0 -0.99600295 0.089320383
-0.0471 -0.184898 -0.083476 0.0050459656 0.99912811 -0.041443434
-0.052037 -0.184703 -0.079397 -0.0047080525 -0.99909854 0.042189373
-0.00768 0.025687 -0.071546 -0.20239372 0.22571604 -0.95293707
0 0.025275 -0.072658 0.018425918 0.20327343 -0.97894862
0 0.395387 0.382454 -1 0 0
-0.007219 -0.099788 -0.07418 0.44229203 -0.2109188 0.87171728
-0.008857 -0.100232 -0.073357 0.5335384 -0.47098552 0.70250226
-0.005757 -0.179766 0.031966 -0.11696699 -0.16251236 0.97974918
0 -0.179738 0.032306 -2.4979511e-17 -0.00012471794 0.99999999
-0.114541 0.135677 0.022604 -0.11328052 -0.98088643 -0.15820663
-0.118131 0.135723 0.025022 -0.049703912 -0.99745714 -0.051076205
0 0.348554 0.091575 -6.5300297e-13 0.9207569 -0.39013682
0 -0.145511 0.059447 -0.0064096487 -0.70020619 0.7139119
0 -0.100193 -0.076508 -0.0086699142 -0.52163722 0.85312334
-0.11014 -0.148392 -0.04268 -0.2817442 0.93543524 0.21349733
-0.109604 -0.149197 -0.038356 0.76375174 0.63967915 -0.086567073
-0.118894 -0.231384 -0.107255 -0.99997167 -0.0073644676 0.001559675
-0.118903 -0.23316 -0.121321 -0.99994721 -0.01009448 0.0019203438
-0.118756 0.136561 0.090073 -0.67697197 -0.2701072 0.68465397
-0.114179 0.136611 0.094295 -0.59984203 0.40245889 0.69153191
0 0.294689 -0.000456 -1 0 0
0 0.293885 -0.001285 -1 0 0
0 0.255463 0.100191 1 -0 0
-0.005971 0.387899 0.390925 -0.66970973 0.13390291 0.73045115
-0.006779 0.387385 0.390195 -0.0092342579 -0.82713578 0.56192626
-0.118627 -0.279373 -0.270037 -0.99991059 0.012569186 0.0045646216
-0.118627 -0.279687 -0.268996 -0.99987085 0.015496615 0.0042583008
-0.089974 -0.245598 -0.226152 0.0012133172 0.024208217 0.9997062
-0.095438 -0.247362 -0.226103 0.035181256 -0.081976307 0.99601313
0 0.379047 0.371211 0.92559331 0.36311511 -0.10688516
-0.040542 0.345382 0.127438 -0.58576185 0.80033507 -0.12785469
-0.043938 0.340381 0.114589 0.12799044 -0.3144749 -0.94059768
-0.118473 -0.271771 -0.068861 -0.99976138 -0.021788722 0.0015571523
-0.118476 -0.270754 -0.05596 -0.99927079 -0.038074562 0.0028672765
-0.095924 -0.278642 -0.225202 0.014235893 -0.10858836 0.99398486
-0.08949 -0.278095 -0.225234 0.0036947134 0.015958731 0.99986582
0 -0.258281 -0.054619 -0.99874474 0.049938625 -0.0038831842
-0.083068 -0.277695 -0.270165 0.029131517 -0.17912087 -0.98339568
-0.150243 0.02752 0.069719 0.96855855 -0.21531027 0.12464275
0 -0.135225 -0.110723 -0.99966664 0.017748593 -0.018750963
-0.005737 -0.254723 -0.007871 0.020388944 -0.68858076 -0.72487297
0 0.376404 0.175753 -1 0 0
-0.063536 0.177619 0.003657 -0.21742628 -0.00044062147 -0.97607665
-0.092176 -0.163905 -0.025192 -0.59923468 -0.038102496 -0.79966618
0 -0.230725 -0.23445 -0.32869989 0.80817639 -0.48867914
-0.032231 0.33008 0.118335 0.083760649 0.50830546 0.85709376
0 0.301282 0.007007 -1 0 0
-0.057508 0.27705 0.021536 0.56798424 -0.43664955 0.69766115
-0.11473 -0.228651 -0.007096 -0.75742118 0.64234213 -0.11708865
0 0.146337 -0.004497 0.99920888 0.0021620153 -0.039710688
-0.015929 0.026906 -0.068811 0.33240354 -0.17368159 0.92700733
-0.057213 -0.184515 -0.075553 -0.0048755972 -0.9990916 0.042334512
0 0.396043 0.377987 -1 0 0
-0.005503 -0.099433 -0.074856 0.33145111 -0.13547808 0.93369473
-0.110695 0.13563 0.02027 -0.052328788 -0.99614584 -0.070392946
0 0.346113 0.085894 0 0.91653294 -0.39995921
0 0.324659 0.120319 4.981929e-18 -0.80982829 0.58666698
-0.109557 -0.147394 -0.046188 -0.3013698 0.92842945 0.2172441
-0.122784 0.136515 0.085742 0.0791425 0.99389128 -0.076919347
-0.118911 -0.235133 -0.135261 -0.99994845 -0.0099696576 0.0019235744
0 0.245811 0.102573 1 -0 0
0 0.293085 -0.002093 -1 0 0
-0.005151 0.388354 0.39149 -0.070700802 -0.36452536 0.92850561
-0.084157 -0.243716 -0.226205 0.0011208456 0.024523446 0.99969863
-0.118626 -0.279964 -0.267776 -0.99997271 -0.0073261175 -0.00095626316
-0.03767 0.349571 0.139707 -0.97887037 0.059728894 0.19556394
-0.10185 -0.279144 -0.225171 0.0060188066 -0.011100914 0.99992027
-0.11848 -0.269723 -0.044066 -0.99996435 -0.0084409036 0.00023531125
-0.143535 0.060027 0.078041 0.91583525 -0.26641546 0.30044732
-0.145322 0.051966 0.076317 0.9695595 -0.23005608 0.083836551
-0.090998 -0.278005 -0.270339 0.0199736 -0.82506692 0.56468189
0 0.391829 0.391798 -0.24795242 -0.39549917 -0.88436418
-0.097417 -0.155541 -0.021623 0.62931422 0.059143193 0.77489721
-0.096038 -0.157861 -0.022565 0.66903099 0.10113223 0.73632181
-0.061876 0.187682 0.003247 0.28458701 -0.09533913 -0.95389763
0 0.373432 0.16412 -1 0 0
0 -0.160666 0.044775 1 0 -0
-0.029951 0.32917 0.118668 0.11872348 0.60787045 0.78511035
0 -0.237547 -0.245086 -1 0 0
-0.10548 -0.218073 -0.013921 0.16761262 -0.61150361 -0.77328478
-0.107872 -0.220939 -0.012144 -0.0051306785 -0.52863427 -0.84883419
-0.048166 0.285324 0.019346 0.57020803 -0.5703894 0.5912011
0 0.300441 0.005992 -1 0 0
0 0.171465 0.127094 3.9672451e-13 -0.28187221 -0.95945196
0 -0.272063 -0.231543 5.9167115e-12 0.99705663 -0.076668577
-0.038604 -0.185316 -0.092589 0.0086556389 0.99923044 -0.038257245
-0.042568 -0.185101 -0.087853 0.0055193812 0.9991562 -0.040699129
-0.024527 0.028887 -0.064636 0.40247206 -0.2403154 0.88332596
0 0.365109 0.300418 0 -0.99190181 0.1270071
0 -0.236081 0.024254 1 0 -0
0 -0.232263 0.027116 1 0 -0
-0.017087 -0.179892 0.029493 -0.1110908 -0.90490155 0.41086741
-0.011504 -0.179818 0.031011 0.0032998128 -0.99309584 0.11725938
-0.106613 0.135584 0.01802 -0.092015781 -0.98370585 -0.15445352
0 0.032188 -0.071307 6.8028991e-19 0.27665591 -0.96096905
-0.010432 -0.100761 -0.072406 0.082975131 -0.91690704 -0.39038009
-0.011957 -0.101368 -0.071349 0.10255107 -0.91320714 -0.39438053
-0.118872 -0.228629 -0.079454 -0.99995433 -0.0094197941 0.0016163954
-0.118884 -0.229856 -0.09324 -0.99995833 -0.0089726488 0.0016834834
-0.126216 0.136476 0.081317 -0.54722664 -0.741107 0.3889774
-0.107848 -0.149799 -0.033133 -0.095856909 -0.99453803 -0.041298344
-0.104776 -0.150194 -0.026928 -0.35015016 -0.92433653 0.15164711
0 0.282381 0.097226 1 0 -0
-0.118627 -0.27852 -0.271648 0.99997297 -0.0055358215 -0.0048382888
-0.078025 -0.241757 -0.22626 0.0010456842 0.024794942 0.99969201
-0.007577 0.386817 0.389278 0.45745185 -0.87447586 0.16133746
-0.008366 0.386196 0.388154 0.67623882 -0.73541418 -0.043209313
0 0.380507 0.375936 -1 0 0
-0.118477 -0.273731 -0.09678 -0.99996036 -0.0088645982 0.00083024633
-0.118474 -0.272765 -0.082544 -0.99996607 -0.0082111667 0.00066455453
-0.107174 -0.27959 -0.225145 0.013712465 -0.10643684 0.99422491
-0.048003 0.334293 0.101337 -0.095859535 -0.85237217 0.51407453
-0.052196 0.32783 0.090102 -0.93199608 0.31249615 0.18365584
0 0.018325 -0.073744 4.140338e-16 0.14403149 -0.9895731
-0.099535 -0.278328 -0.270518 -0.029622882 0.94464526 -0.32675344
-0.059908 0.197963 0.002717 -0.84092226 0.14354502 -0.52177062
-0.027464 0.328318 0.118979 -0.1099852 0.015978518 0.99380478
-0.038643 0.29247 0.01743 0.53131684 -0.69534302 0.48394266
0 -0.271599 -0.225643 0.0071097392 0.99689426 -0.078430177
-0.033383 0.031586 -0.059202 0.49849683 -0.17125221 0.84980797
0 0.135141 -0.006035 -8.8737045e-18 -0.2748444 0.96148872
-0.102313 0.135539 0.015857 0.10135372 -0.96768333 0.23090341
0 0.341158 0.074842 -1 0 0
0 0.397124 0.352993 0 -0.99999986 0.00053494365
-0.127052 0.136465 0.080082 -0.73843483 0.47366055 0.47995801
0 0.291497 -0.003642 0.99999958 -0.00062961506 0.00066039083
-0.071612 -0.239759 -0.226316 0.0016551225 0.022879956 0.99973685
0 -0.215088 -0.204833 0 0.90074157 -0.43435541
-0.1118 -0.27997 -0.225122 0.019767409 -0.30793053 -0.95120347
-0.037462 -0.257163 -0.007811 -0.00032942932 0.030696687 0.99952869
-0.032471 -0.256581 -0.007827 -0.0012350681 0.038442408 0.99926005
0 -0.119997 -0.095825 1 0 -0
0 -0.124815 -0.100634 1 0 -0
-0.152979 0.011071 0.064162 -0.27593354 -0.2925454 0.91557516
-0.15413 0.002822 0.061047 -0.26695307 -0.3206339 0.90880689
-0.050864 -0.276381 -0.269404 0.00091850206 -0.52565515 0.85069726
-0.045575 -0.276167 -0.269277 -0.00043737433 -0.50217343 0.86476682
-0.041645 0.336248 0.116086 0.054168357 -0.29736045 -0.95322744
-0.040578 0.33518 0.116474 0.038727891 -0.30410298 -0.95185163
0 -0.223411 -0.221418 -2.4503411e-16 0.88230085 -0.47068589
0 0.366905 0.141459 -1 0 0
0 -0.155772 0.049328 1 0 -0
-0.089875 -0.16729 -0.026749 -0.59940755 -0.041479116 -0.79936855
-0.08882 -0.168826 -0.027459 -0.6035043 -0.047377453 -0.79595096
-0.067693 0.13528 0.003145 -0.26899238 0.11651057 -0.95606924
-0.067664 0.129177 0.002115 -0.27245829 0.2030003 -0.9405091
-0.017133 0.382898 0.359541 -0.35337903 -0.28795404 -0.8900594
-0.0172 0.381706 0.359966 0.88263122 0.16218075 0.44120237
0 -0.273308 -0.247366 -1 0 0
0 0.298774 0.004034 -1 0 0
0 0.193652 0.119821 1 -0 0
-0.099402 0.224595 0.0347 0.84975467 -0.52462131 0.051860181
-0.106403 0.213051 0.037392 0.52170078 -0.46454434 -0.71556051
0 0.393598 0.389036 0.016236573 -0.91901133 -0.39389663
0 0.131874 -0.007157 9.9866201e-15 -0.34289082 0.93937526
0 0.367043 0.314445 0 -0.98067543 0.19564176
0 0.369457 0.329061 0 -0.98624181 0.16530906
-0.067622 -0.184156 -0.068328 -0.0046083253 -0.99904801 0.04338009
-0.072525 -0.183981 -0.064823 -0.0045123542 -0.99902942 0.043816233
-0.00715 0.13514 -0.005938 0.028364269 0.45057117 0.8922898
-0.010744 0.135141 -0.005818 0.034197004 -0.4922259 0.86979551
-0.013443 -0.102051 -0.070203 0.11907191 -0.90746897 -0.40289198
-0.014905 -0.102803 -0.068991 -0.14400011 0.90359839 0.4034525
-0.033132 -0.119451 -0.067443 -0.54710131 0.7381517 -0.39473058
-0.03314 -0.122312 -0.072573 -0.56924729 0.71172767 -0.41158382
-0.127183 0.135857 0.032774 0.37253294 0.86455534 0.33728811
-0.129565 0.135898 0.035523 -0.69298085 -0.47517074 -0.54220874
0 0.215189 0.112308 1 -0 0
0 -0.111429 -0.087175 0.99856691 0.037809869 -0.03787528
-0.100287 -0.150371 -0.01966 0.67553499 0.58132985 -0.45355053
-0.096059 -0.150384 -0.013595 -0.79029813 -0.18981245 0.58258055
-0.118919 -0.239465 -0.16206 -0.99990169 -0.013794213 0.0025171669
-0.11892 -0.241721 -0.174564 -0.999954 -0.009451448 0.001632746
-0.097649 0.136785 0.106165 0.032564504 -0.99879141 -0.036814068
-0.09137 0.136847 0.109809 -0.077899967 -0.98428295 0.15848873
0 0.128106 -0.008808 0.24357225 0.3942605 -0.88613273
0 0.123893 -0.010934 0.67041038 0.33783055 -0.66062125
0 -0.2178 -0.210423 0.30342256 0.85346585 -0.42371075
-0.009145 0.385527 0.386801 -0.049176821 0.91364945 -0.40351744
-0.009914 0.384813 0.3852 -0.089369269 0.93032293 -0.35568578
-0.118624 -0.280409 -0.264826 -0.98135066 -0.19104798 -0.021249924
-0.118623 -0.280581 -0.263105 -0.99755038 -0.069750527 -0.0053003877
-0.109368 -0.251558 -0.225985 0.1147713 -0.4268726 -0.89699907
-0.113072 -0.25246 -0.225959 0.1737469 -0.6560075 -0.73448361
0 0.029897 -0.071815 4.0333402e-18 0.25299978 -0.96746634
0 -0.27384 -0.254089 -1 0 0
-0.056497 0.320984 0.080751 -0.92560072 0.15982754 0.34310124
-0.060884 0.313744 0.073151 0.84128652 -0.010455844 -0.54048836
-0.1185 -0.267643 -0.024211 -0.99963497 0.026600204 -0.0047292107
-0.118516 -0.266608 -0.016702 0.99994265 -0.0097863739 0.0043492842
-0.068101 -0.276289 -0.225342 0.0063346523 -0.015639953 0.99985762
-0.060594 -0.275667 -0.22538 -0.0097377054 0.17800563 0.98398129
0 -0.115516 -0.091306 0.99742338 -0.050868156 0.050586939
-0.027422 -0.256055 -0.007841 -0.0054623455 0.082291627 0.99659332
-0.056473 -0.276612 -0.269539 0.00082057197 -0.52090242 0.85361584
-0.155113 -0.005434 0.057711 0.26258915 0.34720131 -0.90027673
0 -0.220578 -0.215966 0 0.88960906 -0.45672281
-0.039312 0.334117 0.116862 0.051706425 0.40001741 0.91504782
0 0.363354 0.130456 3.4507489e-11 0.94799565 -0.31828329
-0.067367 0.142234 0.003662 0.0060431366 0.051099715 -0.99867527
-0.087834 -0.170273 -0.028119 -0.60280244 -0.048104654 -0.79643905
-0.017101 0.380586 0.360326 0.82611537 0.28235974 0.48765395
0 0.297948 0.00309 -1 0 0
-0.091864 0.236009 0.031955 0.71240439 -0.34206373 0.61275802
0 -0.187579 -0.14495 1.230483e-16 -0.46198933 0.88688548
-0.002296 -0.187579 -0.145008 0.030402353 -0.87515431 0.4828878
0 -0.253228 -0.000539 0.012916654 0.96002699 -0.27960925
-0.003521 0.13514 -0.00601 0.017914611 0.1570239 0.98743231
-0.077007 -0.183806 -0.06131 0.0055556551 0.99906659 -0.042837945
0 0.355677 0.109157 -0.0001800285 -0.9330202 0.35982394
-0.124472 0.135814 0.030107 0.33620419 0.87313696 0.35298525
-0.033148 -0.125334 -0.07759 -0.60852916 0.6731946 -0.42012057
0 0.204516 0.116038 1 -0 0
0 0.296309 0.001272 -1 0 0
-0.103576 0.136724 0.102355 -0.15928537 0.96237109 0.22015916
-0.118918 -0.243969 -0.186236 -0.99825651 -0.057966667 0.011127125
-0.10517 -0.250381 -0.226018 0.10457484 -0.37383257 -0.92158196
-0.118622 -0.280722 -0.261228 -0.99941443 -0.034188667 -0.0013896005
0 -0.27367 -0.251943 -1 0 0
-0.075483 -0.276908 -0.225305 0.0027787673 0.027135854 0.99962789
-0.118535 -0.265586 -0.011109 0.99980806 -0.017236585 0.0093137205
-0.022272 -0.255594 -0.007853 0.049772934 -0.6340812 -0.77166293
-0.151678 0.019306 0.067054 0.35268144 -0.35174665 0.86711597
-0.06245 -0.276859 -0.269684 0.0019385031 -0.53843419 0.84266534
0 0.394106 0.387694 -0.062990501 0.94523159 0.32026464
0 -0.2519 0.003213 0.019863382 0.93016905 -0.36659377
0 -0.250176 0.006967 -0.99814593 0.05416564 -0.02776296
0 0.13743 0.135564 0.002381109 0.18648911 0.98245414
-0.037846 0.333066 0.117244 -0.14425471 0.13991591 0.97959896
-0.090995 -0.165655 -0.025992 -0.59917822 -0.039652507 -0.79963313
-0.066802 0.15008 0.00395 -0.054851861 0.026401057 -0.99814541
0 0.359611 0.119685 0.046332713 0.93969416 -0.33886306
0 -0.154122 0.05093 1 0 -0
0 -0.152454 0.052569 0 0.69917647 -0.71494913
-0.016833 0.379556 0.36061 0.73364031 0.39631666 0.55200091
0 -0.273117 -0.24494 -1 0 0
-0.116823 -0.23082 -0.005574 -0.68165068 0.72797491 0.073517946
-0.083845 0.247128 0.029211 0.49755036 -0.16184488 0.85220295
0 0.297127 0.002169 -1 0 0
0 0.225648 0.108745 1 -0 0
0 -0.248069 0.010678 0.41339735 0.77253941 -0.48196005
-0.062463 -0.184334 -0.071883 -0.0049617862 -0.9990818 0.042555003
0 0.372445 0.344309 2.8974265e-14 0.97823205 -0.20751397
0 0.376098 0.360231 8.3492296e-19 -0.97064355 0.24052257
0 0.35334 0.103214 0.082629336 -0.92555311 0.36949132
0 -0.150764 0.054242 0.20029849 0.68785777 -0.69766196
-0.03311 -0.114246 -0.056937 0.53869906 -0.76580998 0.35119566
-0.033121 -0.116758 -0.062223 0.59249785 -0.72212005 0.35705593
-0.121448 0.135769 0.027523 -0.22946715 -0.93521473 -0.26966319
-0.016356 -0.103619 -0.067732 -0.1686812 0.89868725 0.40485537
-0.017808 -0.104495 -0.066445 0.05334223 0.7893736 0.61159131
0 0.235864 0.105462 1 -0 0
-0.118916 -0.237252 -0.1489 -0.99995555 -0.0092561537 0.0017967717
-0.109103 0.136666 0.098394 -0.46059966 0.65664751 0.59721185
-0.091526 -0.150321 -0.007586 -0.67098365 -0.51416747 0.53424036
-0.086727 -0.150191 -0.001664 -0.66993423 -0.47118488 0.57373595
0 0.376836 0.363161 0.042405751 0.96743056 -0.24955935
-0.118626 -0.280204 -0.266385 -0.99996073 -0.0088333146 -0.00071298579
-0.100515 -0.248969 -0.226058 0.011318809 -0.0067238353 0.99991333
-0.010675 0.384056 0.383328 -0.079003893 0.93966667 -0.3328437
-0.011426 0.38326 0.381166 -0.06545583 0.94770029 -0.31237749
-0.118488 -0.268684 -0.033408 0.99908992 0.042492258 -0.0037057507
-0.082645 -0.277514 -0.225268 0.0021575812 0.03430405 0.99940911
0 -0.273492 -0.249701 -1 0 0
-0.065337 0.3061 0.067168 0.61413854 -0.64873537 0.44941772
-0.069837 0.298044 0.062672 0.77625112 -0.55951242 0.29048245
0 0.394573 0.386147 -0.088263904 0.96133195 0.26086466
-0.118776 -0.232734 -0.004166 -0.52742549 0.7850165 0.32491759
0 0.119292 -0.013483 0.99775368 0.033399743 -0.058069408
0 -0.226292 -0.226736 1.0169996e-17 0.87357989 -0.48668078
0 0.395 0.384399 0.22731029 -0.95100967 -0.20954866
0 -0.245591 0.014305 -1 0 0
-0.156502 -0.021942 0.050391 0.23090463 0.40213423 -0.88598595
-0.15672 -0.031683 0.045726 0.27769166 0.42501553 -0.86153882
-0.031145 -0.27563 -0.268958 0.013783422 -0.77961721 0.62610464
-0.026653 -0.275486 -0.268874 -0.001289564 -0.47257213 0.88129105
-0.013652 0.354994 0.109393 0.0086908716 0.25083162 0.96799172
-0.016913 0.354617 0.109525 0.043708116 0.01174584 0.99897529
0 -0.149047 0.055948 9.8713882e-17 0.70230775 -0.71187346
-0.086086 -0.172946 -0.029278 -0.57073388 -0.019288221 -0.82090853
-0.085333 -0.174196 -0.02977 -0.55599059 -0.0088743329 -0.83114121
-0.065006 0.109841 -0.005507 -0.032452422 0.46400345 -0.88523875
-0.063308 0.103248 -0.009254 -0.17257838 0.47348048 -0.86373198
-0.015434 0.325668 0.11995 0.005459817 0.37839635 0.92562757
-0.0119 0.325239 0.120107 -0.052076703 -0.14455031 0.98812612
0 -0.254313 -0.263548 1 0 -0
0 0.295498 0.000397 -1 0 0
-0.007492 -0.187581 -0.145298 0.027507638 -0.88125731 -0.47183565
-0.010164 -0.18758 -0.145468 -0.020142404 -0.93764235 0.34701746
-0.123575 0.179316 0.044606 0.46438557 -0.03029372 0.88511487
-0.127824 0.168924 0.046541 0.92022307 -0.29416691 0.25817692
-0.012807 0.376437 0.360772 -0.14612638 -0.83125773 0.53633727
0 0.114362 -0.016401 0 0.5066255 -0.86216623
0 0.377574 0.365969 -2.4887623e-15 0.96552739 -0.26030147
-0.084048 -0.183451 -0.05401 0.7901188 0.25439599 0.55766922
-0.086277 -0.183268 -0.050099 -0.23738567 0.95952068 -0.15155236
-0.021333 0.135149 -0.005178 0.0095153145 -0.99142506 0.1303296
-0.024802 0.135153 -0.004872 0.010966332 -0.99159812 0.12889105
0 0.397081 0.360251 0 0.99983292 0.018279252
0 -0.20892 0.036106 1 0 -0
0 -0.203497 0.03654 0 0.040312233 -0.99918713
-0.019276 -0.105426 -0.065151 0.16080901 -0.87224713 -0.46187164
-0.02077 -0.106406 -0.063869 0.18352151 -0.86560529 -0.4658834
-0.033159 -0.131811 -0.087194 -0.99547545 0.077277378 -0.055288683
-0.033163 -0.135247 -0.091734 -0.99387438 0.087204489 -0.067890333
-0.134541 0.136006 0.044254 -0.93791149 0.12239442 -0.32456376
-0.135413 0.136034 0.047325 -0.29453101 0.95295732 -0.071580914
0 -0.059382 0.118579 1 0 -0
0 -0.045934 0.124063 1 0 -0
0 -0.129911 -0.105632 1 0 -0
-0.081698 -0.150002 0.004146 0.66596914 0.4278507 -0.61108829
-0.076475 -0.149761 0.009816 -0.50897983 0.73475571 0.44841228
-0.118905 -0.248234 -0.206378 0.66023161 0.73348585 -0.16153244
-0.118894 -0.250149 -0.214494 0.74464352 0.6484818 -0.15804234
-0.070908 0.137037 0.119602 -0.068140143 -0.98034361 0.1851576
-0.06371 0.137098 0.122439 -0.14519363 -0.90169251 0.4072707
0 0.280507 -0.010256 -3.7561473e-19 0.35605428 -0.93446528
0 0.274378 -0.011833 -0.10667122 0.22896958 -0.96757128
0 0.31886 0.113026 -0.038578742 -0.72671158 0.68585856
0 -0.228497 -0.230645 -4.2326223e-16 0.86588665 -0.50024026
-0.012169 0.382428 0.378691 -0.81822112 0.57312209 0.045224786
-0.012904 0.381562 0.375884 -0.81521878 0.57840992 0.029331027
-0.118618 -0.280917 -0.257028 -0.99371888 -0.11187396 -0.0026478698
-0.118616 -0.280975 -0.254715 -0.91660595 -0.39973669 -0.0066422975
-0.119143 -0.254921 -0.225885 0.72159825 -0.27523193 -0.63525062
-0.119402 -0.256474 -0.225838 0.099107716 -0.045620361 -0.9940304
0 0.064602 -0.050476 1 5.7107443e-05 -7.9437188e-05
-0.074362 0.289565 0.059528 0.83089372 -0.50361803 0.23661046
-0.078892 0.280653 0.057604 0.87370023 -0.45948878 0.15974343
-0.118578 -0.263727 -0.005934 0.99995533 0.00033034471 0.0094466234
-0.118596 -0.262673 -0.004262 0.98987899 0.1218182 -0.072800417
-0.038278 -0.273888 -0.225488 0.044093011 -0.52457784 0.85021991
-0.031227 -0.273359 -0.22552 0.010429802 -0.0797539 0.99676002
0 -0.02842 -0.076725 1 0 -0
-0.035764 -0.275791 -0.269053 0.0035015635 -0.57996781 0.81463187
-0.156246 -0.040985 0.0411 0.30398114 0.45154158 -0.83887166
0 -0.178625 -0.142902 -0.9951831 0.034388223 -0.091804398
-0.020074 0.354161 0.109684 0.039326568 0.10114341 0.99409428
0 0.350964 0.097351 5.7128061e-14 0.92481387 -0.38041991
-0.066307 0.116399 -0.002303 -0.012452443 0.40610771 -0.91374037
-0.084667 -0.175406 -0.030201 -0.55238642 -0.009502546 -0.83353401
0 -0.249397 -0.25937 1 0 -0
-0.008153 0.324923 0.120223 -0.063785032 -0.67497738 0.73507619
-0.118549 0.190246 0.0424 0.43074624 -0.021592294 0.90221475
-0.012846 -0.187578 -0.145614 -0.0027914353 -0.99948907 0.031840461
0 0.109159 -0.019635 1 0 -0
-0.017835 0.135146 -0.005438 -0.0015844731 -0.99994265 -0.01059141
-0.087424 -0.183078 -0.045934 -0.93744867 0.32309167 -0.12962162
-0.133262 0.135973 0.041263 -0.026015936 -0.99966104 -0.00098707658
-0.033166 -0.138798 -0.09607 -0.98721263 0.12148726 -0.10320887
-0.07795 0.136974 0.116542 0.076593255 -0.98596715 -0.14833159
-0.118879 -0.25185 -0.221072 -0.82167938 -0.55805607 0.11582929
0 0.312526 0.107262 5.7588981e-15 0.5981712 -0.80136834
-0.118859 -0.253286 -0.225934 0.8428643 -0.4845516 0.23407162
-0.118614 -0.281007 -0.252268 -0.95259372 -0.30424088 -0.0016376305
0 0.38336 0.383738 -1 0 0
0 -0.272919 -0.242425 -1 0 0
-0.045587 -0.274456 -0.225453 -0.012215611 0.21419015 0.9767156
-0.118613 -0.261439 -0.002659 0.99125422 0.10608174 -0.078496716
-0.15591 -0.013691 0.054158 0.24351636 0.37584178 -0.89411562
-0.040557 -0.275971 -0.26916 0.0037515583 -0.58134763 0.81364665
0 0.395735 0.380315 -1 0 0
0 -0.242759 0.017806 -1 0 0
0 -0.239584 0.021136 1 0 -0
-0.023116 0.353628 0.109871 -0.016247801 0.40534151 0.91402093
0 -0.188775 -0.146313 -0.82342883 -0.38223993 0.41935379
-0.086921 -0.171642 -0.028727 -0.5921516 -0.038365476 -0.80491277
-0.067197 0.122863 0.000269 -0.085984639 0.31886794 -0.94389082
0 -0.147298 0.057684 -2.1732936e-17 0.70266543 -0.71152041
-0.004192 0.324726 0.120295 -0.033871279 -0.77136259 0.6354939
-0.004859 -0.18758 -0.145134 0.038367836 -0.87723206 -0.47853091
-0.112805 0.201546 0.039978 0.29692054 -0.34892007 -0.88887175
0 0.264793 0.098431 1 -0 0
0 -0.267211 -0.16956 -1 0 0
-0.080903 -0.18363 -0.057725 0.0043553679 0.99900543 -0.044375449
-0.014305 0.135143 -0.005651 0.049896052 -0.35292346 0.93432083
0 0.10374 -0.02313 1 0 -0
0 0.378311 0.368653 1.169841e-13 0.962232 -0.27223074
0 0.289922 -0.005105 0 -0.6332527 0.7739451
0 -0.192003 0.035703 0.99939006 -0.013791409 -0.032082933
-0.033154 -0.128504 -0.082471 -0.91409605 0.33669236 -0.22597937
-0.131598 0.135937 0.038353 -0.0032033441 0.99988175 -0.015040738
-0.022306 -0.107431 -0.062621 0.20188005 -0.85696889 -0.47418221
-0.023896 -0.108496 -0.061425 0.22181218 -0.84824287 -0.48091932
-0.118913 -0.246157 -0.1969 0.86278151 0.49527178 -0.10155747
-0.084787 0.136911 0.113273 0.012161646 -0.99991165 -0.005366051
-0.071096 -0.149478 0.015318 0.29229777 -0.92505547 -0.242558
-0.065597 -0.14916 0.020626 0.28549848 -0.92648806 -0.24517441
0 0.259817 -0.013334 0 0.076427456 -0.99707514
-0.11862 -0.280834 -0.259201 -0.98530961 -0.17063106 -0.0070724343
-0.116247 -0.25305 -0.225942 0.37326832 -0.92265577 -0.096835369
0 -0.232976 -0.238134 4.1866358e-20 0.84430604 -0.53586127
-0.01363 0.380667 0.372723 0.17479474 0.9398769 -0.29339088
-0.014349 0.379746 0.369186 -0.945782 0.30698777 0.10608921
0 0.050335 -0.060802 -4.5947419e-17 0.57823715 -0.81586874
0 0.385406 0.38806 0.93225796 0.31468503 -0.17851731
0 0.386063 0.389195 -0.93775618 0.24977602 -0.24129918
-0.118559 -0.264583 -0.007657 0.99996825 0.00044967645 0.0079563762
-0.053057 -0.275052 -0.225417 -0.023265912 0.34474018 0.93840977
-0.083407 0.2713 0.056766 0.90251265 -0.42851985 0.042914635
-0.087886 0.261495 0.056883 0.89690492 -0.40535712 -0.1767687
0 -0.044163 -0.076762 1 -0 0
-0.026021 0.353018 0.110085 0.063732394 0.070857858 0.99544831
0 0.098164 -0.026836 1 0 -0
0 0.3966 0.326628 -0.21376414 0.97643535 -0.029646283
0 0.046333 -0.063668 -6.2057865e-17 -0.56494708 0.82512714
0 -0.051734 -0.076675 1 -0 0
-0.00344 0.355633 0.109172 0.025341481 -0.85215184 0.52268064
0 -0.168446 -0.137665 0.89198457 0.23832023 -0.3841445
0 0.396312 0.375473 -1 0 0
-0.153465 -0.058334 0.032021 0.32294594 0.50736249 -0.79893005
-0.151285 -0.066411 0.027596 -0.57430017 0.25621587 -0.77751704
-0.013462 -0.275171 -0.268695 -0.0035820533 -0.35643815 0.93431205
-0.008999 -0.275104 -0.268662 0.014373262 -0.79934288 0.60070322
-0.024771 0.327533 0.119266 -0.13448244 -0.14387898 0.98041487
0 -0.242213 -0.251387 -1 0 0
0 -0.244583 -0.254258 -1 0 0
0 0.343646 0.080314 -1 0 0
0 -0.134069 0.070164 -1.5741177e-16 0.6659724 -0.74597638
0 -0.12234 0.080113 0.36030711 0.5851614 -0.72647431
-0.083612 -0.177747 -0.030862 0.5825955 0.034130811 0.8120453
-0.083232 -0.178903 -0.031086 -0.47813846 0.0063703807 -0.87826137
-0.055982 0.083842 -0.022829 -0.70965376 0.19548821 -0.67688692
-0.05284 0.077692 -0.027827 -0.72879778 0.15844878 -0.66614396
0 -0.271834 -0.228628 -1.1599761e-12 0.99695223 -0.078014485
0 0.292289 -0.002878 0.9999992 0.00088259758 -0.00090846886
0 0.273774 0.097404 1 0 -0
-0.018112 -0.187564 -0.14571 -0.0038753867 -0.99948349 0.031901797
-0.020635 -0.187549 -0.145597 -0.0033968735 -0.99876545 0.049558456
-0.135315 0.142636 0.050171 -0.55685092 -0.013079418 -0.83050947
-0.135861 0.136059 0.050475 -0.70791325 -0.70424524 -0.053828173
0 -0.223735 0.031905 1 0 -0
0 -0.275032 -0.268639 1 -4.6335377e-16 3.446904e-17
0 0.092488 -0.030697 1 0 -0
0 0.379779 0.37364 -1 0 0
-0.085817 -0.182674 -0.036594 -0.90565218 -0.16419733 0.39093908
-0.082731 -0.182456 -0.031297 0.83089746 -0.077037313 -0.55106684
-0.035043 0.13517 -0.003683 0.08171652 -0.79124557 0.60601391
-0.038404 0.135178 -0.003196 0.091527937 -0.78357738 0.61451535
0 0.338652 0.069487 -1 0 0
0 -0.110321 0.089302 -1.6704038e-14 0.58476732 -0.81120108
-0.025552 -0.109596 -0.060301 0.58921831 -0.80252305 0.093693881
-0.027289 -0.110726 -0.059271 0.64479492 -0.6269502 0.4372333
-0.033167 -0.146208 -0.104037 0.99953207 -0.021354111 0.021900721
-0.033166 -0.150044 -0.107622 0.95725756 0.19225097 -0.21609609
-0.135936 0.136087 0.05379 -0.16761721 -0.98574488 0.014542904
-0.135856 0.136106 0.055458 -0.21395097 -0.97649018 0.026304026
0 0.290708 -0.004384 0 -0.65200572 0.75821404
0 -0.1519 -0.125559 -0.9681851 -0.15918974 0.19307054
-0.060014 -0.148814 0.025711 0.28147058 -0.92594041 -0.25181078
-0.054385 -0.148451 0.030547 0.27079526 -0.92916684 -0.25163248
-0.118832 -0.254988 -0.231016 -0.54468152 -0.78933865 0.28331349
-0.118806 -0.256686 -0.235817 0.12301458 0.93073135 -0.34439304
-0.041668 0.137263 0.129467 -0.14741313 -0.802316 0.57841024
-0.034334 0.137308 0.131268 -0.092166796 -0.89834392 0.4295154
0 0.081062 -0.038674 1 0 -0
0 0.381231 0.378096 -1 0 0
-0.015061 0.378801 0.365254 -0.79298717 0.60907986 -0.013894876
-0.118608 -0.281007 -0.246991 -0.97325283 0.22973597 -0.00056797965
-0.118605 -0.280977 -0.244173 -0.97532225 0.22077929 -0.0017347692
-0.120013 -0.26073 -0.225709 -0.2603748 0.0021421441 -0.96550524
-0.120159 -0.262043 -0.225669 -0.24510246 -0.0046216947 -0.96948617
0 -0.272287 -0.234382 -0.99988606 -0.015049061 0.0011827954
-0.09231 0.251229 0.057821 0.88204637 -0.4000926 -0.24883752
-0.096656 0.240491 0.059448 0.87690589 -0.39496753 -0.2739283
-0.118644 -0.258518 0.000265 0.94142528 -0.212996 0.26144051
-0.118657 -0.25687 0.001548 0.99988047 -0.0030435751 0.01515873
-0.012568 -0.272113 -0.225601 0.0022461866 -0.10512782 -0.99445618
-0.0075 -0.271846 -0.22562 0.0019116783 -0.11113634 -0.99380333
-0.006898 0.355503 0.109216 0.04421627 -0.60868927 0.79217567
0 0.396542 0.372778 -1 0 0
-0.01786 -0.275257 -0.268742 0.021916261 -0.99971766 -0.0091805333
-0.148662 -0.074108 0.023266 -0.47273113 0.29515689 -0.83030578
-0.021868 0.326824 0.119526 -0.1736139 -0.46257977 0.86941254
-0.058783 0.09019 -0.018006 -0.64640908 0.26086325 -0.71701162
-0.082955 -0.180065 -0.031236 -0.48527693 -0.0091036283 -0.87431311
-0.133754 0.150417 0.049378 0.938163 -0.25514981 -0.23398452
-0.023042 -0.187529 -0.145336 -0.0060434346 -0.99957705 0.028446255
0 0.396887 0.366856 -0.70043796 0.71305627 0.030617417
0 0.086767 -0.034661 1 0 -0
-0.031656 0.135164 -0.004124 0.020983134 -0.98259871 0.18455212
-0.080601 -0.182333 -0.02828 0.78696507 0.2255915 -0.57427733
0 0.336134 0.064254 -1 0 0
0 0.011012 -0.074634 -5.4455846e-16 0.11293485 -0.9936024
-0.135939 0.136072 0.052128 -0.27037534 -0.96275338 0.0017615752
-0.033164 -0.153955 -0.11091 0.99972965 -0.013986869 0.018574276
0 -0.157507 -0.130029 1 0 -0
-0.04904 0.137211 0.127386 -0.16968166 -0.79404808 0.58369151
-0.118783 -0.258373 -0.240334 -0.98187076 0.17514758 -0.07247849
0 0.075427 -0.042683 1 0 -0
0 -0.239868 -0.248325 -1 0 0
-0.119837 -0.25937 -0.22575 0.099077943 0.016608126 0.99494107
-0.118601 -0.28093 -0.241242 -0.99108035 0.13326095 -0.0011182075
0 -0.004407 -0.075894 -3.3570305e-20 0.066844662 -0.99776339
-0.018276 -0.272461 -0.225578 0.0044664037 -0.13509691 -0.99082232
-0.118671 -0.255124 0.002687 0.98049123 0.10515533 -0.16607018
-0.010308 0.35529 0.109291 0.032950121 -0.091044926 0.99530152
0 -0.173659 -0.140633 2.1201628e-13 0.43542412 -0.90022544
-0.15514 -0.049864 0.036526 0.30107763 0.48014657 -0.8239002
-0.022241 -0.275362 -0.268801 0.022861696 -0.33035055 -0.9435814
0 0.396734 0.369904 -1 0 0
0 -0.228143 0.029681 1 0 -0
-0.018757 0.3262 0.119755 0.025652162 0.46659938 0.8840967
