ply
format ascii 1.0
element vertex 849
property float x
property float y
property float z
property float nx
property float ny
property float nz
end_header
14.3557 23.9731 -9.89241 -0.823687 0.188001 0.534973 
0.71945 -0.49053 -0.491703 0.719784 -0.490332 -0.491411 
-14.8829 34.1323 -7.9836 0.193536 -0.832545 0.51905 
-0.132132 0.845186 -0.517882 -0.132472 0.845146 -0.51786 
-0.292324 24.0749 18.201 -0.147451 0.234242 -0.960931 
0.276688 -0.390186 0.878179 0.276869 -0.38987 0.878263 
12.3875 30.6088 -15.8885 -0.685278 0.21845 0.694747 
0.763692 -0.217977 -0.607668 0.763794 -0.217847 -0.607586 
-30.6633 -29.0503 20.5034 0.557761 0.824592 0.0946077 
-0.708952 -0.699925 -0.086561 -0.708785 -0.700137 -0.086204 
6.27546 36.9542 -8.13956 0.0535249 -0.992978 -0.105496 
-0.003835 0.983143 0.1828 -0.00422488 0.983154 0.182733 
14.7332 22.452 -1.87747 -0.695064 0.547692 0.465746 
0.755043 -0.628741 -0.185999 0.755423 -0.628254 -0.186098 
2.58582 31.5074 -18.2994 -0.256687 0.916293 -0.30744 
0.389543 -0.921008 0.000476 0.390139 -0.920756 0.00021859 
-18.3377 -1.95908 -8.11422 -0.572741 0.282502 0.769519 
0.570646 -0.216711 -0.792086 0.570686 -0.216672 -0.792067 
14.247 -10.2856 -6.26337 -0.375372 -4.59698e-17 0.926874 
0.263329 -0.078417 -0.961514 0.263316 -0.0782717 -0.961529 
11.3675 18.143 9.63543 -0.269325 0.958805 0.0903171 
0.26687 -0.954105 0.135883 0.266687 -0.954161 0.135848 
7.67872 -5.60925 -6.9051 0.215469 0.0075824 0.976481 
-0.044021 -0.070631 -0.996531 -0.0440348 -0.0708523 -0.996514 
-14.8002 -24.3988 5.31007 0.134021 0.198857 0.970822 
-0.239612 -0.241677 -0.940307 -0.239495 -0.242773 -0.940055 
-17.5574 -34.2306 13.0139 0.204828 0.790803 0.576781 
-0.216308 -0.770225 -0.599971 -0.216407 -0.770323 -0.599808 
3.40047 16.312 12.7038 -0.0688594 -0.189965 -0.979373 
0.141818 0.177947 0.973767 0.14209 0.178007 0.973717 
-26.0907 -16.5712 -17.3232 -0.775648 -0.505268 0.378252 
0.768572 0.502919 -0.395436 0.76869 0.502885 -0.39525 
20.621 -5.72534 -0.179944 0.805163 -0.588757 0.0712538 
-0.705821 0.705195 -0.067207 -0.705805 0.705241 -0.0668898 
9.07204 -6.10265 9.25552 -0.730343 0.052575 -0.681055 
0.880936 0.153474 0.447657 0.881222 0.153957 0.446928 
-5.57166 35.5566 -4.20023 4.4486e-05 -0.988721 -0.14977 
-0.041527 0.993 0.110577 -0.0417507 0.992858 0.111759 
-6.49793 3.31174 16.7336 -0.0881787 0.293319 -0.951939 
0.057361 -0.150085 0.987008 0.0575669 -0.150119 0.986991 
-27.1163 -6.68408 -15.539 -0.402223 -0.52666 0.748897 
0.503722 0.488575 -0.712431 0.504275 0.48851 -0.712085 
7.72721 16.303 -3.50674 -0.31902 0.769565 -0.553169 
0.341065 -0.727613 0.595193 0.340769 -0.727752 0.595192 
3.00376 28.5561 22.1273 -0.720018 0.620375 0.31098 
0.81304 -0.564054 -0.144252 0.813417 -0.563504 -0.14428 
-28.4053 -24.9664 15.4787 0.718114 0.364926 0.592572 
-0.728209 -0.348439 -0.590171 -0.728255 -0.348585 -0.590028 
-26.9546 -28.5148 -20.9145 0.821412 0.535059 -0.19747 
-0.876884 -0.444345 0.183392 -0.877139 -0.443657 0.183835 
13.2085 -25.7006 4.71336 -0.066263 0.978447 -0.19558 
0.148464 -0.964184 0.219792 0.149106 -0.964146 0.219523 
-0.001216 -15.7883 -6.39504 -0.0730771 0.941077 0.330201 
-0.037685 -0.846826 -0.530534 -0.0380818 -0.847119 -0.530037 
25.7614 -7.67357 2.10218 -0.354408 0.784263 0.509242 
0.516177 -0.787633 -0.336446 0.515651 -0.787612 -0.337299 
19.0287 -12.0749 7.85266 -0.288925 0.0181693 -0.957179 
-0.074199 -0.097935 0.992423 -0.0740835 -0.0979363 0.992431 
13.7403 24.7798 13.4451 -0.938606 0.258458 0.228515 
0.934201 -0.254923 -0.249567 0.934053 -0.255393 -0.24964 
-7.26883 -29.8119 8.54343 -0.394013 0.795862 0.459736 
0.437583 -0.790394 -0.428718 0.437109 -0.79054 -0.428931 
-1.36924 18.4538 -17.6181 -0.123747 -0.261409 0.957263 
0.103755 0.277112 -0.955219 0.103645 0.277239 -0.955194 
-7.50842 -12.9288 -8.0586 0.118795 -0.139675 0.983046 
-0.091286 0.160104 -0.98287 -0.0913773 0.160204 -0.982845 
-19.7321 32.6685 0.24228 0.33957 -0.920922 -0.191298 
-0.440134 0.845343 0.302783 -0.439737 0.845778 0.302144 
7.26182 24.59 15.6312 -0.77441 0.334602 0.536965 
0.800412 -0.409059 -0.43819 0.800091 -0.409668 -0.438207 
7.09901 -8.68194 -6.61386 -0.0246618 0.20099 0.979283 
0.090328 -0.196398 -0.976355 0.090749 -0.196464 -0.976303 
10.1886 -3.53048 8.78158 -0.480571 0.147109 -0.864529 
0.376709 -0.023953 0.926022 0.376487 -0.0241364 0.926107 
12.702 -4.41871 -3.01366 -0.710667 -0.699357 -0.0765031 
0.785168 0.611083 -0.100443 0.785184 0.610957 -0.101083 
-4.69113 26.9382 -18.4221 -0.426015 0.830204 0.359545 
0.565796 -0.728214 -0.386755 0.566199 -0.728022 -0.386526 
-14.9405 1.25003 -7.02057 -0.22616 0.155656 0.961573 
0.269152 -0.146175 -0.95194 0.269529 -0.146087 -0.951847 
-16.5937 34.0774 0.959481 0.328512 -0.913288 -0.240801 
-0.374002 0.89824 0.230838 -0.373274 0.898674 0.230328 
-13.7257 7.133 -8.94465 0.753348 -0.644303 0.131682 
-0.827955 0.535174 -0.167568 -0.828114 0.535005 -0.167326 
-14.1263 18.1208 -11.0504 0.772804 -0.222108 0.59451 
-0.805187 0.15846 -0.571458 -0.804752 0.158551 -0.572046 
9.31734 35.9857 4.38548 0.0699122 -0.993091 -0.0942505 
-0.075089 0.995139 0.063712 -0.0751023 0.995138 0.0637217 
-30.8189 -18.8064 -16.7992 0.673389 0.715389 0.186458 
-0.874912 -0.425186 0.23183 -0.874865 -0.425209 0.231969 
13.9801 19.8801 -2.74762 -0.873209 0.286993 0.39388 
0.873008 -0.324982 -0.363652 0.872801 -0.325231 -0.363927 
-12.1895 28.8986 14.4999 0.581001 0.654427 -0.483904 
-0.454365 -0.751077 0.478994 -0.453973 -0.750973 0.47953 
-1.94547 -25.954 -9.3829 -0.880972 0.376541 0.28654 
0.830736 -0.219453 -0.511584 0.830961 -0.219182 -0.511334 
-20.6342 -2.37122 -9.77388 -0.55741 0.0432788 0.829108 
0.47779 0.148445 -0.865841 0.477699 0.148515 -0.865879 
-32.4561 -13.8511 20.1907 -0.363226 -0.533284 -0.763986 
0.284606 0.64721 0.707191 0.284699 0.647365 0.707011 
-1.95342 35.9141 -16.7063 0.541567 -0.818554 -0.191503 
-0.565892 0.807818 0.164912 -0.565927 0.807825 0.164759 
-2.24221 35.6344 -2.89187 0.154921 -0.96025 -0.232205 
-0.126811 0.98408 0.124521 -0.126615 0.984117 0.124424 
19.239 31.2067 -3.54854 -0.799936 0.138641 0.583851 
0.891671 -0.117271 -0.43723 0.891785 -0.1174 -0.436963 
13.1383 20.7428 0.864306 -0.631689 0.637146 -0.441605 
0.43078 -0.677276 0.596427 0.43113 -0.677445 0.595982 
14.9304 -27.6304 -4.22509 0.270956 0.773556 -0.572882 
-0.259769 -0.839228 0.47772 -0.259936 -0.839168 0.477734 
-28.7852 -16.4155 -19.5328 -0.571727 -0.591977 0.568059 
0.581496 0.60357 -0.545496 0.581603 0.603591 -0.545359 
14.9727 -20.4643 -5.66219 -0.221354 0.66331 0.714858 
0.2534 -0.525891 -0.811928 0.25359 -0.525974 -0.811815 
-8.36018 -31.9367 13.2725 -0.563704 0.824605 0.0475844 
0.654774 -0.736917 -0.168002 0.655252 -0.736488 -0.168017 
-12.9208 -34.2272 -15.6475 0.00746644 0.993709 -0.111743 
0.066073 -0.957523 0.280684 0.0663601 -0.957564 0.280478 
-14.8878 -33.4629 19.3173 -0.361938 -0.701324 -0.614122 
0.350956 0.716856 0.602451 0.351541 0.717683 0.601124 
7.40011 14.4096 10.9504 -0.922054 0.244119 -0.300372 
0.877997 -0.435131 0.199454 0.878084 -0.435275 0.198759 
4.01541 9.49699 13.558 -0.805831 0.149848 -0.572872 
0.846998 -0.035267 0.530425 0.847006 -0.0349086 0.530436 
-0.487464 6.91625 -11.9813 -0.393356 -0.0903836 0.914933 
0.398595 0.020607 -0.916895 0.398935 0.0210952 -0.916737 
-7.68508 17.4607 19.5711 -0.175054 -0.485467 -0.85655 
0.213784 0.524965 0.823838 0.213894 0.525034 0.823765 
0.442005 -11.2682 13.3579 -0.428811 0.34195 -0.836177 
0.465151 -0.426146 0.775908 0.464526 -0.425607 0.776579 
2.81372 1.46617 12.2417 -0.744113 -0.349988 -0.569038 
0.762224 0.439913 0.474858 0.762921 0.439553 0.474073 
-26.5222 -18.5661 9.49219 0.67726 -0.285062 0.678276 
-0.61501 0.232993 -0.75331 -0.615061 0.233525 -0.753105 
-15.6762 -12.1629 8.46325 -0.214952 0.156394 -0.964021 
0.290463 -0.090924 0.952557 0.290353 -0.0908472 0.952597 
-28.143 -15.0742 16.4464 -0.611694 0.206213 -0.763745 
0.686053 -0.113087 0.718709 0.686283 -0.11255 0.718574 
-16.3927 -21.7002 -10.1184 -0.699703 -0.498133 0.512132 
0.695586 0.378612 -0.610584 0.695361 0.378463 -0.610932 
18.7592 -20.3364 7.72261 -0.126976 0.510136 -0.85067 
0.037781 -0.531565 0.846175 0.0383274 -0.531788 0.84601 
-0.557527 14.2106 23.2015 -0.228616 -0.0806779 -0.970168 
0.060939 -0.010585 0.998085 0.0614177 -0.0107515 0.998054 
-23.0022 -10.7928 -13.6981 -0.64314 -0.159807 0.748887 
0.812791 0.0628 -0.57916 0.812711 0.0630564 -0.579245 
0.626453 36.6105 -10.0124 0.141931 -0.989743 0.0162466 
-0.090442 0.985583 0.142994 -0.090406 0.985591 0.142956 
-18.9948 -34.9026 24.4021 -0.0391404 -0.98689 -0.156574 
0.017387 0.946293 0.322843 0.017545 0.946257 0.32294 
-14.7989 -29.469 -14.3915 -0.0448262 -0.963495 0.263945 
0.078729 0.938781 -0.335398 0.0778942 0.938802 -0.335533 
-26.9039 -12.6098 15.1456 -0.599377 -7.34025e-17 -0.800467 
0.581791 0.082696 0.809124 0.582016 0.08282 0.808949 
12.1012 -6.95045 -3.86763 -0.092383 -0.0809049 0.992431 
0.290605 0.049221 -0.955576 0.29094 0.04899 -0.955486 
-23.8216 -20.3435 7.38838 0.693105 0.555306 0.45961 
-0.578177 -0.563136 -0.590414 -0.577887 -0.563301 -0.590542 
14.26 18.9343 -2.28907 -0.679791 0.253926 0.688045 
0.646892 -0.263631 -0.715562 0.647002 -0.263505 -0.715509 
-25.7234 -22.1072 -13.0611 0.707044 0.489845 -0.51004 
-0.707383 -0.484031 0.515096 -0.707509 -0.483726 0.515209 
21.071 -9.66895 6.20871 -0.379175 0.632552 -0.675356 
0.366238 -0.598568 0.712451 0.367138 -0.598747 0.711837 
0.727658 -1.00387 13.761 -0.346066 0.393755 -0.851584 
0.368768 -0.328827 0.869415 0.368818 -0.328914 0.869361 
-10.048 -4.75479 -5.16695 -0.213336 -0.238041 0.947536 
0.151693 -0.057985 -0.986725 0.151654 -0.0582483 -0.986716 
-29.0369 -19.1622 -13.6283 0.757089 0.43885 -0.483971 
-0.756077 -0.404014 0.514899 -0.756248 -0.404044 0.514623 
-11.2886 17.9964 18.2767 0.632439 -0.0867968 -0.769732 
-0.803981 0.063691 0.591234 -0.804172 0.0632785 0.591019 
-14.3328 -3.96897 8.60011 -0.0245903 -0.247174 -0.968659 
0.011572 0.202291 0.979257 0.0116374 0.20231 0.979252 
3.36268 33.0902 -21.3933 0.00498828 0.494438 0.869199 
0.232365 -0.309058 -0.92222 0.232472 -0.309315 -0.922107 
-19.172 20.9159 -2.58036 0.709375 -0.00600278 0.704806 
-0.721906 0.132478 -0.679192 -0.721965 0.132306 -0.679162 
3.96513 3.59208 -4.05972 -0.178776 -0.039792 0.983085 
0.296989 0.071279 -0.952217 0.297001 0.0715132 -0.952195 
-7.8009 -23.7882 4.67845 -0.0829574 0.359778 0.929343 
0.092148 -0.42685 -0.899616 0.0919452 -0.426894 -0.899615 
26.9558 -13.2033 -0.474636 0.2067 -0.947212 -0.245082 
-0.250102 0.921569 0.296916 -0.250338 0.921508 0.296908 
29.7168 -3.74692 0.445011 -0.196787 -0.901704 0.384973 
0.385525 0.809907 -0.442064 0.38521 0.809938 -0.442283 
12.137 36.4796 -1.15773 0.012968 -0.989589 -0.143338 
-0.052719 0.991671 0.117509 -0.0529662 0.991651 0.117575 
5.7904 34.7122 14.9769 0.0684115 -0.996524 -0.0475445 
-0.065793 0.99781 0.006794 -0.0658659 0.997806 0.00675396 
-32.4201 -26.0312 23.0977 0.934559 -0.257683 0.245356 
-0.962932 0.150749 -0.223689 -0.963325 0.150488 -0.222169 
-19.1428 -37.0714 19.0941 -0.290586 0.94453 0.153044 
0.24227 -0.969817 0.027556 0.243787 -0.969427 0.027912 
-21.8587 -15.3668 -5.39365 0.690849 0.121445 -0.712726 
-0.704447 -0.124631 0.698729 -0.704609 -0.124984 0.698502 
-27.5064 -24.1017 -20.0162 0.65205 -0.116437 0.749181 
-0.721477 0.263271 -0.640437 -0.721512 0.262885 -0.640556 
7.01611 14.0838 -6.02719 -0.806443 0.590059 -0.0384845 
0.813653 -0.577508 0.06674 0.813896 -0.577148 0.0668906 
11.4796 32.2408 20.3335 0.0143174 -0.626196 -0.779534 
-0.122695 0.598864 0.791396 -0.122987 0.59934 0.79099 
-26.3639 -9.21414 -9.84024 0.00894239 -0.309891 -0.95073 
-0.333751 0.160573 0.928885 -0.333892 0.160448 0.928855 
-20.8492 -21.9506 -6.57561 0.663546 0.519461 -0.538393 
-0.640073 -0.517912 0.567515 -0.640114 -0.517353 0.56798 
18.2583 27.723 11.4635 -0.709639 0.279065 0.646943 
0.749744 -0.295026 -0.592321 0.749551 -0.29533 -0.592413 
-11.6331 17.8742 -13.3466 0.438967 -0.322668 0.838567 
-0.453745 0.281237 -0.845589 -0.45368 0.281196 -0.845638 
6.20047 -8.66618 -6.6693 -0.306479 0.182869 0.934146 
0.274763 -0.231742 -0.933167 0.274534 -0.231826 -0.933214 
-10.9042 -29.6065 13.6075 -0.0106724 -0.894154 -0.447632 
-0.133806 0.818152 0.559217 -0.133376 0.818452 0.55888 
-2.30775 -13.1774 9.30681 0.823315 0.545183 -0.157887 
-0.823776 -0.515665 0.235549 -0.823696 -0.515864 0.235392 
-25.0709 -35.9057 23.5476 0.630247 0.775775 -0.0310264 
-0.656951 -0.751401 0.061734 -0.656864 -0.751479 0.0617114 
-4.06113 -10.2671 9.27523 0.821329 0.492613 -0.287664 
-0.834517 -0.486701 0.25827 -0.834402 -0.486875 0.258314 
-9.97973 24.7851 -12.2664 0.157 0.951521 -0.264496 
-0.297351 -0.954713 0.01027 -0.297491 -0.954669 0.0102746 
-23.1223 -30.4572 -22.6609 -0.846177 -0.512939 0.144495 
0.659804 0.438647 -0.610121 0.659954 0.438117 -0.61034 
-18.2171 -8.71863 9.66808 -0.547602 -0.142138 -0.824578 
0.469834 0.005649 0.882737 0.469667 0.00535405 0.882827 
10.887 33.9758 -16.5648 -0.766382 -0.642345 0.00716506 
0.708168 0.693492 -0.132541 0.707949 0.693726 -0.13249 
2.04257 -23.9121 6.28883 0.0590111 0.786343 -0.614965 
-0.048277 -0.823002 0.565984 -0.0480767 -0.823324 0.565532 
-31.6897 -17.2995 -19.2409 0.907215 -0.105914 -0.407115 
-0.899661 0.242576 0.362997 -0.899334 0.24305 0.36349 
-4.90864 35.3445 -1.67312 0.0698676 -0.990985 -0.114308 
-0.058701 0.990781 0.122092 -0.0582642 0.990772 0.122377 
14.6674 -24.6069 7.0261 0.838471 -0.508897 -0.194912 
-0.97496 -0.060646 0.21395 -0.975137 -0.0589166 0.213625 
26.1687 -21.782 3.94579 -0.500997 0.721651 -0.477726 
0.478623 -0.735784 0.479105 0.478371 -0.735816 0.479308 
16.494 22.3425 10.7909 -0.74948 0.32359 -0.577555 
0.778234 -0.260515 0.571388 0.778372 -0.260258 0.571316 
-16.6535 7.72722 7.99465 0.927399 0.201633 -0.315081 
-0.802576 -0.339295 0.490664 -0.802526 -0.339435 0.490648 
10.7953 -16.2417 -6.33457 -0.0974188 0.238528 0.966237 
0.094228 -0.275508 -0.956669 0.0943829 -0.275584 -0.956632 
-9.22276 -4.22896 11.0317 0.706384 0.697997 0.117567 
-0.634735 -0.769315 -0.072569 -0.63433 -0.769705 -0.0719694 
-19.9984 -3.06825 10.4828 -0.494415 0.135521 -0.858596 
0.469785 -0.110895 0.875788 0.469758 -0.11084 0.875809 
8.64941 7.4095 0.448993 -0.818659 -0.221536 0.52983 
0.802923 0.194441 -0.563478 0.802813 0.194649 -0.563563 
34.1729 -11.2257 1.51381 -0.278514 -0.958477 -0.0612443 
0.462524 0.884947 0.054227 0.462219 0.885133 0.0537895 
8.70193 -14.4723 -7.09612 -0.260684 0.288444 0.921327 
0.065605 -0.39413 -0.91671 0.0653284 -0.394118 -0.916735 
5.3416 6.30502 -3.17917 -0.493209 -0.410109 0.767174 
0.535914 0.359762 -0.763785 0.535754 0.359548 -0.763998 
-7.16885 34.1942 11.3025 0.0872426 -0.995594 -0.0343677 
-0.064591 0.997601 0.0249 -0.0644899 0.997602 0.0251234 
-10.0244 35.2553 -9.52654 0.43032 -0.840434 0.329385 
-0.50718 0.777431 -0.371981 -0.507707 0.777067 -0.372022 
-5.92579 18.7131 -16.3886 -0.034679 -0.693079 0.720027 
-0.077096 0.652989 -0.753433 -0.076305 0.652844 -0.753639 
-18.2712 -33.8972 -16.2227 0.470658 0.775325 -0.421133 
-0.397006 -0.78669 0.472763 -0.396924 -0.786729 0.472768 
33.9016 -15.6114 3.30573 -0.809807 0.584242 -0.0536084 
0.80452 -0.571978 0.159965 0.804251 -0.572393 0.159833 
-8.34295 26.0558 -17.3465 0.133377 0.664505 0.735285 
-0.299934 -0.557006 -0.774458 -0.300007 -0.556807 -0.774572 
-10.5975 10.2383 -6.72918 0.671244 -0.673611 -0.30932 
-0.726056 0.655625 0.207358 -0.726003 0.655486 0.207986 
-8.26876 9.34697 14.5013 0.710761 -0.538177 -0.452973 
-0.674594 0.450957 0.584432 -0.674618 0.451044 0.584337 
-4.63612 34.2943 -17.4669 0.447399 -0.888553 -0.101525 
-0.506972 0.855668 0.103979 -0.507126 0.855599 0.103798 
3.62605 8.53678 11.117 -0.81812 0.49521 0.292313 
0.783415 -0.412548 -0.464828 0.783142 -0.412828 -0.46504 
26.7065 -17.0384 6.24897 -0.542432 -0.459206 -0.703489 
0.533324 0.322749 0.78192 0.533283 0.32271 0.781964 
-18.1694 -25.4572 12.4337 -0.502472 -0.18987 -0.843488 
0.482994 0.227717 0.845495 0.48288 0.227831 0.845529 
-9.54419 5.25251 15.7681 0.106324 -0.538948 -0.835602 
-0.332002 0.384549 0.861334 -0.331764 0.38461 0.861399 
5.0789 -4.13221 -8.49161 -0.0821838 -0.643364 0.761136 
0.089086 0.564976 -0.820284 0.0886551 0.565577 -0.819916 
10.5887 -0.494391 -2.11406 -0.918057 -0.0836355 0.387525 
0.936561 0.069508 -0.343542 0.936489 0.0693448 -0.343774 
3.22783 1.17497 11.7696 -0.857745 -0.355564 -0.371278 
0.812723 0.452127 0.367507 0.812988 0.451548 0.367634 
0.166614 19.4593 21.3173 -0.520222 -0.607773 -0.599984 
0.448536 0.546427 0.707271 0.449356 0.546438 0.706742 
14.7622 36.0245 8.28636 -0.0290526 -0.99845 -0.0474818 
0.019624 0.988112 0.152479 0.0197066 0.988116 0.15244 
15.9447 -11.1363 8.31192 -0.397575 0.217102 -0.891516 
0.359106 -0.190299 0.91369 0.35899 -0.190066 0.913784 
-30.2318 -13.7115 -15.7826 0.831406 0.263968 -0.488964 
-0.886167 -0.13805 0.442323 -0.886229 -0.138401 0.44209 
-26.1666 -15.9022 14.6795 -0.148369 1.817e-17 -0.988932 
0.344565 0.180869 0.921174 0.34461 0.180772 0.921176 
12.3284 27.2991 16.4979 0.107932 0.386991 -0.915745 
-0.057857 -0.643488 0.763267 -0.0577097 -0.643222 0.763502 
6.04877 14.5785 2.60462 -0.948784 -0.315219 0.0211239 
0.948411 0.314909 0.036736 0.948579 0.314361 0.0370891 
-4.84825 -29.1407 -10.896 -0.403461 0.906341 -0.125557 
0.452731 -0.852933 -0.259884 0.452387 -0.853058 -0.260074 
-30.4141 -19.8915 15.3677 0.767093 0.289935 0.572281 
-0.767591 -0.31966 -0.555537 -0.767743 -0.319574 -0.555376 
-7.66335 -13.3124 9.35444 0.248993 -0.735852 -0.629703 
-0.123451 0.67073 0.731356 -0.123666 0.670799 0.731256 
4.0869 -6.52532 14.8851 -0.274001 0.0730188 -0.958953 
0.271908 -0.025203 0.961993 0.272105 -0.0250112 0.961943 
-13.7638 -32.881 -11.6897 0.0520916 0.875116 -0.481101 
-0.191359 -0.895044 0.402836 -0.19116 -0.894896 0.403261 
-1.66523 -21.3334 -7.98787 0.510203 -0.509921 0.692585 
-0.445125 0.453469 -0.772159 -0.445064 0.45385 -0.77197 
-26.5253 -3.09404 10.3207 0.665756 -0.0838841 0.74144 
-0.651718 0.116552 -0.749452 -0.651575 0.116705 -0.749553 
14.4731 -25.6712 -3.18038 0.823793 0.279581 -0.493153 
-0.730263 -0.269563 0.627735 -0.730152 -0.269955 0.627696 
29.1471 -12.9001 4.82615 0.117932 -0.668871 -0.733965 
-0.077702 0.591843 0.802299 -0.0775616 0.590891 0.803015 
-11.8822 35.3094 -6.83867 0.172539 -0.98269 0.067455 
-0.146268 0.987888 -0.051806 -0.146835 0.987853 -0.0508499 
4.01022 35.6454 2.6107 0.0826802 -0.993286 -0.0809074 
-0.088056 0.994944 0.048301 -0.0885039 0.994949 0.0473738 
9.9609 -16.6043 10.9065 0.0524167 0.45037 -0.891302 
-0.002601 -0.543581 0.839352 -0.00231982 -0.543672 0.839295 
8.95016 6.1435 4.88776 -0.932937 -0.180088 -0.311763 
0.914184 0.223885 0.337851 0.91441 0.223327 0.337608 
-5.22909 -18.8164 -4.93275 0.033895 -0.207124 0.977727 
0.004536 0.269297 -0.963046 0.00319239 0.268707 -0.963217 
18.6811 -8.8068 -3.31379 0.0181052 -0.862822 0.505183 
-0.172056 0.885977 -0.430629 -0.172426 0.885501 -0.431459 
-21.1455 -0.714664 7.09218 0.252956 -0.317055 0.914051 
-0.454534 0.333591 -0.825903 -0.454692 0.333628 -0.825801 
30.0978 -12.5506 -2.2468 -0.105203 -0.810283 0.576519 
0.119683 0.832871 -0.540371 0.118821 0.833344 -0.539832 
-15.249 33.5994 9.79962 0.225552 -0.95305 -0.202044 
-0.224041 0.965334 0.133926 -0.223849 0.965251 0.13484 
3.64954 8.46275 -8.55404 -0.826802 0.556471 -0.0820825 
0.880429 -0.472873 -0.035164 0.880323 -0.473088 -0.0349194 
13.3322 36.1411 6.91464 0.0568041 -0.985505 -0.159855 
-0.060091 0.992031 0.110746 -0.0602549 0.992045 0.110524 
-12.997 -24.2934 9.97428 -0.411932 -0.619578 -0.668157 
0.384154 0.580273 0.718129 0.384805 0.579595 0.718328 
-13.3137 32.4187 -11.645 0.22812 -0.838784 0.494371 
-0.194332 0.858623 -0.474344 -0.194897 0.858558 -0.474229 
20.2278 -23.124 -1.93027 -0.378221 0.912773 0.154256 
0.323708 -0.845531 -0.424607 0.32358 -0.845606 -0.424555 
-13.8119 14.6057 14.5127 0.729665 0.483314 -0.483732 
-0.749592 -0.506623 0.425964 -0.749591 -0.506776 0.425783 
-0.032878 15.1052 -17.7574 -0.192444 0.0431709 0.980358 
0.198722 -0.239966 -0.950224 0.198765 -0.240294 -0.950132 
-16.4592 29.0809 5.6982 0.73103 0.676333 0.0903851 
-0.742019 -0.666147 0.075203 -0.742175 -0.665927 0.0756168 
3.38042 34.7888 11.4124 0.0763986 -0.991373 -0.106505 
-0.067227 0.991821 0.108494 -0.0670611 0.991787 0.108905 
-17.1474 5.35316 7.69836 0.644382 -0.761229 -0.0728112 
-0.676042 0.71809 -0.165273 -0.6759 0.718332 -0.164799 
-18.1069 -23.2109 11.1063 -0.315528 -0.252036 -0.914833 
0.389229 0.33351 0.858645 0.38981 0.33353 0.858374 
2.50197 14.2689 -13.7694 -0.885533 0.440246 -0.148376 
0.92759 -0.35823 0.106059 0.927345 -0.358978 0.105675 
-25.2002 -17.6786 -17.6597 -0.726039 -0.201213 0.657557 
0.611474 0.388484 -0.689333 0.611597 0.388493 -0.689218 
28.9498 -11.9695 3.74171 0.425764 -0.879137 0.214111 
-0.450217 0.869184 -0.204506 -0.450996 0.868896 -0.204015 
14.0822 -7.45281 1.78614 -0.650497 -0.737282 0.182396 
0.668239 0.717836 -0.195365 0.667659 0.7181 -0.196376 
12.5369 -17.7828 -7.44979 -0.401793 -0.757317 0.514814 
0.401701 0.698587 -0.592125 0.401506 0.698636 -0.5922 
-13.3708 -26.928 -10.3689 -0.328546 -0.671448 0.664241 
0.219301 0.645019 -0.732023 0.218802 0.645145 -0.732062 
2.01382 15.2991 19.4907 -0.975588 -1.19475e-16 -0.219611 
0.929847 -0.120601 0.34762 0.929725 -0.121578 0.347606 
16.2294 -17.9558 -5.31386 -0.127143 -0.0638812 0.989825 
-0.035938 -0.05671 -0.997744 -0.0356985 -0.0569901 -0.997736 
4.97623 14.185 -8.79703 -0.339966 -0.214262 0.915705 
0.210391 0.134687 -0.968295 0.210428 0.134889 -0.968259 
19.1145 33.6014 -8.25104 -0.933781 -1.14355e-16 0.357845 
0.928727 0.099017 -0.357299 0.928749 0.0985733 -0.357364 
11.8343 34.4051 -12.8426 -0.360746 -0.360881 0.860016 
0.457656 0.24581 -0.854475 0.457025 0.246154 -0.854714 
-23.689 -27.2773 -22.0054 -0.787128 -9.63954e-17 0.616789 
0.728388 0.219913 -0.648914 0.728635 0.220054 -0.648588 
-25.9913 -6.27556 -14.6779 0.107661 -0.676879 0.728178 
0.045862 0.667335 -0.743344 0.0466402 0.667327 -0.743303 
21.1861 -5.63225 2.79186 0.71816 -0.615378 -0.324896 
-0.749358 0.627811 0.210514 -0.748936 0.62816 0.210972 
-0.107953 7.31496 -11.8005 -0.473209 -0.0474878 0.879669 
0.412722 0.017293 -0.910693 0.412312 0.0174283 -0.910876 
-26.5792 -9.26279 -17.0057 -0.684532 -0.284982 0.670971 
0.694842 0.331146 -0.638386 0.694697 0.331123 -0.638556 
19.9283 -17.478 -6.39803 -0.0273095 -0.110851 0.993462 
0.054161 0.033503 -0.99797 0.0540559 0.0328936 -0.997996 
-1.87263 34.4496 12.9865 0.120179 -0.992508 0.0220173 
-0.023716 0.999697 0.006653 -0.0236713 0.999698 0.0065876 
7.1287 -1.17127 -4.93161 0.553715 -0.72342 0.412388 
-0.418826 0.789014 -0.44949 -0.418444 0.789442 -0.449095 
-18.2944 7.84158 -1.78446 0.794353 0.25912 0.549418 
-0.726581 -0.319902 -0.608065 -0.726837 -0.319418 -0.608013 
2.05688 2.09882 12.3152 -0.472749 -0.797089 -0.37571 
0.465141 0.799637 0.379768 0.464528 0.799684 0.380419 
13.238 -9.07594 6.48606 -0.429882 -0.543516 -0.720966 
0.444539 0.574799 0.687016 0.444582 0.574945 0.686866 
0.360163 -17.4508 10.5145 0.35687 0.527901 -0.770691 
-0.164064 -0.651722 0.740501 -0.164172 -0.651874 0.740343 
-9.18132 -29.7319 8.06683 -0.0381342 0.658584 0.751541 
0.073511 -0.633057 -0.770607 0.0731729 -0.6331 -0.770604 
6.47999 35.6319 6.60832 0.0500106 -0.990415 -0.128755 
-0.103893 0.984659 0.140185 -0.103824 0.984657 0.140256 
7.39623 -20.434 10.0193 -0.175424 0.648496 -0.740729 
0.225439 -0.639453 0.735036 0.225079 -0.639525 0.735083 
-22.3477 -29.7183 17.5999 -0.50757 -0.43385 -0.744411 
0.558114 0.384374 0.735367 0.558257 0.38428 0.735308 
-6.86929 -25.5026 -9.0222 0.0219675 -0.887441 0.460398 
-0.02381 0.902455 -0.430126 -0.0233772 0.902537 -0.429978 
22.4714 -13.1926 4.85861 -0.159638 -0.710769 0.685071 
0.17191 0.711503 -0.68133 0.172091 0.711705 -0.681073 
-1.4672 2.21415 -9.9263 -0.445052 -0.229394 0.865625 
0.380176 0.200123 -0.903004 0.38048 0.199663 -0.902978 
-26.8215 -13.2967 14.9066 -0.408567 -0.0597944 -0.910768 
0.508226 0.161953 0.845859 0.508268 0.162387 0.845751 
9.76848 -8.52269 -5.9807 -0.646479 0.673572 0.358282 
0.778951 -0.541922 -0.315524 0.778953 -0.541892 -0.31557 
22.1281 -14.1927 1.00241 -0.0894299 -0.99544 -0.0331969 
0.017923 0.997062 0.074469 0.0178193 0.997073 0.0743537 
20.6563 -13.7803 2.64162 -0.779562 -0.450338 0.435292 
0.779946 0.489386 -0.39011 0.78016 0.488914 -0.390273 
-20.7345 -5.5228 -10.834 -0.73307 -0.307005 0.606924 
0.715888 0.294435 -0.633097 0.716044 0.294027 -0.63311 
-30.2396 -11.4109 13.0911 0.759724 -0.156449 0.631145 
-0.82304 0.057757 -0.56504 -0.822743 0.0578644 -0.565461 
-25.9335 -1.1319 11.9862 0.0953576 -0.147478 -0.984458 
-0.540169 0.426437 0.725513 -0.540417 0.426528 0.725275 
17.2402 -26.3887 -3.45997 -0.444983 0.785216 -0.430611 
0.50304 -0.795455 0.337937 0.502971 -0.795567 0.337778 
-26.1774 -12.7752 -16.1922 -0.406178 0.0337785 0.91317 
0.412499 0.063207 -0.908763 0.412204 0.0633619 -0.908885 
14.0422 25.4888 14.5372 -0.693115 0.443571 -0.568187 
0.791329 -0.42437 0.440123 0.79147 -0.424316 0.439922 
-19.9082 -30.831 -20.5325 -0.344885 -0.225902 0.911056 
0.39069 0.411837 -0.823256 0.391209 0.411469 -0.823194 
18.1309 36.4017 -3.10652 -0.731722 -0.648805 0.208889 
0.690747 0.686669 -0.226612 0.690277 0.687253 -0.226277 
-16.9604 -14.2901 9.24617 -0.229753 -0.140125 -0.963109 
0.374508 0.065145 0.924932 0.374309 0.0652984 0.925002 
-1.22917 3.19924 13.7117 -0.495287 0.775852 -0.390825 
0.495104 -0.761562 0.418205 0.495549 -0.76079 0.419083 
16.0781 -27.4769 8.49634 -0.081041 0.11483 -0.990074 
0.169046 -0.197734 0.96557 0.168865 -0.197775 0.965593 
24.9319 -17.7439 7.40683 -0.426326 0.145843 -0.892735 
0.388231 -0.177684 0.90427 0.388186 -0.177291 0.904367 
7.30797 -20.8042 -5.63807 0.22252 0.921076 0.319536 
-0.111992 -0.941881 -0.316731 -0.112637 -0.941728 -0.316956 
-2.44001 1.32236 -10.3157 -0.282781 -0.146874 0.947873 
0.334117 0.262581 -0.905217 0.334083 0.262651 -0.905209 
-6.87202 28.4868 -19.652 0.191704 0.410497 0.891483 
-0.107617 -0.390736 -0.91419 -0.107285 -0.390665 -0.91426 
-21.1374 -1.3107 7.1261 0.30521 -0.327135 0.894332 
-0.378578 0.29242 -0.878162 -0.377765 0.292952 -0.878335 
-4.95862 -7.44437 12.5736 0.571527 0.729407 -0.375929 
-0.589792 -0.678343 0.438173 -0.589788 -0.678372 0.438135 
4.78731 -1.52426 -5.86437 -0.688662 8.43368e-17 0.725082 
0.739387 0.213019 -0.638694 0.738932 0.213221 -0.639153 
-28.1698 -8.80428 -12.0607 -0.814298 0.427004 0.393175 
-0.477278 0.261816 0.838843 -0.477507 0.261075 0.838944 
-17.7643 7.07848 -1.94607 0.716077 0.394841 0.575616 
-0.691703 -0.331874 -0.64141 -0.691693 -0.331804 -0.641457 
-5.63963 24.0832 17.8471 0.525441 -0.35402 -0.773681 
-0.52678 0.535147 0.660394 -0.5267 0.534731 0.660795 
-15.4343 -6.72677 8.7894 -0.453143 -0.10427 -0.885319 
0.477275 0.088453 0.874291 0.476908 0.0881718 0.874519 
-0.04779 17.8811 -17.6856 -0.0649975 -0.190628 0.979508 
0.177166 0.12646 -0.976023 0.177102 0.12646 -0.976034 
-18.5366 17.3523 -4.49588 0.941015 0.0555097 0.333779 
-0.945297 -0.063158 -0.32004 -0.945369 -0.0621615 -0.32002 
-7.89187 -3.89929 -9.67733 0.605472 0.66909 0.430955 
-0.568347 -0.708936 -0.417602 -0.568601 -0.708891 -0.417332 
5.35301 21.1888 13.8891 -0.361867 0.931638 0.0332207 
0.344929 -0.93682 0.058242 0.344696 -0.9369 0.0583345 
9.953 16.6357 -1.0636 -0.222085 0.940447 0.257365 
0.111434 -0.90945 -0.400604 0.111455 -0.909441 -0.400617 
-1.2593 -25.0492 -7.57357 -0.689101 0.714592 -0.120412 
0.690813 -0.695932 0.196103 0.690837 -0.6958 0.196486 
-15.5537 21.1591 13.8131 0.659397 -0.129774 -0.740509 
-0.696181 0.045065 0.716451 -0.696048 0.045476 0.716553 
-15.9962 -21.0596 -9.42221 -0.314231 -0.0902465 0.945047 
0.500149 0.154459 -0.852052 0.500316 0.154495 -0.851948 
-24.2174 -36.0719 20.9467 0.599917 0.728458 0.330832 
-0.51301 -0.804405 -0.299588 -0.513509 -0.8042 -0.299283 
-22.2663 -17.4624 -6.01932 0.747694 0.0070304 -0.664006 
-0.753671 0.016665 0.65704 -0.753727 0.0169717 0.656969 
-14.5658 -16.2131 8.22423 -0.439105 0.303436 -0.845644 
0.462027 -0.222642 0.858464 0.462122 -0.222112 0.858551 
-2.7653 -25.1293 11.9562 -0.408615 -0.121819 -0.904541 
0.636863 -0.08997 0.76571 0.636735 -0.0901565 0.765794 
1.6294 16.1024 -10.0246 -0.939458 -0.103548 -0.326645 
0.942084 0.089321 0.323264 0.942019 0.0887464 0.323611 
-11.0085 -33.8406 -16.7774 -0.506092 0.75605 0.415042 
0.228143 -0.969506 -0.089492 0.227687 -0.969549 -0.0901814 
-11.8242 7.44046 -10.5593 0.336989 -0.753012 0.565165 
-0.26626 0.628022 -0.731228 -0.266934 0.6282 -0.730829 
-14.5729 33.3529 -10.0189 0.021961 -0.930521 0.365578 
-0.079522 0.925265 -0.370892 -0.0790371 0.925277 -0.370966 
32.8517 -14.9275 -1.97515 -0.344291 0.10114 0.933399 
0.514084 -0.158866 -0.8429 0.514326 -0.158653 -0.842792 
-22.6109 -13.9347 11.8294 -0.299945 0.11272 -0.947274 
0.393256 -0.05116 0.918005 0.393225 -0.0514714 0.918001 
-18.7185 26.7607 -4.80895 0.268348 0.863895 0.426233 
-0.346202 -0.852983 -0.390594 -0.346212 -0.852863 -0.390849 
-3.70606 -11.563 -5.31447 -0.105303 -0.95934 0.261876 
0.096945 0.942249 -0.320575 0.0970104 0.942375 -0.320184 
-26.283 -28.1287 14.2748 0.742391 0.252855 0.620419 
-0.667026 -0.160231 -0.7276 -0.667008 -0.160245 -0.727614 
14.561 19.9549 11.7529 -0.373464 0.635473 -0.675794 
0.312946 -0.648202 0.694189 0.312677 -0.64796 0.694536 
6.22135 34.6134 17.1793 -0.0334865 -0.998525 -0.0427373 
-0.127125 0.991884 -0.002522 -0.127078 0.99189 -0.00245894 
9.31576 -7.72726 10.4433 -0.940167 0.241721 0.24012 
0.924882 -0.380066 0.012005 0.924824 -0.38021 0.0118802 
-13.9065 -24.5644 5.12149 0.233633 0.173097 0.956793 
-0.186948 -0.221128 -0.957159 -0.186824 -0.220577 -0.95731 
19.8291 -6.61878 0.043274 0.822708 -0.55919 0.102262 
-0.803369 0.594567 -0.032984 -0.803233 0.594753 -0.0329391 
-3.90311 -28.7681 -10.0134 -0.77989 0.624305 -0.044892 
0.825168 -0.555442 -0.10287 0.824532 -0.556562 -0.101911 
12.1273 32.0048 -16.1921 -0.886826 -0.209002 0.412137 
0.716595 0.302447 -0.628504 0.716484 0.302798 -0.628461 
19.9598 25.0072 3.62402 -0.812225 0.569369 -0.126922 
0.741424 -0.640079 0.201467 0.741462 -0.640014 0.201532 
6.22806 36.9255 -18.4824 -0.354799 -0.920803 0.161984 
0.376638 0.906711 -0.189786 0.377326 0.9064 -0.189906 
-23.3621 -19.1323 12.7365 -0.54586 -0.126406 -0.828287 
0.580771 0.183935 0.793015 0.580532 0.183619 0.793264 
-19.7405 19.6486 7.3265 0.825722 0.0358698 -0.562935 
-0.863783 -0.07315 0.498527 -0.864055 -0.0728051 0.498104 
-4.90146 16.9809 22.0873 0.353777 -0.411929 -0.839736 
-0.352873 0.285681 0.890992 -0.353244 0.285966 0.890754 
-29.7844 -17.5673 -15.2696 0.789114 0.0906708 -0.607518 
-0.878449 0.062038 0.473792 -0.878274 0.0623957 0.474069 
16.0828 -14.8941 8.20922 -0.458331 -0.503777 -0.732217 
0.264312 0.376541 0.887894 0.263214 0.37656 0.888212 
-8.12979 8.91382 -10.7222 0.19018 -0.600004 0.777063 
-0.211775 0.558474 -0.802034 -0.213206 0.557704 -0.80219 
0.789914 34.888 8.89448 0.0614498 -0.996109 -0.0631772 
-0.096469 0.992272 0.078036 -0.0964302 0.992309 0.0776184 
2.59991 15.3948 13.0491 -0.0195536 -0.349868 -0.936595 
0.233911 0.256181 0.9379 0.233813 0.255765 0.938038 
-12.2514 -19.0181 -7.39795 -0.490002 -0.139802 0.860438 
0.301731 -0.035142 -0.952745 0.301722 -0.0355514 -0.952733 
-18.0969 30.2243 4.06737 0.26058 -0.115405 -0.95853 
-0.368284 0.168664 0.914286 -0.367637 0.169248 0.914439 
-17.9659 -12.9663 9.39591 0.0922837 0.0591867 -0.993972 
0.187903 -0.115459 0.975378 0.1878 -0.115985 0.975335 
9.21565 -8.7238 10.9008 -0.99854 0.0524688 0.0128484 
0.979913 0.00368 0.199394 0.979864 0.00346285 0.199634 
-20.7879 21.5168 -1.73907 0.765532 0.13898 0.628208 
-0.627947 -0.100747 -0.771707 -0.628016 -0.100701 -0.771658 
16.8871 23.676 -0.821252 -0.593651 0.681516 0.42792 
0.684873 -0.665965 -0.295702 0.684826 -0.666243 -0.295184 
-22.8624 25.0058 0.489441 0.987027 0.124389 0.10151 
-0.990249 -0.104419 -0.09222 -0.990268 -0.104571 -0.0918407 
-19.4544 -29.096 8.06461 0.198838 0.705259 0.680494 
-0.463673 -0.397503 -0.791832 -0.463682 -0.397742 -0.791707 
25.9103 -20.5458 -5.02707 -0.659602 0.256421 0.706523 
0.722362 -0.18758 -0.665588 0.722054 -0.187872 -0.665839 
-1.094 10.0398 16.8499 -0.561618 0.623725 0.543647 
0.343311 -0.869521 -0.355063 0.342474 -0.870008 -0.354679 
12.0201 17.6854 -0.606736 -0.343334 0.83971 -0.420724 
0.601591 -0.74323 0.292743 0.601463 -0.743393 0.292591 
-9.34579 -21.3944 -6.89537 -0.530117 -0.345053 0.774541 
0.47807 0.203776 -0.854356 0.478244 0.20372 -0.854272 
-9.84415 11.4642 14.0351 0.249266 0.965963 0.0691563 
-0.220841 -0.970859 -0.09307 -0.220551 -0.97096 -0.0927055 
8.01998 -9.65625 10.9998 -0.310977 0.513331 -0.799866 
0.155507 -0.511575 0.84505 0.155363 -0.511497 0.845123 
-20.4228 -29.7053 -19.7306 -0.368782 -0.88188 0.293747 
0.567591 0.807631 -0.159917 0.567219 0.807893 -0.159914 
-16.7511 8.17058 8.42564 0.817679 0.326612 -0.474053 
-0.659575 -0.244946 0.710607 -0.659662 -0.244926 0.710533 
-28.0304 -19.3806 -12.294 0.669501 0.615255 -0.416209 
-0.755044 -0.513011 0.408324 -0.754876 -0.513031 0.408609 
-24.1134 -2.19379 -13.2478 -0.205701 0.00425163 0.978606 
0.254641 -0.062909 -0.964987 0.254306 -0.0638891 -0.965011 
-24.7009 -2.18689 -13.4185 -0.237103 0.014178 0.971381 
0.229248 -0.057914 -0.971644 0.229448 -0.0579324 -0.971595 
-12.7983 -32.5514 -19.3057 0.16051 -0.910223 0.381747 
-0.065993 0.915407 -0.397083 -0.0662028 0.915298 -0.397299 
-10.0204 -24.9565 -3.04097 0.0790325 0.665395 -0.742296 
0.031305 -0.637523 0.769795 0.0315399 -0.637608 0.769715 
32.4372 -15.2168 4.56649 -0.281416 0.120218 -0.952026 
0.280763 -0.149971 0.947988 0.280833 -0.150545 0.947876 
12.0125 -8.6332 7.26504 -0.647072 -0.229982 -0.726916 
0.663515 0.150676 0.732833 0.663302 0.150409 0.733081 
12.696 -16.7204 -6.23916 -0.116868 0.287545 0.95061 
0.155899 -0.167325 -0.973498 0.15613 -0.167448 -0.973439 
-5.14534 30.2648 19.3572 0.170019 0.72651 -0.665791 
-0.187002 -0.775943 0.602447 -0.18716 -0.775807 0.602573 
24.6085 -21.7228 -3.83299 -0.705589 0.708025 0.0290577 
0.541698 -0.839816 0.035676 0.541559 -0.839912 0.0355135 
4.89588 -24.2487 5.28233 0.43579 0.897869 -0.0625975 
-0.322782 -0.917784 0.231267 -0.322782 -0.917827 0.231098 
0.369277 -24.358 3.63455 -0.349813 0.936623 -0.0191787 
0.321059 -0.946849 -0.019958 0.320894 -0.946905 -0.0199327 
1.52335 12.7259 -15.5832 -0.617778 0.569975 0.541737 
0.715145 -0.582611 -0.386176 0.714971 -0.582208 -0.387104 
8.92922 7.07329 0.840763 -0.876229 -0.142945 0.460206 
0.879709 0.108472 -0.462975 0.879855 0.108361 -0.462724 
-1.311 22.6626 19.9543 -0.448182 -0.539171 -0.713041 
0.387272 0.536101 0.750078 0.387653 0.536 0.749952 
4.18781 9.91791 -6.83491 -0.774877 0.462181 -0.431224 
0.799614 -0.482146 0.357984 0.799703 -0.482256 0.357637 
0.811213 7.95958 16.305 -0.291272 -0.129907 -0.947779 
0.4111 0.10426 0.905608 0.411109 0.104282 0.905602 
4.88189 34.6799 14.6091 -0.0865104 -0.986731 -0.1374 
-0.102422 0.991121 0.084781 -0.0999243 0.99144 0.0840372 
-13.6779 -6.1524 -6.52518 -0.262041 -0.145065 0.954092 
0.316689 0.112628 -0.941819 0.316696 0.112775 -0.941799 
-4.92788 -23.1467 9.59509 0.380896 -0.539914 -0.750607 
-0.359426 0.565049 0.742652 -0.359508 0.565595 0.742196 
-28.7885 -10.8096 15.542 -0.436036 -0.385538 -0.813162 
0.415427 0.317425 0.852445 0.415238 0.317685 0.85244 
5.79213 23.5692 -8.0675 -0.223201 0.909316 -0.351179 
0.196714 -0.931428 0.306178 0.196895 -0.931366 0.306252 
-19.0081 -18.6403 10.4748 -0.119021 -0.145564 -0.982163 
0.245713 0.114793 0.962522 0.245505 0.114308 0.962632 
8.89065 -1.89245 -5.26646 -0.227269 -2.78324e-17 0.973832 
0.474796 0.042634 -0.879063 0.474768 0.0426227 -0.879078 
-31.149 -16.5694 14.2488 0.654151 -0.261412 0.709753 
-0.811911 0.160361 -0.561324 -0.812377 0.16043 -0.560631 
-16.3857 -31.5774 16.5734 0.0762916 -0.367827 -0.926759 
-0.048581 0.5512 0.832958 -0.0489602 0.551036 0.833044 
-26.8374 -10.8948 9.25046 0.819215 0.214327 0.53193 
-0.7716 -0.15209 -0.617658 -0.771656 -0.152021 -0.617606 
11.3877 35.2372 -13.3975 -0.872693 0.0183157 0.487925 
0.372188 0.074442 -0.925167 0.372339 0.0744446 -0.925106 
13.227 -18.5056 9.14589 -0.373146 0.372458 -0.849728 
0.336118 -0.379492 0.861981 0.335995 -0.3794 0.862069 
-18.4766 17.9462 -4.75532 0.930837 -0.0424017 0.362966 
-0.93818 0.025429 -0.345213 -0.938165 0.0252696 -0.345266 
-6.62768 34.5638 5.72193 0.159871 -0.985854 -0.0503239 
-0.078367 0.995445 0.05429 -0.0784719 0.995438 0.0542787 
17.7486 24.1338 5.93069 -0.692639 0.721282 0.00205526 
0.559898 -0.827224 0.047059 0.559235 -0.827637 0.0476666 
-10.303 -31.487 9.77143 -0.503714 0.785339 0.359882 
0.374216 -0.779523 -0.5023 0.374107 -0.779891 -0.50181 
23.0721 -9.35155 5.54037 -0.646131 0.612156 -0.455828 
0.360023 -0.722676 0.590019 0.359743 -0.722855 0.58997 
-15.7263 0.09808 9.77925 -0.0972295 -0.0583583 -0.99355 
0.058717 0.080236 0.995045 0.0584426 0.0798965 0.995088 
11.6299 -11.0134 10.45 -0.197231 0.109229 -0.974253 
0.160092 -0.057689 0.985415 0.159922 -0.0575352 0.985452 
-0.372804 -21.325 10.7606 -0.316115 -3.8713e-17 -0.948721 
0.266647 0.137209 0.953978 0.266544 0.137044 0.95403 
4.86292 7.44852 -2.74071 -0.529283 -0.488162 0.693943 
0.513644 0.472601 -0.716114 0.513375 0.472797 -0.716177 
-21.0263 -28.6155 16.5783 -0.485075 -0.126357 -0.865295 
0.55117 0.184234 0.8138 0.551041 0.184532 0.813819 
-6.99306 30.8532 19.0688 0.360386 0.478681 -0.800616 
-0.355044 -0.418199 0.836094 -0.355653 -0.418376 0.835747 
-5.38555 -7.87031 9.88728 0.724122 0.661924 -0.193659 
-0.705915 -0.667169 0.237842 -0.705852 -0.667316 0.237619 
-33.4705 -13.2422 19.1995 0.246097 -0.888918 -0.386343 
-0.343377 0.936987 -0.064404 -0.343308 0.937007 -0.0644724 
-26.8083 -14.4566 -17.5808 -0.488596 -0.692689 0.530525 
0.455678 0.576037 -0.67863 0.455163 0.57622 -0.67882 
-29.7274 -17.8243 12.6178 0.703213 -0.377635 0.602398 
-0.74429 0.020528 -0.667541 -0.744179 0.0205035 -0.667665 
-24.8155 -30.3261 -21.4918 0.635779 0.764654 0.105306 
-0.708643 -0.703767 -0.050371 -0.708526 -0.70391 -0.0500148 
10.1297 -20.2952 9.87756 0.0397241 0.626872 -0.778109 
-0.132838 -0.475406 0.86968 -0.132394 -0.475102 0.869914 
-10.2368 9.06015 -9.85655 0.460544 -0.493702 0.73767 
-0.267056 0.705591 -0.65637 -0.26731 0.705498 -0.656367 
-23.731 -20.4177 -8.47973 0.536531 0.762982 -0.360545 
-0.623961 -0.628002 0.465065 -0.623998 -0.628062 0.464935 
0.757236 18.5659 16.3648 -0.889087 0.0230009 0.45716 
0.939424 0.055728 -0.338198 0.939427 0.0557492 -0.338184 
-14.4678 2.2111 -10.552 0.84447 0.385641 0.371687 
-0.83858 -0.387275 -0.383147 -0.838664 -0.386825 -0.383416 
5.79883 36.4488 -4.86016 0.0439124 -0.997646 -0.0526659 
-0.013553 0.997613 0.067712 -0.0136122 0.997592 0.0680084 
16.4333 -8.53393 2.44812 -0.265427 -0.947409 -0.178785 
0.178121 0.979168 0.097481 0.177644 0.979247 0.0975641 
33.2908 -11.8729 3.67364 -0.5036 -0.530047 -0.682229 
0.389331 0.613169 0.687346 0.389686 0.612833 0.687445 
6.19418 19.4925 -7.92981 0.367942 -0.155516 0.916752 
-0.209208 0.219166 -0.952994 -0.209656 0.218858 -0.952967 
18.6953 -15.198 8.26159 0.121499 -0.523336 -0.84342 
-0.015366 0.483793 0.875047 -0.0149201 0.483279 0.875339 
15.4715 -26.191 -2.81042 0.0287444 0.528849 -0.848229 
-0.172528 -0.575489 0.799404 -0.172474 -0.57589 0.799126 
10.3935 25.1484 -8.43813 0.18982 0.652352 0.733761 
-0.154688 -0.570541 -0.80657 -0.154365 -0.570508 -0.806655 
-14.6545 23.8668 -6.67743 0.597314 -0.567482 0.566728 
-0.565758 0.657116 -0.498114 -0.565773 0.657183 -0.498008 
15.7201 34.9263 12.9758 -0.685296 -0.400841 -0.608026 
0.660223 0.568755 0.490534 0.659707 0.569281 0.490618 
-18.224 -35.1813 24.7306 -0.579596 -0.437725 -0.687361 
0.535638 0.355803 0.765831 0.535441 0.355928 0.76591 
-27.3814 -33.2081 22.2218 0.786789 0.285733 -0.5471 
-0.874692 -0.272091 0.401098 -0.875054 -0.270504 0.401383 
-16.4556 -22.4429 10.5249 -0.384763 0.050311 -0.921643 
0.326162 -0.00827 0.945278 0.326055 -0.00863863 0.945311 
8.27305 33.0761 20.728 -0.458382 -0.171793 -0.871994 
0.256126 0.275145 0.926658 0.256871 0.274879 0.926531 
3.55154 25.6538 21.7952 0.353571 0.379517 -0.854959 
-0.509955 -0.122317 0.85146 -0.509441 -0.122452 0.851748 
14.3276 37.0595 -8.67361 -0.327046 -0.763233 0.55724 
0.341733 0.795788 -0.49994 0.341266 0.79611 -0.499746 
1.09811 8.45575 -11.0726 -0.36063 -0.0569477 0.930969 
0.372585 0.081351 -0.924425 0.372659 0.0815371 -0.924379 
-9.00029 30.0295 17.7232 0.506651 0.342789 -0.791076 
-0.48986 -0.460901 0.740005 -0.490193 -0.460164 0.740243 
-15.8258 -0.997599 4.79457 0.277409 -0.243079 0.929493 
-0.316246 0.279853 -0.906461 -0.316002 0.279813 -0.906558 
-20.3482 -7.63309 4.44034 0.475784 0.0118995 0.879482 
-0.523164 0.051968 -0.850646 -0.522732 0.0512449 -0.850955 
25.6558 -4.90901 4.17077 -0.933071 -0.187234 -0.307119 
0.851862 0.07129 0.518891 0.852129 0.0717671 0.518387 
-10.4744 -26.7161 -4.30699 0.0959599 0.593018 -0.799451 
0.000707 -0.529073 0.848576 0.000691453 -0.529349 0.848404 
10.6399 32.1377 -18.2021 -0.665854 0.263314 0.698071 
0.632462 -0.222053 -0.742081 0.633163 -0.222122 -0.741462 
-3.06257 -27.4533 -8.56015 -0.413192 0.837236 0.358201 
0.73104 -0.640679 0.234756 0.730988 -0.640796 0.234599 
9.31376 5.43884 3.65184 -0.921066 -0.367855 -0.127749 
0.877417 0.470227 0.095007 0.877275 0.470607 0.0944376 
-4.94426 -11.7175 -6.52059 -0.250209 -0.911707 0.325862 
0.217635 0.917167 -0.333826 0.217619 0.917258 -0.333586 
-8.33088 -28.5076 -12.6374 -0.308999 -0.756826 0.575964 
0.28299 0.740041 -0.610128 0.283204 0.739746 -0.610386 
-13.496 -17.8881 7.89948 -0.369829 -0.451029 -0.81228 
0.361571 0.388674 0.847466 0.361666 0.388608 0.847456 
-6.31572 35.0958 -0.142906 -0.00608525 -0.995611 -0.0933895 
-0.034483 0.994913 0.094653 -0.0342902 0.995005 0.0937504 
10.9912 -15.1893 11.3722 -0.274784 0.00392145 -0.961498 
-0.080908 -0.153572 0.98482 -0.0806917 -0.153158 0.984902 
33.2399 -15.1958 4.32612 -0.418174 0.225094 -0.880036 
0.4869 -0.201063 0.850001 0.487117 -0.201123 0.849863 
-17.1561 4.9469 8.15315 0.609071 -0.644993 -0.461536 
-0.476814 0.850679 0.221346 -0.477054 0.85068 0.220824 
-14.2247 12.8725 -7.00806 0.201646 0.634573 0.746094 
-0.280492 -0.673753 -0.683652 -0.28078 -0.673827 -0.683462 
-26.3089 -11.3135 8.71818 0.66516 0.150414 0.731395 
-0.722583 -0.073436 -0.687372 -0.722506 -0.0738201 -0.687412 
22.4179 -4.41845 3.09168 0.511493 -0.742404 -0.432678 
-0.575026 0.724886 0.379322 -0.575124 0.725316 0.37835 
-29.3132 -24.8738 16.646 0.759889 0.419603 0.49649 
-0.793478 -0.323048 -0.515784 -0.793664 -0.323053 -0.515493 
16.8858 -19.1483 8.07138 0.446574 0.434926 -0.781928 
-0.289585 -0.295489 0.910399 -0.288219 -0.295211 0.910923 
-4.74508 -19.2648 -5.11577 0.222896 -0.374463 0.900053 
-0.140206 0.391255 -0.909539 -0.140484 0.391613 -0.909342 
21.4667 -24.2082 2.44605 0.160687 0.980111 -0.116461 
0.017446 -0.97773 0.209141 0.0175116 -0.977641 0.20955 
-1.06855 34.451 12.7284 -0.0171465 -0.998184 -0.0577434 
-0.043258 0.98984 0.135445 -0.0433943 0.989818 0.13556 
-14.8086 -27.2651 5.79835 -0.0613195 0.732723 0.677759 
0.051034 -0.588239 -0.807075 0.0510329 -0.587945 -0.80729 
-28.0082 -20.0748 17.8054 -0.498634 -0.536779 -0.680612 
0.546122 0.578054 0.606304 0.546154 0.578049 0.60628 
-5.76371 35.6671 -4.75939 0.114646 -0.986845 -0.113991 
-0.053454 0.994071 0.094683 -0.0530643 0.994088 0.0947288 
-18.161 -27.0134 13.6858 -0.415142 -5.08402e-17 -0.909757 
0.345339 0.223449 0.911489 0.345383 0.223272 0.911515 
-9.17517 -8.11363 9.93715 0.0429053 -0.609803 -0.791391 
-0.053026 0.354691 0.933479 -0.0531044 0.354888 0.933399 
3.92909 22.347 14.9505 0.0955141 0.352137 -0.931062 
-0.06408 -0.524776 0.848825 -0.0645919 -0.524354 0.849047 
1.39261 -13.4952 -6.988 -0.208774 0.541719 0.81422 
0.211616 -0.502521 -0.838267 0.211333 -0.502586 -0.838299 
-14.0721 1.17507 -6.81441 -0.248285 0.279616 0.927453 
0.168883 -0.319941 -0.932264 0.169093 -0.319674 -0.932318 
1.99726 14.9492 -11.7062 -0.956727 0.0445631 -0.287554 
0.925308 -0.195566 0.3249 0.925142 -0.195598 0.325351 
-12.3504 35.2003 -6.51302 0.114274 -0.993403 -0.00959178 
-0.119273 0.992805 0.010636 -0.119295 0.9928 0.010822 
4.6001 -20.1247 11.2707 -0.308176 0.0108211 -0.951268 
0.248587 -0.279747 0.927333 0.248533 -0.279669 0.927371 
-8.94657 -2.7777 15.8784 0.0893813 0.687543 -0.720622 
-0.299225 -0.650667 0.697923 -0.298997 -0.650668 0.69802 
-12.4977 -22.9555 -8.58752 -0.615329 -0.359178 0.701685 
0.587813 0.204455 -0.782735 0.587656 0.204526 -0.782834 
-21.0097 -13.7891 10.8933 -0.626381 -0.246885 -0.739388 
0.607904 0.19181 0.770494 0.607555 0.191868 0.770755 
-14.8782 31.9751 12.6729 0.816724 -0.0295743 -0.57627 
-0.842038 0.104605 0.529179 -0.842007 0.104884 0.529172 
-7.16328 -24.4473 10.2408 0.353113 -0.686837 -0.635268 
-0.345776 0.732145 0.586858 -0.345944 0.73204 0.586891 
13.3166 36.0453 -11.3946 -0.734978 -0.602173 0.311762 
0.654077 0.422715 -0.627292 0.653958 0.422881 -0.627304 
-13.4391 24.7614 -6.96859 0.726946 -0.551486 0.409161 
-0.739789 0.569935 -0.357613 -0.740193 0.569568 -0.35736 
14.1903 23.4878 -10.0838 -0.713088 0.395739 0.578703 
0.602914 -0.515637 -0.60878 0.602683 -0.515792 -0.608878 
-0.900473 -15.1494 10.1182 0.945924 0.106623 0.306365 
-0.842612 -0.499988 0.200045 -0.842377 -0.500247 0.200385 
-3.6266 2.14882 14.7051 -0.440576 0.32302 -0.837587 
0.441178 -0.630577 0.638542 0.441208 -0.630483 0.638614 
-2.85386 -19.0174 7.97361 0.475078 -0.511266 -0.716176 
-0.5004 0.513954 0.696743 -0.500156 0.51371 0.697098 
2.52821 27.5405 -16.3307 0.304818 -0.234714 0.923036 
-0.321943 0.025841 -0.946406 -0.322084 0.0255682 -0.946366 
-5.20068 21.3199 19.7024 0.412486 -0.642863 -0.645431 
-0.406758 0.612181 0.678073 -0.406345 0.612155 0.678344 
-24.0638 -19.2153 -16.2358 -0.728412 -0.478822 0.490046 
0.739484 0.486788 -0.464973 0.738853 0.487471 -0.465262 
18.3393 -23.7672 3.46505 -0.312709 0.890368 -0.330844 
0.268257 -0.944483 0.189712 0.268673 -0.944401 0.189529 
8.17936 16.0798 -4.45123 -0.55479 0.663622 -0.501811 
0.5485 -0.728052 0.411204 0.548292 -0.728161 0.411287 
11.0687 -9.27545 -5.66049 0.70762 -0.119178 0.69647 
-0.540475 0.368698 -0.756273 -0.540194 0.368937 -0.756357 
13.1188 -6.98484 -0.206472 -0.952363 -0.303723 0.0275216 
0.920643 0.366932 -0.13333 0.920835 0.366546 -0.13307 
-13.92 -30.9141 15.097 -0.454758 -0.77082 -0.446129 
0.387722 0.787481 0.479108 0.388032 0.787426 0.478949 
0.32405 24.2839 18.2413 -0.00280752 0.7837 -0.621133 
0.269946 -0.653763 0.706911 0.269926 -0.65392 0.706773 
-8.42158 35.7578 -9.66488 0.215687 -0.971161 0.10161 
-0.252728 0.965722 -0.059242 -0.25214 0.965875 -0.0592493 
-33.2416 -14.9448 19.9084 0.0827676 0.551486 -0.830068 
-0.159909 -0.53862 0.827235 -0.160041 -0.538429 0.827333 
-23.6084 -12.6879 -15.281 -0.559815 -6.85575e-17 0.828618 
0.536291 -0.229827 -0.81214 0.535951 -0.230097 -0.812288 
17.4238 -10.7208 -4.33607 -0.0860666 -0.339973 0.936489 
-0.014583 0.298127 -0.954415 -0.0144264 0.298544 -0.954287 
-8.26958 -28.7619 -6.36461 0.0519019 0.736394 -0.674559 
-0.033739 -0.767069 0.640676 -0.0337708 -0.767011 0.640744 
-26.0527 -10.5752 8.44214 0.720387 0.16167 0.674466 
-0.685273 -0.105329 -0.720629 -0.685386 -0.1053 -0.720527 
12.8002 -25.7617 2.7681 0.129189 0.991374 0.0220714 
0.130013 -0.985784 -0.106428 0.130404 -0.985752 -0.106248 
6.7435 -25.001 0.285562 0.471173 0.87863 0.0774885 
-0.403239 -0.914439 -0.034633 -0.403914 -0.91412 -0.0351771 
-8.00789 35.4022 -3.92154 0.058437 -0.998271 -0.00635483 
-0.037081 0.997335 0.062839 -0.0373053 0.997327 0.0628253 
9.78417 -12.7657 9.90324 0.662924 0.426055 -0.615637 
-0.35735 -0.319365 0.877671 -0.358029 -0.319015 0.877522 
-7.7516 25.6872 13.6741 0.0182204 -0.209181 -0.977707 
0.212586 0.374638 0.902471 0.21274 0.374572 0.902462 
-2.3786 25.0439 19.2651 0.220708 0.778511 -0.587544 
-0.4141 -0.798321 0.437269 -0.414341 -0.798163 0.437331 
-7.89742 -28.5114 -5.90535 0.257676 0.755611 -0.602208 
-0.025608 -0.692162 0.721288 -0.0255319 -0.692204 0.72125 
-9.28616 12.7261 -9.18012 -0.221181 0.970403 0.0969349 
0.069034 -0.978206 -0.195825 0.0690606 -0.978201 -0.195839 
-2.56958 -24.5132 -3.84563 -0.131803 0.538513 -0.832245 
