ply
format ascii 1.0
element vertex 835
property float x
property float y
property float z
property float nx
property float ny
property float nz
end_header
0.237764 -0.652295 0.694624 -0.955586 -0.199117 0.217273 
0.242146 -0.663041 0.706067 -0.971202 -0.160974 0.175654 
0.245572 -0.673787 0.71751 -0.982942 -0.124119 0.135717 
0.248029 -0.68449 0.728908 -0.992228 -0.0837918 0.0919928 
0.249507 -0.695112 0.740219 -0.998161 -0.0403233 0.0452701 
0.25 -0.751404 0.705615 -0.999996 -0.00288936 -0.000551242 
0.249507 -0.762424 0.715964 -0.997463 0.0499522 -0.0507207 
0.248029 -0.773245 0.726126 -0.991173 0.0952394 -0.0922279 
0.245572 -0.783833 0.736068 -0.979036 0.147494 -0.140476 
0.242146 -0.794156 0.745762 -0.962195 0.19682 -0.188265 
0.237764 -0.804184 0.755179 -0.940408 0.245988 -0.234784 
0.232444 -0.81389 0.764294 -0.913996 0.294245 -0.279341 
0.226207 -0.823247 0.773081 -0.882746 0.341557 -0.322643 
0.219077 -0.832231 0.781517 -0.849172 0.384434 -0.362102 
0.211082 -0.840818 0.789581 -0.808404 0.429144 -0.402888 
0.202254 -0.848988 0.797253 -0.765028 0.46948 -0.440818 
0.192628 -0.85672 0.804514 -0.718728 0.506786 -0.476024 
0.182242 -0.863997 0.811347 -0.671772 0.540119 -0.506946 
0.171137 -0.8708 0.817736 -0.617718 0.572264 -0.539387 
0.159356 -0.877115 0.823666 -0.569282 0.597721 -0.564489 
0.146946 -0.882928 0.829124 -0.51666 0.621816 -0.588563 
0.133957 -0.888225 0.834099 -0.463687 0.643104 -0.609435 
0.120438 -0.892995 0.838578 -0.410858 0.662227 -0.626619 
0.106445 -0.897228 0.842553 -0.359562 0.678318 -0.64078 
0.092031 -0.900914 0.846015 -0.306297 0.691707 -0.654006 
0.077254 -0.904047 0.848957 -0.254356 0.703405 -0.66372 
0.062172 -0.906619 0.851372 -0.20413 0.712289 -0.671547 
0.046845 -0.908625 0.853255 -0.151812 0.719496 -0.677701 
0.031333 -0.91006 0.854604 -0.101914 0.724433 -0.68177 
0.015698 -0.910923 0.855414 -0.0518082 0.727634 -0.684006 
0 -0.911211 0.855684 -0.000807253 0.728814 -0.684711 
-0.015698 -0.910923 0.855414 0.052078 0.727374 -0.684262 
-0.031333 -0.91006 0.854604 0.101546 0.724286 -0.681982 
-0.046845 -0.908625 0.853255 0.151648 0.719366 -0.677876 
-0.062172 -0.906619 0.851372 0.20384 0.712206 -0.671723 
-0.077254 -0.904047 0.848957 0.254159 0.703291 -0.663917 
-0.092031 -0.900914 0.846015 0.306049 0.691556 -0.654281 
-0.106445 -0.897228 0.842553 0.359361 0.678049 -0.641179 
-0.120438 -0.892995 0.838578 0.410638 0.661798 -0.627216 
-0.133957 -0.888225 0.834099 0.463654 0.64228 -0.610329 
-0.146946 -0.882928 0.829124 0.515881 0.620722 -0.590399 
-0.159356 -0.877115 0.823666 0.568622 0.596284 -0.566669 
-0.171137 -0.8708 0.817736 0.617826 0.570372 -0.541265 
-0.182242 -0.863997 0.811347 0.671099 0.538698 -0.509344 
-0.192628 -0.85672 0.804514 0.718327 0.505037 -0.478481 
-0.202254 -0.848988 0.797253 0.764503 0.46788 -0.443422 
-0.211082 -0.840818 0.789581 0.808016 0.427705 -0.40519 
-0.219077 -0.832231 0.781517 0.848606 0.383854 -0.364039 
-0.226207 -0.823247 0.773081 0.883814 0.339813 -0.321559 
-0.232444 -0.81389 0.764294 0.914009 0.294731 -0.278787 
-0.237764 -0.804184 0.755179 0.940189 0.247683 -0.233876 
-0.242146 -0.794156 0.745762 0.962053 0.198686 -0.187022 
-0.245572 -0.783833 0.736068 0.978861 0.149602 -0.139467 
-0.248029 -0.773245 0.726126 0.991068 0.0972515 -0.0912519 
-0.249507 -0.762424 0.715964 0.997364 0.0521885 -0.0504065 
-0.25 -0.751404 0.705615 0.999999 -0.00130353 -0.00105452 
-0.249507 -0.740219 0.695112 0.998221 -0.0444938 0.0396898 
-0.248029 -0.728908 0.68449 0.992242 -0.0914068 0.0842694 
-0.245572 -0.71751 0.673787 0.983054 -0.134345 0.124723 
-0.242146 -0.706067 0.663041 0.97134 -0.174375 0.161527 
-0.237764 -0.694624 0.652295 0.955664 -0.215847 0.200291 
-0.232444 -0.683226 0.641592 0.938236 -0.252773 0.23626 
-0.226207 -0.671922 0.630977 0.91876 -0.289159 0.268825 
-0.219077 -0.660762 0.620497 0.895768 -0.3247 0.303595 
-0.211082 -0.6498 0.610202 0.871515 -0.357289 0.335866 
-0.202254 -0.639089 0.600144 0.8422 -0.392674 0.369468 
-0.192628 -0.628685 0.590375 0.813876 -0.42321 0.39812 
-0.182242 -0.618648 0.580949 0.781074 -0.453314 0.429452 
-0.171137 -0.609034 0.571921 0.746739 -0.481968 0.458352 
-0.159356 -0.599903 0.563347 0.708284 -0.512162 0.485824 
-0.146946 -0.591315 0.555282 0.666204 -0.541717 0.512557 
-0.133957 -0.583328 0.547781 0.620863 -0.569914 0.538263 
-0.120438 -0.575999 0.540899 0.568927 -0.598208 0.564331 
-0.106445 -0.569383 0.534686 0.51465 -0.625025 0.586923 
-0.092031 -0.563532 0.529192 0.453963 -0.650767 0.608622 
-0.077254 -0.558493 0.524459 0.388069 -0.672804 0.629871 
-0.062172 -0.554308 0.52053 0.317355 -0.691294 0.649153 
-0.046845 -0.551014 0.517436 0.242645 -0.707784 0.66345 
-0.031333 -0.548639 0.515206 0.162047 -0.721131 0.673581 
-0.015698 -0.547206 0.51386 0.0823792 -0.729744 0.678739 
-0 -0.546726 0.51341 0.000338262 -0.732875 0.680363 
0.015698 -0.547206 0.51386 -0.0812748 -0.727484 0.681294 
0.031333 -0.548639 0.515206 -0.161293 -0.718178 0.676908 
0.046845 -0.551014 0.517436 -0.242329 -0.704402 0.667154 
0.062172 -0.554308 0.52053 -0.317949 -0.688185 0.652158 
0.077254 -0.558493 0.524459 -0.386747 -0.670617 0.633008 
0.092031 -0.563532 0.529192 -0.454733 -0.647259 0.611779 
0.106445 -0.569383 0.534686 -0.513526 -0.623185 0.589857 
0.120438 -0.575999 0.540899 -0.56908 -0.596631 0.565844 
0.133957 -0.583328 0.547781 -0.620736 -0.568566 0.539832 
0.146946 -0.591315 0.555282 -0.665447 -0.541247 0.514035 
0.159356 -0.599903 0.563347 -0.708145 -0.511949 0.486249 
0.171137 -0.609034 0.571921 -0.746359 -0.482555 0.458354 
0.182242 -0.618648 0.580949 -0.78128 -0.45289 0.429525 
0.192628 -0.628685 0.590375 -0.813334 -0.423233 0.3992 
0.202254 -0.639089 0.600144 -0.842219 -0.392052 0.370083 
0.211082 -0.6498 0.610202 -0.871192 -0.357734 0.33623 
0.219077 -0.660762 0.620497 -0.89571 -0.324995 0.30345 
0.226207 -0.671922 0.630977 -0.918641 -0.289512 0.268854 
0.232444 -0.683226 0.641592 -0.938143 -0.253027 0.236358 
0.237764 -0.694624 0.652295 -0.955591 -0.216015 0.20046 
0.242146 -0.706067 0.663041 -0.971294 -0.174502 0.161672 
0.245572 -0.71751 0.673787 -0.983036 -0.134374 0.124834 
0.248029 -0.728908 0.68449 -0.992184 -0.0914873 0.0848572 
0.249507 -0.740219 0.695112 -0.99827 -0.0433631 0.0397103 
0.25 -0.794227 0.657042 -1 -1.22465e-16 0.000106365 
0.249507 -0.805876 0.666678 -0.997566 0.0541589 -0.0439277 
0.248029 -0.817313 0.67614 -0.990823 0.104931 -0.0852006 
0.245572 -0.828504 0.685398 -0.978969 0.157832 -0.129264 
0.242146 -0.839416 0.694425 -0.96263 0.208999 -0.172228 
0.237764 -0.850016 0.703194 -0.940587 0.262011 -0.215979 
0.232444 -0.860275 0.711681 -0.913793 0.313297 -0.258511 
0.226207 -0.870165 0.719863 -0.882892 0.361905 -0.299208 
0.219077 -0.879661 0.727718 -0.848543 0.407935 -0.336992 
0.211082 -0.888737 0.735227 -0.808378 0.453823 -0.374926 
0.202254 -0.897373 0.742371 -0.765715 0.49581 -0.409699 
0.192628 -0.905546 0.749132 -0.718444 0.536332 -0.44293 
0.182242 -0.913237 0.755495 -0.668719 0.572866 -0.473962 
0.171137 -0.920428 0.761444 -0.619621 0.604976 -0.500075 
0.159356 -0.927103 0.766966 -0.568604 0.634112 -0.524014 
0.146946 -0.933247 0.772049 -0.515155 0.660696 -0.545982 
0.133957 -0.938846 0.776681 -0.463094 0.683225 -0.564577 
0.120438 -0.943888 0.780852 -0.410233 0.703028 -0.580913 
0.106445 -0.948362 0.784553 -0.35828 0.719801 -0.594578 
0.092031 -0.952258 0.787777 -0.305786 0.735216 -0.60494 
0.077254 -0.955569 0.790516 -0.255227 0.746611 -0.614354 
0.062172 -0.958288 0.792765 -0.203649 0.756404 -0.621595 
0.046845 -0.960408 0.794519 -0.151493 0.763343 -0.627979 
0.031333 -0.961926 0.795774 -0.10195 0.76827 -0.631956 
0.015698 -0.962837 0.796528 -0.0520996 0.771034 -0.634659 
0 -0.963142 0.79678 -1.95421e-05 0.772311 -0.635245 
-0.015698 -0.962837 0.796528 0.0521039 0.771065 -0.634621 
-0.031333 -0.961926 0.795774 0.101937 0.768315 -0.631903 
-0.046845 -0.960408 0.794519 0.151484 0.763391 -0.627922 
-0.062172 -0.958288 0.792765 0.203637 0.756459 -0.621532 
-0.077254 -0.955569 0.790516 0.255211 0.746686 -0.61427 
-0.092031 -0.952258 0.787777 0.305783 0.735312 -0.604825 
-0.106445 -0.948362 0.784553 0.358255 0.719955 -0.594405 
-0.120438 -0.943888 0.780852 0.41022 0.703239 -0.580668 
-0.133957 -0.938846 0.776681 0.463085 0.683522 -0.564226 
-0.146946 -0.933247 0.772049 0.515124 0.661103 -0.545519 
-0.159356 -0.927103 0.766966 0.568597 0.634588 -0.523446 
-0.171137 -0.920428 0.761444 0.619582 0.605554 -0.499422 
-0.182242 -0.913237 0.755495 0.668718 0.573372 -0.473351 
-0.192628 -0.905546 0.749132 0.718427 0.536842 -0.442338 
-0.202254 -0.897373 0.742371 0.765687 0.496272 -0.409191 
-0.211082 -0.888737 0.735227 0.808361 0.454189 -0.37452 
-0.219077 -0.879661 0.727718 0.84855 0.40817 -0.336691 
-0.226207 -0.870165 0.719863 0.882907 0.361984 -0.29907 
-0.232444 -0.860275 0.711681 0.913785 0.313236 -0.258613 
-0.237764 -0.850016 0.703194 0.940579 0.261799 -0.216268 
-0.242146 -0.839416 0.694425 0.962635 0.208666 -0.172607 
-0.245572 -0.828504 0.685398 0.978959 0.15757 -0.129658 
-0.248029 -0.817313 0.67614 0.990808 0.104709 -0.0856475 
-0.249507 -0.805876 0.666678 0.997571 0.0539566 -0.0440646 
-0.25 -0.794227 0.657042 1 0.000589 1.74979e-05 
-0.249507 -0.782405 0.647262 0.99812 -0.0471133 0.0391959 
-0.248029 -0.770449 0.637371 0.992472 -0.0941569 0.0783124 
-0.245572 -0.758402 0.627404 0.983095 -0.140459 0.117457 
-0.242146 -0.746307 0.617399 0.97107 -0.18326 0.153098 
-0.237764 -0.734211 0.607392 0.955456 -0.227085 0.188511 
-0.232444 -0.722164 0.597426 0.938208 -0.266279 0.221047 
-0.226207 -0.710215 0.587541 0.918007 -0.305841 0.252436 
-0.219077 -0.69842 0.577783 0.896178 -0.340425 0.284562 
-0.211082 -0.686832 0.568197 0.870108 -0.377454 0.316923 
-0.202254 -0.675511 0.558831 0.842901 -0.413226 0.344618 
-0.192628 -0.664515 0.549734 0.813498 -0.449508 0.369004 
-0.182242 -0.653905 0.540957 0.78023 -0.485421 0.394472 
-0.171137 -0.643743 0.532551 0.74666 -0.515712 0.420166 
-0.159356 -0.634092 0.524567 0.707283 -0.547865 0.446759 
-0.146946 -0.625015 0.517057 0.665377 -0.579407 0.470703 
-0.133957 -0.616572 0.510073 0.620849 -0.606538 0.496647 
-0.120438 -0.608826 0.503664 0.567695 -0.636394 0.522232 
-0.106445 -0.601833 0.497879 0.514948 -0.660698 0.546174 
-0.092031 -0.595648 0.492763 0.454596 -0.684896 0.569438 
-0.077254 -0.590322 0.488357 0.387378 -0.710498 0.587478 
-0.062172 -0.585898 0.484697 0.317444 -0.733677 0.600789 
-0.046845 -0.582416 0.481817 0.242637 -0.749314 0.616162 
-0.031333 -0.579907 0.47974 0.161287 -0.760577 0.628895 
-0.015698 -0.578392 0.478487 0.0822924 -0.767563 0.635668 
-0 -0.577885 0.478068 9.18282e-05 -0.770428 0.637527 
0.015698 -0.578392 0.478487 -0.081335 -0.767695 0.635633 
0.031333 -0.579907 0.47974 -0.16131 -0.760379 0.629129 
0.046845 -0.582416 0.481817 -0.243239 -0.74855 0.616853 
0.062172 -0.585898 0.484697 -0.316563 -0.733078 0.601983 
0.077254 -0.590322 0.488357 -0.387301 -0.710037 0.588086 
0.092031 -0.595648 0.492763 -0.455615 -0.685334 0.568095 
0.106445 -0.601833 0.497879 -0.514022 -0.661139 0.546513 
0.120438 -0.608826 0.503664 -0.569305 -0.634648 0.522604 
0.133957 -0.616572 0.510073 -0.619214 -0.604775 0.500821 
0.146946 -0.625015 0.517057 -0.665949 -0.575343 0.474861 
0.159356 -0.634092 0.524567 -0.70717 -0.54485 0.45061 
0.171137 -0.643743 0.532551 -0.746956 -0.511741 0.424474 
0.182242 -0.653905 0.540957 -0.779798 -0.483277 0.397943 
0.192628 -0.664515 0.549734 -0.813558 -0.447194 0.371673 
0.202254 -0.675511 0.558831 -0.843165 -0.412201 0.345201 
0.211082 -0.686832 0.568197 -0.869794 -0.377219 0.318063 
0.219077 -0.69842 0.577783 -0.896221 -0.340104 0.284809 
0.226207 -0.710215 0.587541 -0.918 -0.305789 0.252525 
0.232444 -0.722164 0.597426 -0.938198 -0.266271 0.221096 
0.237764 -0.734211 0.607392 -0.955455 -0.227081 0.188522 
0.242146 -0.746307 0.617399 -0.971063 -0.183288 0.153109 
0.245572 -0.758402 0.627404 -0.983097 -0.140471 0.117427 
0.248029 -0.770449 0.637371 -0.992466 -0.0942291 0.0783043 
0.249507 -0.782405 0.647262 -0.99813 -0.0470664 0.0390063 
0.25 -0.833916 0.605875 -1 -1.22465e-16 -7.1163e-05 
0.249507 -0.846146 0.614761 -0.997584 0.0559306 -0.0412033 
0.248029 -0.858156 0.623487 -0.991042 0.10792 -0.0786739 
0.245572 -0.869906 0.632024 -0.978771 0.165382 -0.12106 
0.242146 -0.881363 0.640347 -0.962697 0.218912 -0.159038 
0.237764 -0.892492 0.648434 -0.940076 0.27577 -0.200517 
0.232444 -0.903264 0.65626 -0.914098 0.327623 -0.238929 
0.226207 -0.913648 0.663804 -0.883172 0.378849 -0.276552 
0.219077 -0.923619 0.671048 -0.848648 0.427628 -0.311337 
0.211082 -0.933149 0.677972 -0.808801 0.475623 -0.345868 
0.202254 -0.942216 0.68456 -0.76408 0.522021 -0.379046 
0.192628 -0.950797 0.690794 -0.719627 0.562185 -0.407537 
0.182242 -0.958872 0.696662 -0.669985 0.602013 -0.434396 
0.171137 -0.966423 0.702147 -0.618924 0.636174 -0.460669 
0.159356 -0.973432 0.707239 -0.568798 0.666456 -0.481981 
0.146946 -0.979882 0.711926 -0.515438 0.694485 -0.50201 
0.133957 -0.985761 0.716197 -0.464449 0.717749 -0.51877 
0.120438 -0.991055 0.720044 -0.4106 0.73879 -0.534412 
0.106445 -0.995753 0.723457 -0.358636 0.756332 -0.547121 
0.092031 -0.999844 0.726429 -0.306067 0.770674 -0.558913 
0.077254 -1.00332 0.728955 -0.255504 0.782039 -0.568447 
0.062172 -1.00618 0.731029 -0.202818 0.791761 -0.576176 
0.046845 -1.0084 0.732646 -0.151375 0.798941 -0.582048 
0.031333 -1.00999 0.733804 -0.101925 0.803914 -0.585947 
0.015698 -1.01095 0.7345 -0.0527082 0.807007 -0.588185 
0 -1.01127 0.734732 -1.81314e-05 0.808102 -0.589043 
-0.015698 -1.01095 0.7345 0.052716 0.806971 -0.588234 
-0.031333 -1.00999 0.733804 0.101923 0.803885 -0.585987 
-0.046845 -1.0084 0.732646 0.151374 0.798915 -0.582084 
-0.062172 -1.00618 0.731029 0.202818 0.791735 -0.576212 
-0.077254 -1.00332 0.728955 0.255504 0.78201 -0.568488 
-0.092031 -0.999844 0.726429 0.306068 0.770638 -0.558963 
-0.106445 -0.995753 0.723457 0.358635 0.756286 -0.547185 
-0.120438 -0.991055 0.720044 0.410604 0.738731 -0.534492 
-0.133957 -0.985761 0.716197 0.464444 0.717683 -0.518867 
-0.146946 -0.979882 0.711926 0.515446 0.694399 -0.502121 
-0.159356 -0.973432 0.707239 0.568804 0.666354 -0.482115 
-0.171137 -0.966423 0.702147 0.618916 0.63607 -0.460824 
-0.182242 -0.958872 0.696662 0.669985 0.601904 -0.434548 
-0.192628 -0.950797 0.690794 0.719627 0.562085 -0.407673 
-0.202254 -0.942216 0.68456 0.764077 0.521932 -0.379175 
-0.211082 -0.933149 0.677972 0.8088 0.475555 -0.345963 
-0.219077 -0.923619 0.671048 0.848647 0.427582 -0.311405 
-0.226207 -0.913648 0.663804 0.883172 0.378821 -0.27659 
-0.232444 -0.903264 0.65626 0.914097 0.327621 -0.238936 
-0.237764 -0.892492 0.648434 0.940075 0.275796 -0.200491 
-0.242146 -0.881363 0.640347 0.962695 0.218964 -0.158975 
-0.245572 -0.869906 0.632024 0.978774 0.165448 -0.120946 
-0.248029 -0.858156 0.623487 0.991029 0.108147 -0.078517 
-0.249507 -0.846146 0.614761 0.997606 0.0559926 -0.0405856 
-0.25 -0.833916 0.605875 0.999998 0.00200062 0.000378873 
-0.249507 -0.821503 0.596857 0.99815 -0.0487957 0.0362729 
-0.248029 -0.80895 0.587736 0.992288 -0.100146 0.0730382 
-0.245572 -0.7963 0.578546 0.982978 -0.14856 0.108098 
-0.242146 -0.783601 0.569319 0.971158 -0.193605 0.13917 
-0.237764 -0.770901 0.560092 0.955619 -0.238088 0.173512 
-0.232444 -0.758251 0.550902 0.937752 -0.280378 0.204962 
-0.226207 -0.745706 0.541787 0.918564 -0.319728 0.232409 
-0.219077 -0.733321 0.532789 0.895448 -0.360922 0.260592 
-0.211082 -0.721154 0.523949 0.870245 -0.400358 0.287032 
-0.202254 -0.709267 0.515313 0.842595 -0.436347 0.315651 
-0.192628 -0.697722 0.506924 0.81296 -0.471546 0.341673 
-0.182242 -0.686582 0.498831 0.781527 -0.504089 0.367574 
-0.171137 -0.675912 0.491079 0.746441 -0.537401 0.392461 
-0.159356 -0.665779 0.483717 0.708245 -0.570449 0.415906 
-0.146946 -0.656248 0.476792 0.666392 -0.603334 0.438075 
-0.133957 -0.647383 0.470352 0.620261 -0.63491 0.460614 
-0.120438 -0.63925 0.464442 0.569357 -0.667193 0.480298 
-0.106445 -0.631907 0.459107 0.513526 -0.695744 0.502226 
-0.092031 -0.625413 0.454389 0.452399 -0.72275 0.522464 
-0.077254 -0.619821 0.450326 0.389272 -0.746669 0.5394 
-0.062172 -0.615177 0.446952 0.318091 -0.767817 0.556125 
-0.046845 -0.611521 0.444296 0.241603 -0.785221 0.570137 
-0.031333 -0.608885 0.442381 0.161885 -0.797949 0.580578 
-0.015698 -0.607295 0.441225 0.0813377 -0.805786 0.586594 
-0 -0.606763 0.440839 5.63592e-05 -0.807992 0.589193 
0.015698 -0.607295 0.441225 -0.080736 -0.804955 0.587817 
0.031333 -0.608885 0.442381 -0.161767 -0.797349 0.581435 
0.046845 -0.611521 0.444296 -0.242829 -0.783895 0.571439 
0.062172 -0.615177 0.446952 -0.316499 -0.767209 0.557869 
0.077254 -0.619821 0.450326 -0.390488 -0.74469 0.541254 
0.092031 -0.625413 0.454389 -0.451833 -0.721213 0.52507 
0.106445 -0.631907 0.459107 -0.513264 -0.693737 0.505261 
0.120438 -0.63925 0.464442 -0.570504 -0.665391 0.481436 
0.133957 -0.647383 0.470352 -0.61893 -0.637058 0.459437 
0.146946 -0.656248 0.476792 -0.667836 -0.603963 0.434998 
0.159356 -0.665779 0.483717 -0.707011 -0.57403 0.413068 
0.171137 -0.675912 0.491079 -0.747485 -0.538978 0.38829 
0.182242 -0.686582 0.498831 -0.780714 -0.507144 0.36509 
0.192628 -0.697722 0.506924 -0.813518 -0.471793 0.340001 
0.202254 -0.709267 0.515313 -0.842292 -0.436401 0.316384 
0.211082 -0.721154 0.523949 -0.870436 -0.399709 0.287358 
0.219077 -0.733321 0.532789 -0.895398 -0.36085 0.260865 
0.226207 -0.745706 0.541787 -0.918574 -0.319662 0.232462 
0.232444 -0.758251 0.550902 -0.937748 -0.280368 0.204993 
0.237764 -0.770901 0.560092 -0.95562 -0.238076 0.173525 
0.242146 -0.783601 0.569319 -0.971157 -0.193603 0.139183 
0.245572 -0.7963 0.578546 -0.982981 -0.14855 0.108081 
0.248029 -0.80895 0.587736 -0.992279 -0.100269 0.0730036 
0.249507 -0.821503 0.596857 -0.998178 -0.0487995 0.0354819 
0.25 -0.870313 0.552318 -0.999996 -1.22464e-16 -0.00277456 
0.249507 -0.883078 0.560418 -0.997796 0.0556106 -0.0362146 
0.248029 -0.895611 0.568372 -0.990779 0.114313 -0.0727345 
0.245572 -0.907875 0.576155 -0.979258 0.170935 -0.108792 
0.242146 -0.919831 0.583743 -0.962093 0.229963 -0.146609 
0.237764 -0.931447 0.591114 -0.940984 0.285653 -0.181526 
0.232444 -0.942688 0.598248 -0.913295 0.343819 -0.218358 
0.226207 -0.953526 0.605126 -0.883703 0.39519 -0.250787 
0.219077 -0.963931 0.61173 -0.848512 0.446829 -0.283498 
0.211082 -0.973878 0.618042 -0.80778 0.497647 -0.315973 
0.202254 -0.98334 0.624047 -0.765502 0.54318 -0.344909 
0.192628 -0.992296 0.62973 -0.718093 0.587289 -0.373408 
0.182242 -1.00072 0.635079 -0.67078 0.62622 -0.397369 
0.171137 -1.0086 0.64008 -0.618704 0.663016 -0.421444 
0.159356 -1.01592 0.644722 -0.568264 0.694853 -0.440743 
0.146946 -1.02265 0.648994 -0.516471 0.722899 -0.458994 
0.133957 -1.02879 0.652888 -0.462483 0.748356 -0.475471 
0.120438 -1.03431 0.656394 -0.411676 0.769094 -0.488895 
0.106445 -1.03921 0.659505 -0.358179 0.788145 -0.500535 
0.092031 -1.04348 0.662215 -0.306697 0.803896 -0.509596 
0.077254 -1.04711 0.664518 -0.255681 0.817171 -0.516583 
0.062172 -1.05009 0.666408 -0.203017 0.827883 -0.522871 
0.046845 -1.05241 0.667883 -0.152388 0.834999 -0.528729 
0.031333 -1.05408 0.668938 -0.101406 0.840293 -0.532564 
0.015698 -1.05508 0.669572 -0.051748 0.843372 -0.534833 
0 -1.05541 0.669783 -3.22896e-06 0.844475 -0.535595 
-0.015698 -1.05508 0.669572 0.0517476 0.843381 -0.534819 
-0.031333 -1.05408 0.668938 0.101408 0.840307 -0.532542 
-0.046845 -1.05241 0.667883 0.152387 0.835013 -0.528707 
-0.062172 -1.05009 0.666408 0.203017 0.827896 -0.522851 
-0.077254 -1.04711 0.664518 0.255681 0.817184 -0.516564 
-0.092031 -1.04348 0.662215 0.306697 0.803909 -0.509575 
-0.106445 -1.03921 0.659505 0.358178 0.788162 -0.50051 
-0.120438 -1.03431 0.656394 0.411677 0.769115 -0.48886 
-0.133957 -1.02879 0.652888 0.462477 0.74839 -0.475424 
-0.146946 -1.02265 0.648994 0.516477 0.722938 -0.458925 
-0.159356 -1.01592 0.644722 0.568275 0.69489 -0.440671 
-0.171137 -1.0086 0.64008 0.618698 0.663067 -0.421372 
-0.182242 -1.00072 0.635079 0.670778 0.626268 -0.397297 
-0.192628 -0.992296 0.62973 0.718095 0.587326 -0.373346 
-0.202254 -0.98334 0.624047 0.765501 0.543214 -0.344859 
-0.211082 -0.973878 0.618042 0.807781 0.497672 -0.315932 
-0.219077 -0.963931 0.61173 0.848512 0.446851 -0.283463 
-0.226207 -0.953526 0.605126 0.883703 0.395211 -0.250754 
-0.232444 -0.942688 0.598248 0.913295 0.343841 -0.218323 
-0.237764 -0.931447 0.591114 0.940985 0.285683 -0.181475 
-0.242146 -0.919831 0.583743 0.962091 0.230027 -0.146524 
-0.245572 -0.907875 0.576155 0.979266 0.171027 -0.108575 
-0.248029 -0.895611 0.568372 0.990757 0.114729 -0.0723767 
-0.249507 -0.883078 0.560418 0.99784 0.0557311 -0.0347636 
-0.25 -0.870313 0.552318 0.999993 0.00331507 -0.00179303 
-0.249507 -0.857359 0.544096 0.998057 -0.0535036 0.0319326 
-0.248029 -0.844258 0.535782 0.992438 -0.104488 0.0644115 
-0.245572 -0.831056 0.527404 0.983298 -0.154321 0.096491 
-0.242146 -0.817803 0.518993 0.970743 -0.203759 0.127043 
-0.237764 -0.804548 0.510582 0.955584 -0.249884 0.156261 
-0.232444 -0.791346 0.502204 0.938234 -0.293156 0.183782 
-0.226207 -0.778253 0.493895 0.918008 -0.335241 0.211835 
-0.219077 -0.765328 0.485692 0.895893 -0.375007 0.238215 
-0.211082 -0.75263 0.477634 0.87074 -0.414758 0.264175 
-0.202254 -0.740224 0.469761 0.841364 -0.455169 0.291422 
-0.192628 -0.728175 0.462114 0.814448 -0.489753 0.311155 
-0.182242 -0.716549 0.454736 0.780852 -0.526838 0.335725 
-0.171137 -0.705413 0.447669 0.746388 -0.560404 0.35896 
-0.159356 -0.694838 0.440958 0.707429 -0.595796 0.380226 
-0.146946 -0.684891 0.434645 0.667074 -0.627817 0.401071 
-0.133957 -0.67564 0.428774 0.61916 -0.661475 0.423193 
-0.120438 -0.667151 0.423387 0.570782 -0.691806 0.442281 
-0.106445 -0.659488 0.418524 0.514968 -0.722496 0.461311 
-0.092031 -0.652711 0.414223 0.453753 -0.751487 0.478931 
-0.077254 -0.646874 0.410519 0.388102 -0.777695 0.494537 
-0.062172 -0.642027 0.407443 0.318244 -0.800496 0.507865 
-0.046845 -0.638212 0.405021 0.241373 -0.820695 0.517879 
-0.031333 -0.635461 0.403276 0.161962 -0.833403 0.528401 
-0.015698 -0.633801 0.402222 0.0811475 -0.840311 0.535996 
-0 -0.633246 0.40187 0.000104403 -0.84326 0.537506 
0.015698 -0.633801 0.402222 -0.0805465 -0.840059 0.536483 
0.031333 -0.635461 0.403276 -0.161834 -0.832065 0.530545 
0.046845 -0.638212 0.405021 -0.242297 -0.819514 0.519316 
0.062172 -0.642027 0.407443 -0.317238 -0.799718 0.509716 
0.077254 -0.646874 0.410519 -0.388363 -0.777771 0.494212 
0.092031 -0.652711 0.414223 -0.453812 -0.753243 0.476108 
0.106445 -0.659488 0.418524 -0.514825 -0.72449 0.458334 
0.120438 -0.667151 0.423387 -0.570686 -0.693314 0.440038 
0.133957 -0.67564 0.428774 -0.619242 -0.661613 0.422856 
0.146946 -0.684891 0.434645 -0.666972 -0.627452 0.401811 
0.159356 -0.694838 0.440958 -0.707508 -0.593885 0.383057 
0.171137 -0.705413 0.447669 -0.746297 -0.559391 0.360725 
0.182242 -0.716549 0.454736 -0.780719 -0.525765 0.33771 
0.192628 -0.728175 0.462114 -0.815071 -0.488279 0.311836 
0.202254 -0.740224 0.469761 -0.840821 -0.455547 0.292399 
0.211082 -0.75263 0.477634 -0.87121 -0.414129 0.263612 
0.219077 -0.765328 0.485692 -0.895778 -0.37529 0.238198 
0.226207 -0.778253 0.493895 -0.91803 -0.335259 0.211711 
0.232444 -0.791346 0.502204 -0.938229 -0.293205 0.18373 
0.237764 -0.804548 0.510582 -0.955585 -0.249904 0.156221 
0.242146 -0.817803 0.518993 -0.970742 -0.203792 0.127001 
0.245572 -0.831056 0.527404 -0.983302 -0.154367 0.0963719 
0.248029 -0.844258 0.535782 -0.992419 -0.104805 0.064192 
0.249507 -0.857359 0.544096 -0.998089 -0.0535065 0.0309124 
0.25 -0.903276 0.49658 -0.999996 -1.22464e-16 -0.00277107 
0.249507 -0.916524 0.503864 -0.997685 0.0590366 -0.0337563 
0.248029 -0.929532 0.511015 -0.990702 0.119562 -0.0649199 
0.245572 -0.94226 0.518012 -0.979245 0.178109 -0.0967326 
0.242146 -0.95467 0.524834 -0.96239 0.23819 -0.13066 
0.237764 -0.966725 0.531462 -0.94092 0.297244 -0.162219 
0.232444 -0.978392 0.537876 -0.913196 0.357583 -0.195466 
0.226207 -0.989641 0.54406 -0.883523 0.410917 -0.224798 
0.219077 -1.00044 0.549997 -0.847398 0.465693 -0.255043 
0.211082 -1.01076 0.555672 -0.809734 0.514414 -0.282328 
0.202254 -1.02058 0.561071 -0.765195 0.564071 -0.310322 
0.192628 -1.02988 0.566181 -0.719021 0.608919 -0.335003 
0.182242 -1.03863 0.57099 -0.668725 0.6518 -0.357719 
0.171137 -1.0468 0.575486 -0.61992 0.68816 -0.377008 
0.159356 -1.0544 0.579659 -0.567142 0.722067 -0.396194 
0.146946 -1.06138 0.583501 -0.516623 0.750472 -0.412181 
0.133957 -1.06775 0.587001 -0.46403 0.775954 -0.427284 
0.120438 -1.07349 0.590154 -0.409744 0.799144 -0.439862 
0.106445 -1.07857 0.592951 -0.360039 0.817245 -0.449982 
0.092031 -1.08301 0.595388 -0.305755 0.834023 -0.45926 
0.077254 -1.08677 0.597458 -0.253892 0.847168 -0.466738 
0.062172 -1.08986 0.599157 -0.203482 0.857323 -0.472856 
0.046845 -1.09227 0.600483 -0.151736 0.865897 -0.476653 
0.031333 -1.094 0.601432 -0.102081 0.87182 -0.479072 
0.015698 -1.09504 0.602002 -0.0526738 0.875553 -0.480242 
0 -1.09538 0.602192 3.10863e-05 0.876951 -0.480579 
-0.015698 -1.09504 0.602002 0.0526159 0.875489 -0.480366 
-0.031333 -1.094 0.601432 0.102098 0.871778 -0.479144 
-0.046845 -1.09227 0.600483 0.151731 0.865874 -0.476698 
-0.062172 -1.08986 0.599157 0.203483 0.857308 -0.472883 
-0.077254 -1.08677 0.597458 0.253892 0.847159 -0.466755 
-0.092031 -1.08301 0.595388 0.305755 0.834017 -0.459271 
-0.106445 -1.07857 0.592951 0.360038 0.817241 -0.449989 
-0.120438 -1.07349 0.590154 0.409746 0.799141 -0.439865 
-0.133957 -1.06775 0.587001 0.464023 0.775958 -0.427284 
-0.146946 -1.06138 0.583501 0.516632 0.750474 -0.412164 
-0.159356 -1.0544 0.579659 0.567152 0.722069 -0.396176 
-0.171137 -1.0468 0.575486 0.619919 0.688171 -0.376989 
-0.182242 -1.03863 0.57099 0.668727 0.651807 -0.357704 
-0.192628 -1.02988 0.566181 0.719022 0.608921 -0.334997 
-0.202254 -1.02058 0.561071 0.765195 0.564072 -0.310322 
-0.211082 -1.01076 0.555672 0.809734 0.514413 -0.282329 
-0.219077 -1.00044 0.549997 0.847398 0.465692 -0.255045 
-0.226207 -0.989641 0.54406 0.883523 0.410916 -0.224798 
-0.232444 -0.978392 0.537876 0.913196 0.357585 -0.195463 
-0.237764 -0.966725 0.531462 0.940921 0.29725 -0.162205 
-0.242146 -0.95467 0.524834 0.962387 0.238217 -0.130626 
-0.245572 -0.94226 0.518012 0.979251 0.178131 -0.0966229 
-0.248029 -0.929532 0.511015 0.990684 0.119807 -0.0647486 
-0.249507 -0.916524 0.503864 0.997722 0.0588714 -0.032943 
-0.25 -0.903276 0.49658 0.999994 0.00266631 -0.00239533 
-0.249507 -0.889831 0.489189 0.997957 -0.0563046 0.0302092 
-0.248029 -0.876234 0.481714 0.992273 -0.109191 0.0589165 
-0.245572 -0.862532 0.474181 0.983465 -0.15883 0.0870049 
-0.242146 -0.848777 0.466619 0.970337 -0.211662 0.116816 
-0.237764 -0.83502 0.459056 0.956175 -0.25624 0.14167 
-0.232444 -0.821319 0.451524 0.938055 -0.303497 0.167159 
-0.226207 -0.80773 0.444053 0.918102 -0.347289 0.190995 
-0.219077 -0.794314 0.436678 0.896695 -0.387757 0.213501 
-0.211082 -0.781136 0.429433 0.869601 -0.433976 0.235498 
-0.202254 -0.76826 0.422355 0.843019 -0.471715 0.258465 
-0.192628 -0.755754 0.41548 0.812812 -0.510988 0.279693 
-0.182242 -0.743688 0.408846 0.782097 -0.547145 0.298256 
-0.171137 -0.732131 0.402492 0.745721 -0.58607 0.316895 
-0.159356 -0.721155 0.396458 0.707558 -0.62193 0.335506 
-0.146946 -0.710831 0.390783 0.666382 -0.655786 0.354795 
-0.133957 -0.701229 0.385504 0.618225 -0.690084 0.376274 
-0.120438 -0.692419 0.380661 0.569951 -0.72177 0.392687 
-0.106445 -0.684466 0.376288 0.514491 -0.75296 0.410304 
-0.092031 -0.677432 0.372421 0.454737 -0.782344 0.425619 
-0.077254 -0.671374 0.369091 0.385559 -0.809841 0.442156 
-0.062172 -0.666344 0.366326 0.318743 -0.832221 0.453665 
-0.046845 -0.662384 0.364149 0.241759 -0.852169 0.46407 
-0.031333 -0.659529 0.362579 0.162339 -0.866441 0.47215 
-0.015698 -0.657806 0.361632 0.0810888 -0.874569 0.478073 
-0 -0.65723 0.361315 0.000235203 -0.876932 0.480615 
0.015698 -0.657806 0.361632 -0.0803692 -0.873987 0.479257 
0.031333 -0.659529 0.362579 -0.162345 -0.865741 0.473432 
0.046845 -0.662384 0.364149 -0.242831 -0.850484 0.466594 
0.062172 -0.666344 0.366326 -0.318045 -0.830717 0.4569 
0.077254 -0.671374 0.369091 -0.384635 -0.808223 0.445905 
0.092031 -0.677432 0.372421 -0.456279 -0.778708 0.430609 
0.106445 -0.684466 0.376288 -0.513584 -0.750411 0.416072 
0.120438 -0.692419 0.380661 -0.570185 -0.718465 0.398368 
0.133957 -0.701229 0.385504 -0.61814 -0.688003 0.380204 
0.146946 -0.710831 0.390783 -0.666538 -0.653259 0.359138 
0.159356 -0.721155 0.396458 -0.707472 -0.620638 0.33807 
0.171137 -0.732131 0.402492 -0.745915 -0.58415 0.319969 
0.182242 -0.743688 0.408846 -0.781885 -0.546721 0.299587 
0.192628 -0.755754 0.41548 -0.813289 -0.509931 0.280233 
0.202254 -0.76826 0.422355 -0.842173 -0.472551 0.259692 
0.211082 -0.781136 0.429433 -0.870231 -0.432387 0.236093 
0.219077 -0.794314 0.436678 -0.896541 -0.387811 0.214047 
0.226207 -0.80773 0.444053 -0.918136 -0.347125 0.191132 
0.232444 -0.821319 0.451524 -0.938049 -0.303467 0.167248 
0.237764 -0.83502 0.459056 -0.956175 -0.256222 0.141704 
0.242146 -0.848777 0.466619 -0.970335 -0.21166 0.11683 
0.245572 -0.862532 0.474181 -0.983469 -0.158826 0.0869633 
0.248029 -0.876234 0.481714 -0.992258 -0.109369 0.058838 
0.249507 -0.889831 0.489189 -0.997987 -0.0561335 0.0295159 
0.25 -0.932674 0.438883 -1 0.00023019 -0.000449023 
0.249507 -0.946354 0.44532 -0.997711 0.0607276 -0.029761 
0.248029 -0.959785 0.451641 -0.990325 0.125677 -0.0588413 
0.245572 -0.972927 0.457825 -0.979316 0.183088 -0.0861345 
0.242146 -0.98574 0.463854 -0.96265 0.245115 -0.114998 
0.237764 -0.998188 0.469712 -0.939695 0.309136 -0.146314 
0.232444 -1.01024 0.475381 -0.9147 0.365002 -0.173487 
0.226207 -1.02185 0.480846 -0.882212 0.425318 -0.202003 
0.219077 -1.033 0.486093 -0.849329 0.477077 -0.225917 
0.211082 -1.04366 0.491109 -0.808005 0.532587 -0.251952 
0.202254 -1.0538 0.495881 -0.765382 0.581961 -0.274796 
0.192628 -1.0634 0.500397 -0.718085 0.629675 -0.296419 
0.182242 -1.07243 0.504647 -0.668745 0.672917 -0.316169 
0.171137 -1.08087 0.508621 -0.620566 0.709588 -0.333741 
0.159356 -1.08871 0.512309 -0.56854 0.744286 -0.350429 
0.146946 -1.09593 0.515704 -0.51639 0.774931 -0.36445 
0.133957 -1.1025 0.518798 -0.462769 0.802458 -0.376704 
0.120438 -1.10842 0.521585 -0.412112 0.824689 -0.387366 
0.106445 -1.11368 0.524057 -0.358034 0.844996 -0.397232 
0.092031 -1.11825 0.52621 -0.307235 0.861203 -0.404889 
0.077254 -1.12214 0.52804 -0.254347 0.875526 -0.410805 
0.062172 -1.12533 0.529542 -0.203834 0.88655 -0.415309 
0.046845 -1.12782 0.530714 -0.152632 0.894777 -0.419616 
0.031333 -1.12961 0.531552 -0.101359 0.900279 -0.423349 
0.015698 -1.13068 0.532056 -0.0516425 0.903309 -0.425871 
0 -1.13103 0.532224 -4.6617e-05 0.904037 -0.427454 
-0.015698 -1.13068 0.532056 0.0516623 0.903321 -0.425844 
-0.031333 -1.12961 0.531552 0.101356 0.900293 -0.423319 
-0.046845 -1.12782 0.530714 0.152632 0.894789 -0.419591 
-0.062172 -1.12533 0.529542 0.203834 0.886558 -0.415292 
-0.077254 -1.12214 0.52804 0.254347 0.875532 -0.410794 
-0.092031 -1.11825 0.52621 0.307235 0.861206 -0.404883 
-0.106445 -1.11368 0.524057 0.358034 0.844997 -0.39723 
-0.120438 -1.10842 0.521585 0.412113 0.824687 -0.387367 
-0.133957 -1.1025 0.518798 0.462767 0.802456 -0.37671 
-0.146946 -1.09593 0.515704 0.516391 0.774926 -0.364458 
-0.159356 -1.08871 0.512309 0.568543 0.74428 -0.350437 
-0.171137 -1.08087 0.508621 0.620567 0.709585 -0.333746 
-0.182242 -1.07243 0.504647 0.668746 0.672916 -0.316171 
-0.192628 -1.0634 0.500397 0.718086 0.629672 -0.296422 
-0.202254 -1.0538 0.495881 0.765381 0.581959 -0.2748 
-0.211082 -1.04366 0.491109 0.808005 0.532585 -0.251956 
-0.219077 -1.033 0.486093 0.849329 0.477074 -0.225922 
-0.226207 -1.02185 0.480846 0.882212 0.425315 -0.20201 
-0.232444 -1.01024 0.475381 0.9147 0.364997 -0.173497 
-0.237764 -0.998188 0.469712 0.939695 0.309129 -0.14633 
-0.242146 -0.98574 0.463854 0.96265 0.245099 -0.11503 
-0.245572 -0.972927 0.457825 0.979316 0.18306 -0.0861941 
-0.248029 -0.959785 0.451641 0.990325 0.125623 -0.0589461 
-0.249507 -0.946354 0.44532 0.997711 0.0606061 -0.0299888 
-0.25 -0.932674 0.438883 1 0.00016138 -0.000766012 
-0.249507 -0.918791 0.43235 0.998126 -0.054925 0.0269715 
-0.248029 -0.904752 0.425744 0.992356 -0.111396 0.05311 
-0.245572 -0.890604 0.419087 0.982889 -0.166505 0.0787689 
-0.242146 -0.876401 0.412403 0.970963 -0.216533 0.101711 
-0.237764 -0.862197 0.405719 0.955498 -0.266894 0.125661 
-0.232444 -0.848049 0.399062 0.938154 -0.313048 0.147879 
-0.226207 -0.834018 0.392459 0.917694 -0.359667 0.168753 
-0.219077 -0.820166 0.385941 0.89601 -0.401865 0.188864 
-0.211082 -0.806559 0.379538 0.87093 -0.444395 0.209749 
-0.202254 -0.793264 0.373282 0.84261 -0.486839 0.230209 
-0.192628 -0.780351 0.367205 0.812376 -0.526151 0.251416 
-0.182242 -0.767892 0.361343 0.781911 -0.562663 0.268374 
-0.171137 -0.755959 0.355727 0.745959 -0.601872 0.285125 
-0.159356 -0.744626 0.350394 0.708141 -0.638112 0.302241 
-0.146946 -0.733966 0.345378 0.666963 -0.673423 0.318843 
-0.133957 -0.724052 0.340713 0.619496 -0.709625 0.335645 
-0.120438 -0.714955 0.336432 0.570902 -0.742357 0.350679 
-0.106445 -0.706743 0.332568 0.513784 -0.775643 0.366611 
-0.092031 -0.69948 0.32915 0.454464 -0.805094 0.381164 
-0.077254 -0.693225 0.326207 0.389126 -0.832781 0.393772 
-0.062172 -0.688031 0.323763 0.316914 -0.857265 0.405786 
-0.046845 -0.683942 0.321839 0.243099 -0.877505 0.413385 
-0.031333 -0.680994 0.320452 0.161682 -0.892916 0.420191 
-0.015698 -0.679215 0.319614 0.0820135 -0.901229 0.425512 
-0 -0.67862 0.319334 2.66982e-05 -0.903742 0.428078 
0.015698 -0.679215 0.319614 -0.0815407 -0.901086 0.425905 
0.031333 -0.680994 0.320452 -0.160902 -0.892606 0.421147 
0.046845 -0.683942 0.321839 -0.243887 -0.877423 0.413096 
0.062172 -0.688031 0.323763 -0.318055 -0.858003 0.403326 
0.077254 -0.693225 0.326207 -0.387381 -0.834965 0.390857 
0.092031 -0.69948 0.32915 -0.455324 -0.806383 0.377394 
0.106445 -0.706743 0.332568 -0.513872 -0.777255 0.363058 
0.120438 -0.714955 0.336432 -0.570813 -0.744103 0.347106 
0.133957 -0.724052 0.340713 -0.619549 -0.711238 0.332113 
0.146946 -0.733966 0.345378 -0.667564 -0.674187 0.315959 
0.159356 -0.744626 0.350394 -0.707139 -0.640113 0.300349 
0.171137 -0.755959 0.355727 -0.747044 -0.601685 0.282667 
0.182242 -0.767892 0.361343 -0.781105 -0.563879 0.268169 
0.192628 -0.780351 0.367205 -0.812842 -0.5259 0.250433 
0.202254 -0.793264 0.373282 -0.842264 -0.487602 0.229861 
0.211082 -0.806559 0.379538 -0.871295 -0.444284 0.208463 
0.219077 -0.820166 0.385941 -0.895935 -0.402258 0.188386 
0.226207 -0.834018 0.392459 -0.917711 -0.359752 0.16848 
0.232444 -0.848049 0.399062 -0.938151 -0.313106 0.147774 
0.237764 -0.862197 0.405719 -0.955499 -0.266916 0.125609 
0.242146 -0.876401 0.412403 -0.970962 -0.21654 0.101698 
0.245572 -0.890604 0.419087 -0.982889 -0.166494 0.0787924 
0.248029 -0.904752 0.425744 -0.992356 -0.111354 0.0531971 
0.249507 -0.918791 0.43235 -0.998124 -0.0548689 0.027148 
0.25 -0.958392 0.379454 -1 -1.22465e-16 -8.43388e-05 
0.249507 -0.972448 0.385019 -0.99751 0.0653768 -0.0264618 
0.248029 -0.98625 0.390484 -0.991055 0.123932 -0.0494965 
0.245572 -0.999754 0.395831 -0.978835 0.190166 -0.0756212 
0.242146 -1.01292 0.401044 -0.962317 0.252852 -0.100057 
0.237764 -1.02571 0.406108 -0.940792 0.315205 -0.124724 
0.232444 -1.03809 0.411009 -0.913816 0.377762 -0.14912 
0.226207 -1.05003 0.415735 -0.88281 0.436892 -0.172545 
0.219077 -1.06148 0.420271 -0.849032 0.491329 -0.194269 
0.211082 -1.07244 0.424608 -0.807928 0.547994 -0.216689 
0.202254 -1.08286 0.428734 -0.764349 0.599728 -0.236851 
0.192628 -1.09272 0.432638 -0.718869 0.646706 -0.254951 
0.182242 -1.102 0.436313 -0.669545 0.690572 -0.273534 
0.171137 -1.11068 0.439749 -0.618435 0.730615 -0.289377 
0.159356 -1.11873 0.442938 -0.570008 0.763876 -0.302628 
0.146946 -1.12615 0.445873 -0.514616 0.797244 -0.315552 
0.133957 -1.1329 0.448548 -0.464333 0.823491 -0.325972 
0.120438 -1.13899 0.450957 -0.411576 0.847569 -0.33501 
0.106445 -1.14439 0.453094 -0.357505 0.868561 -0.343209 
0.092031 -1.14909 0.454956 -0.30667 0.885429 -0.349239 
0.077254 -1.15308 0.456538 -0.254774 0.898844 -0.356609 
0.062172 -1.15636 0.457837 -0.203355 0.910013 -0.361279 
0.046845 -1.15892 0.45885 -0.151749 0.918661 -0.364738 
0.031333 -1.16075 0.459575 -0.101688 0.924642 -0.36701 
0.015698 -1.16185 0.46001 -0.0529207 0.928356 -0.367905 
0 -1.16222 0.460156 -5.38528e-06 0.929656 -0.368429 
-0.015698 -1.16185 0.46001 0.052932 0.928312 -0.368014 
-0.031333 -1.16075 0.459575 0.101687 0.924616 -0.367076 
-0.046845 -1.15892 0.45885 0.151749 0.918645 -0.364779 
-0.062172 -1.15636 0.457837 0.203355 0.910003 -0.361305 
-0.077254 -1.15308 0.456538 0.254774 0.898838 -0.356623 
-0.092031 -1.14909 0.454956 0.30667 0.885426 -0.349247 
-0.106445 -1.14439 0.453094 0.357504 0.868559 -0.343213 
-0.120438 -1.13899 0.450957 0.411576 0.847569 -0.33501 
-0.133957 -1.1329 0.448548 0.464332 0.823492 -0.325971 
-0.146946 -1.12615 0.445873 0.514614 0.797247 -0.315546 
-0.159356 -1.11873 0.442938 0.570015 0.763877 -0.302614 
-0.171137 -1.11068 0.439749 0.618431 0.730622 -0.28937 
-0.182242 -1.102 0.436313 0.669545 0.690573 -0.27353 
-0.192628 -1.09272 0.432638 0.718869 0.646706 -0.254949 
-0.202254 -1.08286 0.428734 0.764348 0.599728 -0.236851 
-0.211082 -1.07244 0.424608 0.807928 0.547993 -0.21669 
-0.219077 -1.06148 0.420271 0.849032 0.491328 -0.19427 
-0.226207 -1.05003 0.415735 0.88281 0.436891 -0.172546 
-0.232444 -1.03809 0.411009 0.913816 0.377762 -0.149121 
-0.237764 -1.02571 0.406108 0.940792 0.315204 -0.124725 
-0.242146 -1.01292 0.401044 0.962317 0.252854 -0.100058 
-0.245572 -0.999754 0.395831 0.978836 0.190162 -0.0756156 
-0.248029 -0.98625 0.390484 0.991051 0.123975 -0.0494847 
-0.249507 -0.972448 0.385019 0.997519 0.0652848 -0.0263441 
-0.25 -0.958392 0.379454 1 0.000599176 -1.69325e-05 
-0.249507 -0.944126 0.373806 0.99817 -0.0560279 0.0227608 
-0.248029 -0.929699 0.368094 0.992152 -0.116424 0.045609 
-0.245572 -0.915161 0.362338 0.983518 -0.168166 0.0664234 
-0.242146 -0.900567 0.35656 0.970825 -0.223106 0.0878826 
-0.237764 -0.885971 0.350781 0.955729 -0.273975 0.107332 
-0.232444 -0.871433 0.345025 0.938037 -0.322324 0.127255 
-0.226207 -0.857015 0.339316 0.918606 -0.3677 0.144774 
-0.219077 -0.842781 0.333681 0.895475 -0.413987 0.163525 
-0.211082 -0.828799 0.328145 0.870142 -0.458476 0.180699 
-0.202254 -0.815137 0.322736 0.842735 -0.501126 0.196648 
-0.192628 -0.801868 0.317482 0.812417 -0.543782 0.210427 
-0.182242 -0.789066 0.312413 0.781483 -0.581323 0.226599 
-0.171137 -0.776803 0.307558 0.745831 -0.620022 0.243534 
-0.159356 -0.765158 0.302947 0.708138 -0.657026 0.258569 
-0.146946 -0.754204 0.29861 0.666374 -0.693991 0.27262 
-0.133957 -0.744016 0.294577 0.618737 -0.73185 0.285587 
-0.120438 -0.734669 0.290876 0.569311 -0.765234 0.300504 
-0.106445 -0.72623 0.287535 0.514691 -0.797953 0.31363 
-0.092031 -0.718767 0.28458 0.45185 -0.830478 0.325789 
-0.077254 -0.71234 0.282035 0.389089 -0.857103 0.337615 
-0.062172 -0.707002 0.279922 0.315217 -0.882339 0.34945 
-0.046845 -0.702801 0.278258 0.242746 -0.902834 0.354917 
-0.031333 -0.699772 0.277059 0.1618 -0.918639 0.360448 
-0.015698 -0.697944 0.276335 0.0817847 -0.927802 0.363998 
-0 -0.697332 0.276093 0.000472237 -0.930284 0.366841 
0.015698 -0.697944 0.276335 -0.0813917 -0.92716 0.365718 
0.031333 -0.699772 0.277059 -0.160499 -0.917697 0.363418 
0.046845 -0.702801 0.278258 -0.244029 -0.90065 0.359554 
0.062172 -0.707002 0.279922 -0.314763 -0.880969 0.353296 
0.077254 -0.71234 0.282035 -0.38936 -0.854711 0.343318 
0.092031 -0.718767 0.28458 -0.451061 -0.829224 0.330048 
0.106445 -0.72623 0.287535 -0.515291 -0.796196 0.317093 
0.120438 -0.734669 0.290876 -0.569305 -0.76384 0.304041 
0.133957 -0.744016 0.294577 -0.61843 -0.731579 0.286944 
0.146946 -0.754204 0.29861 -0.666943 -0.692932 0.273921 
0.159356 -0.765158 0.302947 -0.707823 -0.656497 0.260763 
0.171137 -0.776803 0.307558 -0.745739 -0.619732 0.24455 
0.182242 -0.789066 0.312413 -0.781584 -0.58036 0.22871 
0.192628 -0.801868 0.317482 -0.812695 -0.542706 0.212125 
0.202254 -0.815137 0.322736 -0.842353 -0.500976 0.198658 
0.211082 -0.828799 0.328145 -0.870451 -0.457295 0.1822 
0.219077 -0.842781 0.333681 -0.895413 -0.413811 0.164303 
0.226207 -0.857015 0.339316 -0.918615 -0.367561 0.145069 
0.232444 -0.871433 0.345025 -0.938035 -0.322272 0.127399 
0.237764 -0.885971 0.350781 -0.955729 -0.273946 0.107403 
0.242146 -0.900567 0.35656 -0.970824 -0.223095 0.0879207 
0.245572 -0.915161 0.362338 -0.983521 -0.168145 0.0664383 
0.248029 -0.929699 0.368094 -0.992148 -0.116456 0.0456145 
0.249507 -0.944126 0.373806 -0.99818 -0.0559088 0.0226176 
0.25 -0.980327 0.318527 -1 -1.22465e-16 -0.000345061 
0.249507 -0.994705 0.323199 -0.997707 0.0644489 -0.0206458 
0.248029 -1.00882 0.327786 -0.990853 0.128491 -0.0412382 
0.245572 -1.02264 0.332275 -0.979081 0.193376 -0.063289 
0.242146 -1.0361 0.336651 -0.96254 0.257651 -0.0844541 
0.237764 -1.04919 0.340902 -0.941001 0.321915 -0.104346 
0.232444 -1.06185 0.345016 -0.912997 0.38816 -0.125569 
0.226207 -1.07406 0.348983 -0.88417 0.444498 -0.143755 
0.219077 -1.08578 0.352791 -0.846648 0.506248 -0.164013 
0.211082 -1.09698 0.356431 -0.810201 0.55761 -0.180683 
0.202254 -1.10764 0.359894 -0.764252 0.613525 -0.198762 
0.192628 -1.11773 0.363172 -0.719109 0.660833 -0.2149 
0.182242 -1.12722 0.366257 -0.670318 0.70567 -0.229573 
0.171137 -1.1361 0.369141 -0.618749 0.746763 -0.243916 
0.159356 -1.14434 0.371818 -0.568787 0.781804 -0.255468 
0.146946 -1.15192 0.374282 -0.516171 0.813842 -0.266886 
0.133957 -1.15883 0.376527 -0.463499 0.842117 -0.275696 
0.120438 -1.16506 0.378549 -0.411336 0.866524 -0.282735 
0.106445 -1.17058 0.380344 -0.358938 0.887204 -0.289884 
0.092031 -1.17539 0.381907 -0.305299 0.905248 -0.295499 
0.077254 -1.17947 0.383234 -0.255473 0.918984 -0.300336 
0.062172 -1.18283 0.384325 -0.203924 0.930828 -0.303272 
0.046845 -1.18545 0.385175 -0.151685 0.939992 -0.305624 
0.031333 -1.18732 0.385784 -0.101387 0.946292 -0.307004 
0.015698 -1.18845 0.386149 -0.0518981 0.950149 -0.307448 
0 -1.18882 0.386271 3.47944e-05 0.951785 -0.306766 
-0.015698 -1.18845 0.386149 0.0518883 0.950159 -0.307419 
-0.031333 -1.18732 0.385784 0.10139 0.946303 -0.306969 
-0.046845 -1.18545 0.385175 0.151683 0.940002 -0.305596 
-0.062172 -1.18283 0.384325 0.203924 0.930835 -0.303251 
-0.077254 -1.17947 0.383234 0.255474 0.918988 -0.300323 
-0.092031 -1.17539 0.381907 0.305299 0.90525 -0.295491 
-0.106445 -1.17058 0.380344 0.358937 0.887206 -0.289878 
-0.120438 -1.16506 0.378549 0.411337 0.866524 -0.282731 
-0.133957 -1.15883 0.376527 0.463495 0.84212 -0.275693 
-0.146946 -1.15192 0.374282 0.516175 0.813843 -0.266877 
-0.159356 -1.14434 0.371818 0.56879 0.781805 -0.255458 
-0.171137 -1.1361 0.369141 0.618747 0.746767 -0.243908 
-0.182242 -1.12722 0.366257 0.670318 0.705674 -0.229562 
-0.192628 -1.11773 0.363172 0.71911 0.660836 -0.21489 
-0.202254 -1.10764 0.359894 0.764252 0.613528 -0.198752 
-0.211082 -1.09698 0.356431 0.810201 0.557613 -0.180672 
-0.219077 -1.08578 0.352791 0.846648 0.506251 -0.164001 
-0.226207 -1.07406 0.348983 0.88417 0.444503 -0.143739 
-0.232444 -1.06185 0.345016 0.912997 0.388167 -0.125548 
-0.237764 -1.04919 0.340902 0.941001 0.321926 -0.104311 
-0.242146 -1.0361 0.336651 0.962539 0.257676 -0.0843951 
-0.245572 -1.02264 0.332275 0.979086 0.193391 -0.0631733 
-0.248029 -1.00882 0.327786 0.99084 0.128652 -0.0410474 
-0.249507 -0.994705 0.323199 0.997733 0.064236 -0.0200529 
-0.25 -0.980327 0.318527 0.999999 0.00168545 0.000203989 
-0.249507 -0.965734 0.313786 0.998106 -0.0579891 0.020537 
-0.248029 -0.950977 0.308991 0.992457 -0.115857 0.040074 
-0.245572 -0.936107 0.30416 0.983057 -0.173612 0.0588027 
-0.242146 -0.921178 0.299309 0.97072 -0.227912 0.0758901 
-0.237764 -0.906248 0.294458 0.956115 -0.278177 0.0919837 
-0.232444 -0.891378 0.289626 0.937508 -0.330681 0.108296 
-0.226207 -0.87663 0.284834 0.918531 -0.375795 0.122798 
-0.219077 -0.86207 0.280104 0.895793 -0.422101 0.139232 
-0.211082 -0.847768 0.275456 0.871023 -0.466151 0.15499 
-0.202254 -0.833794 0.270916 0.842216 -0.511717 0.16976 
-0.192628 -0.820221 0.266506 0.813976 -0.551943 0.181111 
-0.182242 -0.807125 0.262251 0.780987 -0.593979 0.193 
-0.171137 -0.794582 0.258175 0.745428 -0.634215 0.205205 
-0.159356 -0.78267 0.254305 0.708708 -0.670692 0.218872 
-0.146946 -0.771465 0.250664 0.664597 -0.709371 0.234744 
-0.133957 -0.761045 0.247278 0.619478 -0.7461 0.244094 
-0.120438 -0.751483 0.244172 0.570092 -0.781082 0.254768 
-0.106445 -0.742852 0.241367 0.513886 -0.815582 0.265983 
-0.092031 -0.735218 0.238887 0.454735 -0.846776 0.27602 
-0.077254 -0.728643 0.236751 0.388961 -0.876023 0.285118 
-0.062172 -0.723184 0.234977 0.316835 -0.902335 0.292247 
-0.046845 -0.718886 0.23358 0.242152 -0.923436 0.297705 
-0.031333 -0.715788 0.232574 0.163136 -0.938523 0.30424 
-0.015698 -0.713918 0.231966 0.0814487 -0.947649 0.308751 
-0 -0.713292 0.231763 0.000110844 -0.951083 0.308936 
0.015698 -0.713918 0.231966 -0.0818207 -0.947727 0.308414 
0.031333 -0.715788 0.232574 -0.160844 -0.939017 0.303936 
0.046845 -0.718886 0.23358 -0.244052 -0.922933 0.297713 
0.062172 -0.723184 0.234977 -0.315979 -0.902664 0.292156 
0.077254 -0.728643 0.236751 -0.390287 -0.875905 0.283668 
0.092031 -0.735218 0.238887 -0.452935 -0.848196 0.274615 
0.106445 -0.742852 0.241367 -0.515066 -0.81494 0.265667 
0.120438 -0.751483 0.244172 -0.569783 -0.781144 0.255267 
0.133957 -0.761045 0.247278 -0.619348 -0.745519 0.246191 
0.146946 -0.771465 0.250664 -0.664957 -0.708476 0.23642 
0.159356 -0.78267 0.254305 -0.708397 -0.670303 0.221059 
0.171137 -0.794582 0.258175 -0.745142 -0.633857 0.207335 
0.182242 -0.807125 0.262251 -0.78158 -0.592849 0.194067 
0.192628 -0.820221 0.266506 -0.813694 -0.552645 0.180239 
0.202254 -0.833794 0.270916 -0.842096 -0.512455 0.16812 
0.211082 -0.847768 0.275456 -0.871257 -0.466196 0.153536 
0.219077 -0.86207 0.280104 -0.895734 -0.422456 0.138534 
0.226207 -0.87663 0.284834 -0.918546 -0.375894 0.122384 
0.232444 -0.891378 0.289626 -0.937507 -0.330748 0.108105 
0.237764 -0.906248 0.294458 -0.956114 -0.278212 0.0918929 
0.242146 -0.921178 0.299309 -0.970719 -0.227939 0.0758183 
0.245572 -0.936107 0.30416 -0.983062 -0.173622 0.0586952 
0.248029 -0.950977 0.308991 -0.992446 -0.116005 0.039927 
0.249507 -0.965734 0.313786 -0.998128 -0.0577858 0.020029 
0.25 -0.998393 0.256344 -1 -1.22465e-16 0.000164361 
0.249507 -1.01304 0.260103 -0.997465 0.0690122 -0.0173299 
0.248029 -1.02741 0.263795 -0.990907 0.130314 -0.0334772 
0.245572 -1.04148 0.267407 -0.979099 0.196895 -0.0509631 
0.242146 -1.0552 0.270929 -0.962839 0.261454 -0.0676937 
0.237764 -1.06852 0.27435 -0.939426 0.33183 -0.0858307 
0.232444 -1.08142 0.277661 -0.914644 0.391332 -0.101412 
0.226207 -1.09385 0.280853 -0.883361 0.453775 -0.117308 
0.219077 -1.10579 0.283918 -0.847908 0.513393 -0.13221 
0.211082 -1.1172 0.286848 -0.80739 0.571507 -0.146633 
0.202254 -1.12805 0.289635 -0.766314 0.622402 -0.159309 
0.192628 -1.13833 0.292273 -0.71772 0.674417 -0.173319 
0.182242 -1.148 0.294755 -0.669667 0.719124 -0.185492 
0.171137 -1.15704 0.297076 -0.6186 0.760594 -0.197057 
0.159356 -1.16543 0.299231 -0.56825 0.796577 -0.206295 
0.146946 -1.17315 0.301214 -0.515822 0.82964 -0.2136 
0.133957 -1.18019 0.303021 -0.464136 0.857931 -0.2203 
0.120438 -1.18653 0.304648 -0.409817 0.883564 -0.226637 
0.106445 -1.19215 0.306092 -0.359395 0.903937 -0.231805 
0.092031 -1.19705 0.30735 -0.306582 0.921888 -0.236917 
0.077254 -1.20121 0.308418 -0.255048 0.936664 -0.240025 
0.062172 -1.20463 0.309296 -0.202887 0.948573 -0.242996 
0.046845 -1.20729 0.30998 -0.151495 0.95755 -0.24525 
0.031333 -1.2092 0.31047 -0.102599 0.963473 -0.247372 
0.015698 -1.21035 0.310764 -0.0523353 0.96713 -0.24884 
0 -1.21073 0.310862 -8.06614e-05 0.968393 -0.24943 
-0.015698 -1.21035 0.310764 0.0524228 0.967091 -0.248971 
-0.031333 -1.2092 0.31047 0.102579 0.963456 -0.247448 
-0.046845 -1.20729 0.30998 0.1515 0.957538 -0.245295 
-0.062172 -1.20463 0.309296 0.202886 0.948566 -0.243022 
