ply
format ascii 1.0
element vertex 831
property float x
property float y
property float z
property float nx
property float ny
property float nz
end_header
0.013137 0.174473 -0.205875 -0.35336 0.469916 0.808898 
0.272354 0.179301 -0.023763 -0.853211 -0.0382637 -0.520161 
0.130731 0.093121 0.036442 0.651326 -0.722462 -0.231997 
-0.439631 0.120967 0.065196 0.130776 0.627989 -0.767156 
-0.359358 0.067029 0.189577 -0.847524 0.489754 -0.204558 
0.067395 0.226399 0.199275 0.286537 -0.231256 0.92974 
-0.253237 0.236115 0.025392 0.274616 0.945654 -0.174139 
-0.023935 0.116383 -0.211029 -0.419107 0.149778 0.895498 
-0.31076 -0.128804 -0.10379 0.695633 -0.716334 0.054406 
-0.2503 -0.059652 0.253035 -0.39497 -0.0803613 0.915173 
-0.285697 -0.05541 0.183491 -0.54847 -0.817148 -0.177342 
0.216869 0.206817 0.078006 -0.340869 0.880015 0.33073 
-0.223462 -0.027045 0.27903 -0.365542 -0.485081 0.794403 
-0.37545 0.021472 -0.069267 0.34666 -0.78839 -0.508201 
0.455144 0.132053 0.140971 0.58766 -0.548129 0.595155 
0.081386 0.061377 -0.068928 -0.854946 0.465352 0.22916 
-0.215304 0.196005 -0.049445 0.807557 0.391632 -0.440996 
-0.194668 -0.007033 0.289022 -0.0365151 -0.218749 0.975098 
-0.107411 0.159082 0.162357 0.451694 0.807471 0.379425 
0.030309 0.01835 -0.179164 -0.0922227 -0.270833 -0.958198 
0.011131 0.1874 0.17371 0.219417 -0.389508 0.894506 
-0.12238 -0.045742 0.281471 0.257196 0.550857 0.793982 
-0.349462 0.2133 0.005109 -0.625723 0.772585 0.107623 
0.075375 0.209302 0.173832 0.992584 0.00606663 0.121409 
0.055024 0.039484 -0.063367 -0.379051 0.894284 0.237859 
0.062996 -0.033833 -0.032184 0.939837 -0.334335 -0.0701836 
-0.253388 0.177778 -0.115685 -0.719376 0.466771 -0.514415 
0.22251 0.224492 0.024314 -0.760579 0.386626 -0.521574 
-0.218768 -0.153009 0.078415 -0.705661 -0.54773 0.449483 
-0.095572 0.147041 -0.236735 0.223067 -0.167303 -0.960339 
-0.26773 -0.090091 -0.089214 0.0310348 -0.965055 -0.260205 
-0.360253 0.06704 0.306859 0.474431 0.205801 0.855898 
-0.172377 0.148017 -0.237319 -0.331948 0.590606 0.735523 
-0.083208 -0.214939 0.096559 -0.375067 -0.923755 0.0774683 
-0.322232 -0.109835 0.05651 -0.498038 -0.731094 -0.466327 
-0.34336 0.25435 0.152942 -0.698996 0.161544 0.696641 
0.151987 0.193141 -0.179435 -0.53507 -0.380608 -0.754213 
0.132153 0.195319 -0.123654 0.767719 -0.590827 -0.248054 
-0.055462 0.169113 -0.256564 -0.787618 -0.524481 -0.323385 
-0.030035 -0.143482 -0.034698 0.628701 -0.752931 -0.194501 
-0.347208 0.094634 -0.073527 -0.711558 0.158834 -0.684439 
0.147803 0.038941 0.185097 -0.585154 0.485683 0.64939 
-0.152364 0.214395 -0.228836 -0.160496 0.959081 0.233247 
-0.145578 -0.085976 -0.137792 -0.936127 -0.231334 -0.26486 
-0.133277 0.221245 -0.251416 -0.940009 0.324291 0.105919 
-0.036761 -0.172497 0.061166 -0.355998 -0.129436 -0.925479 
-0.108994 0.046347 -0.214524 -0.031564 -0.199346 -0.979421 
-0.186099 0.124948 -0.224624 -0.728689 -0.678084 0.0959899 
-0.354759 -0.023546 -0.052968 -0.57766 -0.147455 -0.802849 
-0.183781 -0.061698 -0.115744 -0.671337 -0.287619 -0.683068 
-0.388165 0.131857 0.095265 0.200099 0.302783 0.931817 
-0.059816 -0.225476 0.107966 0.941924 0.275588 0.191913 
0.140369 0.150002 -0.010786 0.660172 -0.430034 -0.615828 
0.258576 0.21162 0.105871 -0.127665 0.99136 0.0301029 
-0.00924 0.002744 -0.07085 -0.348229 0.931572 0.104451 
-0.027626 0.22237 -0.225586 -0.433901 0.0746358 0.897864 
-0.086021 0.00398 -0.116266 0.151727 0.947763 0.280579 
-0.342954 0.223031 0.03564 -0.590603 0.770268 -0.240572 
-0.007603 0.208716 -0.241519 -0.0938143 0.190245 -0.977244 
-0.425226 -0.037714 0.000887 -0.153169 -0.987201 -0.0444332 
0.062209 -0.010298 0.085922 0.672254 -0.673858 -0.306577 
-0.27011 0.071567 -0.143597 0.370364 -0.200234 -0.907048 
0.026461 0.195277 -0.218564 0.258855 0.11595 0.958932 
-0.373707 0.142246 0.110845 -0.945285 -0.0587696 0.320909 
0.01582 0.031992 -0.116177 -0.343332 0.901607 0.263112 
-0.327419 0.227106 0.017097 -0.355216 0.911883 -0.205647 
-0.297662 -0.132824 0.069666 -0.150849 -0.981636 -0.116772 
0.342482 0.162719 0.192295 0.479714 -0.338653 0.809437 
0.078852 -0.021484 0.126131 0.197312 0.539685 0.818418 
0.026998 -0.163336 0.149825 0.0186955 0.93259 0.360452 
-0.060828 0.22092 -0.252723 -0.185883 0.933423 -0.30687 
-0.181659 -0.150851 0.167692 -0.0225586 -0.906794 0.420971 
-0.358858 0.191896 -0.072219 0.114959 -0.167725 -0.979108 
-0.110389 0.003249 -0.089814 0.376203 0.925656 -0.0404145 
-0.166673 0.021201 0.287475 -0.014118 -0.154841 0.987838 
-0.297053 0.255693 0.107581 -0.514823 0.556457 -0.65216 
0.092497 0.202536 0.10389 -0.401075 0.898531 -0.178274 
-0.134092 0.07411 -0.218184 -0.144137 -0.197298 -0.96969 
-0.402024 0.115525 0.004855 -0.429881 0.859319 -0.277079 
-0.224095 0.186671 -0.140434 0.689158 0.341961 0.638846 
0.16556 0.192455 0.049905 -0.331789 0.924542 0.18745 
0.028797 0.164148 -0.217443 -0.105156 -0.70969 -0.696622 
-0.217544 -0.237291 0.087496 -0.793068 0.536698 0.288093 
0.061619 -0.007325 0.121921 0.073036 0.340917 0.937252 
-0.185642 -0.118143 -0.059508 -0.532983 -0.562937 -0.631689 
-0.217918 -0.114315 0.20951 -0.24453 -0.808094 0.535901 
-0.193871 -0.247503 0.049156 0.581295 -0.506821 -0.636576 
-0.219656 -0.142101 0.109624 -0.636814 -0.769582 -0.0470258 
-0.376409 0.05523 0.311381 0.128629 -0.348852 0.928309 
-0.149116 0.120777 -0.230149 0.519918 -0.267502 -0.811251 
0.058936 0.038337 -0.050086 -0.432512 0.887889 0.1568 
-0.002534 0.066127 0.167691 0.600021 0.0608736 0.797665 
-0.099749 0.089953 0.2379 0.613317 0.290905 0.734314 
0.238171 0.187796 0.209804 -0.77399 -0.291828 0.561939 
-0.199601 0.168585 -0.227587 0.934155 0.0317174 0.355455 
0.146268 0.100438 0.153975 -0.130046 -0.125422 0.983543 
-0.089687 -0.184935 0.032242 0.506643 -0.789999 -0.345275 
-0.341776 -0.091785 0.087495 -0.399981 -0.891641 0.212111 
-0.225459 -0.258933 0.107812 0.281561 0.385706 0.878609 
-0.472001 -0.021254 0.04809 -0.520229 -0.806376 -0.281282 
0.098545 0.046001 0.097586 0.961238 0.247289 0.121942 
-0.127854 -0.130472 -0.090113 -0.206347 -0.719644 -0.662973 
-0.346019 0.05029 0.277672 -0.275196 -0.949726 -0.14929 
0.374523 0.178401 0.069768 0.642781 -0.748061 0.165035 
-0.384522 0.074448 0.170615 -0.0801187 0.843699 0.530804 
-0.09737 0.145448 -0.226515 -0.170763 0.442337 0.880442 
-0.103339 0.051514 0.254724 0.448842 0.247829 0.858558 
0.391714 0.144575 0.14163 -0.154349 -0.972355 -0.17522 
-0.27993 -0.020487 -0.094656 0.101144 -0.419422 -0.902139 
0.252364 0.208407 0.194044 0.511209 0.824108 -0.243949 
0.062163 0.136066 -0.293543 0.499918 0.198463 -0.843027 
0.002824 0.007973 0.161921 0.671308 -0.0733612 0.737539 
-0.206501 0.029758 -0.137429 -0.919057 -0.115145 -0.37693 
0.187046 0.212467 0.030724 -0.530247 0.581694 0.616822 
-0.376093 0.119768 0.287926 -0.257428 0.776638 -0.574948 
-0.185694 0.189319 -0.00211 0.750837 0.612995 -0.245929 
-0.00187 0.094632 -0.195662 -0.344378 0.406137 0.846437 
-0.241603 0.190052 -0.284366 -0.814299 -0.426475 -0.393746 
-0.014525 0.202649 -0.245902 0.637645 0.467507 -0.612246 
-0.027142 0.058461 -0.174685 -0.152495 0.708647 0.688886 
0.356651 0.168736 0.091495 -0.0816447 -0.712019 -0.697397 
0.087891 0.084221 -0.082662 -0.927232 0.250503 0.278367 
-0.110207 0.172085 0.237251 0.218152 0.975044 0.0412107 
-0.048358 0.156905 0.18383 0.414627 0.250764 0.874758 
-0.114183 0.106803 -0.226482 0.084964 -0.118573 -0.989304 
0.443238 0.168168 0.108002 0.314357 0.7679 0.558129 
-0.127809 -0.059027 0.287289 -0.190988 0.363778 0.911696 
0.226695 0.136344 0.202703 -0.47186 0.0943307 0.876613 
-0.321801 -0.078558 -0.054388 -0.788172 -0.557832 0.260017 
-0.264831 0.233752 -0.001039 0.136371 0.98521 -0.103748 
-0.133038 0.119037 0.2671 -0.207589 0.213219 0.954696 
-0.14009 0.015935 -0.119261 0.337979 0.901431 0.27054 
-0.17214 0.184258 -0.276368 0.719191 0.262641 -0.643261 
0.142705 0.214722 -0.179066 -0.496968 0.0383622 -0.866921 
0.169491 0.146712 0.168258 -0.328951 0.266308 0.906019 
0.155208 0.223932 -0.053849 -0.231589 0.966096 0.114127 
0.397734 0.187489 0.004809 0.377855 0.910323 -0.168933 
0.246789 0.188164 0.005471 -0.335844 0.0288177 -0.941477 
0.042028 -0.001907 -0.138061 0.747157 -0.486621 -0.452721 
-0.270486 0.220189 0.199127 0.155457 0.970935 0.181986 
0.001419 0.00583 -0.044954 -0.395093 0.918611 0.00749613 
0.226948 0.082312 0.199471 0.694826 -0.718767 0.0243035 
-0.235505 0.236802 0.042475 0.446062 0.839189 -0.311112 
-0.261721 -0.083405 -0.09918 0.955524 -0.278354 -0.0974312 
-0.010625 -0.089947 -0.172592 0.466253 0.0689201 -0.881963 
-0.235875 -0.091318 -0.066688 0.53151 -0.806846 -0.257871 
0.181733 0.19898 0.163173 -0.679406 0.286283 0.675611 
-0.220029 0.116105 -0.327746 0.940296 -0.243253 -0.238059 
0.106417 0.128774 -0.066781 0.926348 -0.0500375 -0.373331 
0.001518 -0.180135 0.130607 -0.615345 -0.780227 0.112236 
0.132339 0.206172 -0.17039 -0.528905 -0.275181 -0.802829 
0.030561 0.112107 -0.1925 0.470722 0.0657364 -0.879829 
0.069836 0.014295 0.069792 0.911459 -0.195073 0.362199 
-0.049377 0.120713 -0.230205 -0.185757 -0.214114 -0.958984 
-0.149907 0.063837 -0.212456 -0.385539 -0.610906 -0.691487 
-0.009754 0.228796 -0.218108 -0.585032 0.406198 0.701955 
0.006627 -0.120541 -0.000556 0.681908 -0.720112 -0.128219 
0.032732 0.099512 -0.191511 0.640571 -0.0201792 -0.767634 
-0.174078 -0.080148 -0.111742 -0.467434 -0.571568 -0.674401 
-0.118821 0.129246 -0.23065 0.0382738 -0.153756 -0.987367 
-0.345753 0.183221 0.18089 -0.704908 0.559289 0.436235 
-0.299998 0.033246 0.263113 -0.485183 -0.239395 0.841004 
0.023517 -0.039191 0.130145 0.674257 -0.0554172 0.736414 
0.154791 0.187788 -0.172368 -0.31005 -0.925075 -0.219327 
0.245363 0.135395 0.123513 0.0863914 -0.996108 -0.0174977 
0.019114 0.163336 -0.213492 -0.0118112 -0.685685 -0.727803 
-0.270721 0.171689 0.307953 -0.741099 0.493258 -0.455488 
-0.363026 0.188869 -0.070414 -0.369224 -0.624645 -0.688108 
-0.16532 0.103399 -0.226542 -0.232967 -0.575263 -0.784091 
0.07066 -0.072403 0.105028 0.944342 -0.0357995 0.327013 
0.113736 0.209263 0.081175 -0.640004 0.590405 -0.491749 
0.426555 0.176641 0.060614 0.575706 0.617946 -0.535448 
-0.179317 -0.262078 0.064198 -0.387213 -0.212956 -0.897059 
0.338955 0.207226 0.091702 0.0261302 0.887952 0.459193 
0.336125 0.149967 0.174993 -0.0406085 -0.969663 0.241048 
-0.156382 0.109303 0.272086 0.300933 0.212006 0.929781 
-0.128558 -0.006687 -0.190568 -0.399667 -0.449997 -0.798604 
0.341329 0.154338 0.185184 0.261603 -0.705561 0.658595 
0.037258 0.028612 0.131293 0.503747 -0.309412 0.806538 
-0.215379 -0.272165 0.105397 0.639725 -0.705719 0.304487 
-0.112421 0.173149 0.229388 -0.0413664 0.999039 0.0144671 
-0.186825 -0.157788 0.007942 -0.382006 -0.656048 -0.650901 
-0.227037 0.147172 -0.286796 -0.690086 -0.633519 0.349907 
-0.332879 0.216457 -0.014877 -0.371127 0.760674 -0.532578 
-0.11239 0.156744 0.260746 0.809988 -0.504978 0.298188 
0.063617 0.156271 -0.160023 0.810689 -0.079133 -0.580104 
-0.201382 0.083119 -0.169668 -0.814575 -0.313571 -0.487996 
-0.317575 -0.086756 0.109427 -0.058796 -0.843639 0.533682 
-0.328951 -0.036645 0.190469 -1.22465e-16 -1.49976e-32 -1 
-0.37523 0.167361 0.057765 -0.999412 -0.00296303 -0.0341656 
-0.125266 0.138952 0.027455 0.483053 0.385107 -0.786354 
-0.209447 0.219298 0.024601 0.512263 0.839919 -0.179226 
-0.455283 0.036865 0.089315 0.0504548 0.982584 -0.178837 
-0.239849 0.24481 0.073159 0.0403181 0.994975 -0.091645 
-0.034628 -0.027002 -0.183185 0.336789 -0.514195 -0.788782 
0.427095 0.161518 0.056495 0.388327 0.917591 -0.0850226 
-0.057402 -0.026419 -0.187575 -0.0456672 -0.260488 -0.964396 
0.05221 0.032613 -0.036175 -0.49193 0.850783 0.184858 
-0.125973 0.077574 -0.196108 0.147599 0.603682 0.783443 
0.356126 0.210201 0.072501 0.668833 0.696384 -0.260215 
-0.176788 0.045681 0.290028 0.296075 0.19241 0.935584 
-0.013636 0.23286 -0.23915 -0.867255 0.193019 -0.458925 
-0.289613 0.194279 0.221521 -0.476746 0.714201 0.512475 
-0.022662 -0.153408 0.046257 0.633169 -0.739124 -0.229767 
-0.010039 -0.000928 0.174673 0.780308 0.0978189 0.617698 
-0.296276 0.194374 -0.060824 0.000788415 0.36955 -0.929211 
0.427089 0.177487 0.07832 0.18635 0.91905 -0.347304 
-0.32306 0.122247 0.302288 -0.380464 0.480972 0.789881 
-0.304727 0.085244 0.28646 0.287929 -0.722661 0.628377 
-0.193884 -0.241278 0.039307 0.334272 -0.933774 0.127782 
0.172621 0.149442 0.023292 0.574963 -0.590967 -0.565841 
-0.154294 0.142382 0.299084 0.61683 0.116632 0.778407 
-0.231527 0.222302 -0.029202 0.407567 0.906506 -0.110161 
-0.375643 -0.064117 0.117685 -0.316827 -0.931927 -0.176443 
-0.082176 -0.105998 0.204521 0.279611 -0.765917 0.578955 
-0.072168 0.0453 0.232601 0.635969 0.311675 0.705976 
-0.374612 0.13466 0.108721 -0.938358 0.134935 0.31824 
-0.415118 0.057498 -0.034922 -0.704411 0.235701 -0.669515 
-0.208711 0.192781 -0.164511 0.726921 0.275294 0.629126 
-0.054329 -0.058534 -0.171221 0.00718811 -0.371763 -0.9283 
0.099055 0.078523 0.004581 -0.915905 0.359888 0.177761 
-0.370076 0.092641 0.266132 -0.928732 0.322134 -0.18354 
-0.191033 -0.269273 0.08911 0.926769 -0.366989 0.0801125 
-0.334673 -0.099175 0.055569 -0.679983 -0.71014 -0.182549 
0.185912 0.115375 0.179744 -0.638645 -0.147829 0.755169 
0.214535 0.146079 0.0627 0.358753 -0.898339 -0.253543 
0.450579 0.122049 0.111407 -0.41871 -0.460767 -0.782545 
0.166957 0.179828 -0.175829 -0.505405 -0.816111 0.28023 
-0.31984 0.053668 -0.102052 -0.724605 -0.253497 -0.640848 
0.395975 0.192434 0.15908 0.189604 0.671139 0.716675 
0.173854 0.199226 0.041075 0.0387792 0.838706 -0.543202 
-0.013236 0.182813 -0.25431 0.781143 -0.309118 -0.542458 
-0.280575 0.222677 0.20611 0.385177 0.921294 0.053437 
-0.342492 0.043439 -0.077462 -0.910097 -0.205849 -0.359652 
-0.173052 -0.162507 -0.010725 -0.529835 -0.718771 -0.450159 
-0.123658 -0.053773 0.286986 -0.1458 0.380893 0.913051 
0.389152 0.182963 0.171222 0.403344 0.435722 0.804649 
0.002632 -0.163978 0.074118 -0.0699761 -0.203786 -0.976512 
-0.384198 0.211979 -0.015846 -0.963468 0.0143034 0.26744 
-0.185268 0.182239 -0.292417 0.644935 -0.0736537 -0.76068 
-0.291043 0.09887 -0.113457 -0.49124 0.475854 -0.729552 
0.015561 0.028696 -0.104848 -0.373208 0.894485 0.246194 
0.070623 0.202474 0.173386 -0.201275 -0.605595 0.769898 
-0.299066 0.233271 -0.047674 -0.140144 0.947363 0.287859 
-0.104149 0.042461 0.258188 0.366294 0.279152 0.887639 
-0.200409 0.163373 0.304013 -0.482774 -0.146292 0.863439 
0.178951 0.212993 0.016906 -0.803004 0.57433 0.159155 
-0.20847 -0.118327 -0.012772 -0.819564 -0.25728 -0.511979 
0.007036 0.105833 0.158319 0.0647978 0.19849 0.977959 
-0.225613 0.239191 0.157735 0.600307 0.320494 0.732745 
-0.191899 0.096553 -0.185951 -0.655932 -0.281595 -0.700326 
0.050189 -0.054516 -0.046043 0.88225 -0.462317 -0.0888674 
-0.383563 -0.079535 0.17102 0.130067 -0.958569 -0.253433 
0.068371 0.048695 0.128834 0.086939 -0.426965 0.900079 
0.140407 0.228482 -0.084309 0.0306037 0.607737 0.793548 
-0.014974 0.05312 -0.166039 -0.216367 0.729584 0.648762 
-0.063996 -0.224359 0.089473 -0.0586751 -0.36097 -0.93073 
-0.476731 -0.021746 0.060785 -0.985557 0.0124067 -0.168887 
0.012364 0.016127 -0.076622 -0.537245 0.806117 0.248079 
-0.211469 -0.060071 0.279897 -0.70492 0.11906 0.699222 
0.103307 0.246469 0.139147 -0.935999 -0.115093 -0.332654 
-0.104217 -0.162518 0.149103 -0.161284 -0.91376 0.372867 
0.349947 0.147194 0.168856 -0.355924 -0.920137 0.163299 
-0.236514 0.129101 -0.122246 0.836788 0.305837 0.454148 
-0.192126 0.202355 -0.251337 -0.685516 0.616186 0.387793 
0.415847 0.189067 0.145547 0.445889 0.849602 0.281709 
-0.049419 0.162278 -0.229499 -0.0230425 0.46388 0.885598 
-0.451576 0.122022 0.09 -0.544204 -6.66457e-17 0.838953 
-0.314028 0.094299 -0.100992 -0.577548 -0.095642 -0.810735 
-0.101876 0.224524 -0.266128 0.926892 0.375052 0.0144028 
-0.399655 0.113093 0.294058 -0.219574 -0.100112 -0.970446 
-0.04914 0.042838 0.211937 0.628168 0.399612 0.667619 
0.062818 0.210909 -0.168653 -0.953109 -0.243033 0.18033 
0.425015 0.155369 0.100417 -0.111829 -0.487675 -0.865833 
0.288063 0.169661 0.068354 0.00106181 -0.84898 -0.528425 
-0.199574 -0.031949 -0.120078 -0.845726 -0.352882 -0.400277 
0.110905 0.171252 -0.079336 0.802817 -0.452311 -0.388459 
-0.409751 -0.020942 0.105877 -0.573169 -7.01929e-17 0.819437 
0.004435 0.090112 -0.191025 -0.343628 0.402922 0.848277 
-0.340674 0.127424 0.265463 -0.257042 0.960027 0.110806 
0.099479 0.200597 0.083138 -0.423316 0.731745 -0.534185 
-0.041806 -0.060422 0.20365 0.604595 -0.269373 0.749602 
-0.264911 -0.064945 0.22745 -0.629341 -0.640385 0.440269 
0.066752 0.182986 0.155204 -0.0572391 -0.549209 0.833722 
-0.203305 -0.096621 0.28571 -0.492126 -0.682711 0.540109 
-0.283188 -0.124448 0.076326 0.435673 -0.855205 0.280736 
0.191084 0.217702 0.004808 -0.268454 0.933067 -0.239414 
-0.374121 -0.067245 0.130315 -0.0598953 -0.893672 -0.444706 
-0.093343 -0.061163 0.2755 0.296793 -0.942146 0.155802 
-0.263187 0.233771 -0.00996 0.0580478 0.996549 0.0593366 
0.38388 0.196468 0.023568 0.890327 0.376786 0.255636 
0.229723 0.184829 0.200238 -0.683184 -0.069306 0.72695 
-0.388516 0.115199 -0.028619 0.105869 0.539043 -0.835598 
-0.387432 0.183527 -0.030648 -0.985438 0.160716 -0.0555249 
0.34846 0.205872 0.091102 0.0427121 0.91958 0.390574 
0.008197 0.00644 0.156115 0.77081 -0.221666 0.597257 
-0.253593 -0.112607 0.05164 -0.472555 -0.787756 0.395137 
0.421267 0.184414 0.070673 0.112557 0.863337 -0.491914 
-0.235192 0.13176 -0.170751 -0.395346 -0.792017 -0.4652 
0.458847 0.142073 0.12787 0.941702 0.326343 0.0818401 
-0.389919 -0.006699 -0.046499 -0.10812 -0.589528 -0.800479 
-0.337826 0.111805 0.304783 0.0517528 0.515094 0.85557 
-0.304948 0.14517 0.24961 -0.552521 0.570542 0.60762 
-0.196599 0.053781 -0.117717 0.675804 0.51961 0.522776 
-0.214006 0.113009 -0.145372 0.755864 0.465264 0.460652 
-0.275048 0.170282 0.247994 -0.631823 0.505734 0.587395 
0.422195 0.179413 0.106154 0.355866 0.75614 0.549192 
0.441146 0.12278 0.152449 -0.0231606 -0.868933 0.494387 
-0.125509 -0.02783 -0.17956 -0.540891 -0.506899 -0.671186 
-0.221852 0.214415 -0.251709 0.723636 0.582692 -0.369894 
-0.129877 0.037411 -0.208435 -0.123435 -0.280815 -0.951791 
0.164552 0.060127 0.176904 0.123594 0.618848 0.775727 
-0.168669 0.015154 0.287678 0.117844 0.187946 0.975084 
-0.131156 0.144424 -0.224871 0.163178 0.295907 0.941176 
0.02599 -0.077433 -0.124072 0.771833 -0.635581 -0.0175941 
0.063123 0.260243 -0.137583 -0.820741 -0.0770145 0.566086 
0.073937 -0.112694 0.145066 -0.667315 -0.674406 -0.316019 
-0.246593 0.142185 -0.175088 -0.785088 -0.434675 -0.441242 
-0.021741 0.165692 -0.232674 0.657507 -0.667582 -0.349312 
0.209398 0.210341 0.147804 0.233609 0.970045 -0.0666342 
-0.174926 0.211637 -0.24264 -0.371698 0.766235 0.524141 
-0.090132 0.171153 0.225138 -0.180166 0.736827 0.651634 
-0.46057 0.032713 0.075135 -0.956701 0.245014 -0.157134 
-0.166991 -0.069842 -0.124975 -0.566414 -0.383056 -0.729687 
-0.187553 0.031447 -0.09292 0.499335 0.821204 0.276203 
-0.202258 -0.074638 0.291115 -0.126211 0.442059 0.888062 
-0.100165 0.167457 -0.252888 0.223875 -0.740336 -0.633863 
-0.317846 -0.090921 -0.005043 -0.384733 -0.892899 -0.233905 
-0.004511 0.088934 0.165931 0.266186 0.232871 0.93537 
-0.279502 0.234573 -0.042854 -0.0630568 0.951787 0.300209 
0.341625 0.17283 0.194171 -0.0753318 0.153379 0.985292 
-0.281031 -0.050965 0.218274 -0.72543 -0.55797 0.403015 
0.248961 0.156251 0.072932 0.342714 -0.819841 -0.458702 
0.429183 0.125694 0.128062 -0.479169 -0.788818 -0.38492 
0.366896 0.171512 0.010565 -0.867227 -0.297918 -0.398952 
-0.46115 0.044284 -0.01792 -0.184718 -2.26214e-17 -0.982792 
-0.297386 0.071619 0.277448 -0.104308 0.00118006 0.994544 
0.030603 -0.168558 0.13694 0.397006 -0.81219 -0.427473 
-0.143952 -0.087064 -0.142522 -0.811928 -0.125425 -0.570124 
-0.23804 0.167594 -0.197168 -0.884605 0.463935 -0.0473138 
-0.0143 0.233905 -0.22573 -0.345195 0.799494 0.491579 
-0.232353 -0.096019 -0.008881 0.46591 -0.26606 -0.843884 
-0.030523 0.18896 -0.303722 -0.0233048 0.910589 -0.412655 
-0.013778 0.005389 -0.007823 -0.247501 0.941507 -0.228708 
-0.309976 0.136985 0.303099 -0.79704 0.524249 0.299817 
0.443904 0.118375 0.134959 0.365322 -0.689347 0.625572 
0.064447 0.18559 -0.280288 0.939232 0.245163 -0.240289 
0.028001 -0.169173 0.129084 0.0459727 -0.979394 0.196659 
0.06295 -0 -0.10287 0.859503 -0.355163 -0.367577 
0.155417 0.215854 0.135703 -0.257597 0.791326 0.554479 
-0.273333 0.128523 -0.104106 0.0752595 0.0522437 -0.995794 
-0.168767 0.205184 -0.261705 0.665825 0.642921 -0.37859 
-0.008019 -0.139459 0.046988 0.603964 -0.7515 -0.265473 
0.3669 0.147463 0.152697 0.0658118 -0.985898 -0.153866 
-0.446257 0.03193 0.098386 0.0556251 -0.315623 0.947253 
-0.064651 0.159502 0.176189 -0.365806 0.773812 -0.517108 
0.215291 0.211192 0.185629 -0.53367 0.772035 0.345192 
-0.199478 0.218321 0.164675 0.40896 0.854954 0.319071 
0.08572 0.046133 -0.090689 0.869048 -0.376883 -0.32049 
-0.216345 0.242533 0.12883 0.860793 0.508621 0.0184201 
-0.110715 -0.187589 0.110936 0.540185 -0.371776 0.754972 
0.055809 0.102608 -0.152065 -0.750775 0.153248 0.642535 
0.255465 0.197784 0.163985 -0.211688 0.847029 0.487575 
-0.227966 0.192796 -0.072226 0.00782335 0.445687 -0.895155 
-0.155603 -0.157158 -0.03026 -0.267976 -0.808365 -0.524152 
-0.390949 0.203612 -0.039164 -0.763945 -0.230612 0.602666 
-0.224733 0.171493 -0.140712 0.824788 -0.457361 0.332483 
-0.234483 0.243702 0.073003 0.439813 0.89513 -0.0728401 
0.402703 0.189184 0.159191 0.332443 0.716021 0.613837 
0.088265 0.05908 -0.102952 0.566198 -0.161484 -0.808296 
-0.263648 -0.018133 0.265585 -0.41152 -0.352477 0.840483 
-0.156558 0.162777 0.229666 -0.0255463 0.937817 0.346188 
0.027487 -0.092616 -0.012027 0.914851 -0.403746 0.00602913 
0.02258 -0.104333 0.042191 0.70223 -0.66171 -0.262703 
-0.389455 0.13523 0.005292 -0.885876 0.365804 0.285326 
-0.464774 -0.024919 0.050159 -0.261095 -0.955795 -0.135224 
-0.339679 0.229949 0.09008 -0.589422 0.780455 0.208499 
0.173733 0.21729 -0.059988 0.780127 0.143312 0.608985 
0.250212 0.163523 0.046053 0.305293 -0.951908 -0.0258459 
0.071538 0.244332 0.185715 0.302737 -0.431609 0.849744 
-0.220804 -0.13403 0.155047 -0.556991 -0.794159 0.243047 
0.14791 0.031798 0.171887 -0.744696 -0.52148 -0.416517 
0.405422 0.163921 -0.022303 -0.137903 0.651117 -0.746344 
-0.211891 0.049933 0.294865 -0.0744363 -0.214973 0.973779 
-0.104054 -0.163519 -0.034998 0.139972 -0.954142 -0.264613 
-0.084296 0.038001 0.245799 0.659586 0.325438 0.677522 
0.002046 0.017741 0.016583 -0.244239 0.910869 -0.332664 
0.176009 0.235639 -0.056951 -0.37619 0.599997 -0.706035 
0.00767 0.145213 -0.199186 -0.551438 0.127501 0.824415 
-0.286741 0.018606 0.266573 -0.694341 -0.398735 0.599084 
0.396017 0.162774 0.100847 -0.299269 -0.931548 -0.206532 
0.09587 0.156439 -0.127182 0.631238 -0.508911 -0.585277 
0.443825 0.122854 0.150922 0.405427 -0.91408 0.00925951 
-0.102961 0.22938 -0.268636 0.927858 0.298287 0.223839 
-0.182909 0.002582 -0.161605 -0.469725 -0.442821 -0.76372 
-0.195804 -0.123181 -0.035936 -0.77285 -0.501735 -0.388543 
0.045231 0.108377 -0.164745 -0.719678 0.0939719 0.687919 
0.075828 -0.101426 0.156601 -0.505114 0.42376 0.751856 
-0.375639 0.070642 -0.043524 -0.170533 0.419489 -0.891598 
-0.151954 0.0803 0.275478 0.403809 0.161612 0.900455 
-0.140248 0.129672 -0.21891 0.279132 0.19319 0.940618 
-0.221674 0.135093 -0.201513 -0.287959 -0.945969 -0.149071 
-0.200919 -0.139911 0.178255 -0.632326 -0.625854 0.456586 
-0.216482 0.222132 0.020533 0.411741 0.909305 -0.0602808 
-0.136781 0.061166 0.271786 0.498275 0.269339 0.824123 
0.129805 0.187742 -0.160685 -0.336573 -0.680293 -0.651091 
-0.215358 0.239402 0.12053 0.671911 0.716867 -0.18611 
0.175862 0.129915 0.059974 0.588406 -0.797194 -0.135128 
-0.168986 0.167354 0.289288 0.988223 0.108404 0.108003 
-0.220605 -0.251488 0.047952 -0.900141 -0.177691 0.397708 
-0.313299 0.224504 -0.069812 0.227389 0.143814 -0.963126 
-0.041803 0.227085 -0.236284 0.0894195 0.979783 -0.178968 
0.113646 0.218802 0.116673 -0.544053 0.67673 -0.496028 
-0.396133 -0.044839 0.142566 -0.879329 0.363503 0.307648 
0.318384 0.139059 -0.078154 -0.202332 0.903299 -0.378303 
-0.29879 0.113601 0.324468 0.445667 -0.895199 0.000574776 
0.079802 -0.006769 -0.034334 0.87714 -0.0728479 0.474677 
-0.067203 0.057348 0.223602 0.649152 0.264458 0.713207 
0.056448 -0.046464 0.021818 0.914704 -0.402641 0.0345855 
0.231172 0.097206 0.18188 0.37192 -0.620592 -0.69032 
-0.177835 -0.248214 0.049189 0.0786821 -0.578999 -0.811523 
0.041764 0.066752 -0.155377 -0.457126 0.714872 0.529144 
0.057524 0.230603 -0.219849 -0.283544 0.926532 -0.247267 
0.109282 0.0794 0.148603 -0.422712 -0.364696 0.829645 
0.234849 0.137537 0.21136 -0.86455 -0.343252 0.367057 
-0.317632 0.137654 -0.089093 -0.44537 0.461868 -0.767022 
-0.088075 0.129526 -0.22135 0.0991449 0.275285 0.956237 
-0.140015 0.125147 0.261673 0.382835 0.214244 0.898631 
-0.38478 0.037147 -0.061026 -0.243595 0.871661 -0.425286 
0.077277 -0.003102 0.000693 0.937077 -0.337694 0.0886034 
-0.070096 -0.001846 -0.098059 -0.0461511 0.95088 0.3061 
-0.028375 0.192931 -0.298055 -0.0443331 0.367918 -0.928801 
0.100893 0.090692 -0.059767 0.951214 -0.262355 -0.162361 
-0.147506 -0.149503 0.180247 0.34775 -0.755632 0.555058 
-0.450679 0.10934 0.070503 -0.646155 -0.125381 -0.752837 
0.019487 0.110786 -0.187507 -0.520738 0.0624193 0.851432 
0.149468 0.219821 -0.062328 -0.899757 -0.16869 -0.402468 
-0.343299 -0.091815 0.049335 -0.625945 -0.77977 -0.0123038 
0.269971 0.168364 -0.019776 -0.857241 -1.04982e-16 -0.514915 
-0.020036 0.238926 0.171437 0.143075 0.412951 -0.899445 
-0.248123 -0.120588 0.051761 -0.637646 -0.246193 0.729929 
-0.233291 -0.133212 0.078674 -0.82245 -0.495794 0.278862 
-0.132916 -0.196787 0.105395 -0.305347 -0.614039 0.727818 
-0.307311 -0.103771 0.091788 -0.510185 -0.557963 0.654514 
0.142114 0.202482 0.097441 0.520238 0.116724 -0.846007 
-0.189924 -0.137959 -0.025235 -0.510542 -0.602893 -0.61308 
-0.255814 0.011124 -0.102936 0.275281 -0.317099 -0.907562 
-0.388096 0.08613 -0.035634 0.0739246 0.37474 -0.924178 
-0.020133 0.049165 -0.163732 -0.246703 0.66948 0.700667 
-0.003458 -0.056979 -0.151916 0.836327 0.0240162 -0.547704 
0.330134 0.164795 0.090239 0.310429 -0.941958 -0.127862 
-0.097824 0.121006 0.232453 -0.091852 -0.678137 0.729173 
0.053263 0.218875 -0.183409 -0.389553 -0.11602 0.913667 
0.00035 0.155662 0.163251 0.53901 -0.143243 0.83003 
-0.002489 0.159431 0.067176 -0.259643 0.965627 -0.0122323 
-0.265123 0.232502 -0.030356 -0.0875872 0.994664 0.0545139 
0.225529 0.146048 0.078102 0.255962 -0.932725 -0.253984 
0.426626 0.16042 0.051637 -0.0217614 0.689899 -0.723578 
-0.074843 -0.070161 0.231493 0.287873 -0.68136 0.672961 
-0.37531 0.17508 0.085775 -0.967412 0.215728 0.132572 
0.060793 0.193643 0.092794 -0.0420098 0.976712 -0.210403 
-0.106885 -0.115378 -0.143401 -0.557016 -0.77952 0.286498 
0.127235 0.09389 0.102083 0.344847 -0.851132 -0.395797 
-0.107962 -0.086868 0.248458 0.641145 -0.643364 0.418349 
-0.45027 -0.032191 0.045132 -0.0902003 -0.64208 0.761313 
-0.269331 0.245486 0.156418 0.27752 0.617089 0.736331 
-0.284992 -0.106626 0.004996 -0.129203 -0.974224 0.184915 
-0.267099 0.25651 0.114501 0.353533 0.702553 -0.617603 
0.329372 0.178772 -0.042238 0.818628 0.418355 0.39348 
-0.36671 0.081656 0.307824 0.599615 -0.435134 0.671655 
-0.343296 0.099014 -0.076829 -0.752954 0.0973383 -0.650835 
-0.420153 0.085278 -0.012519 -0.864443 0.330324 -0.378977 
0.114639 0.179506 -0.064553 -0.794798 0.478904 0.372755 
0.328121 0.18231 0.049347 -0.469317 -0.235383 -0.85108 
-0.300298 0.144514 0.255864 -0.757316 0.413933 0.505106 
-0.383623 -0.060436 0.018669 0.128379 -0.927884 -0.35007 
-0.189864 -0.132779 -0.030693 -0.647483 -0.636256 -0.419458 
-0.185164 0.116152 -0.206329 -0.484787 -0.716977 -0.500924 
-0.088398 -0.176768 0.132481 -0.3019 -0.857081 0.417455 
-0.363817 -0.015476 -0.048125 -0.511918 -0.293152 -0.807466 
0.232622 0.138352 0.206877 -0.861344 -0.30163 0.408786 
0.233705 0.221939 -0.115776 0.625597 -0.126462 0.769828 
-0.167194 -0.146115 -0.039841 -0.525904 -0.705355 -0.475288 
-0.361152 0.106415 0.179229 -0.821024 -0.353518 0.448268 
-0.345095 0.188788 0.17577 -0.701127 0.534432 0.472021 
-0.214254 0.197162 -0.193911 -0.334256 0.940774 0.0567253 
-0.001096 -0.015215 -0.171067 0.390521 -0.538793 -0.746455 
-0.337886 -0.081768 0.002024 -0.59645 -0.734241 -0.324249 
-0.091669 -0.060867 -0.171753 -0.102236 -0.39673 -0.912224 
-0.317231 -0.113367 0.055073 -0.574026 -0.618807 -0.536257 
-0.209447 0.076138 -0.121679 0.707996 0.505237 0.493434 
0.064426 -0.00166 -0.096303 0.89746 -0.362748 -0.250959 
-0.009581 -0.076221 -0.166942 0.722308 0.308385 -0.619007 
-0.035791 0.164067 -0.301507 0.124096 -0.796598 0.591635 
-0.2442 -0.072868 -0.083644 -0.653146 0.0691268 -0.75407 
0.248699 0.204303 0.072337 0.173752 0.624408 -0.761528 
-0.178941 -0.223583 0.034926 0.532105 -0.531606 -0.658983 
0.101995 0.043632 0.124323 0.69675 -0.453567 0.555713 
-0.112031 -0.036754 0.278829 -0.235518 0.262299 0.935805 
-0.089157 0.115501 0.036843 0.163314 -0.0209061 -0.986353 
-0.186149 -0.027077 0.283439 -0.0412131 -0.233408 0.971505 
-0.002501 0.021631 0.028303 -0.144704 0.897376 -0.416865 
-0.123375 0.170649 0.085692 0.512026 0.794854 -0.325632 
-0.284724 0.232204 -0.017082 -0.362218 0.926649 0.1006 
0.014129 0.183104 0.169759 0.834083 -0.0725395 0.546849 
0.085499 -0.057942 0.10189 -0.111566 -0.420685 -0.900321 
-0.221586 0.23491 0.157047 0.540192 0.51871 0.662672 
-0.413601 -0.05048 0.015463 -0.705346 -0.64633 -0.291109 
0.374344 0.176198 0.083807 -0.0452854 -0.830542 -0.555112 
0.171414 0.22576 -0.100823 0.591279 0.189825 0.783808 
0.141842 0.181293 -0.043005 0.228718 -0.957103 -0.177882 
-0.172492 0.111146 -0.230823 -0.473431 -0.702129 -0.531863 
-0.239622 0.06312 0.290906 -0.196309 -0.0222182 0.98029 
-0.30889 0.227118 -0.027893 0.231473 0.865552 0.444118 
-0.112088 -0.139784 -0.083071 -0.231006 -0.836134 -0.49751 
-0.175107 0.037572 -0.025868 0.292892 0.892013 -0.344277 
0.209817 0.227747 -0.099793 -0.638963 0.635987 -0.43272 
-0.062328 0.225283 -0.234936 0.323489 0.116298 0.939058 
0.150316 0.200978 -0.18129 -0.477078 0.0560374 -0.877073 
-0.239143 0.173088 -0.248674 -0.822426 -0.475858 0.311729 
-0.442326 0.063893 0.04938 -0.552493 0.422522 0.718489 
-0.033646 -0.120023 0.157566 0.723562 0.0512645 0.688353 
0.080338 0.082699 -0.102461 -0.884776 0.216346 0.412753 
-0.224598 0.132061 -0.304599 -0.318248 -0.827331 0.462863 
-0.227424 0.106936 0.300183 0.395644 0.150376 0.906009 
-0.356765 0.110413 0.253292 -0.826408 0.20943 -0.522675 
-0.069929 -0.227818 0.141904 -0.493504 0.86011 -0.129088 
-0.232114 0.258541 0.148932 -0.211374 0.552773 0.806079 
-0.110686 0.16479 -0.251677 0.0751489 -0.851235 -0.519377 
0.397638 0.150192 -0.025376 -0.176063 -0.917232 0.357333 
-0.054879 0.222916 -0.239462 0.723019 0.480304 0.49654 
0.006945 0.202454 0.178065 0.127506 -0.342944 0.930662 
-0.029953 0.088254 -0.218829 0.631155 -0.0972133 -0.769541 
-0.146501 -0.147333 -0.052937 -0.232456 -0.878546 -0.417278 
-0.392199 -0.046535 0.098497 -0.673054 -0.739575 -0.0051821 
-0.307856 0.029204 0.255601 -0.669411 -0.266794 0.693333 
-0.025354 0.141886 0.170625 0.42431 -0.158601 0.891519 
-0.308128 0.009775 0.239755 -0.762258 -0.500221 0.410782 
-0.31183 0.235197 0.02386 -0.464871 0.805154 -0.368269 
-0.167674 -0.209746 0.03047 0.456204 -0.337541 -0.823374 
0.099208 0.131278 -0.092312 0.925299 -0.102282 -0.365186 
0.376224 0.200554 0.105523 0.262565 0.618159 -0.740904 
0.026348 0.174727 -0.200625 -0.501634 0.618063 0.605278 
-0.254468 0.248838 0.103169 0.302575 0.934269 -0.188652 
-0.103523 -0.061491 0.272004 0.477164 -0.595811 0.646007 
-0.076595 -0.005207 -0.080997 0.101931 0.992829 0.0624581 
0.45067 0.166642 0.106057 0.280482 0.533782 0.797751 
-0.313604 -0.086384 -0.108056 -0.494592 0.507469 -0.705588 
-0.03645 0.165248 0.110557 -0.0774742 0.988611 -0.129022 
-0.237759 0.136621 -0.312234 -0.954225 -0.167966 -0.247472 
0.184614 0.192262 -0.024408 0.390185 -0.310791 -0.866698 
-0.123859 -0.083188 0.273267 0.665243 -0.539832 0.515784 
-0.309422 0.178178 0.223986 -0.608316 0.494382 0.620918 
-0.411195 0.127917 0.309812 -0.813784 0.0173244 0.58091 
-0.201744 0.196932 -0.175331 0.761745 0.392888 0.515153 
-0.025296 0.219492 -0.254259 0.799245 0.586605 -0.130777 
0.00887 0.17886 -0.237299 0.477441 -0.656129 -0.584419 
-0.003876 0.231303 -0.234925 -0.243503 0.664589 0.706419 
-0.124257 0.159166 -0.245075 0.498455 -0.588601 -0.636469 
0.265634 0.149995 0.175702 0.0237559 -0.959685 0.280071 
0.395343 0.150799 -0.038535 -0.598946 -0.602225 -0.527815 
-0.14143 -0.056006 -0.152562 -0.260535 -0.570659 -0.778761 
-0.27929 -0.079303 -0.091219 -0.330465 -0.442504 -0.833657 
-0.044683 -0.20326 0.086093 0.684541 -0.434863 -0.585062 
-0.169456 -0.242906 0.047246 0.0485702 0.0635587 -0.996795 
-0.308002 0.069718 0.278485 -0.0896883 -0.0442993 0.994984 
0.245807 0.140544 0.14884 0.0406553 -0.927306 0.372089 
-0.190328 -0.072137 0.289971 0.0779231 0.770461 0.632707 
-0.223339 -0.139855 0.115047 -0.595671 -0.80268 0.0296849 
-0.069611 0.070297 0.220417 0.571227 0.365681 0.734831 
0.298584 0.158794 -0.011461 0.643546 -0.680589 0.35021 
0.495215 0.128903 0.114925 0.782841 0.219102 0.58237 
-0.280188 0.24652 0.045214 0.252102 0.965466 -0.0657266 
0.179207 0.224763 -0.114643 0.271777 -0.470573 -0.839463 
-0.008049 0.228741 0.177148 -0.459872 -0.562451 0.687144 
-0.047626 0.030937 -0.15966 -0.156097 0.650258 0.743504 
-0.200549 0.143729 0.297271 -0.510746 -0.113932 0.852149 
0.133662 0.165277 0.075895 0.193691 0.811639 -0.551114 
-0.088722 0.130955 0.226958 0.496563 -0.142033 0.856301 
-0.036327 -0.138653 -0.053967 0.253264 -0.87746 -0.407335 
-0.06032 -0.03437 -0.18537 0.0954284 -0.314114 -0.944577 
0.272604 0.199379 -0.002763 0.575997 0.788273 0.216458 
0.372095 0.149239 0.141011 -0.287547 -0.955093 -0.0715104 
0.100883 0.197347 0.146704 0.473713 -0.0124892 0.880591 
0.317249 0.144616 -0.071301 -0.42155 0.749632 -0.510242 
-0.214765 0.128265 -0.161758 0.769236 0.496325 0.402414 
-0.108496 0.139657 0.248629 0.551231 -0.258482 0.793304 
-0.316568 -0.092194 0.100819 -0.144296 -0.837927 0.526362 
0.03915 0.095032 -0.168585 -0.700087 0.135249 0.701132 
0.06677 0.151414 -0.154742 0.81021 -0.146529 -0.567528 
-0.360963 0.037302 0.191579 -0.554117 -0.766518 0.324661 
0.479281 0.139931 0.103249 0.237094 0.382193 -0.893149 
-0.41195 -0.072773 0.031049 -0.148563 -0.183475 -0.971733 
-0.130853 0.0412 0.2724 0.530908 0.221038 0.818094 
0.30104 0.204868 0.146378 0.0741368 0.958105 0.276655 
-0.344866 -0.063021 0.168321 0.33498 -0.939668 -0.069375 
0.415077 0.189718 0.098517 0.160878 0.731802 0.662257 
-0.028388 -0.188883 0.104078 0.343966 -0.93499 -0.0864943 
-0.360352 -0.065623 0.161383 0.861907 -0.328817 0.385999 
-0.233326 0.138475 0.303885 0.494962 -0.333171 0.802502 
-0.368997 0.082225 0.171411 -0.627844 0.596125 0.500447 
-0.159407 -0.056363 0.292979 -0.16213 0.336362 0.927672 
-0.059684 0.177025 0.247363 0.301258 -0.856935 0.418218 
-0.182013 0.17399 -0.012607 0.835244 0.341382 -0.431076 
-0.11233 -0.110564 0.218542 0.479827 -0.564463 0.671675 
-0.116397 0.200397 -0.235692 0.151117 -0.712634 0.685067 
-0.148817 0.16467 -0.237137 -0.249431 0.605677 0.755606 
-0.362597 0.097442 0.25048 -0.665435 0.703822 -0.248657 
0.035982 0.104656 -0.173289 -0.688326 0.108354 0.717263 
-0.175369 -0.176126 0.126106 -0.0579491 -0.745335 0.664167 
-0.393391 0.207104 -0.054471 -0.702991 -0.463293 -0.539595 
-0.321296 0.196695 -0.062395 0.290164 -0.0751945 -0.954018 
-0.409517 0.056701 0.143654 -0.869732 0.395365 0.295387 
0.046624 0.183349 0.084411 -0.644144 0.732078 -0.221676 
-0.020482 -0.005538 0.189331 0.813622 -0.0192225 0.581077 
-0.125783 -0.12529 -0.096482 -0.322644 -0.709039 -0.627028 
-0.406064 0.215343 -0.096721 -0.579995 0.393217 -0.713433 
0.07894 0.228608 -0.18457 0.986278 0.00211083 0.165082 
-0.22931 0.261623 0.146746 -0.0505321 0.855744 0.514925 
-0.203268 0.125238 -0.175358 0.654545 0.47754 0.586111 
0.292718 0.213272 0.057987 0.122382 0.845668 -0.519489 
-0.125848 -0.132577 -0.088029 -0.208203 -0.766049 -0.608128 
0.024756 -0.10311 0.101062 0.81005 -0.51784 0.275067 
-0.359341 0.176561 0.153496 -0.943762 0.232699 0.234872 
0.015744 -0.173936 0.131883 0.920161 -0.20841 -0.331466 
0.064929 0.235916 0.195326 0.945233 -0.267167 0.1875 
0.035545 0.038063 -0.104426 -0.406455 0.899758 0.158838 
-0.009921 0.131305 -0.21329 0.319345 -0.191423 -0.928104 
0.369097 0.209629 0.043232 0.502975 0.858824 0.0971435 
-0.231108 -0.255455 0.0823 -0.809461 0.559973 -0.176645 
0.121189 0.18273 -0.146035 0.131849 -0.934021 -0.331995 
-0.275268 0.244924 0.038937 0.363279 0.930808 -0.0403152 
-0.362867 0.192449 0.006888 -0.890336 0.335554 -0.307743 
-0.345295 -0.039229 0.181525 -0.449426 0.503736 0.737744 
-0.011232 0.157745 0.064154 -0.151444 0.938351 -0.310745 
-0.434037 0.117117 0.062159 -0.105632 0.77417 -0.624102 
-0.356943 0.224064 -0.030665 -0.277392 0.312098 0.908652 
0.204947 0.086836 0.208583 -0.224357 0.576444 0.785733 
0.229747 0.18456 0.010007 0.101725 -0.201826 -0.974125 
-0.408557 0.130173 0.307254 -0.176385 0.933101 -0.313387 
0.252606 0.13664 0.198294 0.275011 -0.951567 -0.137438 
-0.205359 -0.077541 0.291785 -0.448215 0.427746 0.784944 
0.369796 0.150348 0.172673 -0.061839 -0.745602 0.663516 
-0.128601 -0.069005 -0.154045 -0.593966 0.0244691 -0.804118 
-0.042421 0.211692 -0.23311 -0.231641 -0.551358 0.801466 
-0.173951 -0.102673 0.254769 -0.000816762 -0.93758 0.347768 
-0.173473 -0.140983 -0.038327 -0.46351 -0.757463 -0.459791 
-0.42005 0.020885 -0.052391 -0.91472 -0.242639 -0.32313 
-0.183548 0.195662 0.198643 0.364609 0.780368 0.508022 
-0.208829 0.130859 -0.20532 -0.513 -0.858258 0.0149876 
0.068821 0.122423 0.150521 -0.0682986 0.240597 0.968219 
-0.353264 0.057995 0.288639 -0.0296793 -0.989709 0.13998 
0.049233 0.142426 0.040966 -0.284384 0.277098 -0.917792 
-0.227671 0.186227 -0.186199 -0.899114 0.427497 0.0940237 
-0.201102 0.179377 0.276491 -0.579003 0.783756 -0.224684 
0.02884 0.205149 -0.217178 0.400837 -0.33811 0.851476 
0.227107 0.216711 -0.123588 0.753308 -0.550912 -0.359198 
0.172035 0.160193 0.171211 -0.391321 -0.105598 0.914176 
-0.353073 0.086566 0.31585 0.592954 -0.347205 0.726536 
-0.045562 -0.143683 0.138243 -0.27236 -0.859043 0.433433 
-0.228417 0.215462 -0.254198 -0.653792 0.435839 -0.618546 
0.043764 0.150062 -0.180941 0.865956 -0.0573908 -0.496817 
0.313481 0.211793 0.129295 0.128234 0.931008 0.341732 
-0.285063 0.16893 0.242788 -0.462333 0.539021 0.704063 
-0.265661 0.060188 0.283771 -0.173718 0.0869662 0.980948 
-0.203112 0.125143 0.295335 0.20278 -0.0747558 0.976367 
-0.196083 0.038412 -0.097358 0.598318 0.738522 0.310806 
0.000639 0.139873 -0.208872 0.61003 -0.073398 -0.788971 
-0.06528 0.062751 -0.185813 -0.104354 0.604038 0.790094 
0.011383 0.048677 -0.150336 -0.244679 0.686498 0.684728 
0.398236 0.14708 -0.035936 -0.341245 -0.918624 -0.199201 
-0.018434 0.169834 0.126708 -0.2002 0.950646 -0.237049 
0.086 0.065294 -0.056996 -0.893058 0.427692 0.139739 
0.039944 0.120132 0.149697 0.00369621 0.131083 0.991365 
0.02973 0.104389 0.153431 0.117362 0.259299 0.95864 
-0.130933 0.100443 0.265487 0.865122 -0.187663 0.465131 
-0.018514 -0.145094 0.020851 0.574254 -0.812898 -0.0971003 
-0.203335 0.182639 -0.312811 0.533809 0.757156 -0.376513 
0.340872 0.152238 0.125896 0.324586 -0.9413 -0.0927311 
-0.184811 -0.109073 0.243986 -0.281426 -0.953259 0.109985 
-0.164229 -0.187728 0.021234 -0.704117 -0.594825 -0.387816 
-0.112376 0.134243 -0.222283 -0.00295169 0.418492 0.908216 
0.191304 0.2112 0.124033 0.512902 0.474647 -0.715291 
-0.091771 -0.093617 0.220609 0.36532 -0.598185 0.713243 
-0.193135 0.224357 0.105295 0.482865 0.872858 -0.0704302 
-0.321889 -0.020054 0.187 -0.191525 0.430424 0.882073 
-0.033918 -0.001671 -0.084095 -0.177857 0.971487 0.156778 
-0.424159 0.114257 0.046837 -0.510641 0.839933 -0.183732 
-0.019787 -0.04283 -0.1702 0.461204 -0.0153801 -0.887161 
-0.376748 0.126769 -0.020691 -0.65267 0.592565 -0.472111 
-0.004259 0.158059 -0.216062 0.532679 -0.213929 -0.818833 
-0.139963 0.18098 -0.241138 -0.138603 -0.21084 0.967644 
0.288116 0.190772 0.002799 0.0200361 0.85099 -0.524799 
-0.004181 0.038895 0.169745 0.771308 -0.0358841 0.63545 
-0.431484 0.07205 0.005844 -0.941946 -0.0132037 -0.335505 
-0.265806 0.186594 0.236257 0.0706049 0.779009 0.623025 
-0.032004 0.219836 -0.252015 -0.269626 0.86668 -0.419723 
-0.143367 0.103136 -0.208976 0.0155084 0.52035 0.853812 
-0.222315 0.213573 -0.23204 -0.0741662 0.94967 0.304346 
0.142472 0.159416 0.158917 -0.405385 0.170241 0.898154 
-0.451491 -0.04577 -0.006683 -0.962667 -0.0503315 0.26597 
0.075305 0.026271 0.092443 0.746217 -0.104357 -0.657472 
-0.426855 0.084955 0.002965 -0.883284 0.420169 -0.208006 
0.248887 0.1445 0.179822 0.764903 -0.591333 -0.255438 
0.225293 0.197378 0.123611 -0.181936 0.972692 0.144116 
-0.198005 -0.144817 -0.00282 -0.47479 -0.576338 -0.665138 
0.436814 0.181747 0.088776 0.56548 0.822631 -0.0592558 
-0.194255 0.040138 -0.042549 0.518848 0.816123 -0.254439 
-0.287313 -0.104148 0.012759 -0.219236 -0.937095 0.27164 
-0.09268 0.062897 -0.187932 -0.00908634 0.550469 0.834806 
-0.225042 -0.016331 -0.094449 -0.371194 -0.458149 -0.80766 
-0.144468 0.205584 -0.253964 0.325868 0.733901 -0.595987 
0.08131 0.172241 -0.142408 0.59628 -0.415752 -0.686732 
0.202579 0.219964 0.025618 -0.40549 0.623663 0.668298 
-0.355668 0.149745 0.188692 -0.901992 0.202457 0.381341 
-0.390501 0.145585 0.089567 -1.18702e-16 -3.01227e-17 -1 
0.074971 0.000979 0.120561 0.0826498 -0.696633 0.712651 
-0.100565 -0.12418 -0.159174 -0.666638 -0.740888 0.0817267 
-0.245337 0.251174 0.111446 -0.171794 0.830129 -0.530446 
-0.04476 -0.23113 0.12961 0.767975 -0.601448 0.22017 
-0.171051 0.136979 -0.223891 0.266808 0.819824 0.506658 
-0.274682 0.084923 0.291475 0.604239 -0.751869 0.263795 
0.415293 0.161555 0.090713 0.181624 -0.97861 0.0966171 
-0.094778 -0.217252 0.0647 0.704952 -0.453537 -0.545295 
0.006153 0.165089 -0.205026 -0.489376 0.2868 0.823563 
-0.322129 -0.073311 0.128384 -0.00563118 -0.661061 0.750311 
0.022595 0.182756 0.110108 -0.495216 0.853829 -0.160429 
0.255463 0.141863 0.147402 0.335364 -0.893017 0.300086 
-0.323302 -0.052836 0.155091 -0.134313 -0.834496 0.534394 
0.40644 0.175727 -0.014449 -0.241936 0.50234 -0.830134 
-0.069028 -0.086232 -0.181317 0.327155 0.103645 -0.93927 
-0.462784 0.120638 0.075015 -0.707159 -0.628605 -0.323699 
-0.25706 -0.077217 0.241122 -0.96212 -0.271815 0.0210329 
0.062147 0.164673 0.056676 0.0548262 0.952891 -0.298317 
-0.19479 -0.02145 -0.132669 -0.826655 -0.359718 -0.432719 
-0.109244 -0.08174 0.258494 0.717146 -0.518247 0.465964 
-0.23702 0.213169 -0.266347 0.126356 0.624587 -0.770666 
-0.155778 0.181868 -0.266448 0.130487 0.142004 -0.981228 
-0.162797 -0.218757 0.097751 0.406368 -0.567687 0.715958 
-0.126229 0.138115 0.264899 -0.461157 0.326755 0.824964 
-0.012439 -0.114784 -0.130093 0.584724 -0.768763 0.259039 
-0.248024 -0.085309 -0.049421 -0.614623 -0.776709 0.1377 
0.252644 0.182796 0.218556 -0.0110053 0.108401 0.994046 
-0.08204 0.157159 0.183627 -0.469879 0.730434 -0.495661 
-0.360446 0.186016 -0.069924 -0.485481 -0.517882 -0.704348 
-0.409944 -0.074733 0.041618 -0.0616039 -0.921833 -0.382661 
-0.07177 0.108569 -0.228316 0.038706 -0.190862 -0.980853 
-0.137598 0.160468 0.208158 0.453322 0.87056 0.191375 
-0.365618 0.066987 0.255986 -0.92686 -0.374051 0.0318924 
-0.285178 0.201868 0.21929 -0.508631 0.129994 0.851115 
0.056028 -0.040419 -0.05392 0.834183 -0.531252 -0.148022 
-0.231555 0.248728 0.154715 -0.12569 0.424367 0.896724 
-0.172465 0.210294 0.132198 0.666884 0.74512 -0.00791469 
-0.216913 0.213337 -0.229108 -0.211332 0.876043 -0.433459 
0.084314 0.199943 -0.256715 -0.210723 0.245448 -0.94623 
0.280118 0.203288 0.147086 -0.141039 0.979179 0.145998 
0.009109 -0.168894 0.120289 0.806906 0.334295 -0.486979 
-0.136618 0.064022 0.2707 0.479294 0.258285 0.838789 
-0.308625 -0.096299 0.097084 -0.0703744 -0.690598 0.719806 
-0.327921 0.268053 0.126781 0.228086 0.82171 -0.522274 
-0.245061 0.246805 0.097807 0.0386137 0.987961 -0.149804 
-0.197787 -0.176673 0.097483 -0.926086 0.0616963 0.372235 
0.203951 0.232355 -0.081621 -0.0171688 0.731161 0.681989 
-0.178099 -0.048653 -0.131684 -0.603855 -0.491596 -0.627449 
-0.200951 0.175592 -0.191799 0.719508 -0.667497 0.19172 
-0.098602 -0.121384 -0.111219 -0.0828024 -0.882913 -0.462178 
-0.297488 0.08084 -0.132026 -0.489945 0.736874 -0.465801 
-0.104525 0.009617 -0.053362 0.367237 0.838142 -0.403306 
0.183276 0.215955 0.128274 0.160898 0.952582 -0.258264 
0.129352 0.118058 0.001626 0.776359 -0.398213 -0.488561 
0.192992 0.097398 0.180001 -0.795459 -0.60177 -0.0715406 
-0.301506 0.036048 0.26305 -0.541432 -0.286269 0.790507 
0.401183 0.192732 0.10079 0.347621 0.758 0.551903 
-0.376414 -0.054842 -0.009475 0.131558 -0.974098 0.183919 
0.265132 0.194552 0.188281 -0.0991876 0.964777 0.243655 
-0.271754 0.235608 -0.047168 0.14925 0.954064 0.259781 
-0.445872 0.037527 0.08159 -0.449697 0.851857 0.268538 
-0.205188 0.217339 0.177295 0.292595 0.955427 0.0393419 
-0.322304 0.002961 0.187176 -0.879939 -0.455173 0.13611 
-0.193159 0.015352 0.292863 0.121919 -0.184951 0.975156 
0.268249 0.202034 0.148209 -0.208523 0.973504 0.0938551 
-0.012721 0.231503 0.168714 -0.0553759 0.321651 -0.945238 
-0.133945 0.171826 0.058699 -0.150653 0.454691 0.877815 
0.170824 0.118687 0.08713 0.279043 -0.944565 -0.17301 
-0.080592 0.093273 0.216655 0.679928 0.425958 0.596874 
-0.090603 -0.044535 -0.180274 -0.142354 -0.53835 -0.830611 
-0.336221 0.049189 0.245789 -0.0510053 -0.859019 0.509397 
-0.033694 0.014537 -0.217593 -0.0964579 -0.443646 -0.890996 
-0.058496 0.111552 -0.229575 0.00378891 -0.0721925 -0.997384 
-0.123603 -0.042672 0.279831 0.298456 0.50035 0.812757 
-0.258003 0.193894 -0.281799 -0.517351 -0.786363 -0.337611 
-0.13248 0.115537 0.267355 0.0561308 -0.0178047 0.998265 
-0.162841 0.193745 0.062933 0.682136 0.72335 -0.107025 
-0.209487 -0.040738 -0.093674 -0.444576 -0.229202 -0.865921 
0.067508 0.22287 0.155818 -0.115611 0.592152 -0.79749 
-0.307816 0.156276 0.238794 -0.500578 0.470294 0.726805 
-0.20403 0.169159 -0.328292 -0.257459 0.722623 -0.641507 
0.379354 0.20314 0.017822 -0.175565 0.962872 -0.205073 
-0.073917 0.110316 -0.216589 0.139952 0.272856 0.951821 
0.022215 0.232676 -0.213253 0.610484 0.529744 0.588796 
-0.104871 0.180082 0.269296 -0.220682 -0.386134 0.895656 
-0.373822 0.124118 -0.027797 -0.423171 0.404117 -0.810935 
0.244174 0.173544 0.00993 -0.571094 -0.418745 -0.706048 
0.07191 -0.097467 0.145369 -0.683837 0.527837 0.503741 
0.057567 0.092555 -0.147251 -0.790368 0.182164 0.584923 
-0.350437 0.217759 0.147126 -0.874089 -0.0572685 0.482378 
-0.04233 0.048141 0.062313 0.158932 0.59648 -0.786735 
-0.271778 -0.063009 -0.092098 0.32314 0.488042 -0.810799 
-0.076139 -0.068992 -0.178269 -0.240376 0.152987 -0.958548 
-0.350743 0.123558 0.244573 -0.972 0.082871 -0.219882 
-0.354241 -0.018417 0.166203 -0.0443273 -0.140914 0.989029 
-0.070885 -0.157582 -0.034861 0.331105 -0.854264 -0.400753 
-0.391836 0.086168 0.320618 0.141576 -0.180341 0.973362 
-0.374217 0.177164 0.058732 -0.959397 0.279931 0.0345863 
-0.172312 0.193524 0.187384 0.452621 0.86093 0.232239 
-0.41883 -0.014926 -0.016783 -0.744016 -0.33469 -0.578293 
-0.197457 -0.118147 0.217339 -0.0874272 -0.961412 0.260852 
-0.01204 0.18142 0.14486 -0.298131 0.505375 -0.809762 
0.015936 0.177822 0.120894 -0.500741 0.852986 0.14722 
0.180685 0.193589 0.066801 -0.55248 0.687546 0.471217 
-0.061954 0.001296 -0.109916 0.0464411 0.970582 0.236249 
-0.216004 -0.103599 0.250688 0.156908 -0.961725 0.224646 
-0.071377 -0.203682 0.069937 0.123721 -0.756438 -0.642257 
0.148558 0.209104 -0.139696 0.599166 -0.017889 0.800425 
-0.109412 0.160393 0.055084 0.290983 0.702131 -0.649878 
-0.183114 -0.212591 0.022013 0.448924 -0.542272 -0.710217 
0.025593 -0.019932 0.127573 0.505287 -0.215344 0.835651 
-0.300843 0.230673 0.169645 -0.398859 0.750717 0.526626 
-0.059448 0.210886 -0.236895 0.0070106 -0.661354 0.750041 
0.329446 0.154383 0.114075 -0.0680935 -0.819795 -0.568595 
0.43772 0.127828 0.156952 0.0169208 -0.641143 0.767235 
