ply
format ascii 1.0
comment VCGLIB generated
element vertex 800
property float x
property float y
property float z
element face 0
property list uchar int vertex_indices
end_header
-0.824405 -0.654816 -0.237071 
-0.795275 -0.652378 -0.319371 
-0.812253 -0.644475 -0.152107 
-0.786171 -0.564938 -0.24125 
-0.758722 -0.510597 -0.0876615 
-0.771215 -0.625823 -0.263485 
-0.712805 -0.60821 -0.342661 
-0.670067 -0.557167 -0.283021 
-0.57341 -0.519037 -0.258836 
-0.582176 -0.385674 -0.292906 
-0.686579 -0.641152 -0.269057 
-0.60232 -0.612773 -0.263945 
-0.517894 -0.596949 -0.306395 
-0.73405 -0.653005 -0.22725 
-0.694316 -0.565834 -0.194671 
-0.547819 -0.610788 -0.195168 
-0.652686 -0.64128 -0.175259 
-0.713892 -0.578896 -0.112762 
-0.587027 -0.662227 -0.127634 
-0.667577 -0.644854 -0.0840432 
-0.678344 -0.35652 -0.19638 
-0.748012 -0.422506 -0.125096 
-0.649111 -0.454137 -0.214974 
-0.610612 -0.523932 -0.181886 
-0.701768 -0.492007 -0.147272 
-0.777304 -0.342067 -0.0820397 
-0.775408 -0.256114 -0.0539791 
-0.536964 -0.326673 -0.244768 
-0.734569 -0.172395 -0.0688024 
-0.637998 -0.0286671 -0.0185708 
-0.653102 -0.0915304 -0.124176 
-0.557623 -0.270266 -0.176706 
-0.561878 -0.168972 -0.175545 
-0.713998 -0.112341 -0.0110058 
-0.607271 -0.0142487 -0.106678 
-0.688707 -0.276775 -0.15514 
-0.536719 -0.00611281 -0.171438 
-0.626452 -0.222803 -0.170372 
-0.792477 -0.491736 0.0275645 
-0.803042 -0.407241 0.000917002 
-0.777908 -0.428024 0.0831151 
-0.57176 -0.69924 0.00417682 
-0.681341 -0.6209 0.120788 
-0.690821 -0.650002 0.0332196 
-0.622291 -0.682907 0.0762844 
-0.603094 -0.611947 0.180118 
-0.531245 -0.660727 0.205049 
-0.748828 -0.586027 -0.00378873 
-0.739437 -0.554228 0.113617 
-0.73388 -0.470874 0.156158 
-0.632035 -0.446501 0.195896 
-0.675519 -0.376414 0.184232 
-0.574979 -0.583271 0.411855 
-0.522757 -0.355899 0.228147 
-0.576975 -0.523338 0.308286 
-0.549606 -0.449757 0.218529 
-0.516085 -0.69365 0.355585 
-0.549634 -0.494625 0.421162 
-0.606265 -0.599023 0.285137 
-0.594892 -0.664164 0.336577 
-0.613264 -0.537904 0.222957 
-0.760995 -0.336998 0.121885 
-0.753015 -0.180581 0.0183883 
-0.776179 -0.265861 0.037908 
-0.521108 -0.0514065 0.105725 
-0.57817 -0.282745 0.178267 
-0.593236 -0.0949567 0.112945 
-0.689553 -0.225269 0.140866 
-0.65566 -0.069219 0.0568576 
-0.590352 -0.0148168 0.0552955 
-0.533033 -0.203808 0.15294 
-0.670026 -0.135578 0.10574 
-0.38169 -0.694813 -0.267518 
-0.312476 -0.452956 -0.239333 
-0.434598 -0.552499 -0.298678 
-0.451163 -0.459654 -0.30501 
-0.448551 -0.660053 -0.312136 
-0.37332 -0.63149 -0.339378 
-0.310816 -0.532159 -0.265872 
-0.310043 -0.69195 -0.3514 
-0.398543 -0.424426 -0.231966 
-0.491508 -0.388019 -0.284679 
-0.385796 -0.690927 -0.0915193 
-0.471069 -0.701809 -0.105332 
-0.465609 -0.645223 -0.194548 
-0.285707 -0.677353 -0.200833 
-0.34946 -0.370021 -0.183347 
-0.37194 -0.680661 -0.184339 
-0.295697 -0.664316 -0.0173709 
-0.298425 -0.685305 -0.101982 
-0.103097 -0.495642 -0.246121 
-0.145295 -0.44506 -0.299108 
-0.176554 -0.36645 -0.303882 
-0.186176 -0.517216 -0.308527 
-0.226326 -0.462614 -0.257604 
-0.235946 -0.705819 -0.287637 
-0.230966 -0.659518 -0.357953 
-0.244517 -0.57155 -0.3331 
-0.169367 -0.618645 -0.307478 
-0.0637359 -0.409366 -0.257386 
-0.0857202 -0.569006 -0.192419 
-0.136593 -0.693152 -0.0394806 
-0.0459606 -0.588002 -0.119327 
-0.202905 -0.690198 -0.165009 
-0.181705 -0.620465 -0.219788 
-0.0715049 -0.640205 -0.0426017 
-0.215382 -0.703838 -0.0816569 
-0.104604 -0.651624 -0.120493 
-0.263715 -0.345265 -0.213237 
-0.293477 -0.318875 -0.125912 
-0.42273 -0.257529 -0.118057 
-0.38029 -0.332786 -0.110031 
-0.454043 -0.337031 -0.16262 
-0.348859 -0.211571 -0.0781885 
-0.372493 -0.030776 -0.211271 
-0.311326 -0.0735112 -0.156164 
-0.470711 -0.175577 -0.175447 
-0.299617 -0.138186 -0.102012 
-0.440722 -0.0900249 -0.196267 
-0.377992 -0.141494 -0.156104 
-0.291871 -0.0559152 -0.061726 
-0.0152226 -0.0732252 -0.280325 
-0.0792194 -0.137747 -0.266166 
-0.136452 -0.250049 -0.258729 
-0.0551914 -0.326029 -0.271836 
-0.132509 -0.0604945 -0.0596423 
-0.162458 -0.140076 -0.0496621 
-0.23072 -0.0412235 -0.138822 
-0.232475 -0.195613 -0.10335 
-0.25796 -0.289733 -0.0185904 
-0.160988 -0.103352 -0.137101 
-0.20767 -0.282553 -0.210471 
-0.141861 -0.155337 -0.211533 
-0.0905898 -0.0575755 -0.223523 
-0.481899 -0.697909 0.112247 
-0.393527 -0.684509 0.140823 
-0.274907 -0.648519 0.163553 
-0.487193 -0.685179 0.0264348 
-0.315312 -0.701263 0.109212 
-0.401956 -0.658995 0.0173047 
-0.322588 -0.356416 0.143504 
-0.378814 -0.58715 0.199563 
-0.416928 -0.552977 0.364793 
-0.260461 -0.563781 0.301583 
-0.446169 -0.649636 0.210584 
-0.485882 -0.701002 0.271321 
-0.446115 -0.634342 0.397047 
-0.43221 -0.694291 0.340057 
-0.382324 -0.581391 0.286999 
-0.303416 -0.624019 0.244287 
-0.353836 -0.665583 0.375837 
-0.365933 -0.366372 0.238881 
-0.470534 -0.483214 0.389882 
-0.344 -0.511976 0.321647 
-0.285737 -0.405652 0.210514 
-0.494305 -0.478587 0.294524 
-0.297286 -0.492933 0.254422 
-0.42413 -0.438443 0.252527 
-0.239779 -0.692936 0.0385505 
-0.197109 -0.668644 0.118332 
-0.0849347 -0.636405 0.0399203 
-0.036907 -0.608067 0.169423 
-0.0673382 -0.559873 0.0844717 
-0.156577 -0.691061 0.0445688 
-0.100267 -0.655695 0.124742 
-0.077518 -0.698153 0.201119 
-0.226531 -0.447802 0.161831 
-0.0395535 -0.474649 0.0879223 
-0.0824836 -0.382539 0.143283 
-0.161696 -0.497445 0.142825 
-0.236672 -0.37034 0.131079 
-0.0873181 -0.458618 0.186034 
-0.0365774 -0.522347 0.167364 
-0.20528 -0.638419 0.297707 
-0.0461897 -0.634971 0.2573 
-0.182583 -0.702797 0.249422 
-0.129136 -0.597765 0.266519 
-0.116064 -0.684703 0.296918 
-0.191902 -0.528108 0.238131 
-0.0729382 -0.538146 0.241337 
-0.444744 -0.309716 0.220368 
-0.410705 -0.0688272 0.0842796 
-0.353983 -0.290769 -0.00171062 
-0.386564 -0.18554 -0.000238394 
-0.346872 -0.30665 0.0798078 
-0.445159 -0.145665 0.111758 
-0.410659 -0.299328 0.139732 
-0.346713 -0.0326919 0.0418097 
-0.405567 -0.246617 0.0599353 
-0.13905 -0.331042 0.101806 
-0.198895 -0.262269 0.0406511 
-0.0524659 -0.187109 0.0691449 
-0.0149074 -0.0279139 0.0361836 
-0.141778 -0.180613 0.0234431 
-0.101373 -0.0979158 0.0141489 
-0.0625789 -0.296389 0.107709 
-0.828761 0.204453 -0.025601 
-0.811621 0.145917 -0.0134839 
-0.889638 0.127368 -0.0206428 
-0.555229 0.253557 -0.18893 
-0.548093 0.0498028 -0.10337 
-0.572641 0.0374031 -0.0149743 
-0.577048 0.158258 -0.181708 
-0.656037 0.151194 -0.133137 
-0.730331 0.146832 -0.041309 
-0.624292 0.338585 -0.184561 
-0.507501 0.314311 -0.128936 
-0.529072 0.195632 -0.0417279 
-0.700749 0.215292 -0.0857279 
-0.528665 0.298948 -0.0287547 
-0.656161 0.343157 -0.0812181 
-0.6248 0.232626 -0.143384 
-0.579776 0.282787 -0.0401812 
-0.780567 0.442122 -0.0476282 
-0.914879 0.461183 -0.0291644 
-0.829363 0.454143 -0.0494282 
-0.803601 0.396277 -0.105031 
-0.890296 0.408928 -0.0314838 
-0.789905 0.477177 -0.0213319 
-0.542896 0.368181 -0.224883 
-0.750051 0.462362 -0.0274789 
-0.663907 0.425033 -0.0662686 
-0.705902 0.438405 -0.0406592 
-0.65324 0.460952 -0.0899744 
-0.716024 0.413545 -0.085212 
-0.662825 0.486975 -0.139001 
-0.714009 0.38295 -0.0146161 
-0.650885 0.421611 -0.124746 
-0.672941 0.466548 -0.027857 
-0.712197 0.34972 -0.144497 
-0.565623 0.35658 -0.0837302 
-0.616545 0.503433 -0.135257 
-0.584094 0.446796 -0.196929 
-0.571269 0.538856 -0.0651211 
-0.953106 0.170173 0.0170985 
-0.751927 0.162435 0.136121 
-0.767976 0.152915 0.0854692 
-0.816178 0.158559 0.0577107 
-0.962376 0.196486 0.0898892 
-0.885867 0.248483 0.0144014 
-0.923874 0.254868 0.095592 
-0.91166 0.212643 0.0135868 
-0.878968 0.179608 0.0705513 
-0.94086 0.176948 0.0596897 
-0.919799 0.212513 0.155018 
-0.931581 0.251304 0.139426 
-0.957827 0.326945 0.124741 
-0.899883 0.312259 0.165934 
-0.949328 0.326695 0.172254 
-0.883728 0.190882 0.123274 
-0.932254 0.301588 0.101885 
-0.879834 0.200451 0.164598 
-0.998305 0.331243 0.168839 
-0.773216 0.265696 0.0965911 
-0.795668 0.260132 -0.00893285 
-0.788998 0.260801 0.0580649 
-0.858871 0.292241 0.0915613 
-0.874468 0.207631 -0.00592325 
-0.810367 0.183435 0.1868 
-0.844638 0.178457 0.114506 
-0.813443 0.278381 0.11609 
-0.856039 0.295862 0.15295 
-0.795451 0.266651 0.184528 
-0.839769 0.277772 0.198385 
-0.837216 0.169451 0.265522 
-0.763578 0.223308 0.215133 
-0.802406 0.237012 0.225804 
-0.89352 0.228611 0.238219 
-0.851851 0.246677 0.229531 
-0.726423 0.156397 0.100882 
-0.539233 0.168999 0.144825 
-0.683634 0.155598 0.028725 
-0.702185 0.166711 0.138436 
-0.738696 0.170067 0.183117 
-0.680684 0.179718 0.195474 
-0.665298 0.263368 -0.00207873 
-0.68368 0.229277 0.168969 
-0.644232 0.174296 0.100141 
-0.721535 0.227765 0.186376 
-0.668622 0.261708 0.0867198 
-0.716113 0.274549 0.159073 
-0.735264 0.263042 0.0610551 
-0.635015 0.244851 0.128109 
-0.597103 0.192355 0.168883 
-0.599773 0.255839 0.10365 
-0.592426 0.275193 0.0550527 
-0.510342 0.208689 0.055567 
-0.598518 0.178629 0.0180681 
-0.511033 0.293176 0.0235924 
-0.538626 0.242054 0.132069 
-0.555459 0.277402 0.105252 
-0.748019 0.149349 0.239279 
-0.908847 0.517629 0.0318582 
-0.891025 0.472766 0.035458 
-0.771685 0.523202 0.120733 
-0.863182 0.483484 0.0686727 
-0.832794 0.45445 0.106422 
-0.82935 0.500034 0.0111306 
-0.795782 0.356342 -0.00637235 
-0.850719 0.412669 0.0253618 
-0.758808 0.426671 0.0404357 
-0.854073 0.502283 0.107166 
-0.772532 0.398877 0.148249 
-0.805366 0.452217 0.0500659 
-0.838089 0.526462 0.174103 
-0.763689 0.551402 0.0743791 
-0.811654 0.552167 0.0459095 
-0.790848 0.464376 0.210371 
-0.655911 0.378214 0.175287 
-0.712821 0.474049 -0.00815381 
-0.747376 0.502442 -0.0062064 
-0.629559 0.364856 0.145513 
-0.686514 0.48514 0.0227752 
-0.685584 0.381402 0.120801 
-0.631714 0.445062 0.125489 
-0.680032 0.471005 0.0620834 
-0.558264 0.356507 0.0752387 
-0.621703 0.377729 0.0181288 
-0.518699 0.478607 0.0988373 
-0.556389 0.500292 0.0941221 
-0.617942 0.449992 0.0509989 
-0.597275 0.357279 0.11197 
-0.551042 0.34926 0.128773 
-0.587322 0.367253 0.156072 
-0.63058 0.530961 -0.00477167 
-0.542535 0.523429 0.0314447 
-0.730684 0.527859 0.0463125 
-0.706274 0.441788 0.20394 
-0.318148 0.141076 -0.249672 
-0.424081 0.274692 -0.24882 
-0.360447 0.213816 -0.276647 
-0.273097 0.210598 -0.260147 
-0.311096 0.305763 -0.337972 
-0.287999 0.205768 -0.318102 
-0.456764 0.168347 -0.139025 
-0.390533 0.103987 -0.224184 
-0.433882 0.0287344 -0.209423 
-0.504768 0.170023 -0.209374 
-0.280936 0.00560121 -0.195937 
-0.44296 0.156583 -0.180609 
-0.49323 0.0849752 -0.160163 
-0.497574 0.113673 -0.0765611 
-0.48241 0.339309 -0.0507403 
-0.447416 0.180693 -0.0263881 
-0.481747 0.189474 -0.113028 
-0.233824 0.243188 -0.246952 
-0.219435 0.343154 -0.291868 
-0.225305 0.341347 -0.368321 
-0.230502 0.3183 -0.259457 
-0.188039 0.235067 -0.359418 
-0.216839 0.305084 -0.31534 
-0.174112 0.161624 -0.120736 
-0.258461 0.0211588 -0.0322828 
-0.155636 0.112939 -0.186667 
-0.218061 0.0978372 -0.0509472 
-0.189741 0.0113382 -0.154488 
-0.233849 0.085746 -0.206797 
-0.217575 0.0409724 -0.112292 
-0.0950808 0.0145285 -0.0655476 
-0.0472795 0.134249 -0.168386 
-0.0598527 0.0443214 -0.198404 
-0.050967 0.0906465 -0.0819493 
-0.130586 0.0421449 -0.140474 
-0.139688 0.345948 -0.194812 
-0.124273 0.326673 -0.0151987 
-0.208503 0.300701 -0.223466 
-0.0719199 0.25814 -0.033988 
-0.17312 0.248116 -0.0955414 
-0.137296 0.222758 -0.183578 
-0.184023 0.319825 -0.0874219 
-0.166342 0.274487 -0.204806 
-0.203723 0.182548 -0.0409886 
-0.187124 0.335984 -0.144779 
-0.338338 0.567272 -0.315398 
-0.440023 0.498459 -0.303029 
-0.346172 0.431406 -0.307491 
-0.379643 0.573544 -0.319468 
-0.464139 0.350671 -0.252837 
-0.269868 0.43486 -0.259763 
-0.31048 0.467824 -0.245264 
-0.379821 0.350682 -0.292954 
-0.281911 0.405516 -0.358958 
-0.354208 0.494138 -0.214017 
-0.312791 0.486163 -0.203649 
-0.265488 0.495538 -0.0150686 
-0.39084 0.521173 -0.176456 
-0.331373 0.520252 -0.0627785 
-0.26589 0.484036 -0.111395 
-0.277491 0.448854 -0.214179 
-0.472909 0.493294 -0.225823 
-0.34638 0.653253 -0.142617 
-0.280533 0.699175 -0.180571 
-0.362052 0.604819 -0.11321 
-0.420079 0.548173 -0.0941566 
-0.278474 0.588704 -0.183617 
-0.486553 0.545709 -0.0419304 
-0.489513 0.527922 -0.148783 
-0.267664 0.594043 -0.132407 
-0.242928 0.486129 -0.336549 
-0.113087 0.614754 -0.241184 
-0.0440138 0.601429 -0.233288 
-0.170694 0.479281 -0.38076 
-0.241922 0.373155 -0.265727 
-0.207016 0.410638 -0.317439 
-0.161198 0.599975 -0.229703 
-0.147077 0.369282 -0.38446 
-0.162327 0.392966 -0.352976 
-0.0710226 0.629779 -0.253044 
-0.238793 0.44887 -0.182456 
-0.133226 0.383613 -0.0760432 
-0.24613 0.507305 -0.171109 
-0.171259 0.415069 -0.187973 
-0.13532 0.406482 -0.0223254 
-0.0422925 0.374141 -0.0389142 
-0.215307 0.41103 -0.0998355 
-0.051314 0.489092 -0.0625183 
-0.230133 0.366369 -0.224603 
-0.211983 0.523003 -0.189143 
-0.200953 0.599741 -0.208494 
-0.257703 0.55251 -0.204083 
-0.136623 0.604199 -0.169402 
-0.214596 0.544264 -0.140285 
-0.165708 0.541221 -0.203216 
-0.216978 0.588024 -0.140915 
-0.253958 0.554995 -0.119409 
-0.176976 0.566726 -0.151256 
-0.0898592 0.575952 -0.223598 
-0.0672801 0.639233 -0.210251 
-0.129259 0.558824 -0.218811 
-0.336569 0.144569 0.0307244 
-0.486537 0.0793528 0.0160296 
-0.384385 0.0437836 0.0593467 
-0.459997 0.00684225 0.0785556 
-0.433482 0.33897 0.0276045 
-0.389529 0.190872 0.0938307 
-0.409263 0.18615 0.00987061 
-0.260649 0.210523 0.0167948 
-0.30166 0.328203 0.0369156 
-0.453091 0.247522 0.106419 
-0.370546 0.273777 0.0709961 
-0.485021 0.172369 0.129876 
-0.163643 0.247422 -0.000220489 
-0.209007 0.327756 0.0278074 
-0.409698 0.522645 -0.00881571 
-0.327331 0.475985 0.0522901 
-0.447483 0.408463 0.111118 
-0.367537 0.379725 0.0683656 
-0.419691 0.479531 0.0650389 
-0.308573 0.531917 0.0602166 
-0.323112 0.553174 0.0189341 
-0.28471 0.565951 0.0465164 
-0.241678 0.595148 -0.00283361 
-0.179575 0.463444 -0.00260788 
-0.245542 0.402488 0.0210301 
0.232324 -0.521701 -0.321854 
0.232488 -0.537027 -0.237446 
0.231613 -0.634223 -0.1565 
0.199325 -0.605671 -0.0825733 
0.00274257 -0.541799 -0.0621172 
0.0736941 -0.379215 -0.0322484 
0.22058 -0.453932 -0.0164403 
0.194211 -0.357602 -0.098977 
0.184555 -0.422333 -0.153343 
0.0806919 -0.369194 -0.148674 
0.0507177 -0.454954 -0.0790832 
0.0116065 -0.497457 -0.142292 
0.174334 -0.523135 -0.0996347 
0.356446 -0.589065 -0.408122 
0.306125 -0.539572 -0.279402 
0.342567 -0.569769 -0.263376 
0.281043 -0.590998 -0.408598 
0.364535 -0.686483 -0.432063 
0.428098 -0.585258 -0.244402 
0.43293 -0.665415 -0.404333 
0.362655 -0.619974 -0.380369 
0.446704 -0.619085 -0.406912 
0.465315 -0.59634 -0.364568 
0.42349 -0.623202 -0.442057 
0.359464 -0.537037 -0.411122 
0.329462 -0.394412 -0.293885 
0.276024 -0.465522 -0.277608 
0.362638 -0.525851 -0.356015 
0.364487 -0.473133 -0.289234 
0.328905 -0.464497 -0.355886 
0.438125 -0.404812 -0.300722 
0.436575 -0.519394 -0.315135 
0.442696 -0.707132 -0.104628 
0.243914 -0.364348 -0.0278119 
0.463432 -0.390927 -0.0120094 
0.439624 -0.663348 -0.0286963 
0.326904 -0.703566 -0.135783 
0.467273 -0.634692 -0.186102 
0.378775 -0.645491 -0.206381 
0.333206 -0.694202 -0.0412315 
0.285414 -0.617832 -0.226147 
0.261229 -0.68524 -0.0876372 
0.0724392 -0.114766 -0.291374 
0.0631976 -0.0299845 -0.293171 
0.028387 -0.275458 -0.269974 
0.150164 -0.0884292 -0.259893 
0.0710622 -0.198315 -0.274255 
0.214102 -0.0242191 -0.244516 
0.216468 -0.0646564 -0.112817 
0.141257 -0.208456 -0.178747 
0.151113 -0.19555 -0.0870103 
0.0430946 -0.349294 -0.222057 
0.189008 -0.113882 -0.177707 
0.105199 -0.283641 -0.1848 
0.113496 -0.317948 -0.0838535 
0.116016 -0.194303 -0.0109234 
0.175788 -0.0294488 -0.0145111 
0.160833 -0.120901 -0.0474508 
0.367819 -0.190258 -0.266348 
0.451102 -0.170408 -0.29005 
0.317301 -0.25765 -0.265631 
0.397253 -0.111101 -0.252595 
0.38529 -0.330004 -0.296598 
0.25463 -0.349703 -0.260904 
0.422258 -0.253325 -0.295611 
0.427452 -0.0146062 -0.269157 
0.300916 -0.203845 -0.200007 
0.320778 -0.241334 -0.0227038 
0.256827 -0.275413 -0.0696216 
0.306587 -0.179793 -0.0839657 
0.250013 -0.280139 -0.202157 
0.277751 -0.0104178 -0.190646 
0.394743 -0.014518 -0.0270427 
0.358501 -0.0289384 -0.102203 
0.349479 -0.107685 -0.0741822 
0.358871 -0.0854417 -0.176951 
0.276016 -0.00473561 -0.107233 
-0.00611279 -0.532551 0.0243445 
0.0897745 -0.675381 0.167529 
0.217136 -0.54991 0.0013759 
0.13333 -0.667678 0.0700264 
0.130892 -0.610762 0.0872068 
0.17724 -0.575556 0.0827783 
0.188429 -0.649735 0.170769 
0.131486 -0.586456 0.197019 
0.230134 -0.651896 0.180622 
0.133658 -0.584375 0.151614 
0.216422 -0.643961 0.136058 
0.170527 -0.637557 0.131439 
0.138312 -0.665507 0.169923 
-0.00476419 -0.395564 0.0776961 
0.223999 -0.51099 0.11767 
0.0309313 -0.446903 0.0145903 
0.165713 -0.650862 0.305922 
0.088542 -0.68212 0.282416 
0.163869 -0.66129 0.259098 
0.178774 -0.656111 0.21355 
0.177153 -0.594696 0.242975 
0.213132 -0.66089 0.264091 
0.154736 -0.587983 0.283666 
0.216121 -0.598489 0.270786 
0.280042 -0.608846 0.0896899 
0.287078 -0.580824 0.143702 
0.255917 -0.614661 0.045568 
0.275196 -0.661527 0.182949 
0.245035 -0.586743 0.145796 
0.3099 -0.631868 0.107759 
0.31874 -0.705793 0.0446693 
0.353601 -0.658414 0.158677 
0.323296 -0.561963 0.165625 
0.44281 -0.594435 0.0239774 
0.389029 -0.594222 0.0414006 
0.446009 -0.67552 0.0417664 
0.461831 -0.548641 0.0175807 
0.398422 -0.662256 0.04506 
0.41006 -0.590237 0.201701 
0.446556 -0.552838 0.177936 
0.389014 -0.705207 0.118453 
0.379306 -0.637283 0.196495 
0.4644 -0.615476 0.131116 
0.465547 -0.573516 0.145198 
0.398103 -0.534664 0.196286 
0.45977 -0.704046 0.164078 
0.391799 -0.44024 0.0686529 
0.422058 -0.492593 0.161534 
0.262011 -0.423143 0.136476 
0.469989 -0.437376 0.171914 
0.470368 -0.463838 0.10225 
0.321215 -0.367202 0.171435 
0.470672 -0.495333 0.180802 
0.42761 -0.406753 0.152296 
0.308044 -0.400771 0.0346391 
0.346225 -0.521775 0.198237 
0.34872 -0.550844 0.277173 
0.353478 -0.614066 0.267267 
0.284141 -0.677096 0.246253 
0.405522 -0.687456 0.312908 
0.473355 -0.564808 0.23671 
0.430393 -0.625645 0.210436 
0.380726 -0.640588 0.292463 
0.322624 -0.57588 0.248903 
0.244107 -0.600813 0.230516 
0.472806 -0.47303 0.268269 
0.382469 -0.526214 0.297431 
0.369477 -0.378193 0.266993 
0.357849 -0.470879 0.233096 
0.419575 -0.435187 0.333666 
0.0543438 -0.226817 0.0526006 
0.0886254 -0.288408 -0.000883806 
-0.0123614 -0.111585 0.0569094 
0.0148831 -0.29801 0.0709891 
0.103271 -0.0324617 0.03682 
0.0774272 -0.141365 0.0419119 
0.39089 -0.35482 0.0183362 
0.402241 -0.252661 0.0169297 
0.477781 -0.297023 0.186919 
0.402405 -0.261189 0.179279 
0.416595 -0.0110985 0.0908244 
0.391299 -0.155517 0.138899 
0.441664 -0.107448 0.186686 
0.455949 -0.0955474 0.0278663 
0.405468 -0.0407249 0.121407 
0.441533 -0.0453757 0.144131 
0.372953 -0.171742 -0.00366527 
0.448934 -0.199714 0.288505 
0.397208 -0.268679 0.263151 
0.431805 -0.34998 0.34898 
0.451912 -0.267271 0.33884 
0.527139 -0.437145 -0.243447 
0.489029 -0.357349 -0.237939 
0.498081 -0.54979 -0.327179 
0.511219 -0.524308 -0.259422 
0.552992 -0.607228 -0.265431 
0.560077 -0.706013 -0.0133668 
0.643328 -0.596491 -0.160327 
0.679655 -0.685063 -0.162376 
0.617047 -0.693164 -0.0849596 
0.623327 -0.549886 -0.028855 
0.71676 -0.534818 -0.0435044 
0.713477 -0.633062 -0.101716 
0.525807 -0.694481 -0.0906096 
0.606326 -0.654668 -0.220324 
0.53759 -0.482107 -0.0604131 
0.569416 -0.498449 -0.198956 
0.501368 -0.426861 -0.126307 
0.592264 -0.517524 -0.117748 
0.76505 -0.683382 -0.0457603 
0.572159 -0.140338 -0.2612 
0.525854 -0.214225 -0.271202 
0.514383 -0.0154828 -0.290513 
0.610559 -0.269341 -0.0798286 
0.552224 -0.339575 -0.043872 
0.62183 -0.197283 -0.138531 
0.585243 -0.217143 -0.211709 
0.517802 -0.346031 -0.155979 
0.723862 -0.202432 -0.0435733 
0.67579 -0.145401 -0.100773 
0.599732 -0.136749 -0.0146316 
0.726067 -0.0450172 -0.0113621 
0.656229 -0.00701396 -0.201947 
0.692035 -0.058028 -0.132287 
0.651256 -0.0774195 -0.0566331 
0.645785 -0.118023 -0.179215 
0.778137 -0.0247441 -0.141384 
0.811003 -0.0586451 -0.0300418 
0.771903 -0.106705 -0.111982 
0.805759 -0.280664 -0.0220719 
0.803811 -0.175328 -0.0696337 
0.490539 -0.636664 0.0964151 
0.592391 -0.685908 0.0938072 
0.659592 -0.701961 0.157136 
0.511715 -0.677852 0.0400632 
0.50881 -0.535016 0.0200783 
0.646624 -0.692521 0.00329527 
0.553942 -0.459282 0.103695 
0.513384 -0.477349 0.161735 
0.567922 -0.4473 0.0482148 
0.509247 -0.469412 0.117932 
0.60346 -0.438938 0.175708 
0.514951 -0.459678 0.0773044 
0.515549 -0.451956 0.0225939 
0.634638 -0.409941 0.0993908 
0.678191 -0.516095 0.0280946 
0.666223 -0.372881 0.181895 
0.725408 -0.448998 0.0610314 
0.588369 -0.560231 0.287191 
0.641042 -0.627561 0.277705 
0.709879 -0.662047 0.212944 
0.704793 -0.56162 0.294087 
0.608421 -0.695447 0.224645 
0.515238 -0.679127 0.224517 
0.505491 -0.402003 0.298753 
0.629369 -0.479924 0.274796 
0.550735 -0.493259 0.245548 
0.481534 -0.382741 0.21887 
0.677169 -0.410817 0.256814 
0.832723 -0.408532 0.042037 
0.818659 -0.545828 0.133818 
0.773748 -0.61689 0.14077 
0.852804 -0.468819 0.13872 
0.85772 -0.409469 0.20052 
0.768373 -0.534933 0.0360136 
0.743877 -0.654505 0.0547454 
0.778448 -0.407019 0.2608 
0.797147 -0.572702 0.221012 
0.833428 -0.491162 0.224128 
0.750392 -0.482788 0.284534 
0.708481 -0.143143 0.0269487 
0.521295 -0.151054 0.0190077 
0.524831 -0.258976 0.279982 
0.501819 -0.239053 0.00353832 
0.681109 -0.334467 0.0946786 
0.704758 -0.25407 0.0962606 
0.490312 -0.174578 0.20307 
0.709601 -0.2905 0.0169101 
0.857646 -0.215075 -0.00648291 
0.863396 -0.208035 0.0840368 
0.866872 -0.274942 0.136043 
0.778294 -0.0974329 0.0445926 
0.868857 -0.291588 0.0370578 
0.747891 -0.256097 0.176377 
0.84593 -0.128926 0.0011153 
0.747531 -0.175882 0.105537 
0.878118 -0.355314 0.108144 
0.730353 -0.333909 0.229399 
0.824387 -0.329814 0.211943 
0.223012 0.194417 -0.293804 
0.152139 0.0116889 -0.292622 
-0.0121728 0.0154394 -0.266729 
0.154872 0.125957 -0.297728 
0.116057 0.202535 -0.254799 
0.0906693 0.0717272 -0.294265 
0.00182448 0.100158 -0.239146 
0.00611328 0.112646 -0.019556 
0.00205861 0.164658 -0.0902546 
0.0768619 0.240205 -0.113536 
0.207722 0.270077 -0.0432995 
0.160314 0.272659 -0.211744 
0.127913 0.328661 -0.155661 
0.0652005 0.183681 -0.0313409 
0.0508287 0.208808 -0.198748 
0.061959 0.297115 -0.166366 
0.167305 0.291444 -0.121956 
0.0209305 0.266103 -0.159052 
0.286789 0.0503836 -0.26487 
0.342884 0.192219 -0.30148 
0.280697 0.133382 -0.29972 
0.242452 0.287914 -0.229917 
0.465597 0.238984 -0.256605 
0.412089 0.136743 -0.298625 
0.37045 0.0618606 -0.270253 
0.386327 0.267067 -0.264214 
0.289813 0.284336 -0.0383554 
0.423993 0.293689 -0.0830747 
0.470156 0.336371 -0.141041 
0.331954 0.309274 -0.209513 
0.312339 0.0367498 -0.0407769 
0.334244 0.312237 -0.103762 
0.361776 -0.00298228 -0.211483 
0.200806 0.355227 -0.166337 
0.284302 0.367172 -0.163113 
-0.00161019 0.673667 -0.254438 
-0.0107863 0.626355 -0.256633 
0.0607487 0.0683508 0.0268765 
0.389543 0.164065 0.0203023 
0.466269 -0.00129947 0.0269009 
0.287026 0.11324 0.0090694 
0.257094 0.216986 0.000850933 
0.139534 0.171826 0.00582368 
0.38492 0.0699524 0.000905042 
0.159595 0.0433615 0.0244788 
0.399035 0.246142 -0.00821435 
0.595055 -0.00120054 -0.263908 
0.496781 0.137107 -0.284008 
0.57941 0.144222 -0.244017 
0.626309 0.0717987 -0.231402 
0.542954 0.0675996 -0.28154 
0.573611 0.185168 -0.0457588 
0.559293 0.232998 -0.196168 
0.623168 0.0642702 -0.0295443 
0.676605 0.0741398 -0.161077 
0.665504 0.0107583 -0.0783104 
0.504614 0.263783 -0.0867222 
0.620957 0.179644 -0.173284 
0.486967 0.216493 -0.0137544 
0.64349 0.137312 -0.097626 
0.822523 0.0463059 -0.144666 
0.737205 0.0835265 -0.0683699 
0.877543 -0.000604017 -0.0843686 
0.903643 0.107408 -0.109367 
0.964532 0.0406629 -0.044146 
0.898249 0.126281 -0.0280017 
0.973333 0.133616 -0.0460649 
0.770564 0.114507 -0.139325 
0.827628 0.0584627 -0.05311 
0.817674 0.143406 -0.0231752 
0.838233 0.159361 -0.11529 
0.755587 0.214371 -0.0384559 
0.831259 0.250693 -0.0356375 
0.899382 0.170426 -0.0109012 
0.887056 0.204275 -0.0622784 
0.562671 0.306092 -0.144105 
0.555603 0.00126979 0.0211378 
0.530277 0.134019 0.00890272 
0.964907 0.228774 0.00248637 
-0.171862 0.0536523 -0.169853 
