0.09320765668397694 -0.3216933742038414 0.1395062548506818
0.10618797150656457 0.06418182633892422 0.029944686669929856
-0.12485520643706806 0.047667267381473644 -0.004915812296673035
-0.0160004870832887 -0.4405082361195073 0.20337968521529612
-0.07360866648155505 -0.03766866372939942 -0.011663005645047788
-0.06323084052191197 0.0723427173412442 0.08022734186138933
-0.05153570538472906 0.1262238756518368 -0.09201886547497758
-0.12630103358314834 0.03950637637915372 0.07071701218939443
-0.12254188300333957 0.047667267381473644 -0.024386284530554466
-0.13279119099444217 0.03950637637915372 0.010442084943913306
-0.07392996140290622 0.03950637637915372 0.11065397091334594
0.13131323435622674 0.008469286976629853 -0.06368065341180361
-0.018185292548476714 0.37040801587873273 0.009253293734913945
0.008032373033779468 0.1032512887752276 -0.10191474905259389
-0.08536806060300818 0.1262238756518368 0.06204204931291261
0.0 -0.19455697382517997 0.0724520047646908
0.06486944462080298 0.06418182633892422 -0.09709532523232621
0.027277938822715075 0.06418182633892422 -0.11364201368191192
-0.08999470747046516 0.1262238756518368 0.05513420850386227
0.19264843484216673 -0.4405082361195073 -0.06679721414891006
0.0 -0.28468019926418564 0.11280664688639884
0.06939970301185461 0.047667267381473644 0.10387464807283608
-0.004337481438240913 0.06418182633892422 -0.11023628751558942
0.07743207604563407 0.1262238756518368 0.07158450847704262
-0.012948185330452501 0.3344229846874007 0.039904829231816395
0.08453269380749512 -0.24554647784361205 -0.013397998220344154
-0.09446070687724654 0.1032512887752276 -0.039133721420573565
0.060082150292670417 0.1032512887752276 0.0827013127557934
0.10618797150656457 0.06418182633892422 -0.029944686669929856
0.09597079300759709 -0.3216933742038414 -0.13767487379898008
0.10242882092675577 0.03950637637915372 0.10242882092675577
0.0 0.17149433007021786 0.11328858926842561
0.05677281260275328 0.056020935336604294 -0.11139294923245366
-0.08321538462995529 -0.24554647784361205 0.019984544108043317
0.15055880014516235 0.03134548537683374 0.026892384917093656
-0.16765168996104507 -0.3216933742038414 0.0065865458876991625
0.08533593111087306 -0.4405082361195073 0.18513013368254916
0.14522530445073276 0.008469286976629853 -0.014297624000127454
0.0226512919552581 0.03950637637915372 0.1430726284776799
-0.16585243840147845 -0.3216933742038414 -0.02628192456652642
-0.006715063856239636 -0.24554647784361205 0.08530380161873795
0.12768260174495843 -0.3216933742038414 -0.10904749630659005
0.0 0.3196112888131113 -0.061688624899426316
-0.1652098485587761 -0.3216933742038414 -0.029494873780038205
-0.12543353729550016 -0.3216933742038414 -0.11145720821672389
-0.10168984260764806 -0.29663237033844947 -0.08684601724122361
0.0 0.09550808117066412 0.10223604397394506
-0.11871847343926054 -0.3216933742038414 0.11871847343926054
0.0 0.3344229846874007 0.04196111672846394
-0.19264843484216673 -0.4405082361195073 -0.06679721414891006
0.044756382544219195 0.03950637637915372 -0.13777126227538544
-0.039133721420573565 0.1032512887752276 0.09446070687724654
-0.13009231365509225 0.008469286976629853 -0.06628314227474817
0.06528712801855951 -0.29663237033844947 -0.11659792695834276
-0.01972750817096237 -0.3216933742038414 -0.16662354621272127
-0.006008215029267042 0.016533789502544416 -0.15277573510248546
-0.020852040395691496 0.03950637637915372 -0.13157027029330767
0.12157799823928603 0.047667267381473644 -0.029173578858687026
-0.01715714880015294 0.008469286976629853 -0.1449040095293816
0.14365095933611202 0.008469286976629853 -0.02563933472382406
0.05677281260275328 0.047667267381473644 -0.11139294923245366
-0.029944686669929856 0.06418182633892422 -0.10615584201442944
-0.11611598457631599 0.03950637637915372 0.06503009208147857
-0.055712539362294394 0.03950637637915372 0.12087114941231343
0.019084918328260016 -0.07940487401291751 0.05873271162299547
0.14448632613162507 0.03134548537683374 -0.050089878238648765
0.011984300566398966 0.3674199731101667 -0.016514558957450586
0.0 0.22964871083478133 0.10840490646388769
-0.09172970004576152 0.06418182633892422 -0.061270941501669784
0.08495037720525166 0.016533789502544416 0.1271364003786614
0.0 0.0877970030582359 0.10223604397394506
-0.020852040395691496 0.03950637637915372 0.13157027029330767
0.04751951886783933 -0.24554647784361205 -0.07110256609501585
0.11280664688639884 0.008469286976629853 -0.09256506684127458
-0.0742512563242574 -0.29663237033844947 -0.1111037838032376
-0.12720065936293165 -0.29663237033844947 0.04131852688576158
0.041800469267788354 -0.24554647784361205 0.07460468073774369
0.15113713100359447 0.016533789502544416 -0.023936471640662815
0.05674068311061816 0.1032512887752276 0.08495037720525166
0.10146493616270225 0.0723427173412442 0.012016430058534082
0.09407515297162512 0.03950637637915372 0.11013989903918407
0.14194809625295077 0.03950637637915372 0.02824182358676861
-0.1463498366754619 0.03134548537683374 0.044402958130732896
-0.08385797447265764 -0.24554647784361205 -0.016675206418126177
0.0 0.26916798616097626 -0.09484626078286797
0.06156010693088584 -0.07940487401291751 0.004851553312402798
0.017382055245098768 -0.03766866372939942 -0.0724520047646908
0.0 0.29477519139266517 0.08067715475128098
-0.10326418772226884 0.008469286976629853 -0.10326418772226884
0.0 0.35951611804492767 0.02188018414401527
0.16257523020369644 -0.4405082361195073 0.12305595487750146
-0.02396860113279793 -0.4405082361195073 -0.2024479299433777
-0.1060594535380241 0.06418182633892422 0.0489010870296494
-0.16328207903066902 -0.3216933742038414 -0.039197980404843805
0.0049158122966730345 0.047667267381473644 -0.12485520643706806
-0.149370008936163 0.03134548537683374 0.03277208197782023
-0.032739952485685106 -0.3216933742038414 0.16456725871607372
0.11145720821672389 -0.3216933742038414 0.12543353729550016
0.0 -0.23031709857156618 0.08138400357825357
-0.08485398872884631 -0.3216933742038414 -0.1447754915608411
-0.06885350164555759 -0.03766866372939942 0.02853098901598467
0.0 0.18402483200291386 0.1136098841897768
-0.020916299379961735 -0.29663237033844947 0.13208434216746956
0.10146493616270225 0.1032512887752276 0.012016430058534082
-0.10114364124135107 0.047667267381473644 0.07348014851301457
-0.031904585690172044 0.3344229846874007 0.027245809330579955
-0.013173091775398327 -0.3216933742038414 -0.1673946540239641
0.0 0.24976177291136503 0.10262159787956647
0.012016430058534084 0.016533789502544416 -0.15255082865753963
-0.08536806060300818 0.1262238756518368 -0.06204204931291261
-0.1134492367291012 0.047667267381473644 -0.0523068131959719
-0.08514315415806235 0.03950637637915372 0.11717625781677488
0.019984544108043317 0.008469286976629853 -0.14455058511589533
0.13487960798322485 0.03134548537683374 0.0720985803512045
0.12035707753815156 0.03950637637915372 0.08042011881420004
0.15242231068899917 -0.4405082361195073 0.13542580934952184
-0.11013989903918407 0.03950637637915372 -0.09407515297162512
0.0 -0.1267958749122164 -0.06294167509269591
-0.05677281260275328 0.056020935336604294 -0.11139294923245366
0.08842036235584438 0.047667267381473644 -0.08842036235584438
0.06641166024328864 0.1032512887752276 0.07775337096698524
0.006586545887699163 -0.3216933742038414 0.16765168996104507
-0.0827013127557934 0.0723427173412442 0.060082150292670417
-0.08684601724122361 -0.29663237033844947 -0.10168984260764806
-0.13761061481470985 0.03134548537683374 -0.06673295516463981
-0.08768138403673667 0.1262238756518368 0.058604193654455
0.026057018121580594 -0.29663237033844947 -0.13105619841914581
-0.12485520643706806 0.047667267381473644 0.004915812296673034
0.05767243838253658 0.06418182633892422 -0.09413941195589536
-0.04225028215768 0.06418182633892422 0.10197900803686413
-0.19730721120175884 -0.4405082361195073 -0.051503575892593946
-0.1442292901945441 0.008469286976629853 -0.02284406890806881
0.013719293141695331 0.06418182633892422 -0.11598746660777551
0.0 0.22560039482575645 -0.10943305021221147
0.018281681024882066 0.06418182633892422 0.1154412652414785
0.0 0.1384009531710465 0.1085655539245633
0.05317430948362008 0.008469286976629853 -0.1359077517315486
-0.04237880012622047 -0.3216933742038414 0.16238245325088574
-0.19994182955683854 -0.4405082361195073 -0.039776311263275924
0.019984544108043317 0.008469286976629853 0.14455058511589533
-0.015518544701261931 0.3674199731101667 0.01323735075966856
0.0996014256188654 -0.4405082361195073 -0.17786886846001254
-0.05532698545667297 -0.4405082361195073 0.19621480846916484
-0.10956156818075194 0.06418182633892422 0.01298031482258762
-0.027727751712606725 0.1032512887752276 -0.09831624593346068
-0.0724520047646908 -0.03766866372939942 -0.017382055245098768
0.07489384616695977 0.06418182633892422 -0.08099844967263214
-0.0776569824905799 -0.24554647784361205 -0.03579225423852131
0.019984544108043317 -0.4405082361195073 -0.2029298723254045
0.07807466588833642 -0.4405082361195073 -0.18850373035673654
0.06933544402758438 0.0723427173412442 -0.07502236413550023
-0.10242882092675577 0.03950637637915372 0.10242882092675577
0.0160004870832887 0.1032512887752276 0.10098299378067548
0.16392466887337137 -0.3216933742038414 0.0359529016991969
-0.0994086486660547 0.0723427173412442 0.023872212656392576
0.0 0.11485003543600503 -0.10307141076945812
-0.0359529016991969 -0.3216933742038414 0.16392466887337137
0.10201113752899924 0.06418182633892422 -0.04225028215768
0.1499483397945951 0.016533789502544416 0.029816168701389385
-0.028466730031714432 0.008469286976629853 0.14310475796981498
0.11364201368191192 0.06418182633892422 0.027277938822715075
-0.011470228692237081 0.008469286976629853 -0.14557872886421908
0.0 -0.3242637335746508 0.16980436593409795
-0.13491173747535992 0.008469286976629853 0.05587318682296998
0.0 -0.08994334743323618 0.061913531344372136
-0.058604193654455 0.1262238756518368 -0.08768138403673667
0.010056531038291894 -0.24554647784361205 -0.08491824771311653
-0.013237350759668563 0.3674199731101667 0.01551854470126193
0.0 0.1032512887752276 -0.10223604397394506
-0.009253293734913947 0.37040801587873273 0.018185292548476714
0.05706197803196934 0.06418182633892422 0.10188261956045877
-0.10904749630659005 -0.3216933742038414 -0.12768260174495843
-0.083954362949063 0.06418182633892422 -0.0717130264455831
0.02563933472382406 0.008469286976629853 -0.14365095933611202
-0.0 -0.38993641549883173 -0.20061654889167602
0.08768138403673667 0.1262238756518368 -0.058604193654455
0.07055636472871885 -0.4405082361195073 0.1912668666803567
0.029173578858687026 0.047667267381473644 -0.12157799823928603
-0.0857536145086296 0.06418182633892422 0.07926345709733579
0.04694118800940721 -0.07940487401291751 -0.040097606184627106
0.0065544163955640455 0.3344229846874007 0.04144704485430205
0.09722384320086667 0.1032512887752276 -0.03158329076882087
0.03126199584746969 0.008469286976629853 0.1425264271113829
-0.13931347789787107 0.03950637637915372 0.03929436888124915
0.13298396794725287 0.03950637637915372 0.005237107218024212
0.0049158122966730345 0.056020935336604294 -0.12485520643706806
0.04276435403184189 0.1032512887752276 -0.0927899732862204
0.12357002675166333 -0.29663237033844947 -0.05118228097124277
0.0 0.08005379545367253 0.10223604397394506
0.0 -0.29142739261256034 -0.12283104843255563
0.01539002673272146 0.3150167714377895 -0.06406620731742504
0.08887017524573602 0.06418182633892422 0.07588986042314841
0.0 -0.24554647784361205 0.08559296704795401
0.0 -0.06841658770270725 -0.06278102763202031
-0.06939970301185461 0.056020935336604294 0.10387464807283608
0.03225801010365834 -0.07940487401291751 -0.05266023760945819
0.05391328780272779 0.06418182633892422 0.09625995843681315
0.013173091775398327 -0.3216933742038414 0.1673946540239641
-0.16700910011834272 -0.3216933742038414 -0.01645029997318035
0.06939970301185461 0.056020935336604294 0.10387464807283608
-0.023872212656392576 0.0723427173412442 -0.0994086486660547
0.08716731216257478 0.1032512887752276 -0.05343134542070102
0.0160004870832887 0.1032512887752276 -0.10098299378067548
-0.05587318682296998 0.008469286976629853 -0.13491173747535992
0.05706197803196934 0.06418182633892422 -0.10188261956045877
0.12321660233817704 -0.3216933742038414 0.11389904961899286
0.09831624593346068 0.1032512887752276 -0.027727751712606725
-0.09507116722781378 0.056020935336604294 -0.08119122662544287
0.09812346898064997 0.056020935336604294 0.0773356875692287
0.0 -0.27651930826186566 0.10387464807283608
0.0 -0.1267958749122164 0.06294167509269591
-0.14136976539451865 0.016533789502544416 0.05857206416231988
-0.027245809330579955 0.3344229846874007 -0.031904585690172044
-0.09831624593346068 0.0723427173412442 -0.027727751712606725
0.0 -0.008880638776333827 -0.10223604397394506
0.17590896943977033 -0.4405082361195073 -0.10310354026159325
0.07907068014452509 -0.24554647784361205 0.032739952485685106
0.0 0.31170743374787224 0.06843581824780107
0.03225801010365834 -0.07940487401291751 0.05266023760945819
0.12096753788871879 -0.3216933742038414 -0.1163087615291267
0.04607369172175903 0.03950637637915372 -0.12485520643706806
-0.07322311257593364 -0.3216933742038414 -0.151008613035054
-0.04276435403184189 0.3150167714377895 -0.050089878238648765
0.06715063856239635 -0.24554647784361205 -0.05294940303867425
-0.08842036235584438 0.056020935336604294 -0.08842036235584438
-0.09703106624805598 0.03134548537683374 0.11820440156509865
0.10554538166386221 0.1262238756518368 -9.032745143516551e-19
0.05513420850386227 0.1262238756518368 0.08999470747046516
-0.04555961984759714 -0.3216933742038414 -0.16148282747110243
0.11367414317404703 0.03950637637915372 0.08960915356484374
-0.127297047839337 0.008469286976629853 -0.07129534304782656
0.11065397091334594 0.03950637637915372 -0.07392996140290622
-0.011373840215831725 0.03950637637915372 0.14442206714735484
0.16456725871607372 -0.3216933742038414 -0.032739952485685106
-0.11891125039207123 0.047667267381473644 -0.0386517790385468
-0.0773356875692287 0.056020935336604294 0.09812346898064997
-0.008996257797833003 0.03134548537683374 0.152647217133945
-0.16623799230709985 -0.3216933742038414 -0.023004716368744394
-0.047294612422893505 0.016533789502544416 -0.14551446987994884
0.12973888924160595 -0.3216933742038414 0.10647713693578063
0.09108711020305917 0.1032512887752276 -0.046427116135245326
0.19512240573657083 -0.4405082361195073 -0.05918252451288712
0.020337968521529613 0.37040801587873273 0.0016064746067558928
-0.033928743694684474 0.3344229846874007 0.024643320467635406
0.10348909416721466 0.06418182633892422 -0.03816983665652003
-0.06939970301185461 0.056020935336604294 -0.10387464807283608
-0.04870831007683869 -0.3216933742038414 0.16058320169131912
-0.03861964954641168 0.03134548537683374 0.14798844077435291
0.0 -0.3626906061682518 -0.19197371550732928
0.0 0.020228681098083012 -0.15303277103956642
-0.01539002673272146 0.3150167714377895 -0.06406620731742504
0.050089878238648765 0.03950637637915372 0.13581136325514323
0.06939970301185461 0.056020935336604294 -0.10387464807283608
0.1434581823833013 0.016533789502544416 -0.052917273546539134
-0.0945570953536519 0.06418182633892422 -0.06869285418488201
0.1395062548506818 -0.3216933742038414 0.09320765668397694
0.13333739236073916 -0.29663237033844947 -0.010506343928183545
0.09937651917391957 0.016533789502544416 0.11634089102126181
-0.2024479299433777 -0.4405082361195073 -0.02396860113279793
0.12630103358314834 0.03950637637915372 -0.07071701218939443
0.04324629641386865 0.047667267381473644 -0.11720838730891
0.015004472827100046 0.03134548537683374 -0.15219740424405334
-0.06586545887699165 0.3150167714377895 -9.032745143516551e-19
-0.010056531038291894 -0.24554647784361205 -0.08491824771311653
-0.06046770419829183 0.03950637637915372 -0.1186863439471254
0.13581136325514323 0.03950637637915372 -0.050089878238648765
-0.061078164548859074 0.008469286976629853 0.1325020255652261
0.055937445807240214 -0.29663237033844947 0.1213530917943402
-0.039615663802600336 0.008469286976629853 0.1404380101226002
0.0 -0.028768794407971754 -0.08096632018049704
0.12466242948425735 0.047667267381473644 0.00979949510121095
0.0 -0.11625740149189773 -0.062331214742128674
-0.012980314822587621 0.06418182633892422 0.10956156818075194
-0.020370098013664732 0.3150167714377895 -0.06265250966347985
0.012016430058534084 -0.4405082361195073 0.2035403326759717
0.049961360270108286 -0.07940487401291751 -0.03630632611268319
0.10242882092675577 0.03950637637915372 -0.10242882092675577
0.0 -0.03766866372939942 -0.07450829226133834
0.05870058213086035 0.3150167714377895 0.029912557177794737
-0.06053196318256207 -0.24554647784361205 -0.06053196318256207
0.0 -0.4309657769553773 0.20447208794789012
0.0049158122966730345 0.047667267381473644 0.12485520643706806
0.14551446987994884 0.016533789502544416 0.047294612422893505
0.13105619841914581 -0.29663237033844947 -0.026057018121580594
0.020819910903556383 0.03950637637915372 -0.13157027029330767
-0.07624328483663471 -0.3216933742038414 -0.1496270448732439
0.0 0.3313064239502943 -0.047294612422893505
0.0 -0.37162260498181454 -0.19531518268938156
0.05266023760945819 -0.07940487401291751 -0.03225801010365834
0.053045791515079606 0.06418182633892422 0.10413168400991701
0.0 0.0062523520193067395 0.13526516188884624
0.14464697359230066 0.03950637637915372 -0.005686920107915864
0.07470106921414904 0.016533789502544416 -0.13340165134500942
0.011984300566398966 0.3674199731101667 0.016514558957450586
-0.06715063856239635 -0.24554647784361205 -0.05294940303867425
0.0 0.24577771588661046 0.10397103654924143
-0.09507116722781378 0.056020935336604294 0.08119122662544287
0.0 0.027650593781295252 -0.15303277103956642
0.0 -0.26206103680106263 -0.09301487973116623
0.1123889634886423 0.06418182633892422 0.03171180873736134
0.10127215920989152 0.03950637637915372 0.0864925928277373
0.004016186516889734 -0.4405082361195073 0.2038616275973229
0.031904585690172044 -0.4405082361195073 -0.2015161746714593
-0.15373961986653903 -0.3216933742038414 -0.0672470270388017
0.008674962876481826 0.06418182633892422 -0.11004351056277871
-0.07071701218939443 0.03950637637915372 0.12630103358314834
-0.08241214732657734 0.03950637637915372 0.10451723791553844
0.015004472827100046 0.03134548537683374 0.15219740424405334
-0.11229257501223695 0.016533789502544416 0.10377825959643072
-0.15277573510248546 0.016533789502544416 -0.006008215029267043
-0.10114364124135107 0.056020935336604294 -0.07348014851301457
0.11229257501223695 0.016533789502544416 -0.10377825959643072
-0.04131852688576158 -0.29663237033844947 -0.12720065936293165
0.046427116135245326 0.0723427173412442 -0.09108711020305917
-0.167908725898126 -0.3216933742038414 -9.032745143516551e-19
0.014426141968667925 -0.07940487401291751 -0.0600500208005353
-0.1199072646482599 -0.4405082361195073 -0.1650492010981005
-0.061270941501669784 0.03134548537683374 0.14011671520124905
-0.05702984853983423 -0.07940487401291751 0.023615176719311636
-0.06679721414891006 -0.4405082361195073 -0.19264843484216673
-0.07807466588833642 -0.4405082361195073 0.18850373035673654
-0.11550552422574875 0.047667267381473644 0.047840813789190514
-0.019052788836124896 0.3344229846874007 -0.037366599353142085
-0.1596835759115358 -0.3216933742038414 -0.05188912979821536
0.13767487379898008 -0.3216933742038414 0.09597079300759709
0.14136976539451865 0.016533789502544416 0.05857206416231988
0.012401983964155499 0.1262238756518368 0.10474214436048426
0.0 -0.40561560766076926 0.20325116724675565
0.0 0.3150167714377895 0.06586545887699165
-0.02795265815755255 -0.4405082361195073 -0.20196598756135095
0.09812346898064997 0.047667267381473644 -0.0773356875692287
0.014426141968667925 -0.07940487401291751 0.0600500208005353
0.1154412652414785 0.06418182633892422 0.018281681024882066
0.09892670628402793 0.1262238756518368 -0.03649910306549391
0.1912668666803567 -0.4405082361195073 -0.07055636472871885
0.12935333533598456 -0.4405082361195073 0.15762728841488827
0.1463498366754619 0.03134548537683374 -0.044402958130732896
0.10798722306613116 0.06418182633892422 0.04472425305208408
-0.0386517790385468 0.056020935336604294 0.11891125039207123
0.0722913573040152 0.1032512887752276 0.0722913573040152
-0.18850373035673654 -0.4405082361195073 -0.07807466588833642
0.11717625781677488 0.03950637637915372 0.08514315415806235
0.12504798338987877 0.047667267381473644 -9.032745143516551e-19
-0.0742512563242574 -0.29663237033844947 0.1111037838032376
-0.0600500208005353 -0.07940487401291751 -0.014426141968667927
-0.07993817643217327 0.016533789502544416 -0.1304778675607137
0.0 -0.10048182085355484 0.062074178805047724
0.033928743694684474 0.047667267381473644 -0.12026068906174618
-0.1186863439471254 0.03950637637915372 -0.06046770419829183
0.0 -0.3483287231838541 -0.18522652215895452
-0.110396934976265 0.06418182633892422 -9.032745143516551e-19
0.0773356875692287 0.03134548537683374 0.131923694706794
0.01982389664736773 0.37040801587873273 -0.004755164835997446
-0.09584227503905661 0.0723427173412442 0.03537457084076478
0.0 -0.3137895191386024 0.16067959016772448
0.06715063856239635 -0.24554647784361205 0.05294940303867425
0.0 -0.30116262872950106 0.1434581823833013
-0.0945570953536519 -0.29663237033844947 -0.0945570953536519
-0.061078164548859074 0.06418182633892422 -0.09966568460313564
0.019566860710286783 0.056020935336604294 0.12350576776739311
-0.050089878238648765 0.03134548537683374 0.14448632613162507
-0.15149055541708076 0.03134548537683374 -0.02094842887209685
0.0368525274789802 0.008469286976629853 -0.14120911793384303
-0.15512118802834907 -0.4405082361195073 -0.1325020255652261
-0.03158329076882087 0.1032512887752276 -0.09722384320086667
0.1596835759115358 -0.3216933742038414 -0.05188912979821536
-0.011663005645047787 -0.03766866372939942 0.07360866648155505
0.028627377492390024 0.1262238756518368 -0.10149706565483735
0.03579225423852131 -0.24554647784361205 -0.0776569824905799
0.02824182358676861 0.03950637637915372 -0.14194809625295077
0.0 -0.028768794407971754 0.08096632018049704
-0.09892670628402793 0.1262238756518368 -0.03649910306549391
-0.1154412652414785 0.06418182633892422 -0.018281681024882066
0.07624328483663471 -0.24554647784361205 0.038844555991357506
0.04414592219365195 0.1262238756518368 0.09577801605478638
0.11280664688639884 0.008469286976629853 0.09256506684127458
0.1199072646482599 -0.4405082361195073 0.1650492010981005
-0.028466730031714432 0.008469286976629853 -0.14310475796981498
0.033928743694684474 0.3344229846874007 -0.024643320467635406
0.10188261956045877 0.06418182633892422 0.05706197803196934
0.036113549159872485 0.03950637637915372 0.12810028514271496
0.0 -0.020575773913516726 -0.08819545591089856
0.09966568460313564 0.06418182633892422 0.061078164548859074
-0.08912721118281698 0.1032512887752276 -0.04992923077797318
0.16585243840147845 -0.3216933742038414 0.02628192456652642
-0.09484626078286797 0.008469286976629853 0.11103952481896735
-0.1066056549043211 0.047667267381473644 -0.06531925751069463
0.03441068607671124 0.3150167714377895 -0.05616235225218604
0.0 0.213230540353736 0.11152146720099414
-0.10387464807283608 0.047667267381473644 0.06939970301185461
-0.06923905555117901 -0.24554647784361205 0.050314784683594585
0.07348014851301457 0.056020935336604294 -0.10114364124135107
-0.06869285418488201 0.06418182633892422 0.0945570953536519
-0.13381933474276594 0.03950637637915372 0.05542337393307833
0.039776311263275924 -0.4405082361195073 0.19994182955683854
0.0 -0.24554647784361205 -0.08559296704795401
-0.09812346898064997 0.056020935336604294 -0.0773356875692287
-0.05805799228815799 -0.24554647784361205 -0.06278102763202031
-0.05513420850386227 0.1262238756518368 0.08999470747046516
-0.12408409862582521 0.056020935336604294 0.014683177905748865
0.07360866648155505 -0.03766866372939942 -0.011663005645047788
-0.026057018121580594 -0.29663237033844947 -0.13105619841914581
0.11013989903918407 0.03950637637915372 -0.09407515297162512
-0.06085325810391325 0.3150167714377895 -0.02522165132606753
-0.07348014851301457 0.047667267381473644 -0.10114364124135107
0.07428338581639252 -0.03766866372939942 0.005847567568591452
0.14798844077435291 -0.3216933742038414 -0.0791028096366602
-0.10127215920989152 0.03950637637915372 0.0864925928277373
0.05767243838253658 0.06418182633892422 0.09413941195589536
-0.10647713693578063 -0.3216933742038414 0.12973888924160595
-0.1395062548506818 -0.3216933742038414 0.09320765668397694
-0.12951398279666013 0.03950637637915372 -0.0311013483867941
-0.06503009208147857 0.03950637637915372 0.11611598457631599
0.0 -0.168660603164275 -0.067600451452288
0.04870831007683869 -0.3216933742038414 -0.16058320169131912
0.0550056905353218 -0.07940487401291751 -0.028016917141822785
0.012016430058534084 0.1032512887752276 0.10146493616270225
0.009799495101210951 0.3344229846874007 -0.0408044550115997
0.032739952485685106 -0.3216933742038414 -0.16456725871607372
0.016514558957450586 0.3674199731101667 0.011984300566398964
0.0 0.3313064239502943 0.047294612422893505
-0.151008613035054 -0.3216933742038414 0.07322311257593364
0.12026068906174618 0.056020935336604294 -0.033928743694684474
0.0857536145086296 0.06418182633892422 -0.07926345709733579
-0.028016917141822785 -0.07940487401291751 0.0550056905353218
-0.14715307397883984 0.016533789502544416 0.04151130383857229
0.0 -0.07387860136567731 -0.062074178805047724
0.0386517790385468 0.056020935336604294 0.11891125039207123
-0.09831624593346068 0.1032512887752276 -0.027727751712606725
-0.10904749630659005 0.06418182633892422 0.017285666768693413
0.02959126225644356 -0.24554647784361205 0.08022734186138933
0.10451723791553844 0.03950637637915372 -0.08238001783444222
0.0 -0.02594139910008142 -0.0832475141220904
0.03572799525425107 0.016533789502544416 0.14879167807773086
0.09831624593346068 0.1032512887752276 0.027727751712606725
-0.10615584201442944 0.06418182633892422 -0.029944686669929856
-0.08106270865690239 0.008469286976629853 -0.12132096230220507
0.06679721414891006 -0.4405082361195073 -0.19264843484216673
0.10904749630659005 0.06418182633892422 -0.017285666768693413
-0.038716038022817034 0.3150167714377895 -0.05330282745216055
-0.0927899732862204 0.0723427173412442 -0.04276435403184189
0.08321538462995529 -0.24554647784361205 -0.019984544108043317
0.01645029997318035 -0.3216933742038414 0.16700910011834272
0.0742512563242574 -0.29663237033844947 -0.1111037838032376
-0.05870058213086035 0.3150167714377895 0.029912557177794737
0.10168984260764806 -0.29663237033844947 -0.08684601724122361
0.07348014851301457 0.056020935336604294 0.10114364124135107
-0.10538473420318661 0.1262238756518368 0.004144704485430205
-0.05677281260275328 0.056020935336604294 0.11139294923245366
-0.04694118800940721 -0.07940487401291751 -0.040097606184627106
-0.008674962876481826 0.06418182633892422 -0.11004351056277871
0.07489384616695977 0.06418182633892422 0.08099844967263214
0.004016186516889734 0.0723427173412442 -0.10207539651326948
-0.026892384917093656 0.03134548537683374 -0.15055880014516235
-0.017285666768693413 0.06418182633892422 -0.10904749630659005
0.0 -0.003033071207742377 0.11152146720099414
-0.026892384917093656 0.03134548537683374 0.15055880014516235
0.0 0.2173431153470311 0.11081461837402154
0.0 0.09165254211445006 -0.10223604397394506
0.14448632613162507 0.03134548537683374 0.050089878238648765
-0.008032373033779468 0.1032512887752276 -0.10191474905259389
0.0 0.30508875836803806 -0.0735444074972848
0.13369081677422545 0.008469286976629853 0.058475675685914524
0.0 -0.3293723228241346 -0.17359564600604185
-0.08533593111087306 -0.4405082361195073 -0.18513013368254916
0.0 0.056020935336604294 0.12504798338987877
0.08199446392882082 -0.3216933742038414 -0.14638196616759702
-0.1447754915608411 -0.3216933742038414 0.08485398872884631
0.0 0.13027219166086168 0.10654139592005087
0.014426141968667925 0.3674199731101667 -0.014426141968667927
-0.2038616275973229 -0.4405082361195073 0.004016186516889733
-0.04555961984759714 -0.3216933742038414 0.16148282747110243
-0.13491173747535992 0.008469286976629853 -0.05587318682296998
-0.15762728841488827 -0.4405082361195073 -0.12935333533598456
0.10342483518294443 0.1262238756518368 0.02056287496647544
0.13298396794725287 0.03950637637915372 -0.005237107218024214
0.10522408674251103 0.1262238756518368 0.00828940897086041
0.0 0.15070654865879674 -0.110943136342562
-0.06303806356910127 -0.4405082361195073 -0.19403000300397683
-0.03408939115536006 0.008469286976629853 0.14198022574508587
0.14120911793384303 0.008469286976629853 -0.0368525274789802
0.01645029997318035 -0.3216933742038414 -0.16700910011834272
-0.05269236710159331 -0.03766866372939942 0.05269236710159331
-0.16700910011834272 -0.3216933742038414 0.01645029997318035
-0.16238245325088574 -0.3216933742038414 -0.04237880012622047
0.09446070687724654 0.0723427173412442 0.039133721420573565
0.09047664985249193 -0.3216933742038414 -0.14133763590238352
-0.13381933474276594 -0.3216933742038414 -0.10127215920989152
0.15219740424405334 0.03134548537683374 -0.015004472827100048
0.16148282747110243 -0.3216933742038414 -0.04555961984759714
-0.07743207604563407 0.1262238756518368 0.07158450847704262
-0.08887017524573602 0.06418182633892422 -0.07588986042314841
-0.12087114941231343 0.03950637637915372 -0.055712539362294394
0.10114364124135107 0.008469286976629853 -0.10519195725037592
0.0 0.19241062945017973 -0.1136098841897768
0.11659792695834276 -0.4405082361195073 0.16726613605542362
0.028016917141822785 -0.07940487401291751 0.0550056905353218
-0.05330282745216055 0.3150167714377895 0.038716038022817034
0.10422807248632238 0.1262238756518368 -0.016514558957450586
-0.08025947135352443 0.1262238756518368 -0.06853220672420642
0.0 -0.4405082361195073 0.20402227505799847
-0.029173578858687026 0.056020935336604294 -0.12157799823928603
0.16778020792958553 -0.3216933742038414 -0.0033093376899171415
0.12861435701687682 -0.29663237033844947 -0.03627419662054808
0.0226512919552581 0.03950637637915372 -0.1430726284776799
-0.006008215029267042 0.016533789502544416 0.15277573510248546
-0.1447754915608411 -0.3216933742038414 -0.08485398872884631
0.17590896943977033 -0.4405082361195073 0.10310354026159325
-0.13009231365509225 0.008469286976629853 0.06628314227474817
0.10907962579872517 0.008469286976629853 -0.09693467777165063
0.08170529849960476 -0.4405082361195073 0.18680086727357528
-0.10599519455375385 0.03134548537683374 -0.11023628751558942
0.09070155629743776 -0.29663237033844947 -0.09812346898064997
0.08138400357825357 -0.24554647784361205 -0.026442572027202006
0.011663005645047787 -0.03766866372939942 -0.07360866648155505
-0.10207539651326948 0.0723427173412442 0.004016186516889733
-0.11659792695834276 -0.29663237033844947 -0.06528712801855951
0.029912557177794737 0.3150167714377895 0.05870058213086035
-0.023872212656392576 0.1032512887752276 0.0994086486660547
0.0 -0.0629867035318723 -0.06384130087247922
-0.15277573510248546 0.016533789502544416 0.006008215029267041
0.0827013127557934 0.0723427173412442 -0.060082150292670417
-0.08321538462995529 -0.24554647784361205 -0.019984544108043317
0.08514315415806235 0.03950637637915372 0.11717625781677488
-0.010313566975372836 0.3150167714377895 -0.06506222157361369
-0.0827013127557934 0.1032512887752276 0.060082150292670417
-0.04992923077797318 0.0723427173412442 -0.08912721118281698
-0.005686920107915863 0.03950637637915372 -0.14464697359230066
0.08842036235584438 0.056020935336604294 0.08842036235584438
-0.047840813789190514 0.047667267381473644 0.11550552422574875
0.08546444907941354 -0.24554647784361205 -0.0033414671820522594
-0.12720065936293165 -0.29663237033844947 -0.04131852688576158
-0.09937651917391957 0.016533789502544416 0.11634089102126181
0.09407515297162512 0.03950637637915372 -0.11013989903918407
-0.20337968521529612 -0.4405082361195073 0.0160004870832887
0.020145191568718905 0.3674199731101667 0.003180819721376668
0.12350576776739311 0.03950637637915372 0.07569708347033771
-0.07055636472871885 -0.4405082361195073 0.1912668666803567
-0.019566860710286783 0.056020935336604294 0.12350576776739311
-0.0160004870832887 0.1032512887752276 0.10098299378067548
0.08042011881420004 0.03950637637915372 0.12035707753815156
0.14455058511589533 0.008469286976629853 -0.019984544108043317
-0.027727751712606725 0.1032512887752276 0.09831624593346068
-0.04183259875992347 0.3344229846874007 0.003277208197782022
0.08022734186138933 -0.24554647784361205 -0.02959126225644356
-0.009895883577616305 -0.3216933742038414 -0.16752317199250458
0.0994086486660547 0.1032512887752276 -0.023872212656392576
0.0311013483867941 0.03950637637915372 0.12951398279666013
-0.0994086486660547 0.1032512887752276 -0.023872212656392576
-0.046170080198164376 0.06418182633892422 0.10017975647729753
0.0 0.17149433007021786 -0.11328858926842561
0.08244427681871246 0.03134548537683374 -0.12880713396968757
0.10262159787956647 0.1262238756518368 0.024643320467635406
-0.02277980992379857 0.06418182633892422 -0.11454163946169521
0.0 -0.01096905576511642 0.09921587171324399
-0.08273344224792852 -0.29663237033844947 0.10493492131329496
-0.052917273546539134 0.016533789502544416 0.1434581823833013
0.16623799230709985 -0.3216933742038414 -0.023004716368744394
0.0 -0.39616953697304463 0.20177321060854023
0.06869285418488201 0.06418182633892422 0.0945570953536519
-0.10776231662118535 0.03950637637915372 -0.07829957233328225
0.08931998813562768 0.06418182633892422 0.0649015741129381
0.13777126227538544 0.03950637637915372 -0.044756382544219195
0.012980314822587621 0.06418182633892422 0.10956156818075194
-0.017382055245098768 -0.03766866372939942 -0.0724520047646908
-0.03171180873736134 0.06418182633892422 0.1123889634886423
0.09417154144803049 0.03950637637915372 0.09417154144803049
-0.07158450847704262 0.1262238756518368 -0.07743207604563407
0.03277208197782023 0.03134548537683374 -0.149370008936163
0.09256506684127458 0.008469286976629853 0.11280664688639884
-0.023872212656392576 0.0723427173412442 0.0994086486660547
-0.16765168996104507 -0.3216933742038414 -0.006586545887699164
0.13767487379898008 -0.3216933742038414 -0.09597079300759709
-0.06506222157361369 0.3150167714377895 0.010313566975372834
0.04780868429705539 0.008469286976629853 0.13786765075179078
-0.03579225423852131 -0.24554647784361205 -0.0776569824905799
-0.03649910306549391 0.1262238756518368 -0.09892670628402793
0.033928743694684474 0.3344229846874007 0.024643320467635406
-0.13632543512930514 0.016533789502544416 0.06946396199612484
0.10207539651326948 0.1032512887752276 0.004016186516889733
-0.1458036353091649 0.008469286976629853 -0.0057190496000509815
0.11916828632915219 -0.29663237033844947 -0.060724740135372775
0.13105619841914581 -0.29663237033844947 0.026057018121580594
-0.06278102763202031 -0.24554647784361205 0.05805799228815799
-0.12026068906174618 0.047667267381473644 0.033928743694684474
0.12006791210893548 0.016533789502544416 0.09465348383005724
-0.060724740135372775 -0.29663237033844947 -0.11916828632915219
0.14011671520124905 0.03134548537683374 -0.061270941501669784
-0.046427116135245326 0.1032512887752276 0.09108711020305917
0.004337481438240913 0.06418182633892422 0.11023628751558942
0.06885350164555759 -0.03766866372939942 -0.02853098901598467
-0.14448632613162507 0.03134548537683374 -0.050089878238648765
-0.13176304724611837 -0.3216933742038414 0.10387464807283608
0.06085325810391325 0.3150167714377895 0.02522165132606753
0.06503009208147857 0.03950637637915372 -0.11611598457631599
-0.1912668666803567 -0.4405082361195073 -0.07055636472871885
0.0016064746067558937 0.37040801587873273 0.020337968521529613
0.011663005645047787 -0.03766866372939942 0.07360866648155505
0.10207539651326948 0.1032512887752276 -0.004016186516889735
-0.00800024354164435 -0.4405082361195073 0.2037009801366473
-0.16752317199250458 -0.3216933742038414 0.009895883577616303
0.0773356875692287 0.047667267381473644 -0.09812346898064997
-0.13886366500797945 0.008469286976629853 0.045109806957705494
-0.05497356104318668 -0.3216933742038414 -0.1585590436868067
-0.06939970301185461 0.047667267381473644 0.10387464807283608
0.1650492010981005 -0.4405082361195073 0.1199072646482599
-0.1912668666803567 -0.4405082361195073 0.07055636472871885
0.0049158122966730345 0.056020935336604294 0.12485520643706806
-0.10146493616270225 0.1032512887752276 -0.012016430058534085
0.16765168996104507 -0.3216933742038414 0.0065865458876991625
0.06641166024328864 0.0723427173412442 0.07775337096698524
-0.11611598457631599 0.03950637637915372 -0.06503009208147857
-0.016514558957450586 0.1262238756518368 0.10422807248632238
0.019406213249611195 0.3674199731101667 0.006297380458483102
-0.06425898427023574 -0.3216933742038414 0.15512118802834907
0.0 -0.4024347879393926 0.2029298723254045
0.13272693201017194 -0.29663237033844947 0.015711321654072637
0.009799495101210951 0.056020935336604294 -0.12466242948425735
-0.0032772081977820227 0.3344229846874007 0.04183259875992347
-0.10818000001894187 0.06418182633892422 0.021526759730528974
0.0523068131959719 0.047667267381473644 0.1134492367291012
0.12466242948425735 0.056020935336604294 0.00979949510121095
0.053045791515079606 0.06418182633892422 -0.10413168400991701
-0.08768138403673667 0.1262238756518368 -0.058604193654455
0.16392466887337137 -0.3216933742038414 -0.0359529016991969
-0.18513013368254916 -0.4405082361195073 0.08536806060300818
0.14374734781251736 0.03950637637915372 -0.017028630831612473
-0.1496270448732439 -0.3216933742038414 -0.07624328483663471
-0.2029298723254045 -0.4405082361195073 0.019984544108043317
-0.2037009801366473 -0.4405082361195073 -0.008000243541644352
0.10901536681445495 0.047667267381473644 0.06104603505672396
0.14316901695408524 -0.3216933742038414 -0.0877456430210069
0.03861964954641168 0.03134548537683374 0.14798844077435291
0.1060594535380241 0.06418182633892422 -0.0489010870296494
0.13886366500797945 0.016533789502544416 0.0640019483331548
-0.07907068014452509 -0.24554647784361205 0.032739952485685106
-0.08231575885017199 -0.24554647784361205 -0.0231974933215551
0.13353016931354988 -0.29663237033844947 -0.005237107218024214
0.0 0.16731749609265267 0.11296729434707443
0.0 0.23372915633594127 -0.10737676271556393
0.040097606184627106 -0.07940487401291751 0.04694118800940721
0.0 0.3017794206781208 -0.07611476686809424
0.08533593111087306 -0.4405082361195073 -0.18513013368254916
-0.12350576776739311 0.03950637637915372 0.07569708347033771
0.1596835759115358 -0.3216933742038414 0.05188912979821536
0.11357775469764167 0.03950637637915372 0.0695924799646653
-0.07993817643217327 0.016533789502544416 0.1304778675607137
0.019984544108043317 -0.4405082361195073 0.2029298723254045
0.16010125930929234 -0.4405082361195073 -0.126204645106743
-0.039133721420573565 0.0723427173412442 -0.09446070687724654
-0.07087765965007002 -0.03766866372939942 -0.023036845860879514
0.013237350759668563 0.37040801587873273 -0.015518544701261933
0.0722913573040152 0.06418182633892422 -0.09169757055362641
-0.0041447044854302055 0.1262238756518368 -0.10538473420318661
0.2038616275973229 -0.4405082361195073 0.004016186516889733
-0.019084918328260016 -0.07940487401291751 0.05873271162299547
-0.08912721118281698 0.0723427173412442 -0.04992923077797318
0.07868512623890365 0.008469286976629853 0.12289530741682585
0.07450829226133834 -0.03766866372939942 -9.032745143516551e-19
0.0 -0.168660603164275 0.067600451452288
-0.023936471640662815 0.016533789502544416 -0.15113713100359447
-0.006586545887699163 -0.3216933742038414 -0.16765168996104507
0.10956156818075194 0.06418182633892422 0.04041890110597828
-0.11659792695834276 -0.29663237033844947 0.06528712801855951
-0.0 -0.4278170867261357 -0.20463273540856572
0.18988529851854663 -0.4405082361195073 -0.07431551530852763
-0.16752317199250458 -0.3216933742038414 -0.009895883577616307
0.13006018416295714 -0.29663237033844947 -0.03122986635533457
-0.010666991388859133 0.3674199731101667 0.017382055245098768
-0.12026068906174618 0.056020935336604294 -0.033928743694684474
-0.11634089102126181 0.016533789502544416 -0.09937651917391957
-0.04751951886783933 -0.24554647784361205 0.07110256609501585
0.11891125039207123 0.047667267381473644 0.0386517790385468
0.0945570953536519 -0.29663237033844947 0.0945570953536519
-0.11457376895383034 0.008469286976629853 0.09031600239181634
-0.03122986635533457 -0.29663237033844947 -0.13006018416295714
-0.0033414671820522586 -0.24554647784361205 -0.08546444907941354
-0.13487960798322485 0.03134548537683374 -0.0720985803512045
0.0 0.17984799802534857 0.11364201368191192
0.0 -0.14774430378431325 -0.06506222157361369
-0.14699242651816427 -0.4405082361195073 0.1413055064102484
0.08022734186138933 0.0723427173412442 0.06323084052191197
0.0945570953536519 -0.29663237033844947 -0.0945570953536519
-0.041157879425085996 0.03950637637915372 0.12668658748876976
0.10991499259423824 -0.4405082361195073 0.17173213546220503
0.07862086725463344 -0.29663237033844947 -0.10821212951107699
0.11688709238755882 0.06418182633892422 -9.032745143516551e-19
0.18850373035673654 -0.4405082361195073 -0.07807466588833642
0.11634089102126181 0.008469286976629853 0.08806693794235808
0.0 -0.37162260498181454 0.19531518268938156
-0.0016064746067558937 0.37040801587873273 0.020337968521529613
-0.11659792695834276 -0.4405082361195073 -0.16726613605542362
0.07348014851301457 0.047667267381473644 0.10114364124135107
-0.1650492010981005 -0.4405082361195073 0.1199072646482599
-0.1325020255652261 0.008469286976629853 -0.061078164548859074
-0.07862086725463344 -0.29663237033844947 0.10821212951107699
0.14365095933611202 0.008469286976629853 0.02563933472382406
0.09722384320086667 0.0723427173412442 -0.03158329076882087
0.0 0.0030394028057948996 -0.12479094745279781
-0.10904749630659005 0.06418182633892422 -0.017285666768693413
-0.12466242948425735 0.056020935336604294 0.00979949510121095
0.003180819721376669 0.3674199731101667 -0.020145191568718905
0.1134492367291012 0.056020935336604294 -0.0523068131959719
-0.09108711020305917 0.0723427173412442 -0.046427116135245326
0.0386517790385468 0.056020935336604294 -0.11891125039207123
0.09404302347949 0.1262238756518368 -0.04790507277346075
0.04555961984759714 -0.3216933742038414 0.16148282747110243
0.050089878238648765 0.03134548537683374 -0.14448632613162507
0.0 0.3518371694246345 -0.02486822691258123
0.023004716368744394 -0.3216933742038414 -0.16623799230709985
-0.05674068311061816 0.0723427173412442 0.08495037720525166
-0.19994182955683854 -0.4405082361195073 0.039776311263275924
0.0 -0.22524063881421755 0.07997030592430839
0.0695924799646653 0.03950637637915372 0.11357775469764167
-0.0049158122966730345 0.047667267381473644 0.12485520643706806
-0.02824182358676861 0.03950637637915372 0.14194809625295077
-0.024643320467635406 0.3344229846874007 0.033928743694684474
0.0 -0.29663237033844947 -0.1337550757584957
0.024643320467635406 0.3344229846874007 0.033928743694684474
-0.0033093376899171406 -0.3216933742038414 0.16778020792958553
0.1585590436868067 -0.3216933742038414 -0.05497356104318668
-0.012016430058534084 -0.4405082361195073 0.2035403326759717
-0.06869285418488201 0.06418182633892422 -0.0945570953536519
-0.10242882092675577 0.03950637637915372 -0.10242882092675577
0.0994086486660547 0.1032512887752276 0.023872212656392576
0.02576785269236453 0.06418182633892422 -0.1073446332234288
0.03261143451714464 0.1262238756518368 -0.10037253343010823
0.11402756758753332 -0.29663237033844947 0.06988164539388136
-0.12321660233817704 -0.3216933742038414 -0.11389904961899286
0.0 0.005352726239523431 -0.1317309177539833
-0.0724520047646908 -0.03766866372939942 0.017382055245098768
0.004851553312402799 -0.07940487401291751 -0.06156010693088584
-0.045109806957705494 0.008469286976629853 0.13886366500797945
0.0927899732862204 0.0723427173412442 -0.04276435403184189
0.0016064746067558937 0.37040801587873273 -0.020337968521529613
-0.0 -0.4405082361195073 -0.20402227505799847
-0.03383235521827912 -0.03766866372939942 -0.06641166024328864
-0.09722384320086667 0.1032512887752276 -0.03158329076882087
0.15740238196994244 -0.3216933742038414 0.05805799228815799
0.16752317199250458 -0.3216933742038414 0.009895883577616303
0.12536927831122993 -0.29663237033844947 -0.04626646867456974
0.04472425305208408 0.06418182633892422 0.10798722306613116
-0.11891125039207123 0.056020935336604294 -0.0386517790385468
-0.05706197803196934 0.06418182633892422 0.10188261956045877
-0.0041447044854302055 0.1262238756518368 0.10538473420318661
0.16257523020369644 -0.4405082361195073 -0.12305595487750146
-0.08887017524573602 0.06418182633892422 0.07588986042314841
0.0 0.25371370044398456 0.10124002971775642
0.03874816751495216 0.3344229846874007 0.016064746067558935
0.0 0.3196112888131113 0.061688624899426316
0.18345940009152303 -0.4405082361195073 0.0889986932142765
0.10387464807283608 0.047667267381473644 0.06939970301185461
0.08999470747046516 0.1262238756518368 -0.05513420850386227
-0.0640019483331548 0.016533789502544416 0.13886366500797945
0.06503009208147857 0.03950637637915372 0.11611598457631599
-0.06265250966347985 0.3150167714377895 0.020370098013664732
0.04472425305208408 0.06418182633892422 -0.10798722306613116
-0.07158450847704262 0.1262238756518368 0.07743207604563407
-0.06503009208147857 0.03950637637915372 -0.11611598457631599
0.10017975647729753 0.0723427173412442 -0.01992028512377308
-0.09825198694919045 0.03950637637915372 0.10628435998296992
0.0 0.20490900189074057 0.11254961094931791
0.14133763590238352 -0.3216933742038414 -0.09047664985249193
0.019566860710286783 0.047667267381473644 -0.12350576776739311
0.03649910306549391 0.1262238756518368 -0.09892670628402793
0.0 -0.08994334743323618 -0.061913531344372136
-0.02795265815755255 -0.4405082361195073 0.20196598756135095
0.09812346898064997 -0.29663237033844947 0.09070155629743776
0.013397998220344152 -0.24554647784361205 -0.08453269380749512
-0.10127215920989152 0.03950637637915372 -0.0864925928277373
-0.13632543512930514 0.016533789502544416 -0.06946396199612484
0.061270941501669784 0.03134548537683374 0.14011671520124905
0.06425898427023574 -0.3216933742038414 -0.15512118802834907
0.06027492724548113 -0.03766866372939942 0.04379249778016566
0.015711321654072637 -0.29663237033844947 0.13272693201017194
0.0 0.29477519139266517 -0.08067715475128098
-0.014972343334964928 0.03134548537683374 0.15219740424405334
0.06046770419829183 0.03950637637915372 0.1186863439471254
0.18988529851854663 -0.4405082361195073 0.07431551530852763
-0.05343134542070102 0.1032512887752276 0.08716731216257478
0.0 0.3083980960579552 0.0710061776186105
-0.1154412652414785 0.06418182633892422 0.018281681024882066
0.05294940303867425 -0.24554647784361205 0.06715063856239635
0.12720065936293165 -0.29663237033844947 -0.04131852688576158
0.11023628751558942 0.03134548537683374 -0.10599519455375385
0.07348014851301457 0.047667267381473644 -0.10114364124135107
-0.14879167807773086 0.016533789502544416 -0.03572799525425107
0.06303806356910127 -0.4405082361195073 0.19403000300397683
0.10413168400991701 0.06418182633892422 0.053045791515079606
0.06673295516463981 0.03134548537683374 -0.13761061481470985
0.0 0.03950637637915372 0.14483975054511136
0.2037009801366473 -0.4405082361195073 0.008000243541644348
0.046427116135245326 0.0723427173412442 0.09108711020305917
0.0 -0.3597668223839561 -0.1907206653140597
-0.03874816751495216 0.3344229846874007 0.016064746067558935
0.050314784683594585 -0.24554647784361205 -0.06923905555117901
0.16058320169131912 -0.3216933742038414 0.04870831007683869
-0.006297380458483103 0.37040801587873273 -0.019406213249611195
-0.08170529849960476 -0.4405082361195073 0.18680086727357528
-0.15373961986653903 -0.3216933742038414 0.0672470270388017
-0.1165015384819374 0.06418182633892422 0.009156905258508591
-0.1434581823833013 0.016533789502544416 0.052917273546539134
-0.12006791210893548 0.016533789502544416 0.09465348383005724
-0.09070155629743776 -0.29663237033844947 -0.09812346898064997
-0.13584349274727836 -0.3216933742038414 -0.0987017998390821
-0.0226512919552581 0.03950637637915372 -0.1430726284776799
0.07588986042314841 0.06418182633892422 -0.08887017524573602
