0.29498366 0.57988727 0.42603219 0.00001785 0.00000518 0.00006614
0.45653644 0.62606490 0.48865896 0.00001398 -0.00002403 0.00004682
0.34294844 0.65941226 0.35738146 -0.00006639 -0.00005613 -0.00009283
0.15000442 0.58249682 0.61255664 0.00005342 0.00000218 0.00017703
0.28382042 0.65718490 0.39387187 -0.00003623 -0.00001245 -0.00002146
0.27732524 0.58696038 0.46696833 -0.00000854 0.00000163 -0.00003843
0.48603380 0.37088087 0.53788191 0.00002485 -0.00000841 0.00007266
0.44875646 0.66963285 0.49308246 0.00000698 0.00001950 0.00003957
0.71950048 0.58827192 0.49898192 0.00013736 0.00015667 0.00017513
0.36628848 0.63851285 0.34443110 -0.00001575 -0.00000533 -0.00014103
0.74284047 0.29585052 0.50520593 -0.00000254 -0.00001353 0.00000719
0.25459877 0.58029628 0.42898858 0.00001368 0.00000735 0.00002031
0.34139243 0.38021687 0.46910229 -0.00000818 -0.00002503 -0.00000965
0.68371248 0.36465687 0.61703789 -0.00009528 -0.00002567 -0.00006594
0.73972851 0.42534086 0.37388393 0.00014595 -0.00005781 -0.00027832
0.74128449 0.41133687 0.50247627 0.00004224 -0.00004495 0.00002140
0.44381726 0.23084082 0.40872946 -0.00006127 -0.00010979 -0.00015190
0.08154041 0.64006889 0.54553300 0.00011359 0.00003805 -0.00021507
0.79418850 0.24795684 0.48865008 -0.00003313 -0.00001891 -0.00001015
0.56856847 0.20087671 0.57678199 0.00002852 -0.00009877 0.00007467
0.54367250 0.61050487 0.40644437 -0.00001135 0.00003013 -0.00006012
0.44564447 0.33353686 0.56406271 -0.00001946 -0.00000239 0.00006843
0.34265947 0.57895374 0.52561176 -0.00000872 0.00000112 0.00000952
0.61524850 0.23457523 0.56588548 0.00000486 -0.00000346 -0.00001315
0.14378041 0.24663647 0.39784193 -0.00009263 0.00018173 -0.00013033
0.23869644 0.31330884 0.36543706 -0.00010342 -0.00010906 -0.00035666
0.72868091 0.37788731 0.58659810 0.00001900 -0.00001646 -0.00002756
0.23390839 0.19194083 0.65613794 -0.00042727 -0.00039026 0.00027506
0.73475814 0.19203418 0.51503986 -0.00004019 -0.00004345 0.00003697
0.36306533 0.44556889 0.46630591 -0.00000907 -0.00000415 0.00002092
0.24184400 0.60894889 0.42117745 -0.00003661 0.00004029 -0.00001342
0.68356580 0.19028257 0.48144802 0.00000108 -0.00005590 0.00006629
0.69155920 0.27568477 0.59453368 0.00001592 0.00004493 -0.00002582
0.16400842 0.61998761 0.52854592 0.00000487 0.00000895 -0.00001098
0.15156041 0.61769366 0.58455747 -0.00002180 -0.00001822 0.00009258
0.60819310 0.26744685 0.36206725 -0.00003751 -0.00001232 -0.00005892
0.40132958 0.52648091 0.45540947 -0.00000855 0.00002815 0.00003457
0.14222442 0.69521362 0.56277347 -0.00005510 -0.00001932 -0.00020655
0.53589249 0.59961289 0.47071162 -0.00007026 0.00009598 -0.00000804
0.59609634 0.28339362 0.49382487 0.00001488 0.00000038 -0.00000753
0.08309640 0.62132579 0.53632593 0.00005665 0.00008695 -0.00006016
0.61369246 0.20820770 0.56121749 -0.00001276 -0.00004147 -0.00001922
0.70751929 0.27968144 0.58889651 0.00000061 0.00003227 -0.00000291
0.24958843 0.22385660 0.41184145 -0.00006229 0.00003257 -0.00002483
0.14222442 0.69608492 0.46858656 -0.00007694 0.00014009 0.00001166
0.30716044 0.61517298 0.54370582 -0.00000760 0.00004001 0.00001848
0.65414852 0.24951284 0.30844301 0.00009519 0.00008097 -0.00027995
0.69304848 0.33198085 0.36976719 0.00003248 -0.00003427 -0.00014031
0.78018451 0.61050487 0.43870693 0.00013571 0.00004936 0.00003875
0.37873644 0.71204507 0.51298147 0.00002202 -0.00001860 -0.00000391
0.41831219 0.57004887 0.45385349 -0.00002275 0.00004026 0.00002511
0.04886441 0.65251696 0.57554603 -0.00041346 0.00018430 0.00019712
0.56078845 0.60980690 0.48030990 -0.00006763 0.00016361 0.00003560
0.17334442 0.64566165 0.45696992 -0.00005765 -0.00003181 0.00003699
0.60228038 0.22894697 0.53494328 0.00001921 -0.00000230 -0.00000698
0.06147244 0.59650093 0.53943348 -0.00022960 -0.00000807 0.00009863
0.47520846 0.20905682 0.56608558 0.00001836 0.00000738 -0.00002633
0.46431646 0.71942490 0.47052491 0.00003353 0.00006412 0.00001500
0.73350453 0.29294303 0.53010195 0.00001163 0.00000952 0.00000923
0.30871645 0.20108566 0.40562189 -0.00005493 -0.00006874 0.00001055
0.34606045 0.74386305 0.36049345 0.00005782 -0.00000893 -0.00003488
0.21224442 0.68208092 0.44204119 0.00002590 -0.00008547 0.00013164
0.67126453 0.19237207 0.61256993 -0.00004320 -0.00012564 -0.00010472
0.72940999 0.35686797 0.60122889 0.00002210 -0.00000441 -0.00002582
0.35228446 0.64784896 0.52607411 0.00000084 -0.00000439 0.00007159
0.61058050 0.62917691 0.39249372 -0.00000739 0.00017385 -0.00010174
0.80184847 0.42156202 0.47625545 0.00001835 0.00002820 0.00002256
0.21380042 0.25395855 0.38383347 -0.00009886 0.00001996 -0.00001048
0.80196851 0.24226633 0.46318948 0.00002493 0.00003688 -0.00003450
0.26048043 0.65782064 0.55344194 -0.00002155 -0.00000630 -0.00002297
0.24541391 0.65226799 0.44381061 0.00003414 0.00004367 0.00007950
0.38651645 0.76610488 0.49375820 0.00002896 0.00011004 0.00001694
0.41321743 0.46372074 0.44870979 0.00000017 0.00000088 0.00000152
0.26764694 0.67896897 0.56433398 0.00003705 0.00004017 0.00012554
0.80561846 0.56071293 0.42740145 0.00011995 -0.00000928 -0.00008058
0.81286049 0.53426087 0.42986885 0.00006310 0.00002261 -0.00002148
0.70212215 0.66029692 0.42740145 0.00008491 0.00016305 -0.00002339
0.69710296 0.19760023 0.54347461 0.00002754 0.00004935 -0.00001298
0.59035248 0.21037722 0.54877394 0.00005116 -0.00002125 0.00000357
0.65726048 0.19660883 0.57771993 0.00000494 -0.00003955 0.00004431
0.44603124 0.26507285 0.37761390 -0.00001402 -0.00002852 -0.00010872
0.11398967 0.71786892 0.53943348 0.00001239 -0.00018519 0.00002592
0.30716044 0.71780229 0.53010195 -0.00000872 0.00009741 0.00011425
0.41270170 0.66340888 0.45540947 0.00003200 0.00001404 0.00003597
0.22624843 0.61628431 0.43207392 -0.00000933 -0.00002159 0.00000064
0.74906451 0.27987707 0.60789752 -0.00004894 0.00005808 0.00006875
0.15467243 0.24017684 0.43086913 -0.00003805 0.00010580 0.00000711
0.69771653 0.28374484 0.36995393 -0.00003334 -0.00002575 0.00000851
0.92178053 0.60039091 0.47719792 0.00009954 0.00006652 -0.00025930
0.62943029 0.27851668 0.37037626 0.00002829 -0.00001912 0.00000929
0.47209644 0.36834237 0.54721349 0.00000125 0.00001471 0.00009396
0.77396047 0.59961289 0.42371598 0.00008035 0.00000607 -0.00010162
0.35539645 0.62139696 0.52207297 -0.00000930 0.00003207 0.00003223
0.37873644 0.19349682 0.33616650 -0.00005450 -0.00012604 -0.00041880
0.82064056 0.26471272 0.48342192 0.00003323 -0.00001827 -0.00000265
0.65259254 0.64318085 0.40872499 0.00004081 -0.00000922 -0.00013039
0.29471242 0.58094084 0.39411196 -0.00005080 -0.00003049 -0.00007010
0.15000442 0.65432626 0.46318948 -0.00006118 -0.00007405 -0.00000414
0.23537104 0.70697695 0.41028547 -0.00009078 0.00003425 -0.00017619
0.41877902 0.63540089 0.46163791 -0.00000480 0.00000455 -0.00003215
0.79885650 0.27907684 0.52500266 0.00006252 -0.00000601 0.00001488
0.45890602 0.51639801 0.45859703 -0.00003048 0.00001814 -0.00000309
0.87043256 0.59650093 0.48885015 0.00005374 0.00004740 0.00021403
0.74595255 0.19258545 0.45696992 0.00000296 -0.00013219 -0.00002780
0.44253248 0.33042488 0.37862751 0.00001831 -0.00002070 -0.00001273
0.36109585 0.43785998 0.46473658 -0.00001203 -0.00000148 0.00001876
0.37904763 0.58405280 0.50831348 0.00000184 -0.00001589 0.00001322
0.74128449 0.35225332 0.44763392 0.00001768 -0.00005824 -0.00000385
0.41759643 0.59592295 0.48644501 -0.00000602 -0.00000272 -0.00001175
0.68371248 0.31175286 0.36414784 0.00000811 -0.00007394 -0.00010385
0.48124129 0.67118883 0.48186594 0.00006818 0.00000292 0.00008488
0.37872753 0.60352063 0.37123430 0.00002409 0.00001978 0.00003673
0.25892442 0.71164495 0.53910452 -0.00005839 0.00003281 0.00004887
0.16766724 0.42067286 0.53165346 -0.00026918 0.00013401 0.00019071
0.39760405 0.70853299 0.42429391 0.00002078 0.00001602 -0.00000337
0.25599915 0.27907684 0.62034994 0.00004308 0.00008183 0.00008629
0.30716044 0.60428089 0.38631859 -0.00005920 -0.00000108 -0.00006509
0.47987646 0.25376737 0.52698547 -0.00000420 -0.00001413 0.00006034
0.62302852 0.63695687 0.46627480 -0.00001958 0.00017482 0.00001879
0.45465147 0.22306082 0.54877394 -0.00003276 0.00006126 0.00002964
0.16089641 0.65096092 0.46442983 -0.00003777 -0.00004774 0.00004340
0.33516848 0.23766945 0.59545398 -0.00002249 -0.00002567 0.00005143
0.49543646 0.26191637 0.51609790 0.00002663 -0.00000825 0.00004923
0.12346349 0.69424880 0.51166111 0.00007350 0.00001991 0.00017377
0.44546664 0.75579083 0.41198817 0.00006074 -0.00004708 0.00003485
0.59346449 0.47202086 0.46006414 0.00004475 -0.00001401 -0.00001010
0.38807243 0.18416083 0.38828808 0.00010621 -0.00015833 0.00007623
0.20290843 0.64049578 0.43673745 -0.00002899 -0.00001018 -0.00001431
0.24958843 0.26040483 0.37900984 -0.00013104 -0.00003291 0.00001052
0.36162046 0.68650436 0.52076596 0.00001904 0.00002100 0.00006853
0.36804453 0.35220885 0.43207392 -0.00003923 0.00001052 -0.00000340
0.76773649 0.30120763 0.53010195 0.00000263 -0.00002130 0.00002582
0.66737896 0.20594482 0.31536943 -0.00006904 -0.00015535 0.00005646
0.37406844 0.70697695 0.34537801 -0.00004859 0.00003641 -0.00003710
0.78571051 0.50002891 0.39316946 0.00031813 0.00008187 -0.00014854
0.36006442 0.81374961 0.42117745 -0.00019045 0.00031045 -0.00009695
0.40674445 0.19679111 0.55344194 0.00004187 0.00002999 0.00004145
0.33688894 0.57316089 0.37916991 -0.00004408 -0.00006300 -0.00008526
0.81570578 0.49596107 0.46073100 0.00000833 0.00006504 0.00001240
0.37562442 0.26662883 0.61825156 0.00001563 0.00004071 0.00005169
0.10332441 0.63878405 0.55188596 -0.00001144 0.00000192 -0.00001169
0.10643640 0.61828494 0.59719664 -0.00001068 0.00016182 0.00006048
0.12044041 0.66509831 0.50053346 -0.00000299 0.00007201 0.00004010
0.56073070 0.20750083 0.59700996 0.00006928 -0.00001444 -0.00018946
0.30249244 0.68208092 0.37352830 -0.00004047 -0.00005709 -0.00009651
0.69570255 0.19081607 0.54587090 0.00003157 -0.00002353 -0.00000091
0.35539645 0.71786892 0.35245562 0.00000792 0.00000790 -0.00004202
0.47209644 0.52803689 0.41802987 -0.00004313 0.00001191 -0.00000860
0.23942107 0.58716494 0.55344194 -0.00002123 0.00000297 -0.00003441
0.28794605 0.43000889 0.41806546 0.00004326 -0.00005996 -0.00014430
0.82423270 0.55137688 0.44918990 0.00003821 0.00002908 0.00007052
0.19046041 0.68986094 0.59044361 -0.00001114 0.00003796 0.00021566
0.26676223 0.57789564 0.55848783 -0.00000351 -0.00002009 0.00004181
0.82219654 0.53737289 0.45218632 0.00000566 0.00002848 0.00008211
0.39921340 0.65096092 0.51453751 0.00001002 -0.00000651 0.00013445
0.69304848 0.49069288 0.50422341 -0.00001229 -0.00003395 -0.00003185
0.54056048 0.38332888 0.39727286 0.00012773 -0.00004305 -0.00000338
0.24492042 0.22150482 0.40084723 -0.00005933 -0.00002852 0.00000442
0.42973325 0.18416083 0.63124192 -0.00003816 -0.00029812 0.00025371
0.34139243 0.34724742 0.56277347 0.00004377 0.00004844 -0.00004134
0.79107654 0.31749225 0.54410595 0.00002759 -0.00000189 0.00000827
0.21148865 0.30241686 0.38694990 -0.00020833 -0.00022989 -0.00006061
0.50166047 0.61361682 0.42711693 -0.00001722 -0.00000813 -0.00000752
0.08229618 0.60116887 0.58922994 -0.00021434 -0.00008954 0.00003221
0.41608045 0.62450892 0.50904703 0.00002596 -0.00000908 0.00009167
0.22158042 0.38332888 0.42040390 0.00003558 0.00003580 -0.00011799
0.14557204 0.61784917 0.52178842 0.00005744 0.00000215 0.00000836
0.20913243 0.57416117 0.50520593 -0.00000520 0.00001889 0.00000657
0.37873644 0.60701060 0.35894188 -0.00000780 -0.00002136 0.00001528
0.34606045 0.34287286 0.56565428 0.00004362 0.00004557 -0.00003987
0.42743924 0.56071293 0.43051791 -0.00002004 0.00003030 0.00001424
0.45342445 0.18514334 0.62501353 0.00008491 -0.00026149 0.00018125
0.15934041 0.59935057 0.48030990 -0.00001985 0.00004940 -0.00001056
0.18890442 0.62085015 0.52076596 -0.00004301 -0.00000159 0.00000770
0.36940044 0.69452888 0.34377757 0.00000429 0.00003206 -0.00007779
0.68771809 0.19660883 0.63746589 0.00006173 -0.00011070 0.00019575
0.18579243 0.57572156 0.58766949 0.00003462 -0.00004904 0.00006151
0.18112442 0.57938486 0.59230638 0.00002307 -0.00002378 0.00009155
0.59502053 0.23968337 0.48653391 -0.00001526 -0.00000625 0.00001729
0.87354451 0.43498361 0.53165346 0.00015417 0.00029189 0.00029144
0.42450505 0.61473721 0.47072941 -0.00001706 0.00002168 -0.00005921
0.28848842 0.56071293 0.42734811 0.00000707 0.00002289 0.00004464
0.12044041 0.67118883 0.49117523 -0.00001835 0.00001091 0.00009333
0.34139243 0.67430085 0.35141087 -0.00008800 0.00002040 -0.00015834
0.34606045 0.61074495 0.36049345 -0.00002719 -0.00002149 -0.00011479
0.80738342 0.48291290 0.43051791 0.00013935 0.00003378 0.00004039
0.68501061 0.31821245 0.51403069 0.00001061 -0.00001551 0.00002464
0.09865640 0.58496428 0.54254997 0.00019928 -0.00006354 0.00017245
0.21380042 0.71164495 0.51867640 -0.00004126 -0.00006395 0.00003883
0.74438316 0.63073289 0.44296145 0.00001081 0.00001136 0.00010407
0.74488115 0.27285284 0.61101395 -0.00005004 0.00005527 0.00008772
0.22066906 0.26240987 0.41949698 -0.00002753 -0.00002634 0.00001089
0.19824041 0.24640085 0.36502361 -0.00000839 0.00010887 -0.00013048
0.15311641 0.75216758 0.52698547 0.00000095 0.00029103 0.00010973
0.72416848 0.19660883 0.60162014 -0.00004949 -0.00007910 0.00005292
0.30249244 0.67896897 0.54796040 0.00002413 0.00000287 0.00008779
0.69304848 0.30815184 0.65302145 -0.00000192 -0.00008680 0.00023872
0.66348445 0.24484482 0.30922991 0.00004575 0.00016013 -0.00022392
0.16012287 0.66457361 0.48111460 0.00001466 -0.00002729 0.00009537
0.36006442 0.59805691 0.35465622 -0.00001879 -0.00006620 -0.00012251
0.29160044 0.19137622 0.50364548 0.00004789 -0.00014329 -0.00001004
0.24777901 0.69764090 0.54565752 -0.00007302 -0.00003982 -0.00004290
0.27137244 0.70697695 0.53827316 -0.00003015 0.00001240 0.00004210
0.38340446 0.23239684 0.34723189 -0.00012885 0.00014676 -0.00012097
0.87896389 0.44868088 0.50520593 0.00023862 0.00023734 0.00010014
0.55862337 0.22163822 0.54062939 -0.00001816 0.00003687 -0.00005278
0.11097550 0.61278105 0.50691307 -0.00006066 -0.00002559 -0.00001376
0.14844842 0.23980339 0.40872946 0.00002852 0.00019852 -0.00019217
0.68778926 0.27194145 0.58069855 0.00001978 0.00003475 -0.00000078
0.39585245 0.62858123 0.34804991 -0.00001612 0.00000072 0.00001524
0.23247243 0.67017978 0.57211393 -0.00000597 -0.00002751 0.00006264
0.75062048 0.28958654 0.50208950 0.00000446 -0.00002680 -0.00000150
0.37718046 0.28685686 0.61409479 0.00003861 0.00005492 0.00007397
0.47054046 0.53581685 0.42313358 -0.00002662 0.00000477 -0.00000672
0.27292842 0.68830490 0.39212474 -0.00009572 -0.00003656 -0.00008533
0.36659518 0.58249682 0.38538948 0.00003747 0.00001675 0.00000257
0.13060331 0.70623451 0.54252326 -0.00003173 -0.00009777 -0.00008359
0.36680412 0.74587697 0.52387792 -0.00000917 0.00004717 0.00019817
0.45924833 0.19038482 0.56433398 0.00004938 -0.00006301 -0.00001991
0.18326281 0.57160491 0.45385349 -0.00007670 -0.00001322 -0.00008040
0.36760882 0.44811624 0.45398238 -0.00001158 -0.00000499 0.00000669
0.34761643 0.49224889 0.51673812 0.00006509 -0.00000557 0.00006657
0.14410494 0.61564410 0.56214660 -0.00000500 -0.00007945 0.00006331
0.27243051 0.58997458 0.43697754 0.00002201 0.00003145 0.00006329
0.34761643 0.57782888 0.37935662 -0.00000016 -0.00003385 -0.00005143
0.27380425 0.54515290 0.43829349 0.00000776 0.00004873 0.00002973
0.18907782 0.67194474 0.55852336 -0.00006166 -0.00006666 -0.00008047
0.74284047 0.17992851 0.48030990 0.00005788 -0.00026065 -0.00007148
0.73972851 0.27997932 0.59389794 -0.00002611 0.00004038 0.00002152
0.66217297 0.18882883 0.48497349 0.00004600 -0.00010024 0.00001366
0.43689975 0.63384491 0.41651392 0.00001031 -0.00000220 0.00001513
0.67593247 0.63595653 0.40094948 0.00004600 0.00005893 -0.00020207
0.35384044 0.66185290 0.52114379 -0.00001979 -0.00002181 0.00005183
0.39578578 0.64940494 0.37605345 0.00001595 0.00003878 -0.00000198
0.17934169 0.66656542 0.57382554 -0.00005392 -0.00007975 0.00000350
0.39118445 0.70271784 0.34026989 -0.00008849 0.00000181 -0.00003126
0.35228446 0.64940494 0.35056618 -0.00003631 -0.00006634 -0.00014569
0.42852846 0.26852271 0.57522148 -0.00004289 -0.00006093 -0.00006160
0.20757644 0.64466584 0.43051791 -0.00002599 0.00001019 -0.00003704
0.64948046 0.20594482 0.40603089 0.00002078 -0.00014304 -0.00017412
0.34917244 0.68830490 0.52286428 0.00001150 -0.00001439 0.00005508
0.31182843 0.19235873 0.50831348 0.00000311 -0.00012516 -0.00000610
0.20764755 0.48446888 0.49430948 -0.00005320 0.00016185 -0.00000543
0.37251243 0.69297290 0.51989454 0.00003207 0.00005597 0.00007263
0.66525388 0.21061283 0.31225744 -0.00006084 -0.00010738 -0.00002115
0.44269696 0.65096092 0.49898192 0.00002984 0.00002941 0.00006053
0.64948046 0.23395284 0.33795366 0.00010194 -0.00013806 0.00006276
0.43810451 0.24173284 0.37138990 0.00008373 -0.00007589 -0.00002207
0.39294052 0.40707341 0.46743512 -0.00000062 -0.00000689 0.00001156
0.43942046 0.27193701 0.58144993 -0.00006735 -0.00005975 -0.00005509
0.33983645 0.19891170 0.65458196 0.00004366 -0.00009170 -0.00000668
0.50477248 0.59805691 0.44114760 -0.00000150 -0.00001522 0.00003293
0.82064056 0.24640085 0.47301450 0.00001783 0.00007382 -0.00011572
0.34606045 0.24532498 0.35894188 0.00007315 0.00003855 -0.00012061
0.31494042 0.62295294 0.53820646 -0.00002336 0.00004103 0.00000023
0.22624843 0.58014071 0.50053346 -0.00002078 0.00001804 0.00000509
0.60949570 0.21951760 0.54763585 0.00001024 -0.00000054 -0.00000861
0.08154041 0.58840084 0.53476548 0.00000849 -0.00000505 0.00016342
0.68993652 0.26180968 0.63279349 0.00005951 -0.00004872 0.00013146
0.22780442 0.70641232 0.52698547 -0.00004264 -0.00010069 0.00001439
0.23558442 0.26040483 0.38256198 -0.00011700 -0.00002241 0.00002792
0.30404848 0.73791468 0.37761390 -0.00010530 0.00004309 0.00003665
0.42852846 0.70697695 0.49763045 0.00002012 0.00004070 0.00007083
0.47209644 0.37554887 0.53949571 -0.00000947 0.00000828 0.00007514
0.42599443 0.40822488 0.40406591 -0.00011556 0.00004145 -0.00002918
0.19357243 0.25262484 0.43077573 0.00000804 -0.00001075 -0.00004608
0.36315867 0.58162105 0.52117050 -0.00000845 -0.00001159 0.00004188
0.36119366 0.58094084 0.52698547 0.00001201 -0.00000937 0.00006151
0.18731728 0.21216883 0.35271791 0.00009191 -0.00023058 -0.00014981
0.68365467 0.19937406 0.49712807 0.00001999 0.00003232 0.00001611
0.14986216 0.75054491 0.51453751 -0.00007843 0.00027310 -0.00006902
0.18268041 0.70751488 0.56588548 -0.00009956 0.00014719 -0.00003595
0.39530116 0.60583687 0.39006189 -0.00001565 0.00004505 -0.00000621
0.25114444 0.29059568 0.60634148 0.00002116 0.00004357 0.00003974
0.86887652 0.57004887 0.48962370 0.00014549 -0.00011803 0.00024542
0.32738844 0.34067222 0.43518147 -0.00002309 0.00001165 -0.00001295
0.24180843 0.60428089 0.42291576 -0.00004104 0.00006067 -0.00001196
0.61524850 0.33651993 0.49119750 0.00001817 -0.00001908 0.00003883
0.32116446 0.35139975 0.44918990 -0.00000232 -0.00000637 -0.00002702
0.70082855 0.22617283 0.60068655 -0.00000125 0.00006099 -0.00005019
0.69460446 0.32731286 0.65778732 -0.00002582 -0.00000373 0.00028316
0.31500712 0.59143281 0.52667427 -0.00003911 0.00000020 -0.00004904
0.70238453 0.19349682 0.58761615 -0.00005320 -0.00002036 0.00000451
0.47365248 0.25418085 0.60198915 -0.00001190 -0.00004224 0.00006429
0.22624843 0.58388841 0.47096947 0.00001166 0.00003954 0.00004893
0.34687400 0.41306183 0.46233144 -0.00000991 -0.00000064 0.00000571
0.11266041 0.58249682 0.55100566 -0.00001106 -0.00008371 0.00006559
0.28693244 0.59338892 0.51327491 -0.00001223 0.00001167 -0.00002459
0.29938042 0.59494489 0.39033753 -0.00005180 -0.00002480 -0.00006643
0.30073196 0.19505283 0.60789752 0.00018098 -0.00008284 -0.00001131
0.22936042 0.58580452 0.52698547 -0.00001377 0.00000163 -0.00002404
0.52655649 0.62295294 0.43748879 -0.00000537 -0.00001266 0.00003860
0.31338441 0.29440570 0.64835793 -0.00000893 0.00015816 0.00007573
0.47676447 0.19947632 0.58611792 0.00007758 -0.00005198 -0.00004926
0.12535293 0.62917691 0.56277347 -0.00008179 -0.00002660 0.00005565
0.33050042 0.64006889 0.53475660 -0.00000524 -0.00000328 0.00004100
0.10704547 0.61708003 0.52119273 -0.00006048 -0.00005173 0.00000082
0.60446763 0.30020735 0.49710584 0.00002239 0.00000561 0.00000111
0.73039252 0.19230093 0.44607347 0.00003928 -0.00014762 -0.00007591
0.70201552 0.23217012 0.51166552 -0.00000347 0.00000504 0.00002197
0.22158042 0.61361682 0.54019368 -0.00000186 0.00001484 -0.00000963
0.77707255 0.37692702 0.46630591 0.00002075 -0.00001760 -0.00001341
0.11347397 0.68834931 0.51185226 0.00012617 0.00001863 0.00017606
0.27448443 0.58895200 0.47563750 -0.00001021 0.00000338 -0.00001879
0.61836046 0.19004695 0.49119750 -0.00008703 -0.00015705 0.00000892
0.69616055 0.21598326 0.40717793 0.00003985 -0.00005818 -0.00008046
0.95225596 0.55293286 0.47252548 0.00041477 0.00013115 -0.00011636
0.67834204 0.18688606 0.51398176 0.00003563 -0.00008327 -0.00003901
0.35328472 0.58872092 0.52854592 0.00000861 -0.00001177 0.00004035
0.18579243 0.71016014 0.48808992 -0.00005531 -0.00003347 -0.00005041
0.42386046 0.27752087 0.56469852 -0.00001578 -0.00004720 -0.00002365
0.30871645 0.74003524 0.38228193 -0.00006931 0.00002469 0.00009325
0.24958843 0.64162487 0.41476673 -0.00000936 -0.00000811 0.00002403
0.46276045 0.23425515 0.54721349 -0.00005457 -0.00002456 0.00005055
0.13990374 0.29463685 0.48497349 -0.00039719 -0.00010372 -0.00017508
0.45964846 0.20237936 0.47096947 0.00016533 -0.00016960 -0.00003936
0.18888219 0.65718490 0.46785745 0.00000504 0.00004265 0.00007638
0.32738844 0.73031688 0.39063537 0.00009213 -0.00007644 0.00016775
0.19979644 0.69141692 0.44844750 -0.00002330 -0.00006093 0.00009120
0.44253248 0.19038482 0.63651013 0.00002190 -0.00019200 0.00029594
0.13977483 0.22150482 0.42740145 -0.00010830 0.00001080 0.00012944
0.82064056 0.32420087 0.53180021 -0.00003101 -0.00002410 -0.00004649
0.48480678 0.21683683 0.60789752 0.00004251 0.00001443 0.00004402
0.45809248 0.37710488 0.53835762 -0.00003810 0.00001955 0.00006168
0.45186847 0.20523353 0.55499792 0.00001886 0.00004442 0.00001340
0.91088855 0.52553844 0.45696992 0.00006936 0.00009218 -0.00023892
0.67593247 0.63881069 0.45696992 0.00007890 0.00002984 0.00013017
0.41944140 0.60041749 0.47447267 -0.00000841 0.00002205 -0.00004484
0.73211300 0.57004887 0.50364548 0.00015076 0.00005726 0.00021745
0.35138643 0.45334888 0.48030990 0.00001315 -0.00001677 0.00002147
0.10332441 0.58579999 0.60478991 -0.00019282 -0.00013463 0.00006894
0.82375252 0.51714486 0.43915150 0.00000158 0.00002154 -0.00001144
0.23091644 0.57316089 0.43866691 -0.00000990 0.00001644 -0.00000085
0.86904103 0.59183294 0.46008193 0.00011745 0.00007572 -0.00022877
0.64170051 0.29463685 0.59511161 0.00000200 0.00001729 0.00008676
0.14844842 0.68830490 0.46248707 -0.00006402 0.00009712 0.00000172
0.14533640 0.24328883 0.40450159 -0.00002951 0.00019892 -0.00017501
0.72140777 0.19416814 0.50954050 -0.00004356 -0.00000159 0.00003246
0.25660378 0.66502267 0.50625509 0.00001798 0.00003447 0.00002813
0.85020459 0.51558888 0.47547743 -0.00004381 0.00013582 0.00012184
0.91866851 0.51714486 0.47653553 0.00008586 -0.00005727 0.00012748
0.14066842 0.70371383 0.55344194 -0.00005203 -0.00008369 -0.00019307
0.44875646 0.18099548 0.59078145 0.00007768 -0.00023446 -0.00009364
0.58568448 0.20594482 0.57657295 -0.00001208 -0.00005735 0.00007719
0.18112442 0.68960309 0.46474990 0.00001736 0.00000592 0.00007020
0.70998669 0.23637576 0.56404942 -0.00000949 -0.00000727 -0.00000360
0.70227337 0.18416083 0.57833350 -0.00002993 -0.00014404 0.00003488
0.11563016 0.61339903 0.50570387 -0.00006203 -0.00004651 -0.00001903
0.32116446 0.58204782 0.38694990 -0.00004810 -0.00003212 -0.00004981
0.62286848 0.32575685 0.37450188 -0.00003987 -0.00005117 -0.00011800
0.66192847 0.25418085 0.62922359 -0.00006189 -0.00002940 0.00012790
0.56345147 0.22551487 0.56572992 0.00001358 0.00008043 0.00011434
0.67588359 0.19194083 0.56900191 -0.00000349 -0.00004641 0.00007158
0.56390053 0.57627285 0.36959383 -0.00011026 0.00005836 -0.00022246
0.67480779 0.21891743 0.51891208 0.00001818 0.00008976 -0.00001171
0.68652660 0.36566606 0.58574003 0.00004181 0.00000462 0.00003476
0.20564698 0.70697695 0.44296145 -0.00006834 0.00000807 0.00000278
0.28848842 0.53426087 0.51590234 -0.00003208 0.00008015 0.00000855
0.39896446 0.70075285 0.34595594 -0.00005247 -0.00000579 0.00008952
0.81752855 0.40978086 0.50465912 -0.00005660 -0.00000262 0.00001861
0.81597257 0.25830200 0.48030990 0.00002837 0.00000840 -0.00002530
0.34725636 0.66652089 0.35582989 -0.00003027 -0.00002580 -0.00008832
0.52966845 0.63384491 0.43330535 -0.00001745 0.00000811 0.00002513
0.24180843 0.30708486 0.59428024 0.00002355 -0.00000051 0.00006399
0.32272044 0.72701371 0.52232194 -0.00000629 0.00009862 0.00008268
0.71791780 0.23239684 0.34338188 0.00016770 -0.00010385 -0.00016311
0.32116446 0.61206084 0.53784633 -0.00001805 0.00003229 0.00001359
0.70394492 0.33498171 0.50116479 0.00001713 -0.00001961 0.00002099
0.82415706 0.54982090 0.45385349 0.00002646 0.00002871 0.00010271
0.39625701 0.41584927 0.46255818 0.00000067 -0.00000644 0.00000812
0.30572003 0.64784896 0.39006189 -0.00002389 -0.00000534 -0.00000169
0.16371055 0.73965299 0.53788191 0.00006687 0.00010358 0.00024946
0.71794450 0.64784896 0.42062622 0.00005557 0.00006126 -0.00013785
0.16905874 0.22150482 0.51609790 -0.00037897 -0.00027466 0.00001686
0.69460446 0.23850526 0.33404145 -0.00005092 -0.00002392 -0.00006090
0.25823534 0.58442193 0.43056682 0.00001198 0.00001457 0.00003582
0.76773649 0.29980722 0.52542949 0.00000310 -0.00002724 0.00002316
0.75528848 0.43934488 0.50476581 0.00004919 -0.00003139 0.00004303
0.45498046 0.22609726 0.53943348 -0.00003707 0.00001953 0.00007021
0.71629065 0.23434849 0.56787717 -0.00002685 0.00000480 -0.00001254
0.69076341 0.21797939 0.50886917 0.00001241 0.00006768 0.00001320
0.34362864 0.45023686 0.49275792 0.00002817 -0.00002414 0.00001726
0.33205643 0.72905433 0.40717793 0.00001605 -0.00005076 -0.00009953
0.37251243 0.19505283 0.33603311 -0.00009809 -0.00008160 -0.00042821
0.65726048 0.62563366 0.48653391 0.00006402 0.00028385 0.00006991
0.52188849 0.52959287 0.37109649 -0.00008098 0.00004066 -0.00019072
0.70824838 0.19896060 0.54647106 0.00003139 0.00004310 -0.00001033
0.15053345 0.61506182 0.49503413 -0.00000560 0.00005988 -0.00001283
0.27292842 0.27917466 0.64524597 -0.00010917 0.00002876 0.00003339
0.53744847 0.50158489 0.36606839 0.00001460 -0.00000050 -0.00023635
0.66504055 0.18100882 0.53165346 -0.00002082 -0.00018293 -0.00000729
0.38029248 0.76143688 0.44642469 0.00003352 -0.00002945 0.00001686
0.78018451 0.40044487 0.47541520 0.00000802 0.00000221 0.00001742
0.21346700 0.30241686 0.58922994 -0.00000613 0.00000002 0.00014561
0.77722818 0.48758087 0.49898192 0.00012572 -0.00002273 0.00005980
0.64948046 0.19839601 0.56588548 -0.00001972 -0.00003077 0.00003568
0.24885045 0.62295294 0.41651392 -0.00001547 -0.00002751 0.00000946
0.09865640 0.74176013 0.52232194 -0.00029429 0.00033626 0.00006918
0.78640848 0.60365403 0.43362990 0.00015001 0.00005446 -0.00004051
0.35228446 0.33911622 0.56588548 0.00002962 0.00004483 -0.00002756
0.73506051 0.28374484 0.57509255 -0.00001361 0.00002509 0.00000358
0.77199548 0.39888889 0.42584547 0.00014991 -0.00010909 -0.00000798
0.73271316 0.27019876 0.50669968 0.00002484 0.00000025 -0.00001057
0.41644058 0.51111203 0.43367437 0.00000476 0.00000209 -0.00000371
0.87976855 0.58872092 0.45614746 0.00021492 0.00004914 -0.00028603
0.33207422 0.33664885 0.60789752 0.00006324 0.00003738 0.00012419
0.42074844 0.25106883 0.60812420 0.00003559 -0.00003585 0.00001334
0.54645550 0.34588706 0.44292593 0.00003081 -0.00000706 0.00001751
0.85487252 0.24459587 0.61567748 0.00048570 -0.00028400 0.00041870
0.57634854 0.49847290 0.50390780 0.00007722 -0.00003336 0.00007269
0.07812610 0.61206084 0.53943348 0.00001354 0.00004855 0.00001861
0.82064056 0.23312148 0.46630591 0.00000181 0.00019723 -0.00011503
0.65414852 0.19237207 0.61567748 -0.00016612 -0.00016610 -0.00007342
0.29004446 0.69919688 0.54393256 0.00001789 0.00002016 0.00011530
0.15311641 0.61736017 0.52387792 0.00004129 0.00001280 0.00001625
0.64289641 0.23862082 0.59389794 0.00004816 0.00000181 0.00001137
0.27137244 0.66029692 0.55494010 -0.00000083 -0.00000355 0.00001630
0.70705247 0.32108885 0.36650851 0.00007626 -0.00003283 -0.00017469
0.76151252 0.29341426 0.57833350 -0.00001245 0.00005624 -0.00002128
0.18268041 0.67585695 0.57923156 -0.00005478 -0.00007694 0.00005238
0.25425643 0.66321331 0.52387792 -0.00002614 0.00005554 -0.00005290
0.45653644 0.53426087 0.44648248 -0.00001314 0.00000721 0.00000814
0.70238453 0.18074651 0.46008193 0.00003645 -0.00024024 -0.00003085
0.15778442 0.73342884 0.55492234 0.00016290 0.00009515 0.00009994
0.82064056 0.25086433 0.47408593 0.00002793 0.00005369 -0.00009555
0.65881652 0.22473688 0.33559746 0.00002705 -0.00007946 0.00024917
0.68211645 0.24392013 0.60039312 0.00003803 -0.00005023 -0.00003936
0.24336442 0.58834743 0.52542949 -0.00001615 0.00000755 -0.00003220
0.73350453 0.50002891 0.36779776 0.00003621 0.00006319 -0.00034265
0.06286842 0.59520727 0.52232194 -0.00028707 0.00007550 -0.00004270
0.31649643 0.74095112 0.35582989 -0.00014953 0.00001482 -0.00018123
0.08567490 0.72876090 0.51609790 -0.00029920 0.00024677 0.00008976
0.16245243 0.68739802 0.58455747 -0.00005199 -0.00001961 0.00004141
0.66970855 0.24951284 0.62905914 -0.00003779 -0.00002316 0.00011006
0.37085867 0.36310086 0.50053346 -0.00000989 0.00000758 -0.00000978
0.25085101 0.65868312 0.45138165 0.00000694 0.00003774 0.00002499
0.33520401 0.73809695 0.38072145 0.00005390 -0.00011986 0.00020970
0.14767486 0.68674892 0.56588548 -0.00007291 0.00002990 -0.00014126
0.08932041 0.56382489 0.49002823 -0.00013312 -0.00013811 -0.00019846
0.39896446 0.67274487 0.51064301 0.00001599 -0.00001758 0.00010377
0.80721891 0.33820486 0.53165346 0.00002880 -0.00001222 0.00000765
0.42825726 0.49649009 0.44312152 0.00000265 0.00000143 0.00000370
0.59502053 0.46890888 0.40679556 0.00005133 -0.00002717 -0.00000067
0.79107654 0.39266488 0.47329903 0.00002749 0.00000058 -0.00001213
0.57012445 0.21216883 0.64014226 0.00006402 0.00001894 0.00028661
0.30249244 0.71942490 0.53090662 -0.00001425 0.00011126 0.00012159
0.46120447 0.55945915 0.43518147 -0.00001639 0.00000331 0.00000583
0.61836046 0.22772883 0.39919341 -0.00009146 -0.00003518 -0.00013261
0.59657651 0.47980088 0.39699277 0.00006154 -0.00004476 -0.00002959
0.24647644 0.57823348 0.56900191 0.00000982 -0.00003291 0.00008203
0.43942046 0.27053216 0.58766949 -0.00005520 -0.00007295 -0.00001800
0.69927251 0.18260482 0.55683845 0.00003193 -0.00015047 0.00002839
0.39831981 0.38799685 0.42895749 -0.00004043 0.00001455 -0.00001713
0.84864855 0.60186249 0.46630591 -0.00005479 0.00018017 -0.00007016
0.85798454 0.22461684 0.50831348 0.00030064 0.00002911 -0.00001250
0.18890442 0.72081637 0.50831348 0.00002552 -0.00000352 -0.00001272
0.34917244 0.36485693 0.50208950 -0.00000692 0.00000665 -0.00000450
0.32514778 0.19197640 0.52103269 -0.00001767 -0.00011643 -0.00003982
0.13755640 0.66761011 0.45385349 -0.00014977 -0.00004573 -0.00014186
0.94045258 0.52181286 0.48082563 0.00027862 -0.00020240 0.00015296
0.57168049 0.20283283 0.63828397 0.00008638 -0.00013200 0.00027016
0.12355240 0.58175886 0.56121749 -0.00007444 -0.00008590 -0.00000531
0.69149250 0.19505283 0.58293033 -0.00002138 0.00000047 0.00002246
0.32583243 0.19660883 0.56989998 0.00002923 -0.00006404 0.00012583
0.11421640 0.59183294 0.49163759 0.00000179 0.00011337 -0.00005404
0.29938042 0.26040483 0.66906607 -0.00002079 -0.00009651 0.00017190
0.33516848 0.59183294 0.53569019 0.00000051 -0.00001126 0.00003655
0.59035248 0.30546215 0.47719792 0.00001362 -0.00001695 0.00001820
0.37482423 0.21061283 0.58611792 -0.00001562 0.00000069 -0.00002158
0.45809248 0.23395284 0.61065382 0.00000317 0.00001302 0.00002323
0.78952056 0.53114891 0.40167409 0.00027334 0.00014309 -0.00011381
0.22887586 0.22617283 0.61256993 -0.00020088 -0.00001206 -0.00009261
0.41725859 0.64473683 0.46163791 0.00000390 0.00000739 -0.00002885
0.17801243 0.25106883 0.40022925 -0.00011194 -0.00007855 -0.00003376
0.66504055 0.26173410 0.33870947 0.00002306 -0.00008478 -0.00005718
0.35861072 0.71942490 0.37294146 0.00000869 -0.00001749 0.00009664
0.85681528 0.20594482 0.49898192 0.00040347 -0.00015126 0.00002630
0.35228446 0.21585433 0.57988954 0.00000656 0.00001951 0.00001758
0.35539645 0.73317552 0.48342192 0.00003173 -0.00008466 -0.00008034
0.85331655 0.25418085 0.51871198 0.00005264 0.00003661 -0.00005231
0.55246162 0.21839283 0.62345749 -0.00004892 0.00012046 0.00003993
0.27604043 0.66143054 0.39006189 -0.00005401 -0.00002328 -0.00008685
0.33585310 0.34442884 0.44296145 -0.00002182 0.00000358 -0.00000958
0.41919243 0.72253692 0.33700675 0.00007979 0.00011868 -0.00014172
0.21535644 0.37190336 0.41495791 -0.00001225 0.00011675 -0.00005340
0.68838048 0.29225394 0.54410595 0.00000637 0.00000562 0.00001281
0.11081097 0.68363696 0.49586546 0.00004261 -0.00004817 0.00011434
0.65881652 0.19077161 0.30603790 -0.00020389 -0.00033280 -0.00010933
0.87043256 0.59183294 0.49007717 0.00006473 -0.00001994 0.00024134
0.74284047 0.40822488 0.37749830 0.00020680 -0.00011674 -0.00023386
0.39771965 0.69452888 0.45540947 0.00001875 0.00001990 0.00003287
0.19201644 0.20283283 0.52382457 -0.00026449 -0.00038296 0.00012122
0.13600041 0.20438883 0.43300307 -0.00019100 -0.00022410 0.00018626
0.74284047 0.29533038 0.52387792 0.00000016 0.00000023 0.00001580
0.67437649 0.27845442 0.36049345 -0.00003116 -0.00002236 0.00002520
0.33261660 0.22956048 0.64453018 -0.00006807 0.00011742 -0.00012659
0.20602041 0.58172333 0.56277347 -0.00001971 -0.00001878 -0.00002963
0.70837289 0.24898824 0.51153219 0.00000559 -0.00006254 -0.00000224
0.80819255 0.18495661 0.49742594 -0.00002293 -0.00033094 0.00000319
0.26514843 0.68281007 0.56277347 0.00002711 0.00003101 0.00011476
0.44009176 0.75393701 0.40018034 0.00001808 -0.00006531 -0.00006817
0.26359242 0.67896897 0.39822423 -0.00007762 -0.00003428 -0.00006105
0.19202532 0.59338892 0.45230192 -0.00003612 0.00004355 -0.00003640
0.63080847 0.19343460 0.61256993 -0.00003158 -0.00021586 0.00008008
0.73187739 0.25556344 0.50750881 0.00001130 -0.00001802 -0.00001067
0.57634854 0.21216883 0.63899970 0.00007779 0.00000070 0.00026236
0.17023243 0.62139696 0.57721317 -0.00000025 0.00002800 0.00007801
0.32272044 0.62762094 0.37115425 -0.00009080 0.00003310 -0.00010863
0.72876984 0.35656121 0.59488934 0.00001408 0.00000799 -0.00001615
0.39896446 0.77158213 0.41028547 0.00000783 -0.00005543 -0.00006107
0.27006984 0.69608492 0.39628589 -0.00009589 -0.00000173 -0.00006866
0.83110130 0.52648091 0.43985391 -0.00001085 0.00002498 -0.00002784
0.28070843 0.55635166 0.43829349 0.00001099 0.00004090 0.00003687
0.27621382 0.63782829 0.53696609 -0.00001719 0.00000408 -0.00007814
0.41608045 0.26343238 0.35894188 -0.00001130 0.00000199 -0.00002221
0.73224193 0.24017684 0.61723351 -0.00006530 0.00003734 0.00014316
0.22158042 0.74073768 0.50520593 -0.00008684 0.00020690 0.00002745
0.68204093 0.39110887 0.61723351 -0.00017488 0.00000435 0.00000027
0.21865958 0.67120224 0.49317580 -0.00000473 0.00005557 -0.00002762
0.63858855 0.50469685 0.46236703 0.00001151 -0.00004010 0.00001650
0.30404848 0.67118883 0.54294115 -0.00000684 0.00000566 0.00003009
0.34817216 0.38135940 0.47224984 -0.00000864 -0.00002193 -0.00000374
0.41141248 0.65550441 0.34026989 -0.00001679 0.00007904 0.00001243
0.40536183 0.64784896 0.36360991 -0.00002050 0.00008420 0.00011878
0.62925249 0.31688321 0.51142550 0.00002435 0.00000048 0.00000578
0.71899366 0.31193513 0.59486264 0.00000057 -0.00000056 0.00000374
0.68792707 0.20650944 0.49653676 -0.00000174 0.00006040 0.00002254
0.56856847 0.23521096 0.62190598 -0.00003725 0.00020174 0.00002662
0.69460446 0.62917691 0.39777076 0.00013531 0.00011631 -0.00018111
0.13855225 0.65093869 0.49014828 0.00000820 0.00003687 0.00002125
0.69460446 0.40822488 0.36778888 -0.00005288 0.00000140 -0.00027687
0.74455214 0.29619285 0.49586546 -0.00000572 -0.00002651 -0.00000013
0.32738844 0.72792059 0.40406591 0.00005386 -0.00004486 -0.00005306
0.19824041 0.69798326 0.58455747 -0.00001348 0.00011579 0.00016642
0.21224442 0.58094084 0.56636113 -0.00001138 -0.00001978 -0.00000339
0.71297419 0.19700450 0.54472834 0.00003719 0.00001890 -0.00001103
0.73090374 0.34601596 0.60620809 0.00004522 0.00000249 -0.00000766
0.23714042 0.62059671 0.42584547 0.00000605 -0.00002109 0.00001785
0.11938676 0.73809695 0.58144993 -0.00019554 0.00034766 0.00021980
0.21086179 0.61176753 0.45851257 0.00001181 0.00002069 0.00002963
0.05042040 0.64473683 0.57820010 -0.00035832 0.00004408 0.00023210
0.13862784 0.65251696 0.49586546 0.00001517 0.00006211 0.00000515
0.33509287 0.24173284 0.64524597 -0.00005034 -0.00000236 -0.00002441
0.67896003 0.24173284 0.32626146 -0.00003858 0.00005919 -0.00004529
0.70632339 0.28996885 0.54877394 0.00000151 0.00000263 0.00000891
0.31338441 0.73601192 0.35894188 -0.00015659 -0.00002549 -0.00013831
0.14222442 0.21006157 0.38694990 -0.00004800 -0.00014859 -0.00004183
0.34294844 0.18523669 0.45074591 -0.00000488 -0.00017728 -0.00008136
0.15119141 0.61206084 0.51019400 0.00001425 0.00001989 0.00000975
0.71278304 0.21632114 0.55497569 -0.00000081 0.00009762 -0.00000797
0.34450442 0.74587697 0.50859356 -0.00006847 0.00007072 0.00000429
0.39118445 0.29152483 0.38454476 -0.00007238 -0.00006763 0.00008257
0.68682450 0.29463685 0.36526814 -0.00000709 -0.00005152 -0.00003200
0.38941506 0.40200087 0.45540947 -0.00000320 -0.00000786 0.00000234
0.32272044 0.58560896 0.54238099 -0.00000023 -0.00001074 0.00004924
0.29626843 0.63935763 0.54098946 -0.00002327 -0.00000499 -0.00002302
0.66348445 0.19194083 0.30879423 -0.00016160 -0.00030789 -0.00004643
0.54916739 0.35220885 0.45074591 0.00002257 -0.00000762 0.00001019
0.69927251 0.41416436 0.62345749 -0.00003275 0.00019499 0.00017272
0.74695277 0.36154488 0.42740145 0.00008383 -0.00010243 -0.00000011
0.78485250 0.31171727 0.55032992 0.00000674 0.00000797 0.00000728
0.46587244 0.66652089 0.46726620 -0.00004346 0.00002745 -0.00002471
0.54278779 0.33664885 0.46785745 0.00002480 -0.00000894 0.00000745
0.70082855 0.47824487 0.56677461 0.00005298 0.00005430 0.00015259
0.38651645 0.38799685 0.46832424 -0.00000277 -0.00000653 0.00000736
0.38184848 0.70386487 0.51264805 -0.00000036 0.00006151 0.00002213
0.69138139 0.28528306 0.57872468 0.00000171 0.00003258 0.00001172
0.13314626 0.62439775 0.58628243 -0.00001130 -0.00000926 0.00010433
0.39118445 0.19798255 0.56277347 0.00003682 0.00001294 0.00003742
0.66348445 0.33353686 0.55457115 0.00003356 0.00000728 -0.00004074
0.53575468 0.34131685 0.41962147 0.00008257 -0.00001935 0.00002999
0.72883654 0.26013365 0.51171446 0.00001321 -0.00001546 -0.00000671
0.31338441 0.65248579 0.51920992 -0.00006595 -0.00001445 -0.00008687
0.46431646 0.68052495 0.47082278 -0.00004578 -0.00007894 -0.00004497
0.37562442 0.20077002 0.56900191 0.00001305 0.00000218 0.00004322
0.45498046 0.70853299 0.46896890 -0.00003494 -0.00000537 -0.00005163
0.66460484 0.45957288 0.41340193 -0.00008150 0.00005696 0.00003230
0.24334663 0.25729284 0.67324954 -0.00017865 0.00002353 -0.00016298
0.59277987 0.25090879 0.48775649 -0.00000078 -0.00001812 0.00000812
0.74128449 0.33042488 0.48527133 -0.00001193 -0.00002053 0.00000741
0.34894127 0.19631541 0.48461780 -0.00002385 -0.00004821 0.00006309
0.69658732 0.22997835 0.50906032 0.00000311 0.00002451 0.00001887
0.38029248 0.64473683 0.33937630 -0.00003908 0.00000486 -0.00010340
0.23810516 0.24173284 0.68725353 -0.00034269 -0.00022980 0.00014961
0.53900445 0.53892893 0.51150995 -0.00002231 0.00002730 0.00018336
0.63547647 0.20283283 0.41014320 -0.00006577 -0.00018979 -0.00015480
0.17490041 0.20785204 0.34804991 0.00015908 -0.00026907 -0.00022455
0.31649643 0.64744884 0.52387792 -0.00005037 -0.00001769 -0.00006105
0.45964846 0.25106883 0.61240989 -0.00002618 0.00000656 0.00010282
0.79574454 0.54359692 0.41487345 0.00017938 0.00005979 -0.00008690
0.44408846 0.62917691 0.49350926 0.00001880 -0.00001321 0.00003662
0.19012256 0.67920452 0.53616142 0.00001418 0.00001292 0.00004149
0.26850495 0.64784896 0.40094948 -0.00001382 -0.00000768 -0.00001904
0.24803244 0.73965299 0.50712204 -0.00002559 0.00021003 0.00001772
0.15618397 0.61593759 0.58032513 -0.00002747 -0.00002308 0.00007521
0.67472774 0.19972083 0.63746589 -0.00003544 -0.00006847 0.00019489
0.65881652 0.42534086 0.48789433 -0.00001491 -0.00000112 0.00004742
0.56228667 0.20438883 0.59389794 0.00008376 -0.00006026 -0.00016873
0.12755354 0.67585695 0.45696992 -0.00017060 0.00001309 -0.00016381
0.37873644 0.69141692 0.38780349 0.00004542 0.00002850 -0.00004137
0.95134455 0.55752981 0.48186594 0.00039608 0.00002625 0.00006036
0.26266328 0.26351684 0.69970155 0.00013552 0.00000902 0.00028312
0.75062048 0.29679748 0.51920992 -0.00000824 -0.00001290 0.00001739
0.33672446 0.58560896 0.53400081 0.00000015 -0.00001194 0.00003215
0.32980692 0.28841284 0.38850591 0.00005526 -0.00000844 -0.00001078
0.35999331 0.43623289 0.44997233 -0.00000625 -0.00001058 -0.00000505
0.34294844 0.24951284 0.36068463 0.00006166 0.00003360 -0.00010480
0.43319646 0.29463685 0.56744152 -0.00003162 -0.00004198 -0.00001346
0.50321645 0.57513928 0.46318948 -0.00003031 0.00003392 0.00001420
0.85331655 0.56538093 0.44135210 0.00013171 0.00017918 -0.00012699
0.71154267 0.18571682 0.47408593 0.00001680 -0.00012958 0.00000166
0.21093738 0.58872092 0.58300149 0.00003477 0.00001265 0.00011758
0.09087640 0.58304816 0.52076596 0.00010942 -0.00001783 0.00008728
0.40674445 0.20905682 0.33891842 0.00015587 -0.00001515 -0.00029714
0.45550507 0.71942490 0.47252548 0.00000341 0.00004728 0.00000077
0.31333110 0.21839283 0.60323393 0.00010101 0.00000984 0.00010359
0.59961289 0.46891332 0.44060969 0.00002578 -0.00000542 0.00000716
0.68112063 0.36199832 0.58446413 0.00005810 0.00002648 0.00003470
0.64636850 0.24690320 0.60323393 0.00000880 -0.00002945 0.00002578
0.12510842 0.58405280 0.62389761 0.00000287 -0.00005413 0.00036630
0.39858657 0.69919688 0.46474990 -0.00000621 0.00003408 -0.00001704
0.23986122 0.26351684 0.68880951 -0.00026525 0.00003911 0.00006602
0.81929350 0.27031878 0.51299483 -0.00005310 0.00002521 0.00003916
0.50146037 0.60116887 0.42273793 -0.00001372 -0.00001703 -0.00001430
0.33604869 0.22305194 0.64706427 -0.00002915 0.00009763 -0.00011022
0.35072848 0.70386487 0.52270871 0.00004070 0.00000563 0.00004167
0.61991644 0.20438883 0.41923466 -0.00015460 -0.00018175 -0.00010587
0.24180843 0.57572156 0.56744152 -0.00000224 -0.00004258 0.00006251
0.61991644 0.21528083 0.62073672 0.00003697 -0.00000247 0.00012427
0.07687239 0.60583687 0.57782668 -0.00012071 -0.00017806 0.00005580
0.34606045 0.72774279 0.41028547 -0.00004946 -0.00002871 -0.00013139
0.58002955 0.50625288 0.50364548 0.00007050 -0.00003672 0.00007912
0.19357243 0.57561493 0.47408593 0.00000648 0.00002134 0.00003562
0.63537425 0.26040483 0.36360991 0.00003567 -0.00002966 0.00006635
0.06200592 0.64629298 0.55499792 -0.00011611 0.00005649 -0.00017457
0.64014453 0.20127682 0.54144293 -0.00003171 0.00000382 0.00000295
0.33983645 0.42534086 0.47863388 0.00000969 -0.00000737 0.00002136
0.73350453 0.38799685 0.63103741 0.00028442 0.00008929 0.00014258
0.86400843 0.48913687 0.44451749 0.00009827 -0.00001815 -0.00026044
0.31960848 0.52025688 0.39954463 -0.00005343 0.00004825 -0.00015472
0.37095645 0.75146961 0.52387792 -0.00000265 0.00008884 0.00024965
0.67835987 0.19137622 0.52316219 0.00001728 -0.00003129 -0.00005052
0.14208215 0.61407924 0.56845957 -0.00002949 -0.00009325 0.00009104
0.60242260 0.23862082 0.40562189 -0.00010727 -0.00004266 -0.00007700
0.40185863 0.60852659 0.36543706 0.00001281 0.00002521 0.00004395
0.91088855 0.59372675 0.46785745 -0.00000648 -0.00008413 -0.00044034
0.84709257 0.59254414 0.45852146 0.00003807 0.00014648 -0.00010315
0.90466452 0.59264642 0.49275792 -0.00018043 -0.00024326 0.00021451
0.42697248 0.30241686 0.35911527 -0.00000059 -0.00005831 -0.00008717
0.63063955 0.24139942 0.56710362 0.00002413 -0.00000431 -0.00001587
0.74906451 0.61517298 0.41743416 0.00000058 -0.00000526 -0.00012750
0.83620048 0.27752087 0.52369118 -0.00014730 0.00004745 -0.00000227
0.33050042 0.65874094 0.36551711 -0.00010373 -0.00006319 -0.00004703
0.32925120 0.66496491 0.53321391 -0.00000479 -0.00000160 0.00003922
0.56127745 0.22150482 0.56900191 0.00001628 0.00006127 0.00010362
0.41941029 0.52197737 0.42518303 0.00000560 0.00000396 -0.00001990
0.68838048 0.19349682 0.57967162 -0.00001048 -0.00001697 0.00004360
0.40398368 0.73777688 0.41605154 -0.00000873 0.00002500 -0.00001049
0.39740849 0.76454884 0.49736369 0.00011948 0.00015787 0.00006833
0.73133504 0.38194624 0.59070146 0.00003739 -0.00001894 -0.00003940
0.67265600 0.21873514 0.59869039 0.00002415 0.00009134 -0.00010391
0.47520846 0.67469209 0.46941793 -0.00000159 -0.00002492 -0.00001034
0.42041945 0.74518335 0.42133307 -0.00004024 -0.00003993 0.00004401
0.22002442 0.68674892 0.58376169 0.00004653 0.00003990 0.00018867
0.69946808 0.21309799 0.50177383 -0.00002676 0.00006905 0.00003530
0.67282051 0.21061283 0.60216695 -0.00000540 0.00009832 -0.00016423
0.14498520 0.30241686 0.46630591 -0.00031800 -0.00008684 -0.00023837
0.35539645 0.21061283 0.57695532 0.00000206 0.00001352 0.00003244
0.73817247 0.61984092 0.45039469 -0.00003374 -0.00007134 0.00011402
0.13133243 0.73061037 0.49742594 -0.00002116 0.00005140 -0.00021165
0.31027243 0.71008897 0.37629351 0.00005807 0.00001248 0.00002509
0.79481977 0.59805691 0.43985391 0.00016100 0.00005056 0.00000717
0.73350453 0.38177285 0.63495409 0.00029374 0.00006139 0.00015724
0.48606044 0.22306082 0.58922994 0.00001994 0.00000133 -0.00000391
0.18890442 0.57368106 0.47719792 0.00000280 0.00001377 0.00003747
0.33246988 0.21839283 0.67324954 0.00005643 0.00007411 0.00020428
0.74750853 0.28996885 0.55516684 0.00001287 0.00001677 -0.00000776
0.83775645 0.36310086 0.50710428 -0.00007418 -0.00007300 -0.00008276
0.72989464 0.26507285 0.38228193 0.00000681 0.00001928 -0.00003506
0.16247466 0.60244930 0.49436727 0.00000272 0.00004188 0.00002910
0.25736842 0.18220471 0.63746589 -0.00003740 -0.00051743 -0.00004201
0.43336537 0.24640085 0.60478991 -0.00001560 -0.00002632 -0.00001455
0.73817247 0.32264486 0.48902795 -0.00001181 -0.00002427 0.00001031
0.17178842 0.67012191 0.44451749 -0.00002269 0.00003104 -0.00005249
0.25581244 0.51259249 0.52076596 -0.00002748 0.00010799 0.00002234
0.84709257 0.57190722 0.48342192 0.00001242 -0.00001920 0.00019673
0.58358169 0.22917813 0.52708775 0.00002246 0.00001190 -0.00002279
0.85487252 0.55915695 0.48469338 0.00007824 0.00000899 0.00020257
0.43432570 0.57160491 0.42117745 -0.00002036 0.00002311 -0.00000683
0.38592964 0.71320093 0.44763392 -0.00000979 0.00002068 0.00009011
0.38807243 0.37081417 0.50675750 -0.00001484 0.00002334 -0.00001414
0.82064056 0.52803689 0.43459019 0.00003258 0.00001733 -0.00002135
0.13133243 0.68519294 0.50324535 -0.00001896 0.00008973 0.00015258
0.36006442 0.21927753 0.61101395 -0.00012009 -0.00004239 -0.00000058
0.32583243 0.67896897 0.53805083 0.00000499 -0.00001340 0.00010132
0.40363243 0.42067286 0.44951001 -0.00000794 -0.00000287 0.00000011
0.78174049 0.29152483 0.52752340 0.00004506 -0.00003483 0.00000807
0.91400057 0.59602964 0.49742594 -0.00005506 -0.00015108 0.00029705
0.44564447 0.78010893 0.41790542 0.00006780 0.00017828 0.00013204
0.61369246 0.28996885 0.37892094 0.00002803 -0.00003058 -0.00003338
0.21600996 0.70542085 0.52387792 -0.00002897 -0.00008629 0.00003374
0.25425643 0.65895438 0.55810547 -0.00002670 -0.00001009 0.00000146
0.72685814 0.32401857 0.61095166 0.00006081 0.00000095 -0.00000555
0.42735478 0.48425546 0.45536947 -0.00000654 0.00000648 0.00000928
0.78952056 0.21828170 0.41184145 0.00015427 0.00025823 -0.00030964
0.07842842 0.61050487 0.57722205 -0.00005525 -0.00019403 0.00005554
0.41452447 0.62072110 0.34026989 0.00003475 -0.00007780 -0.00007798
0.39274046 0.56849289 0.39359626 -0.00000479 0.00004431 -0.00007392
0.44253248 0.63540089 0.49249563 0.00001044 0.00000197 0.00002461
0.56856847 0.20562918 0.54098946 0.00001373 -0.00005749 -0.00005624
0.15311641 0.70230883 0.59509826 -0.00001166 0.00004194 0.00023324
