0.44208834 0.18368597 0.57668149 -0.00000723 -0.00001288 -0.00000115
0.55527192 0.93869317 0.41925097 0.00001120 0.00001799 -0.00000802
0.68502402 0.54272962 0.47822544 0.00004374 -0.00000259 -0.00001083
0.57599515 0.69267702 0.53172761 -0.00000726 0.00001221 0.00000298
0.49909329 0.29826519 0.38238621 0.00000061 -0.00000557 -0.00000139
0.56075341 0.64602447 0.39055797 0.00001018 -0.00000129 -0.00005148
0.53584790 0.22856644 0.40224636 -0.00000425 -0.00000202 0.00000788
0.42394975 0.23964880 0.50634462 0.00000392 -0.00000124 -0.00000081
0.36481002 0.40014142 0.47089380 -0.00002706 0.00001613 -0.00000946
0.52916813 0.30974242 0.55812514 -0.00000819 -0.00000110 0.00000157
0.39121220 0.89393204 0.41185048 -0.00008815 0.00000114 -0.00002689
0.41531432 0.41074181 0.52620476 0.00000809 0.00000827 -0.00001733
0.58632463 0.57027489 0.60916656 0.00001062 0.00002402 0.00004561
0.59883022 0.34991261 0.51910263 0.00000313 0.00000267 0.00000011
0.52546793 0.24252273 0.51214290 -0.00000344 0.00000158 0.00000061
0.54844528 0.45894605 0.61031884 0.00000328 0.00000111 0.00002058
0.33904597 0.18287340 0.48497403 -0.00000396 -0.00002371 -0.00000404
0.46678269 0.40385550 0.57534093 -0.00000430 0.00000650 0.00001394
0.58173376 0.51059347 0.37904403 0.00000248 0.00002754 -0.00004432
0.45088905 0.05609620 0.36932975 0.00004940 -0.00000973 0.00009556
0.40630239 0.66553569 0.40891692 0.00000060 -0.00000268 -0.00002376
0.52533937 0.81908685 0.45812199 -0.00000249 0.00001827 0.00001099
0.49565014 0.41992357 0.58025783 0.00001950 -0.00002171 -0.00001281
0.49020997 0.24278897 0.53730547 0.00000157 -0.00000584 -0.00000206
0.61386991 0.33932143 0.48467106 -0.00000560 -0.00000635 0.00000069
0.65403557 0.05065601 0.52828443 -0.00003632 -0.00004450 -0.00000723
0.40728027 0.75161475 0.38955715 -0.00004082 0.00001853 -0.00008461
0.49106383 0.61241466 0.59370452 0.00001777 0.00002048 0.00002440
0.54385900 0.84484178 0.51221174 -0.00000224 0.00002198 0.00002487
0.41990522 0.10430045 0.33390650 -0.00001656 -0.00003686 -0.00003400
0.60697901 0.93003017 0.44909170 0.00000232 -0.00006989 -0.00000193
0.35431066 0.15365244 0.57878411 0.00003404 0.00001095 -0.00002193
0.39258945 0.44698218 0.53419292 -0.00001076 0.00000099 0.00000912
0.58287686 0.70914906 0.38145426 0.00001676 -0.00000778 -0.00007130
0.42663082 0.45550287 0.41695094 0.00000335 0.00000888 0.00003264
0.46452856 0.81382579 0.46335101 -0.00001050 -0.00000229 -0.00002101
0.40957114 0.42680988 0.52444643 0.00001292 0.00000595 -0.00002727
0.61088121 0.81765449 0.45825052 0.00001488 -0.00000371 0.00000111
0.40728027 0.64441299 0.45368260 0.00001808 -0.00000149 -0.00000637
0.32074675 0.13987981 0.52598894 -0.00005544 0.00002263 -0.00000202
0.40957114 0.29137889 0.51496631 -0.00000493 0.00000522 -0.00001637
0.52588111 0.22762530 0.43296397 -0.00000322 -0.00000460 -0.00000296
0.55890793 0.61159289 0.59255213 -0.00001926 0.00000921 0.00000629
0.38437635 0.47459635 0.51077020 -0.00000473 0.00000801 0.00000770
0.51109385 0.24891323 0.37104213 -0.00000565 -0.00000570 -0.00000602
0.66229916 0.62421775 0.41006923 0.00001997 0.00001303 0.00000454
0.58557630 0.18021066 0.52090687 -0.00000815 -0.00001711 -0.00000557
0.66206956 0.71029681 0.49138290 -0.00003830 -0.00000894 -0.00002180
0.45275298 0.18299274 0.43850511 0.00000934 -0.00000104 0.00001096
0.59091091 0.72062624 0.38438326 0.00003492 -0.00000369 -0.00005273
0.58746773 0.44962198 0.37563762 0.00004249 -0.00000477 -0.00002288
0.56177264 0.90525776 0.46705583 0.00002096 0.00000481 -0.00004610
0.38929319 0.58978617 0.43416676 -0.00003961 0.00000550 0.00004268
0.38879737 0.37504768 0.49585441 0.00001538 -0.00001530 0.00000758
0.38776442 0.11931725 0.64879048 -0.00002155 -0.00002835 0.00003931
0.43941185 0.07905062 0.34579232 0.00002967 0.00004053 0.00003518
0.45892310 0.74523336 0.50533003 0.00002402 0.00000541 -0.00000125
0.60029930 0.37417540 0.51040292 -0.00000465 0.00001391 -0.00002713
0.67702669 0.06298254 0.51336408 0.00009179 -0.00002566 -0.00001350
0.65108824 0.42107129 0.47548926 0.00001770 -0.00000041 0.00000044
0.66687626 0.07675517 0.51336408 -0.00002053 0.00002049 -0.00000266
0.43597329 0.70668381 0.50418228 -0.00001257 0.00000986 0.00001583
0.37775171 0.32835844 0.45776847 0.00002438 -0.00000195 -0.00001019
0.38432127 0.20928472 0.54090935 -0.00001373 0.00000799 -0.00000680
0.52549547 0.09970958 0.31962425 -0.00000236 -0.00001930 -0.00005685
0.62290943 0.91785055 0.46763888 0.00003857 -0.00006936 -0.00003540
0.50519919 0.23916680 0.49471131 -0.00000522 -0.00000104 0.00000089
0.57258409 0.93410218 0.43187591 0.00000328 -0.00002520 0.00000113
0.65987056 0.14102751 0.58337504 0.00003006 0.00004302 0.00001532
0.62305170 0.05395685 0.58337504 -0.00007620 -0.00003991 -0.00005424
0.59091091 0.08628125 0.35612640 0.00003167 -0.00010142 -0.00003679
0.46581402 0.28987768 0.38252395 0.00000150 -0.00000870 -0.00002119
0.63327557 0.35106033 0.45023486 0.00002858 -0.00000780 0.00000227
0.65566069 0.50370711 0.41006923 0.00000194 0.00000307 -0.00003114
0.53467721 0.59667253 0.61923438 0.00001129 0.00002578 0.00000629
0.65174466 0.05684912 0.50762087 -0.00004418 -0.00001269 -0.00000977
0.42334837 0.53928643 0.42955294 0.00002329 -0.00001792 0.00001698
0.37464368 0.48075274 0.44794399 -0.00004689 -0.00000610 0.00000456
0.54304183 0.23763801 0.47962567 0.00000571 0.00000179 -0.00000133
0.38547358 0.57371813 0.41918212 -0.00004784 0.00000793 -0.00000492
0.63163668 0.20874302 0.51795036 0.00000042 0.00001991 0.00000218
0.59665412 0.23258345 0.37448987 0.00000536 0.00000562 -0.00003869
0.43743318 0.34417403 0.53287071 0.00002284 0.00000694 -0.00000804
0.41416201 0.85031867 0.45807609 0.00000288 0.00002493 0.00002361
0.39465535 0.39352602 0.50640428 0.00001889 0.00000643 0.00000586
0.33896339 0.13528891 0.41350779 -0.00006705 0.00003425 -0.00002903
0.38432127 0.21004680 0.54893881 -0.00001147 0.00001302 -0.00000382
0.65518326 0.26053733 0.43760991 0.00003753 -0.00000081 -0.00000883
0.68432617 0.52551377 0.48811421 0.00005438 0.00000045 -0.00001390
0.46673679 0.14332296 0.67634034 -0.00000309 0.00001590 0.00005023
0.46934897 0.44861656 0.38596249 -0.00001742 0.00001119 0.00000133
0.43253011 0.73669440 0.49716744 0.00000069 0.00000245 0.00003776
0.60468817 0.34991261 0.52093440 0.00001135 -0.00000048 0.00000463
0.46174648 0.31777644 0.56385916 -0.00000697 0.00000029 0.00000896
0.39758891 0.10315274 0.64993817 -0.00003575 -0.00001818 0.00003238
0.39924625 0.05987909 0.63731331 -0.00001160 -0.00003218 0.00006340
0.65694618 0.64479405 0.49814069 -0.00003499 0.00000065 -0.00001113
0.59602976 0.10430045 0.34349683 0.00005308 -0.00004288 -0.00008045
0.65962720 0.46927553 0.46400750 -0.00001139 0.00001149 -0.00000090
0.34348080 0.13299346 0.40318289 -0.00006972 0.00003768 -0.00003708
0.61345679 0.50600260 0.59255213 0.00005582 -0.00003899 0.00005448
0.40612796 0.75383669 0.45942119 -0.00002191 -0.00000211 0.00003342
0.40957114 0.56338865 0.41219020 0.00001775 -0.00000005 -0.00001785
0.38787460 0.44436079 0.53746617 -0.00002859 -0.00000054 0.00002234
0.56359518 0.91026640 0.44054350 0.00002594 -0.00003027 0.00000291
0.59815997 0.53125244 0.39514884 0.00002222 0.00000863 -0.00000730
0.55877936 0.65979707 0.38820744 0.00001218 -0.00000537 -0.00005330
0.64533120 0.63110411 0.44564855 -0.00001479 0.00001799 0.00000614
0.46007541 0.15480015 0.66002893 0.00001553 -0.00001359 -0.00004167
0.42678693 0.07300902 0.34694460 -0.00000682 0.00000897 -0.00000596
0.46074107 0.58175212 0.41695094 -0.00003162 0.00002575 0.00000639
0.38877901 0.92492056 0.43990993 -0.00013529 0.00003530 0.00001924
0.54156351 0.12610717 0.68234527 0.00001929 0.00006003 0.00009012
0.44400272 0.48531145 0.37792850 0.00000443 -0.00000114 -0.00004419
0.67487359 0.10889135 0.56271142 0.00002661 -0.00007013 0.00000873
0.46248102 0.36836794 0.55264366 0.00000296 -0.00000233 -0.00002467
0.38428912 0.34417403 0.49729136 0.00003831 0.00001059 0.00000741
0.55635536 0.24162290 0.40820536 0.00000484 -0.00000188 0.00000343
0.65867692 0.46009374 0.46975067 -0.00000112 -0.00000019 -0.00000643
0.40582496 0.42054331 0.45865452 -0.00000024 -0.00000089 0.00000037
0.58058143 0.81014848 0.56690294 0.00006696 0.00003772 0.00011867
0.54844528 0.74935603 0.38941026 -0.00002507 0.00003444 -0.00000299
0.66895586 0.86409128 0.40726420 0.00004611 -0.00001204 -0.00005323
0.42134672 0.31892416 0.39973515 0.00000899 0.00001444 0.00001258
0.54816061 0.40156001 0.58222264 -0.00000307 0.00001063 0.00000979
0.44285500 0.54241282 0.58567041 -0.00007575 0.00000285 0.00002362
0.67240363 0.51059347 0.43872091 0.00001987 0.00002746 0.00001440
0.62063235 0.60814971 0.50188684 0.00002245 -0.00000125 0.00000883
0.58287686 0.09261666 0.65568137 0.00002045 -0.00008863 0.00005871
0.44974592 0.68619466 0.40806761 0.00002701 0.00001564 0.00001567
0.65862644 0.50026399 0.40954587 0.00001405 -0.00000195 -0.00004382
0.41416201 0.46346346 0.42384186 0.00002055 0.00001386 0.00002860
0.37385407 0.46009374 0.52828443 -0.00005831 0.00001084 0.00003002
0.46577728 0.22034417 0.45328781 -0.00000364 -0.00000492 -0.00000098
0.65130395 0.56522495 0.48298618 -0.00004494 -0.00000239 0.00001201
0.66472769 0.61334199 0.49497759 -0.00002711 -0.00000150 -0.00001028
0.54959297 0.79642171 0.42613274 0.00001305 -0.00003743 -0.00001978
0.39606476 0.72292179 0.41466013 -0.00007252 0.00001436 -0.00000247
0.45759174 0.16972052 0.66256309 -0.00000269 -0.00000858 0.00001275
0.67329890 0.78719413 0.49270508 0.00003299 -0.00000539 0.00003793
0.34160313 0.11462994 0.59714305 -0.00002785 -0.00005585 0.00000914
0.38185596 0.46987692 0.50504994 -0.00001027 0.00000714 0.00000869
0.40612796 0.82392108 0.40381643 -0.00005942 0.00000207 -0.00001404
0.38570774 0.18336004 0.49557438 -0.00002098 0.00000278 -0.00000316
0.53122950 0.09894750 0.62813151 -0.00000273 0.00005168 -0.00001497
0.52664322 0.61159289 0.38986018 -0.00001158 0.00001793 -0.00005038
0.55877936 0.91459101 0.48100752 0.00002193 -0.00001965 0.00001145
0.41646203 0.92239553 0.39400116 -0.00002687 0.00006586 -0.00006109
0.46007541 0.66488373 0.52598894 0.00001564 0.00001604 0.00002541
0.59642458 0.19382265 0.45712578 0.00001047 -0.00000440 -0.00000207
0.32430470 0.11233449 0.55926830 -0.00005986 -0.00002402 0.00002490
0.51631373 0.69881964 0.57815057 -0.00000206 0.00002076 0.00002424
0.67591572 0.89393204 0.46745527 0.00005119 -0.00001439 0.00003714
0.50810981 0.25579953 0.38137621 -0.00000321 -0.00000500 0.00001301
0.60623068 0.59322935 0.56730235 0.00001050 0.00001333 -0.00000284
0.34461012 0.10774364 0.39973515 -0.00009143 -0.00003029 -0.00005586
0.46792582 0.20874302 0.47663242 -0.00000231 -0.00001180 -0.00000093
0.67379469 0.06757341 0.52598894 0.00005815 -0.00000558 0.00000284
0.50942278 0.11348223 0.31401420 0.00000934 -0.00004020 -0.00003751
0.62305170 0.29137889 0.41669387 -0.00000069 0.00000079 0.00000160
0.41349635 0.06298254 0.36874670 -0.00001436 -0.00000126 0.00001969
0.56681341 0.82044125 0.44679171 0.00001242 0.00001020 0.00001841
0.43842483 0.91962266 0.44177845 0.00003331 -0.00010992 -0.00000475
0.52434772 0.34761718 0.54217184 0.00001124 0.00000685 -0.00000523
0.58517236 0.58778912 0.59714305 0.00000449 0.00000322 0.00003249
0.62468606 0.46353695 0.56385916 0.00002344 -0.00000766 0.00001454
0.62075168 0.60350829 0.50418228 0.00002027 -0.00000632 0.00000769
0.40383711 0.84802324 0.40380725 -0.00004724 0.00000866 -0.00004081
0.61960393 0.52361315 0.59140903 0.00008245 -0.00002956 0.00006345
0.66321731 0.84802324 0.47029698 -0.00001657 -0.00001191 -0.00001778
0.46581402 0.71503925 0.50418228 0.00004055 0.00001686 0.00000163
0.58287686 0.38893509 0.38252395 0.00003717 -0.00000330 -0.00000889
0.66074741 0.65061527 0.41809869 -0.00000048 -0.00000112 0.00000667
0.37628722 0.09432447 0.62468833 -0.00000949 0.00001164 -0.00001592
0.52779090 0.52436608 0.62896246 0.00000406 0.00002911 0.00006091
0.39398047 0.49777114 0.48044282 0.00001713 -0.00000424 0.00001363
0.68388093 0.60814971 0.47352436 0.00004165 0.00000752 -0.00000075
0.61038083 0.09052782 0.57418865 0.00004300 -0.00000410 0.00003824
0.48021561 0.30629924 0.55697739 0.00000368 -0.00000011 -0.00000335
0.33361042 0.17431141 0.53976160 -0.00003017 -0.00000187 0.00000854
0.41760516 0.09720755 0.42384186 -0.00001292 0.00004274 -0.00000669
0.66206956 0.86064821 0.46971855 -0.00002010 0.00001127 -0.00001850
0.39283738 0.18747805 0.51216584 -0.00001796 -0.00000303 0.00000389
0.49221158 0.09733151 0.41236007 0.00000111 -0.00003352 0.00000515
0.58746773 0.29242098 0.49959141 -0.00000005 0.00000380 0.00000262
0.38317358 0.50821078 0.47433698 -0.00002670 0.00001012 0.00001624
0.49450243 0.09917244 0.56959778 0.00000538 -0.00003825 -0.00001499
0.55992246 0.09535742 0.39055797 0.00000416 0.00003976 -0.00000015
0.38662130 0.49108222 0.52585125 -0.00001803 -0.00000786 0.00000103
0.57828599 0.82965970 0.55304766 0.00007071 0.00010715 0.00005248
0.52664322 0.66897887 0.53612107 -0.00000824 0.00000595 -0.00000553
0.58058143 0.30285609 0.52236217 -0.00000690 0.00000059 0.00000424
0.46925259 0.04647373 0.33661053 -0.00000639 -0.00005624 -0.00001819
0.39924625 0.21724533 0.55008650 -0.00001408 0.00000431 0.00000667
0.36208767 0.42221898 0.48008016 -0.00004614 0.00000724 -0.00000985
0.53696805 0.22825426 0.36033621 0.00001112 0.00000265 -0.00001763
0.60236979 0.59552473 0.40547377 0.00003079 0.00001001 0.00000218
0.61156994 0.21561095 0.50762087 0.00001027 -0.00000296 -0.00000553
0.51165855 0.47042325 0.60288161 0.00000439 0.00000615 -0.00001307
0.41416201 0.45638889 0.53976160 0.00002050 0.00001172 -0.00002400
0.58879453 0.22710656 0.49155277 -0.00001305 0.00000689 -0.00000876
0.68273312 0.64717209 0.48407882 0.00003386 -0.00000683 -0.00001286
0.51631373 0.66897887 0.53499627 -0.00000354 0.00000285 -0.00000350
0.36110520 0.40156001 0.49843910 -0.00004291 0.00000715 0.00002012
0.51057047 0.08478922 0.33078930 -0.00000880 0.00001867 0.00002814
0.59091091 0.40714714 0.38596249 0.00002573 -0.00000076 -0.00001321
0.40498024 0.40597188 0.50762087 0.00002665 0.00001615 -0.00000309
0.33473057 0.07331201 0.55812514 -0.00009512 -0.00003815 0.00000203
0.52090460 0.06010864 0.32857651 0.00004656 -0.00003552 -0.00007838
0.55189300 0.69396240 0.56959778 -0.00000287 -0.00000422 0.00002474
0.56795651 0.18185420 0.54320019 -0.00000600 -0.00000347 -0.00001561
0.62681162 0.39926460 0.52598894 0.00001550 -0.00000064 -0.00000228
0.61290121 0.30400378 0.40432605 0.00001339 -0.00000685 -0.00002395
0.41646203 0.40844631 0.53401840 0.00000659 0.00000760 -0.00001529
0.66895586 0.81473929 0.45267260 -0.00001162 0.00000834 -0.00002835
0.60812670 0.40041232 0.39940917 -0.00000462 0.00000416 -0.00002838
0.40038937 0.33384454 0.42877248 0.00002890 -0.00000236 0.00002491
0.50341332 0.93180680 0.41466013 0.00000265 -0.00000466 -0.00000641
0.57511830 0.60011560 0.58910906 -0.00002960 0.00000275 0.00000984
0.41990522 0.46718666 0.41925097 0.00000977 0.00001510 0.00003849
0.47154802 0.22481111 0.37175369 0.00000030 -0.00000395 -0.00000813
0.37973496 0.07535955 0.44105768 0.00000603 -0.00001677 0.00001434
0.55074072 0.63669121 0.56156373 -0.00001013 0.00000834 -0.00000250
0.61920911 0.74817157 0.38481477 0.00000392 0.00001915 -0.00004823
0.50827968 0.34532171 0.37404460 -0.00000970 -0.00000141 -0.00002256
0.62557667 0.91884673 0.44143873 0.00001352 -0.00013278 -0.00000213
0.37170097 0.11462994 0.36450011 -0.00005784 0.00000020 -0.00005884
0.67584682 0.59896791 0.50445771 -0.00000050 -0.00000368 0.00000252
0.52778172 0.43599167 0.36300811 0.00000012 0.00000499 -0.00004335
0.37968907 0.47983912 0.48262811 -0.00001046 0.00000581 0.00000345
0.65633553 0.89704931 0.39859203 -0.00001069 0.00000370 -0.00004871
0.41440532 0.22118431 0.50766677 0.00000031 0.00000559 -0.00000606
0.57943833 0.75329500 0.38941026 -0.00000820 0.00004395 -0.00000501
0.43137783 0.68160385 0.49755764 -0.00002699 0.00000537 -0.00000097
0.38505581 0.40212932 0.46084896 0.00003332 0.00000733 0.00000556
0.47614351 0.54961592 0.61568564 -0.00000868 0.00002559 0.00009356
0.41875288 0.28104940 0.39608541 0.00000862 -0.00000737 0.00002181
0.51975685 0.44058248 0.60162371 -0.00000241 0.00000820 0.00000770
0.52779090 0.29252660 0.56223857 -0.00000583 -0.00000118 0.00001488
0.65174466 0.88819343 0.46745065 -0.00005445 0.00001561 -0.00004985
0.53582036 0.30999491 0.56615919 -0.00000595 -0.00000405 0.00001643
0.48377356 0.51518428 0.61665434 -0.00002221 -0.00002148 0.00006583
0.61960393 0.05524230 0.58796585 -0.00007227 -0.00003575 -0.00005336
0.43517447 0.63799047 0.49270508 -0.00001662 -0.00000239 0.00000519
0.52434772 0.76352799 0.42384186 0.00000687 -0.00001195 0.00002449
0.42884824 0.66897887 0.49614367 -0.00002985 0.00000952 0.00000500
0.33680564 0.14102751 0.42613274 -0.00004729 0.00002110 -0.00001639
0.50942278 0.08928829 0.66830623 0.00000168 -0.00009903 0.00002516
0.66413546 0.56979752 0.50103754 -0.00003171 0.00000079 0.00000079
0.55074072 0.34187856 0.57735175 0.00000405 0.00000095 0.00002854
0.42219603 0.09970958 0.59103715 -0.00000322 -0.00000943 0.00004037
0.39943448 0.58060437 0.40203518 -0.00000903 -0.00000351 -0.00006464
0.43941185 0.33106706 0.39400116 -0.00003399 0.00000571 -0.00000786
0.60278291 0.08823238 0.58567041 0.00003270 0.00002496 0.00000964
0.49474573 0.23985541 0.49788821 -0.00000116 0.00000089 0.00000113
0.38629076 0.32581049 0.41809869 -0.00000227 0.00000710 0.00001167
0.41225681 0.69537646 0.46745527 0.00001653 0.00000547 0.00000639
0.47433928 0.71373999 0.56271142 -0.00000402 0.00002389 0.00003130
0.53238177 0.38204879 0.55003601 0.00001109 -0.00000252 -0.00001299
0.37077361 0.45091197 0.47433698 -0.00003150 0.00000816 -0.00000397
0.48302981 0.52538985 0.39284882 0.00000099 -0.00000443 0.00000489
0.53209257 0.33269680 0.55123425 -0.00000571 0.00001012 -0.00001554
0.62993342 0.63684267 0.50477910 0.00000736 0.00000519 -0.00000578
0.36940548 0.08931582 0.48811421 0.00001682 0.00003147 -0.00000488
0.39482978 0.86294365 0.41695094 -0.00008497 -0.00001312 -0.00004092
0.44171190 0.04740567 0.34235370 -0.00001739 -0.00006091 -0.00003314
0.36251917 0.32695821 0.50554121 -0.00001661 0.00000587 0.00002752
0.61731309 0.82712090 0.41350779 -0.00002851 0.00001274 0.00000368
0.59206325 0.25585923 0.39514884 -0.00000962 0.00000327 0.00001417
0.38432127 0.09745087 0.46400750 -0.00001060 0.00005479 -0.00000387
0.48991615 0.74013758 0.56597096 0.00001658 -0.00002964 0.00000728
0.39465535 0.71259224 0.41758907 -0.00007663 0.00002448 -0.00000596
0.62075168 0.21128635 0.52483666 0.00001040 0.00000276 0.00000772
0.64144278 0.66897887 0.40777379 -0.00001822 0.00000966 0.00001393
0.65239662 0.51059347 0.52828443 -0.00000310 0.00000921 -0.00000038
0.52205229 0.09705606 0.41236007 0.00001117 -0.00002966 -0.00004467
0.43694654 0.85226518 0.42465448 0.00004226 0.00004311 0.00000003
0.50713193 0.48649132 0.61316520 -0.00001620 0.00000374 0.00002725
0.62534249 0.93304169 0.40547377 0.00005146 0.00002963 -0.00002914
0.52434772 0.89163661 0.43523645 -0.00002019 0.00002673 -0.00000250
0.32807380 0.14447066 0.45942119 -0.00003203 0.00001683 -0.00000951
0.41138455 0.80900073 0.39400116 -0.00005002 -0.00000486 -0.00003966
0.66436964 0.07675517 0.53433520 -0.00002623 0.00003147 0.00000393
0.65725374 0.26383358 0.44220081 0.00003950 -0.00000299 -0.00000810
0.43279639 0.20529984 0.56385916 0.00000497 -0.00000522 -0.00000038
0.40498024 0.53240013 0.41634035 0.00002111 -0.00000435 -0.00000085
0.42678693 0.93636096 0.42957589 0.00004091 0.00006931 0.00000052
0.53926808 0.87442082 0.45710739 -0.00000135 -0.00001175 -0.00000577
0.39672124 0.06872114 0.36989442 -0.00005239 -0.00004502 -0.00001603
0.43482098 0.95064318 0.44450083 -0.00004811 0.00012412 -0.00004133
0.62419480 0.34302628 0.48718226 -0.00000556 -0.00000323 0.00000754
0.50862396 0.42451441 0.58451813 0.00001093 -0.00002448 -0.00002250
0.65231854 0.55058002 0.47651306 -0.00004078 -0.00000628 0.00000550
0.43069375 0.22236417 0.43114597 -0.00000408 0.00001071 -0.00000045
0.66666049 0.83539826 0.40701628 0.00005750 0.00002247 -0.00003063
0.57943833 0.64717209 0.39928523 0.00000388 -0.00000533 -0.00002493
0.66095400 0.62308377 0.50779533 -0.00002606 0.00000819 0.00000393
0.67845446 0.91459101 0.41236007 0.00010755 0.00004512 -0.00005491
0.41570911 0.85490948 0.45712578 0.00000989 0.00002544 0.00001637
0.39943448 0.18072487 0.45954055 -0.00001719 0.00000003 -0.00001356
0.65573877 0.63100314 0.47951087 -0.00003167 0.00001300 -0.00000787
0.56221795 0.94557941 0.45274606 0.00001814 0.00004420 0.00000123
0.66296017 0.50600260 0.41809869 0.00000735 0.00000791 -0.00001562
0.39924625 0.81014848 0.42700040 -0.00004079 0.00002139 -0.00001598
0.67125136 0.51596481 0.50762087 0.00000557 0.00000168 0.00001010
0.66092646 0.69964600 0.49270508 -0.00004019 -0.00000584 -0.00001936
0.67558515 0.79178494 0.48467106 0.00003453 -0.00000741 0.00002008
0.57930064 0.48190042 0.60518169 0.00001810 -0.00000025 0.00002980
0.65289247 0.56224084 0.51784933 -0.00003150 0.00000080 -0.00002074
0.64130962 0.30285609 0.46056893 -0.00003611 0.00001722 -0.00003253
0.40540260 0.27071992 0.41350779 0.00003216 -0.00000087 0.00002755
0.43597329 0.09098691 0.66027224 -0.00000382 -0.00005940 0.00001935
0.65518326 0.80834877 0.39055797 0.00003625 0.00000876 -0.00007914
0.36825320 0.42336670 0.49258572 -0.00002934 0.00000425 0.00000154
0.44792792 0.21978407 0.45082244 -0.00000126 -0.00000128 0.00000097
0.38433963 0.32007191 0.51680261 0.00001159 0.00000665 0.00000521
0.55778313 0.88360262 0.47548926 0.00001049 0.00000884 0.00000554
0.65928751 0.17431141 0.43646681 0.00003235 -0.00001393 -0.00001341
0.52434772 0.51747978 0.37022036 0.00001542 0.00003682 -0.00002739
0.55418849 0.30369163 0.38137621 0.00002529 -0.00000758 -0.00001101
0.39006445 0.28694868 0.52369356 -0.00000405 -0.00000080 0.00000053
0.51975685 0.47424746 0.60747254 -0.00000041 0.00000161 -0.00000535
0.61501759 0.74587613 0.50117064 0.00001426 0.00000972 0.00000060
0.67366153 0.50255942 0.49959141 0.00001669 0.00000877 0.00000467
0.51287055 0.10060022 0.59829533 0.00000704 0.00002040 0.00005432
0.65403557 0.56338865 0.40280184 0.00000377 0.00000505 -0.00001729
0.51973850 0.25809497 0.36530814 -0.00000780 -0.00000255 -0.00002322
0.48417297 0.78145552 0.50923228 0.00000353 0.00001940 0.00001032
0.65357190 0.09856185 0.59599990 0.00002089 -0.00001939 0.00000457
0.68273312 0.64372909 0.47303316 0.00003693 -0.00000477 -0.00000483
0.39924625 0.24395047 0.40088287 -0.00000483 -0.00001350 0.00000614
0.42334837 0.48649132 0.38567787 -0.00004057 0.00000070 -0.00004009
0.62764257 0.48190042 0.55738598 0.00000735 0.00000088 -0.00000238
0.61616081 0.92485160 0.42384186 0.00004581 -0.00008652 0.00003535
0.65174007 0.08938009 0.41236007 0.00006421 -0.00010088 -0.00004258
0.55877936 0.75689882 0.41006923 -0.00001219 0.00001509 0.00003686
0.39694622 0.18443888 0.61436343 0.00000096 -0.00002234 -0.00000044
0.32005352 0.09868582 0.49155277 -0.00009479 -0.00008747 -0.00000598
0.38871014 0.53584325 0.53172761 -0.00003657 0.00003053 0.00000353
0.36595774 0.40959409 0.49205777 -0.00003002 0.00000181 0.00000373
0.36366689 0.24244466 0.46859840 -0.00000046 -0.00001278 0.00000455
0.46007541 0.09794668 0.67404032 -0.00001331 -0.00008505 0.00007377
0.44111046 0.20415214 0.54779565 0.00001736 -0.00000603 -0.00001335
0.42678693 0.35106033 0.41056964 -0.00002179 -0.00000176 0.00000227
0.39114335 0.45051259 0.47306991 0.00002918 -0.00000307 -0.00000221
0.60927904 0.93984079 0.41139600 0.00002321 0.00005621 -0.00001865
0.41531432 0.68504685 0.46718439 0.00002810 0.00000595 -0.00000056
0.55074072 0.84946930 0.45942119 -0.00000401 -0.00003351 -0.00000751
0.60076302 0.79637575 0.40318289 -0.00001468 0.00001381 0.00001307
0.60779619 0.94098854 0.46286437 -0.00002769 0.00004427 0.00002588
0.64389884 0.57092220 0.43448812 -0.00002997 0.00000126 0.00002480
0.36251917 0.16972052 0.59717059 -0.00001704 0.00000211 0.00001130
0.65633553 0.81473929 0.48420277 -0.00001638 0.00001098 -0.00000103
0.64659369 0.18046317 0.49447715 -0.00003072 -0.00003206 0.00000173
0.65747869 0.16438134 0.44334853 -0.00000364 -0.00000668 -0.00000165
0.55074072 0.18053664 0.37333760 -0.00001990 -0.00001856 0.00004886
0.63660860 0.38090104 0.43875763 0.00006172 -0.00000981 0.00000480
0.64255840 0.53125244 0.41446728 -0.00002447 -0.00000178 0.00002524
0.39638153 0.47028095 0.48327541 0.00003664 -0.00000100 -0.00000415
0.66551733 0.75276238 0.46970019 -0.00002997 -0.00000765 -0.00002355
0.45279887 0.18273108 0.52505243 0.00000174 -0.00000119 0.00000462
0.40387845 0.70914906 0.41466013 -0.00000981 0.00001815 -0.00000576
0.40268940 0.59208155 0.40247133 -0.00000091 -0.00000563 -0.00005778
0.42117229 0.55879772 0.49384820 -0.00001358 -0.00000619 0.00002195
0.31622013 0.12610717 0.53172761 -0.00007829 0.00002119 0.00000620
0.53582036 0.94935310 0.42498499 -0.00001298 0.00006904 -0.00001638
0.36564097 0.18127577 0.42120212 0.00001056 -0.00002977 0.00000992
0.39465535 0.05608243 0.60173392 0.00007081 -0.00002754 -0.00007684
0.44285500 0.66209251 0.41829607 -0.00000591 0.00001062 0.00004581
0.55553359 0.89410198 0.45950845 0.00003550 0.00004055 -0.00002878
0.51287055 0.53010470 0.37777695 -0.00001125 0.00001436 -0.00002178
0.38203043 0.29137889 0.39735708 -0.00003960 -0.00000986 -0.00001876
0.58632463 0.78489858 0.43153161 0.00000892 -0.00001921 0.00001428
0.68338042 0.58175212 0.48696190 0.00003508 0.00000155 -0.00002016
0.45088905 0.09511870 0.66942644 -0.00001318 -0.00008476 0.00005334
0.48876843 0.08622158 0.63616550 0.00000797 0.00000824 -0.00001880
0.40905693 0.37745789 0.43531907 -0.00000197 0.00000316 0.00001399
0.66688538 0.79293269 0.41350779 0.00003512 -0.00000434 0.00000032
0.64002413 0.61574757 0.46945685 0.00000815 0.00001020 0.00001110
0.39053735 0.52780926 0.45482570 -0.00000467 0.00000790 0.00000669
0.36595774 0.09626643 0.37975106 -0.00007080 -0.00007309 -0.00005514
0.43859926 0.18317638 0.44774199 0.00000752 -0.00000111 0.00001273
0.39694622 0.44517338 0.42274922 0.00000680 0.00000096 -0.00000489
0.53234047 0.62880868 0.39055797 -0.00000540 0.00000293 -0.00004660
0.66436964 0.05150533 0.51952958 0.00002689 -0.00004723 -0.00001261
0.34116700 0.21798904 0.48138398 -0.00001112 0.00001966 -0.00002048
0.34870982 0.14676610 0.58910906 -0.00001143 0.00003349 0.00000311
0.44276780 0.22365879 0.44799909 -0.00000182 0.00000017 -0.00000099
0.67584682 0.87786400 0.40883890 0.00009283 -0.00002363 -0.00003782
0.66512257 0.06298254 0.56845462 0.00006935 0.00000834 0.00002263
0.44614667 0.83659190 0.43854645 0.00000253 -0.00000268 -0.00000103
0.61118889 0.81304073 0.47207826 0.00001062 0.00000619 -0.00000751
0.51171821 0.25801694 0.38022390 -0.00000486 -0.00000538 0.00001242
0.51707119 0.22097771 0.39775190 -0.00000118 0.00000382 0.00000864
0.68057084 0.50370711 0.48811421 0.00005336 -0.00000050 -0.00001181
0.51254457 0.59093392 0.62584066 -0.00002723 0.00003208 0.00003972
0.40980986 0.18909863 0.60015464 0.00003623 -0.00000227 -0.00003151
0.51287055 0.09729478 0.45368260 0.00000114 -0.00004738 -0.00000099
0.39883304 0.81818247 0.42384186 -0.00004857 0.00001677 -0.00002256
0.56566107 0.91731793 0.41695094 0.00001816 -0.00005324 0.00001862
0.50644332 0.82047790 0.51106405 -0.00002305 0.00001096 0.00002005
0.41506639 0.81244391 0.39400116 -0.00004101 -0.00001075 -0.00002991
0.44968623 0.21027635 0.36793414 0.00000331 0.00002616 0.00001173
0.40313470 0.21567523 0.52296817 -0.00001321 0.00000524 -0.00000791
0.49561343 0.25304502 0.52736622 0.00000231 0.00000101 -0.00000636
0.55074072 0.83539826 0.46168908 -0.00000324 -0.00002126 0.00000332
0.53616929 0.37057158 0.36874670 -0.00001503 0.00000585 -0.00003507
0.61156994 0.82047790 0.40595117 -0.00002512 0.00001486 -0.00000216
0.66131210 0.06527796 0.57648408 0.00006263 0.00000912 0.00002189
0.48073435 0.36024210 0.56392801 0.00000369 0.00000083 -0.00000182
0.41152683 0.20251317 0.49409613 0.00000398 0.00000897 -0.00000374
0.47728664 0.18388799 0.66371542 -0.00000436 -0.00000130 0.00002811
0.38794348 0.91000015 0.42154184 -0.00011076 0.00000346 -0.00001318
0.43826413 0.83576548 0.46400750 0.00003729 0.00001231 -0.00000858
0.44285500 0.42203081 0.56730235 -0.00000157 0.00000319 0.00000320
0.40379581 0.21771817 0.43747222 0.00000750 -0.00000542 -0.00000255
0.62878573 0.42795759 0.53855884 0.00001028 -0.00001778 -0.00000150
0.58976322 0.77391720 0.55926830 0.00005145 -0.00002496 0.00005194
0.46801305 0.19483264 0.45044604 0.00000472 -0.00000280 0.00000849
0.56221795 0.83155119 0.56041598 0.00002737 0.00011410 0.00008792
0.46252695 0.34532171 0.55238652 0.00000090 0.00000931 -0.00001888
0.41875288 0.09167553 0.60363913 -0.00003212 0.00001726 0.00002915
0.41301429 0.84572786 0.45867288 -0.00000231 0.00002490 0.00002683
0.66849220 0.53928643 0.41695094 0.00004043 0.00000895 0.00000174
0.37858728 0.09397098 0.54884237 -0.00002464 0.00003188 0.00001415
0.32614100 0.14447066 0.46859840 -0.00003162 0.00001751 -0.00000994
0.46351856 0.15303726 0.66256309 0.00001263 -0.00001057 -0.00003600
0.51501447 0.18101868 0.49607021 -0.00000251 0.00000080 -0.00000246
0.68294430 0.57716119 0.48581418 0.00003475 0.00000407 -0.00001767
0.38280171 0.46548346 0.48254547 0.00000375 0.00000013 -0.00000299
0.53604531 0.75735337 0.40777379 0.00000110 0.00000692 0.00002288
0.47154802 0.51633209 0.61041528 -0.00003689 -0.00002554 0.00005684
0.47045082 0.18291472 0.48825651 -0.00000135 -0.00000592 -0.00000111
0.57770300 0.69996727 0.52139813 -0.00001979 0.00001906 0.00000097
0.46122313 0.09768960 0.47318923 -0.00000272 -0.00004582 0.00001040
0.33273357 0.12036853 0.41695094 -0.00009458 0.00004036 -0.00004468
0.66172069 0.06527796 0.48696190 0.00001487 -0.00001523 -0.00001922
0.49450243 0.77456915 0.39828444 0.00001673 0.00003779 0.00000611
0.67189407 0.14102751 0.45253488 0.00003017 0.00001467 -0.00001801
0.32540193 0.12381172 0.56615919 -0.00005225 -0.00000575 0.00001295
0.48073435 0.12725487 0.31505635 0.00000204 0.00002708 -0.00005490
0.57599515 0.64401829 0.39744431 0.00000269 -0.00000483 -0.00003274
0.37042007 0.18116559 0.44667691 0.00003778 -0.00002168 0.00001318
0.67166913 0.81244391 0.44334853 0.00000274 0.00001021 0.00000802
0.41875288 0.22350271 0.37448987 -0.00000552 0.00001126 -0.00003064
0.39502722 0.18498978 0.50898892 -0.00001679 -0.00000490 0.00000472
0.47384804 0.36368525 0.56615001 0.00000023 -0.00000102 0.00000032
0.59550184 0.43275508 0.55697739 -0.00003065 -0.00001052 -0.00001388
0.40429160 0.79867131 0.45942119 -0.00003323 0.00003712 0.00002663
0.55763161 0.91688639 0.41522935 0.00004060 -0.00004863 0.00000163
0.60602409 0.94557941 0.44564855 -0.00002131 0.00006107 0.00000734
0.63811892 0.36598071 0.47318923 0.00000969 0.00000217 0.00000616
0.45766518 0.50715029 0.39514884 0.00002850 -0.00000467 0.00001581
0.48654643 0.78719413 0.54893881 -0.00001719 0.00003203 -0.00000370
0.43137783 0.92907065 0.40088287 -0.00001696 0.00005467 -0.00001743
0.41011283 0.18046778 0.47834024 0.00000229 -0.00000552 -0.00000656
0.67928541 0.73554659 0.47202775 0.00002103 0.00000356 -0.00003490
0.43597329 0.48419592 0.55720240 0.00000055 0.00001510 -0.00001734
0.64844841 0.63913810 0.41809869 -0.00002090 0.00000876 0.00002430
0.36930451 0.18187258 0.47195432 0.00003877 -0.00000259 0.00000713
0.59091091 0.09813491 0.51680261 0.00000420 -0.00002945 0.00000425
0.68164968 0.69767183 0.48237559 0.00003117 0.00000024 -0.00001272
0.45274377 0.83635777 0.41514674 0.00001003 0.00002497 0.00003150
0.41990522 0.06260608 0.38252395 0.00002743 0.00000588 0.00005866
0.40038937 0.09052782 0.64036161 0.00000390 -0.00000032 -0.00001628
0.65484357 0.87671626 0.46859840 -0.00003627 0.00002006 -0.00003533
0.41187114 0.49003088 0.52598894 0.00004006 -0.00001130 -0.00002506
0.41531432 0.53010470 0.55065578 0.00001433 -0.00000155 0.00000425
0.41646203 0.27301535 0.39596602 0.00001132 -0.00000188 0.00001793
0.57484287 0.31548101 0.52865630 -0.00000968 0.00000443 -0.00000296
0.66151869 0.67356968 0.40432605 0.00000272 -0.00000568 -0.00003414
0.53122950 0.07331201 0.36816365 -0.00000789 0.00001531 0.00002727
0.63794911 0.85312372 0.44543278 0.00000953 0.00001814 0.00001363
0.41632891 0.21629043 0.49427515 0.00000267 0.00000794 -0.00000547
0.40169317 0.83195508 0.45023486 -0.00005142 -0.00000779 0.00001353
0.55189300 0.20759529 0.46487975 -0.00000164 -0.00000476 0.00000326
0.56451339 0.13873206 0.33308473 0.00002396 0.00001350 -0.00003884
0.53206962 0.18218935 0.51505351 0.00000004 0.00000101 0.00000314
0.49000794 0.94557941 0.46745527 -0.00000445 0.00005036 -0.00000005
0.45451126 0.34187856 0.56959778 -0.00001133 0.00000495 0.00001762
0.61156994 0.47157094 0.57508844 0.00001046 -0.00000872 0.00001338
0.35968202 0.17431141 0.59714305 -0.00003552 -0.00000021 0.00002325
0.32388693 0.09856185 0.53517073 -0.00007385 -0.00005204 0.00001405
0.41187114 0.11003905 0.66220045 -0.00003941 -0.00002318 0.00006061
0.65730423 0.67930830 0.49614367 -0.00002853 0.00001441 -0.00002078
0.67587900 0.59195310 0.47690788 0.00001057 0.00000347 -0.00000068
0.65518326 0.08019835 0.56252319 -0.00003669 0.00003765 -0.00000899
0.56795651 0.93180680 0.47098106 0.00001332 -0.00001728 -0.00001482
0.67940938 0.10200502 0.46515980 0.00007954 -0.00002869 -0.00001396
0.61731309 0.44032082 0.40088287 0.00000762 0.00000619 -0.00003435
0.41505724 0.53699106 0.50418228 0.00002791 -0.00001047 -0.00000632
0.51516598 0.16627736 0.66426635 -0.00000150 -0.00002217 -0.00001269
0.45041159 0.62077457 0.43416676 -0.00003012 -0.00000661 -0.00000040
0.63483649 0.17957713 0.47121978 -0.00004519 -0.00002891 0.00001446
0.41334024 0.44632116 0.52369356 0.00003356 0.00000454 -0.00003347
0.66206956 0.31633031 0.48581418 0.00004280 0.00002499 0.00001452
0.42034590 0.23052675 0.48020411 -0.00000023 -0.00000590 -0.00000089
0.53122950 0.32695821 0.36836565 -0.00001497 -0.00000397 -0.00004444
0.39924625 0.67766947 0.42269412 -0.00000780 0.00000189 -0.00001590
0.61305279 0.37057158 0.51910263 0.00001163 -0.00000123 -0.00000929
0.40612796 0.10315274 0.34178448 -0.00002068 -0.00001857 -0.00005169
0.60231465 0.93003017 0.45957270 -0.00002275 -0.00002828 -0.00001060
0.38891217 0.53010470 0.41042271 -0.00002405 -0.00000655 -0.00004792
0.67584682 0.06593906 0.50418228 0.00008192 -0.00002851 -0.00002165
0.52330559 0.32007191 0.54550022 -0.00000164 0.00000408 -0.00001356
0.59894496 0.64602447 0.52799523 -0.00001139 0.00000317 0.00000524
0.59328443 0.44058248 0.56615919 -0.00001849 0.00000061 -0.00000916
0.45548454 0.57486129 0.42039871 -0.00003715 0.00002865 0.00001080
0.40745932 0.26612902 0.40318289 0.00001882 -0.00000040 0.00002085
0.37899587 0.29137889 0.48811421 0.00002189 -0.00000591 -0.00000244
0.40036640 0.84917086 0.40777379 -0.00005460 -0.00000873 -0.00004520
0.67178851 0.67816067 0.41466013 0.00004338 0.00000114 -0.00001576
0.48761612 0.58959788 0.60518169 -0.00001385 0.00001950 0.00000679
0.40020570 0.38098830 0.45948088 -0.00000556 0.00000074 -0.00000104
0.59435868 0.53813875 0.39518100 0.00001940 0.00000803 -0.00000914
0.64600152 0.51059347 0.41778651 -0.00003333 0.00001223 0.00002076
0.41187114 0.67586523 0.39611754 -0.00001366 0.00000019 -0.00002719
0.37513950 0.19956124 0.57261395 0.00001335 0.00004309 -0.00001572
0.50713193 0.09729937 0.45597345 0.00000067 -0.00004780 -0.00000548
0.54614985 0.92606819 0.48697108 0.00001712 -0.00000527 0.00008371
0.54959297 0.79063714 0.42413568 0.00000893 -0.00004535 -0.00001869
0.54844528 0.16053875 0.65642971 -0.00001038 -0.00002525 -0.00003515
0.52434772 0.70914906 0.38139459 0.00000243 0.00000090 -0.00006941
0.64255840 0.71488762 0.39013562 -0.00001857 -0.00001127 -0.00004468
0.53008634 0.39582142 0.36951795 -0.00001323 0.00000171 -0.00002014
0.64642388 0.57396138 0.42779922 -0.00003284 0.00000427 0.00002442
0.45777997 0.78030771 0.38573298 0.00001539 -0.00000392 -0.00003597
0.46868789 0.56912720 0.60288161 -0.00002526 0.00003950 0.00005039
0.35792372 0.33958313 0.46156973 -0.00003512 0.00000803 -0.00002116
0.57025194 0.09856185 0.54637247 0.00000496 -0.00003627 -0.00000982
0.51631373 0.37860563 0.37254795 -0.00000035 0.00000560 -0.00001545
0.42635539 0.45550287 0.55582970 0.00000580 0.00000108 -0.00001098
0.66780818 0.71603543 0.50754744 -0.00000647 0.00000480 0.00004007
0.37392753 0.47616184 0.44105768 -0.00005306 -0.00000508 -0.00000774
0.62422699 0.70570582 0.50073916 0.00002259 0.00000888 -0.00000371
0.40957114 0.06642569 0.38354769 0.00001222 0.00001023 0.00004064
0.40881366 0.75620556 0.38825798 -0.00003612 0.00002469 -0.00008681
0.58746773 0.71603543 0.38275805 0.00002843 -0.00000610 -0.00006257
0.39924625 0.32007191 0.43248650 0.00002661 -0.00000013 0.00002861
0.60468817 0.74702382 0.38582477 0.00001395 0.00002214 -0.00003638
0.41646203 0.92757869 0.40662605 0.00000833 0.00004665 -0.00007975
0.36710548 0.41646200 0.46630293 -0.00002349 0.00000780 -0.00000307
0.42449605 0.63911510 0.45023486 0.00002092 0.00001757 -0.00001599
0.49241355 0.25075874 0.53291661 0.00000277 -0.00000156 -0.00000428
0.64600152 0.78719413 0.48894054 -0.00003369 -0.00001498 -0.00000356
0.54500669 0.18037136 0.34120601 0.00000483 -0.00001770 -0.00001758
0.51287055 0.08129556 0.63387465 0.00000166 -0.00000986 -0.00000282
0.46007541 0.18075240 0.36530814 0.00000582 -0.00001958 0.00004864
0.67493320 0.58060437 0.51795036 0.00002221 -0.00000234 0.00002678
0.65977877 0.56224084 0.39643431 0.00002444 -0.00000025 -0.00004451
0.42402780 0.18236841 0.44860047 -0.00000386 0.00000081 0.00000258
0.68186551 0.91344321 0.42154184 0.00011443 0.00002900 -0.00001370
0.65862644 0.29413801 0.45942119 0.00002439 0.00001447 -0.00003224
0.64597398 0.19943729 0.51564574 -0.00001931 0.00004671 -0.00000471
0.56337023 0.18027036 0.34579232 0.00000669 -0.00001746 -0.00002538
0.59091091 0.68275148 0.52227956 -0.00001599 0.00000342 0.00001079
0.48876843 0.36368525 0.36991739 0.00001909 -0.00001557 -0.00004246
0.52590406 0.76079655 0.41466013 0.00000942 -0.00000078 0.00002903
0.67180681 0.09970958 0.44105768 0.00008590 -0.00005273 -0.00003225
0.63567656 0.70455819 0.39761874 -0.00002829 0.00000218 -0.00000948
0.43597329 0.23679788 0.52943212 0.00001260 0.00000009 0.00000096
0.62217021 0.20861906 0.49872372 0.00000564 0.00000234 -0.00000688
0.45870733 0.81244391 0.38596249 0.00002233 0.00001804 -0.00004937
0.49462178 0.67127424 0.39629197 -0.00000832 -0.00001047 -0.00003535
0.43712100 0.06572788 0.33546284 -0.00002030 -0.00000495 -0.00005811
0.45653585 0.50026399 0.59255213 -0.00002316 -0.00000544 0.00002795
0.46266925 0.73095578 0.55468196 -0.00003090 0.00000286 0.00002124
0.56202054 0.57601357 0.38596249 0.00000211 -0.00000789 -0.00005219
0.66206956 0.16508374 0.45482570 -0.00000049 -0.00000307 -0.00000486
0.56569779 0.18876807 0.48871562 -0.00000681 -0.00000036 0.00000544
0.46120018 0.83566451 0.42048594 -0.00000600 0.00001921 0.00001945
0.67010367 0.06897822 0.54090935 0.00004081 0.00000764 0.00001539
0.40939209 0.18149154 0.48384470 0.00000329 -0.00000584 -0.00000510
0.63225180 0.40837291 0.49136916 -0.00002858 0.00000409 0.00000517
0.46925259 0.78948951 0.39296821 0.00001209 0.00000480 -0.00001058
0.58509886 0.29279289 0.51445210 -0.00000429 0.00000009 0.00000601
0.60298496 0.74472839 0.51795036 -0.00001079 0.00000504 0.00003325
0.68043315 0.86638683 0.47262916 0.00007877 0.00002387 -0.00000241
0.56910884 0.74121171 0.38596249 -0.00001517 0.00004177 -0.00001557
0.48130366 0.93614066 0.46314439 0.00002766 -0.00000199 -0.00000556
0.67584682 0.51518428 0.49248934 0.00001528 0.00001006 -0.00000847
0.67859215 0.79522812 0.44220081 0.00004566 0.00000300 -0.00000942
0.41875288 0.17545912 0.34778017 -0.00002467 -0.00000376 -0.00003504
0.50713652 0.82162571 0.52369356 -0.00004416 0.00002698 0.00000190
0.34912759 0.07905062 0.49499595 0.00002687 -0.00003319 -0.00000868
0.61792833 0.36253756 0.48581418 -0.00001442 0.00000806 0.00000732
0.42584121 0.88934118 0.41809869 0.00009063 0.00000169 0.00006575
0.51057047 0.82621652 0.52254581 -0.00004137 0.00002827 0.00000515
0.54666400 0.23043953 0.45441255 -0.00000114 -0.00000917 0.00000887
0.47040486 0.35565120 0.37592223 -0.00002078 0.00000288 -0.00003650
0.45931330 0.38434422 0.38825798 -0.00003161 0.00000983 -0.00001729
0.38408715 0.22251566 0.39284882 -0.00003126 0.00002635 -0.00002352
0.45433220 0.51812249 0.60288161 -0.00006311 -0.00002286 0.00005492
0.47072625 0.19749993 0.46286437 -0.00000076 -0.00000851 0.00000284
0.38088271 0.23665097 0.43072361 -0.00000235 0.00000099 -0.00001097
0.51927024 0.39467371 0.36874670 -0.00000202 0.00000295 -0.00002492
0.57140428 0.54846823 0.62492245 0.00004377 0.00001900 0.00008199
0.65701044 0.49452540 0.41350779 0.00000597 -0.00000101 -0.00003137
0.33646134 0.15709560 0.48925737 0.00003227 -0.00000734 -0.00000415
0.44945669 0.49108222 0.37792850 0.00000788 0.00000327 -0.00003696
0.37344548 0.37738445 0.47911149 0.00001463 -0.00000438 -0.00001516
0.59091091 0.10544819 0.34003991 0.00005038 -0.00003616 -0.00008236
0.42678693 0.16771890 0.64879048 0.00000325 -0.00000616 -0.00000230
0.67697620 0.48190042 0.48351872 0.00005609 -0.00001545 -0.00001108
0.38662130 0.48649132 0.52588797 -0.00001598 -0.00000543 0.00000187
0.61960393 0.93131560 0.46400750 0.00002306 -0.00003391 -0.00001097
0.60835630 0.63110411 0.40777379 0.00001265 0.00000592 0.00000072
0.44653687 0.83965868 0.41530740 0.00001805 0.00003531 0.00003390
0.43685013 0.43599167 0.55353427 0.00001468 -0.00000641 -0.00002843
0.66895586 0.56568402 0.52754068 0.00002699 0.00000244 0.00002536
0.39924625 0.21103847 0.57339442 0.00000288 0.00002221 0.00001213
0.44487041 0.45435515 0.57534093 -0.00001084 0.00000184 0.00000918
0.47270033 0.77266842 0.49040964 0.00000277 0.00000061 0.00000160
0.40498024 0.38090104 0.43857402 0.00001013 0.00000394 0.00002354
0.43137783 0.15020929 0.34849635 0.00001674 0.00001227 0.00004010
0.43480718 0.93180680 0.41809869 0.00003299 0.00000425 -0.00001359
0.58746773 0.40615091 0.54882860 -0.00001704 0.00001899 0.00001430
0.58850074 0.47845730 0.59599990 0.00001009 -0.00000154 0.00001920
0.59550184 0.81933028 0.54060638 0.00009427 0.00006269 0.00001788
0.58289987 0.19075595 0.51270759 -0.00001676 -0.00001667 -0.00000684
0.53122950 0.10844145 0.68207437 0.00001441 -0.00004472 0.00010192
0.46007541 0.25673151 0.51795036 0.00000042 -0.00000156 0.00000178
0.52829587 0.18074782 0.43791750 -0.00000729 -0.00000143 0.00001952
0.56566107 0.18427819 0.63731331 -0.00000713 -0.00001679 -0.00001415
0.50024563 0.44815746 0.36300811 -0.00000016 0.00000804 -0.00003670
0.65403557 0.27645850 0.44500583 0.00001871 0.00000430 -0.00001405
0.51401824 0.37401474 0.37272701 -0.00000099 0.00000338 -0.00001692
0.66154164 0.64028591 0.42269412 0.00000625 0.00000258 0.00002011
0.40383711 0.44632116 0.43313381 0.00002331 0.00000368 0.00002107
0.66494346 0.85148931 0.47469965 -0.00000799 -0.00000943 -0.00000585
0.48417297 0.35794666 0.56216055 0.00000529 0.00000199 -0.00000303
0.68614417 0.12036853 0.51451176 0.00004307 -0.00001943 -0.00000485
0.38662130 0.09915867 0.55812514 -0.00004664 -0.00000140 -0.00000047
0.64830154 0.83996159 0.40432605 -0.00001640 0.00004575 -0.00004595
0.68035966 0.51518428 0.48008016 0.00003826 0.00001010 -0.00000951
0.46445972 0.18313049 0.44540983 0.00000952 -0.00000319 0.00001321
0.49335471 0.09626643 0.31984463 -0.00001060 -0.00002174 -0.00001963
0.65059239 0.63484567 0.40662605 -0.00000604 0.00001185 0.00000115
0.66121113 0.65635389 0.42957589 -0.00001741 -0.00001131 0.00003186
0.44630277 0.69881964 0.50016528 0.00000207 0.00001755 -0.00000040
0.49741766 0.23601744 0.48397323 -0.00000102 0.00000074 0.00000123
0.46810946 0.33613998 0.37716177 -0.00000911 0.00000605 -0.00004008
0.51334339 0.27645850 0.37563762 -0.00001078 0.00000670 -0.00000623
0.54596621 0.30271375 0.56246811 0.00000204 -0.00000474 0.00001460
0.58259231 0.25407335 0.40488613 -0.00001608 -0.00000153 0.00003000
0.54614985 0.29252660 0.37918177 0.00000783 -0.00000323 -0.00001249
0.33359203 0.15212366 0.49687821 0.00003241 0.00000213 -0.00000558
0.44375941 0.73898977 0.39055797 0.00001509 -0.00001198 -0.00001615
0.46006164 0.73210341 0.39055797 -0.00001715 -0.00002568 -0.00002224
0.51401824 0.58060437 0.62785602 -0.00000581 0.00000075 0.00003356
0.55948633 0.15709560 0.65338135 -0.00001819 -0.00002123 -0.00004009
0.60124499 0.46082833 0.38711023 0.00004157 -0.00001012 -0.00002413
0.50577307 0.23973145 0.36530814 -0.00000572 -0.00000094 -0.00001547
0.59435868 0.31089011 0.40439028 -0.00001155 -0.00000388 -0.00001520
0.42908695 0.50141168 0.38127521 -0.00003101 0.00001394 -0.00004953
0.37347305 0.16053875 0.39514884 0.00001877 -0.00001021 0.00001891
0.55418849 0.09692750 0.45482570 -0.00000740 -0.00003834 0.00000809
0.62190396 0.09635365 0.47204611 0.00000598 0.00005953 0.00000191
0.49412137 0.22928262 0.39485502 0.00000642 -0.00000294 0.00001025
0.47384804 0.26727676 0.38530141 0.00001295 -0.00000455 -0.00000251
0.64435339 0.12381172 0.62009740 0.00003160 -0.00000524 0.00003570
0.64600152 0.48993450 0.53331143 -0.00000427 0.00000352 -0.00000462
0.59108996 0.11807312 0.33775824 0.00004984 0.00003535 -0.00008067
0.44449398 0.92051321 0.42862558 -0.00000006 -0.00009238 0.00001388
0.53696805 0.61542630 0.57304549 -0.00001670 -0.00002608 0.00001595
0.51287055 0.36942384 0.37345240 -0.00000226 0.00000135 -0.00001599
0.59665412 0.67242205 0.39575028 0.00003886 0.00000031 -0.00002128
0.37451515 0.34531716 0.48783416 0.00002717 0.00000907 0.00000261
0.40978232 0.07056206 0.40352723 0.00002121 -0.00000400 0.00002422
0.49430501 0.80555755 0.49270508 -0.00000652 -0.00000132 0.00002026
0.53238177 0.55496889 0.63502240 0.00000149 -0.00004219 0.00007475
0.38547358 0.29711747 0.52227497 0.00000159 -0.00000059 0.00000561
0.39764860 0.67701286 0.41809869 -0.00002704 -0.00000486 -0.00003729
0.64485377 0.10085272 0.61091572 0.00003674 -0.00001129 0.00000928
0.58632463 0.16972052 0.35138395 0.00002432 -0.00001606 -0.00002483
0.60300332 0.15020929 0.37104213 -0.00001942 -0.00000544 0.00002466
0.63159078 0.14895138 0.61241233 -0.00001121 0.00001590 -0.00000387
0.40153706 0.21562932 0.56261045 -0.00000663 0.00000896 0.00001454
0.43023008 0.53813875 0.42923614 -0.00000956 -0.00001676 0.00001583
0.43515152 0.18507701 0.56691206 -0.00000130 -0.00001770 -0.00000371
0.41875288 0.78825909 0.39055797 -0.00004060 0.00001769 -0.00003292
0.39465535 0.26383358 0.50596815 -0.00000527 -0.00000071 -0.00000404
0.53955734 0.24661778 0.53517073 -0.00000029 -0.00000587 0.00000559
0.67429054 0.50715029 0.49270508 0.00001177 0.00000994 -0.00000748
0.47528040 0.16972052 0.32972422 -0.00000771 -0.00001090 -0.00003510
0.45183477 0.08823238 0.66256309 0.00000007 -0.00007313 0.00001795
0.41416201 0.55456030 0.54779565 -0.00001928 0.00001835 0.00001279
0.63625962 0.60808074 0.48014903 0.00002372 -0.00000127 0.00002689
0.63496041 0.07347270 0.51207864 -0.00002980 0.00004245 0.00001383
0.63108575 0.36827615 0.42804709 0.00006307 -0.00000345 0.00000509
0.63567656 0.36280838 0.45253488 0.00003052 -0.00000104 -0.00000225
0.67698997 0.89961094 0.40547377 0.00009872 0.00000882 -0.00005911
0.57828599 0.09052782 0.39294526 -0.00000412 0.00001876 0.00001721
0.47635007 0.35220805 0.37334219 -0.00000213 -0.00000347 -0.00004120
0.53069234 0.18271729 0.46064237 -0.00000778 0.00000003 0.00000344
0.59091091 0.19060904 0.45023486 0.00001000 -0.00000397 -0.00000585
0.54385900 0.95261723 0.46286437 0.00000640 0.00007882 0.00000408
0.66558623 0.60695612 0.51476425 -0.00001420 0.00000109 0.00000130
0.36710548 0.07790290 0.44562101 0.00002719 -0.00003070 0.00001763
0.67658132 0.79752350 0.48237559 0.00003627 -0.00000252 0.00001354
0.41072342 0.62995631 0.44708553 0.00001399 0.00000031 0.00000861
0.55418849 0.32868895 0.54779565 -0.00000205 0.00001056 -0.00001567
0.45318907 0.28793570 0.38487905 -0.00001438 -0.00000398 -0.00001606
0.33841705 0.16521685 0.45712578 -0.00000164 -0.00001271 0.00000059
0.59788448 0.81023562 0.47391003 -0.00001465 -0.00000343 -0.00000184
0.38638717 0.49682081 0.44105768 0.00000664 0.00000195 -0.00000047
0.61524260 0.25789759 0.41578031 -0.00002676 -0.00000654 0.00002406
0.39924625 0.20529984 0.58368719 0.00001857 0.00003843 -0.00000040
0.48646837 0.09820837 0.54434788 0.00000729 -0.00004720 0.00000552
0.40359837 0.65176308 0.43072361 0.00002299 -0.00000370 0.00001918
0.39006445 0.07445973 0.42728043 0.00000437 -0.00001001 0.00001840
