-0.678483 0.519202 0.202748
-0.988436 0.014016 -0.249253
-0.120212 0.757375 0.089429
-0.030849 1.220558 0.115972
-0.959006 0.799117 0.024552
-0.815381 0.284022 0.208816
-0.323949 1.084331 -0.212005
-0.862842 0.041785 -0.209063
-0.487076 1.122855 -0.109747
-1.116267 0.418641 0.159107
-1.193576 0.251847 -0.118020
-0.369985 0.654944 0.033111
-0.980831 0.012465 0.248754
-0.345941 0.912179 0.248402
-0.392179 1.184859 -0.029218
-0.825634 0.586582 0.249159
-0.391526 1.022942 0.231082
-0.269785 1.185651 -0.125766
-0.790193 0.915685 0.135485
-0.383708 0.704607 -0.152990
-0.363436 1.012079 0.237861
-0.749869 0.140956 0.078078
-0.969771 0.117841 0.248488
-0.311850 0.694843 0.073929
-0.758168 0.089645 0.079342
-0.740259 1.003697 0.036008
-0.728451 0.322916 0.144939
-1.009204 0.591238 0.182962
-0.976852 0.757762 -0.079846
-0.949398 0.800196 0.063438
-0.625781 0.526007 -0.170306
-0.284759 1.077228 0.221776
-0.720357 0.404268 -0.179279
-0.206287 1.115731 -0.210008
-0.576489 0.732440 -0.240410
-0.996069 0.752060 0.027724
-0.956524 0.788911 0.069303
-0.644150 0.913556 0.220045
-0.594032 1.083289 -0.082141
-0.746462 0.391208 -0.193962
-1.073470 0.125295 0.236011
-1.064912 0.559994 0.144844
-0.011509 0.868053 0.211959
-1.249598 0.008418 -0.004561
-0.477962 0.605824 -0.101098
-0.501448 0.566133 0.053728
-0.819380 0.770103 0.216734
-1.043131 0.019212 0.245726
-0.386852 1.180377 -0.061165
-1.002403 0.314957 -0.244248
-0.399597 0.677233 0.129323
-0.645944 0.726071 -0.248157
-0.051568 1.058875 -0.242390
-0.109392 1.191735 0.153926
-0.590552 0.490843 -0.092485
-0.181085 0.883265 -0.229667
-0.402803 0.677360 0.131904
-0.101241 1.237098 -0.065193
-0.439649 0.789468 0.230654
-0.883015 0.870058 0.069887
-0.689471 0.295402 0.002211
-0.187428 1.233901 -0.028976
-0.955575 0.468700 -0.241540
-0.226367 0.777976 -0.162041
-1.199272 0.148480 0.137079
-0.986158 0.344888 0.245442
-0.976979 0.256197 0.249339
-0.741641 0.112046 0.001213
-1.154523 0.352703 0.138894
-0.342457 1.028945 0.234774
-1.189403 0.318373 -0.094521
-0.586997 0.468412 0.015845
-0.584921 0.501741 0.098971
-0.155998 0.867874 -0.219875
-0.567734 0.562602 -0.148675
-0.715113 0.872549 0.214394
-0.158995 0.899692 -0.234139
-1.078852 0.572262 0.115335
-1.016638 0.439268 -0.225108
-0.879284 0.526855 -0.248358
-0.963529 0.046169 -0.247320
-0.006214 0.789740 0.134462
-1.050008 0.508819 0.185456
-0.021274 0.974281 0.248331
-0.676208 0.389242 0.118487
-0.958641 0.713139 0.156196
-1.248545 0.054545 -0.003043
-0.100363 1.105075 -0.224054
-0.981863 0.450770 -0.236129
-0.676275 0.782128 0.247594
-0.182161 1.154484 -0.183729
-1.161665 0.324486 0.140477
-0.987606 0.634211 0.179409
-0.608674 0.447880 -0.050677
-1.182865 0.397861 -0.029787
-1.116822 0.557556 -0.025840
-0.910605 0.602664 -0.232209
-0.872150 0.884164 0.062067
-0.754136 0.795241 -0.230815
-1.143620 0.468628 0.080969
-0.531838 0.674485 -0.205805
-0.312011 0.700181 -0.088424
-0.806254 0.672992 -0.244348
-0.160542 1.226749 0.077057
-0.342854 1.195480 0.053248
-0.658289 0.925142 0.209492
-0.982657 0.758799 -0.064163
-0.072869 1.236737 0.072100
-0.221331 1.031242 0.243451
-0.254116 0.754355 0.143792
-0.141910 1.236614 -0.047950
-1.169942 0.132250 -0.175975
-0.620011 0.919543 0.224353
-0.957995 0.356666 0.248538
-1.013317 0.419529 -0.230447
-0.835725 0.890692 0.114962
-0.060588 1.167541 -0.183467
-0.867620 0.858416 -0.116757
-0.136797 0.828267 0.191089
-0.940283 0.223617 -0.247704
-0.970851 0.606732 -0.203203
-0.872804 0.144552 0.221315
-1.049789 0.427903 -0.210687
-0.907544 0.578461 0.237560
-0.715563 1.020621 -0.039457
-1.015651 0.501163 -0.211400
-0.817827 0.921008 0.093242
-0.839258 0.265274 0.219095
-0.730532 0.170717 0.004058
-0.819837 0.889918 0.134626
-0.773338 0.921361 -0.145235
-0.745779 1.001858 0.015452
-1.226483 0.240657 -0.001434
-0.773207 0.056839 0.108375
-0.461058 0.824804 0.243406
-0.571595 0.789646 -0.248354
-0.227546 1.161227 0.169284
-0.214134 0.745968 0.110108
-0.096990 0.898498 0.230700
-1.108820 0.512392 -0.114731
-0.079715 0.847720 -0.200803
-0.785860 0.514962 -0.242342
-0.916208 0.799892 0.125282
-0.755475 0.991696 0.038115
-0.293122 0.918079 0.247153
-0.520638 0.546492 -0.046003
-0.641553 1.069212 -0.037338
-0.887195 0.163258 0.229899
-0.756563 0.430808 -0.213595
-0.661089 0.612714 -0.229541
-0.202030 0.980144 -0.249947
-0.884742 0.069789 -0.222688
-0.629915 0.503229 0.157486
-0.082453 0.891897 -0.226739
-0.086423 0.992108 -0.249734
-0.318017 1.206622 0.031729
-1.234518 0.192508 0.007373
-1.070153 0.210517 -0.232661
-0.350503 0.702470 0.127386
-1.108255 0.576003 -0.013785
-0.126690 0.914849 0.237527
-0.840246 0.555531 -0.249519
-0.983201 0.063402 -0.249037
-0.254093 1.169394 0.153997
-0.975160 0.443002 0.239296
-0.420300 0.629234 -0.055545
-0.772992 0.970958 0.065628
-1.025134 0.597079 0.165770
-0.993051 0.027353 0.249571
-0.430703 1.098435 0.173192
-0.025869 1.234305 -0.084912
-0.453702 1.162946 0.024971
-0.828511 0.814495 0.189821
-0.376862 0.769369 0.204328
-1.061852 0.280871 -0.229598
-1.112913 0.552260 -0.059735
-0.022695 1.186648 0.165203
-0.870810 0.638113 -0.236411
-0.493589 0.693990 -0.200909
-0.730347 0.175393 0.017791
-0.547371 0.928584 -0.236977
-0.667808 0.565737 -0.216649
-1.032491 0.679960 -0.079815
-0.218555 1.101966 -0.217277
-1.165268 0.293085 -0.147347
-0.771495 0.174022 0.136065
-1.013500 0.566460 -0.190505
-0.487112 0.928927 -0.244612
-0.974410 0.624865 -0.193580
-1.193812 0.370125 -0.000875
-1.203925 0.153944 -0.129077
-0.037990 0.792691 -0.140143
-0.778785 0.028172 -0.116604
-0.669098 1.043779 0.069392
-0.801930 0.958106 0.007423
-0.063358 0.761040 0.080048
-0.408973 1.180924 -0.002627
-0.790677 0.860294 0.184016
-0.396667 0.906171 -0.249294
-0.517772 0.924501 -0.242483
-0.322762 1.206591 0.013728
-0.041388 0.876513 0.217744
-0.066203 1.088595 0.232661
-0.581814 0.673795 0.224019
-0.107001 1.004353 0.249338
-0.832730 0.320124 -0.224966
-0.227363 0.829090 0.206298
-0.337931 1.032006 -0.234267
-0.856890 0.864716 0.123132
-0.662492 0.943128 0.198003
-0.734493 0.168348 -0.039839
-0.985482 0.668962 0.160375
-0.654427 0.824553 -0.243857
-0.949550 0.793865 -0.075629
-0.393963 0.679127 -0.127527
-0.954394 0.555905 0.226580
-0.951931 0.569602 0.224228
-0.917359 0.386001 -0.249693
-0.468715 1.062285 -0.190509
-1.003225 0.524014 -0.211885
-0.396912 1.041651 -0.221558
-0.445808 0.909552 -0.249148
-0.660590 0.429543 0.131778
-0.634382 0.676311 0.238779
-0.879946 0.852894 0.106686
-1.200042 0.189897 0.127163
-0.884239 0.646853 -0.230979
-0.369105 0.660244 0.054324
-1.098756 0.451301 -0.164130
-0.001524 1.128505 -0.214152
-1.130662 0.092661 0.210140
-0.801890 0.621410 -0.249048
-0.957002 0.368029 0.248339
-0.298739 0.696888 0.063492
-1.246949 0.048276 -0.030895
-0.376014 0.764917 -0.201406
-1.174049 0.409408 -0.054720
-0.003181 1.239652 0.069980
-0.982257 0.627111 -0.186737
-1.091451 0.530618 -0.129218
-0.244210 0.709377 0.004472
-0.668455 0.686108 0.245992
-1.099286 0.278923 0.210388
-0.213753 0.872650 -0.228092
-0.851735 0.140926 -0.208736
-0.758588 0.992899 0.005904
-1.071243 0.588325 0.113339
-0.657614 0.787656 0.248286
-0.307901 1.093892 0.208856
-1.039629 0.424772 -0.217438
-0.722638 0.202351 -0.007007
-0.699871 1.016308 0.086541
-0.485595 0.641095 0.155199
-0.141531 1.228826 0.077815
-0.024648 1.068141 0.240212
-0.671034 0.346808 -0.049088
-0.869049 0.459220 0.248883
-0.445206 1.109030 0.155833
-0.326294 1.159719 -0.142521
-1.226572 0.157271 0.078872
-0.578621 0.597232 -0.184136
-0.893700 0.719302 0.201610
-0.823545 0.846129 -0.172151
-0.889049 0.162930 -0.230768
-0.069053 0.986216 -0.249257
-0.236715 1.027947 0.243431
-0.392878 0.999170 -0.238428
-0.665320 0.892392 -0.222355
-0.847624 0.368070 -0.237698
-0.220787 1.191806 0.131482
-0.399991 1.183400 0.011495
-0.341924 1.147074 0.153707
-0.604818 0.607330 -0.204573
-0.738071 0.872734 0.204434
-0.174789 0.730390 -0.016308
-1.048529 0.644650 -0.095731
-0.325549 0.788501 0.201856
-0.277361 0.782769 -0.183143
-0.607545 0.568723 -0.184698
-0.872776 0.194068 0.225932
-0.483366 1.146968 -0.048373
-0.969256 0.166723 0.248919
-0.310034 0.951220 -0.249966
-0.788952 0.024019 0.133781
-0.381435 0.860032 0.242581
-0.858881 0.375957 -0.241941
-0.866256 0.145298 0.218185
-0.714563 0.317764 -0.122058
-1.133661 0.518983 -0.037452
-0.881693 0.865733 -0.081573
-0.621324 0.690782 -0.239390
-0.779430 0.249852 -0.171452
-0.441122 0.702357 0.182216
-0.628325 0.418937 -0.047977
-1.100487 0.525981 -0.118370
-1.220843 0.108595 0.106254
-0.811772 0.331927 -0.217518
-1.055690 0.659441 -0.048038
-1.206475 0.301021 -0.054686
-0.127979 1.227262 -0.086794
-0.300975 1.166733 0.142217
-1.081087 0.005820 0.235896
-1.103688 0.178871 -0.219874
-0.866254 0.551642 -0.248229
-0.803820 0.352388 0.217841
-0.691053 0.302534 -0.044047
-0.551958 1.090532 0.113272
-1.013977 0.229461 -0.246468
-0.561219 1.095123 0.096360
-0.509297 0.569873 0.081844
-1.218228 0.273916 0.020643
-0.876877 0.037921 0.217860
-0.120406 0.969800 0.248509
-1.233130 0.144175 0.064102
-0.904800 0.852126 -0.057288
-0.462832 1.142993 0.089025
-1.059775 0.035834 0.242327
-0.158858 0.800552 0.168729
-0.291882 1.111467 0.200310
-0.106584 0.782272 -0.134078
-1.045966 0.680917 -0.027928
-0.848133 0.899547 0.079703
-0.613090 1.077242 0.070496
-0.363572 0.701030 0.134380
-0.179614 1.215667 0.099924
-0.579256 0.526870 -0.124083
-1.206308 0.056226 0.138253
-0.732192 0.273945 0.121603
-0.166843 0.741111 0.068079
-1.025795 0.496947 -0.206543
-0.183361 0.903627 -0.236995
-0.556819 0.967779 0.220649
-0.733025 0.855426 -0.215455
-0.498613 1.081917 0.160135
-0.449731 1.012173 0.225087
-1.154617 0.445767 -0.075894
-0.054430 1.109683 0.223401
-0.876910 0.879897 -0.060710
-1.176262 0.421290 0.008614
-1.242548 0.001775 0.059235
-1.129353 0.065536 0.212276
-0.745756 0.602135 0.246109
-0.774063 0.017807 -0.106321
-0.680258 1.031883 -0.080838
-1.035209 0.145721 -0.245305
-1.140448 0.243803 -0.185963
-1.182577 0.355516 -0.084110
-0.201194 0.773313 0.148376
-0.142914 1.194681 -0.144848
-0.832883 0.879417 0.132851
-1.150141 0.169318 -0.189251
-0.321439 1.200133 0.059494
-0.825655 0.615945 0.248025
-0.741751 0.158329 -0.064694
-0.015139 1.084179 -0.234808
-0.578524 0.592798 -0.181294
-0.257327 0.966998 -0.249953
-0.937121 0.792978 -0.102319
-0.483796 1.152370 0.002051
-1.210143 0.302227 -0.035338
-0.894577 0.408057 -0.248907
-1.135057 0.230399 -0.193023
-0.531287 1.028104 0.193813
-0.387148 0.696092 0.144558
-0.445314 1.059996 0.199940
-0.560412 0.631963 -0.195625
-0.384166 1.093728 0.192105
-0.890051 0.337693 -0.244806
-0.997167 0.355588 -0.242679
-0.221760 0.721056 -0.044086
-0.138178 0.876189 -0.222464
-0.681974 1.031286 0.079557
-0.923015 0.355517 0.249287
-1.010211 0.097652 0.249021
-0.016732 0.752562 -0.035791
-0.808104 0.681417 -0.242988
-1.005644 0.053968 0.249532
-0.806754 0.597325 -0.249749
-0.162979 0.930093 -0.243269
-0.623951 1.012551 -0.162327
-0.792306 0.017323 -0.138508
-1.028739 0.595218 0.163286
-0.904070 0.004208 -0.230867
-0.972250 0.749026 0.102934
-0.064998 0.951763 0.245208
-0.732204 0.172017 -0.032904
-1.148108 0.004317 0.201030
-0.914887 0.817831 -0.103291
-0.166780 0.735042 -0.040702
-0.833755 0.924840 0.045921
-0.171088 1.120416 0.210858
-0.806091 0.222601 -0.188216
-0.318505 0.681058 -0.028794
-0.678941 0.410407 -0.139789
-0.481526 0.755288 -0.226743
-0.376058 0.825766 -0.232023
-0.522058 0.983385 -0.222225
-0.465933 1.137349 -0.099387
-0.114723 1.137048 0.204579
-0.993572 0.737910 -0.076060
-1.038429 0.205824 0.242688
-0.021600 0.864440 0.209633
-0.582190 0.779898 -0.248248
-1.232736 0.057052 -0.086468
-0.083339 0.795667 -0.149801
-1.014048 0.530607 -0.203437
-1.243234 0.022448 -0.054508
-0.895643 0.345364 -0.246381
-0.575689 0.902449 -0.239523
-0.814741 0.703752 0.237440
-1.039823 0.692616 -0.009158
-0.566902 1.054817 0.153107
-0.709175 0.653637 -0.247294
-0.115923 0.747352 0.053725
-0.106871 1.239798 0.049583
-0.988955 0.451700 0.233808
-0.763307 0.135014 0.108148
-0.446777 0.776425 0.226787
-0.752539 0.247893 0.138216
-0.642393 0.481168 0.153321
-0.856801 0.781491 0.191744
-1.220182 0.104144 -0.108365
-1.202753 0.153078 -0.130990
-0.708884 0.927333 -0.185060
-0.988192 0.342813 0.245194
-0.364894 0.908611 0.248638
-1.037123 0.059159 0.246619
-0.650316 0.827843 -0.243857
-0.364035 0.678419 -0.097500
-1.178008 0.332738 0.109478
-0.828446 0.514581 -0.248382
-1.043097 0.669719 0.070078
-0.814009 0.938804 0.059089
-1.071733 0.620365 0.073727
-0.620740 0.640035 -0.224727
-1.010939 0.038311 0.249231
-0.389413 0.659638 -0.086897
-0.482718 0.606253 -0.107805
-0.252516 1.076290 -0.226076
-0.532426 1.033412 -0.189220
-0.804825 0.928655 -0.099847
-0.769980 0.178308 0.135341
-0.027188 0.983711 0.248959
-0.415659 0.855518 0.244649
-1.238528 0.160643 -0.015651
-0.627620 0.553336 0.188661
-1.223626 0.233656 0.042915
-0.172926 0.731789 -0.030511
-0.440264 0.982209 -0.237507
-0.580041 0.511852 -0.105033
-0.724163 0.260363 -0.096743
-0.712342 -1.010540 0.079731
-0.461063 -1.128999 0.118777
-0.588154 -0.841474 0.248251
-0.748010 -0.096974 -0.043562
-0.480992 -0.653892 -0.163725
-0.592075 -1.003543 0.186882
-0.444016 -0.605236 0.010345
-0.963596 -0.360198 -0.248113
-0.750502 -0.164240 0.093530
-0.612269 -0.493295 -0.129231
-0.326662 -0.789011 0.202448
-0.855966 -0.238404 -0.223195
-0.721980 -0.958369 0.149759
-0.593066 -0.459496 0.004116
-1.197062 -0.232299 -0.119030
-0.848513 -0.220338 0.217352
-0.953686 -0.071383 0.245673
-0.864775 -0.840554 -0.140634
-0.258806 -1.104677 -0.210046
-0.798189 -0.886428 -0.158416
-0.283596 -0.726964 -0.118632
-0.641156 -1.072902 0.001547
-0.149987 -0.940802 0.244954
-0.503980 -1.036099 0.198281
-0.115213 -0.956549 0.247090
-1.049067 -0.308607 0.231676
-1.161926 -0.124601 -0.183888
-0.109603 -1.243955 0.017306
-0.219783 -1.187439 -0.138183
-0.328243 -0.778153 0.195524
-0.397291 -1.176888 0.061038
-1.054655 -0.156560 0.240969
-1.144222 -0.247456 0.182061
-0.691647 -0.702129 0.249059
-0.264977 -1.212482 -0.065634
-0.755200 -0.682858 -0.248810
-0.812522 -0.207247 0.190238
-1.065256 -0.250112 -0.231434
-0.798955 -0.046652 -0.150261
-0.798267 -0.428245 -0.231503
-0.850496 -0.194604 -0.214844
-0.698157 -0.381972 0.143530
-0.237227 -0.744902 -0.121611
-0.910266 -0.745762 0.176788
-0.120763 -1.219393 0.107034
-1.137493 -0.485665 -0.078123
-0.809077 -0.387384 0.227394
-0.786545 -0.028254 -0.130414
-0.831986 -0.160514 0.197957
-0.998402 -0.239152 -0.248249
-0.146039 -0.973282 -0.248964
-0.859127 -0.369113 0.241427
-0.183535 -1.151458 -0.186157
-0.506556 -0.991341 -0.222263
-0.013772 -0.770625 0.099249
-0.589457 -1.099604 -0.033688
-0.814029 -0.612655 0.248763
-0.894372 -0.838298 -0.105943
-0.434788 -1.019697 0.224592
-0.395981 -1.148601 0.127204
-0.509503 -0.786328 -0.241827
-1.103559 -0.545484 -0.095312
-0.729205 -0.378769 0.175120
-1.179551 -0.229176 0.147217
-0.609262 -1.026359 0.157567
-0.528293 -0.775766 -0.242145
-0.877595 -0.298654 -0.238695
-0.623055 -1.074533 0.061126
-0.836520 -0.567981 -0.249267
-1.149389 -0.165264 -0.190384
-0.484228 -1.128887 0.100780
-0.540322 -1.076517 0.142935
-0.727244 -0.189559 0.024353
-0.805528 -0.628637 -0.248572
-0.867421 -0.320604 0.237933
-0.869461 -0.610522 -0.241936
-0.103238 -0.854284 -0.206833
-0.693564 -0.420379 -0.162904
-1.071135 -0.418644 0.199741
-1.175052 -0.390967 0.073734
-0.670698 -0.978160 -0.166140
-1.049954 -0.294151 -0.232753
-1.051500 -0.094811 -0.243245
-0.683993 -0.312828 0.032899
-0.903302 -0.377410 0.248624
-0.827897 -0.928811 0.050474
-0.117215 -0.742508 0.026801
-0.530599 -0.532813 0.029976
-0.168331 -0.736135 -0.047851
-0.265445 -0.821737 -0.208887
-1.097320 -0.596761 -0.012636
-0.471332 -0.845460 -0.247904
-0.896815 -0.534819 -0.245559
-0.539978 -0.599182 -0.157844
-1.205370 -0.231591 0.102730
-0.006253 -1.067679 -0.240446
-0.558588 -0.746426 -0.240477
-0.470421 -0.710622 -0.201310
-0.708413 -0.666225 0.248199
-0.173755 -0.825657 -0.194826
-0.921889 -0.094966 -0.238601
-1.096874 -0.055810 -0.229666
-1.170968 -0.343672 0.117015
-0.147907 -0.896915 0.232586
-0.508319 -0.570292 -0.080859
-0.255906 -0.882650 0.235973
-0.119781 -1.069358 -0.237605
-0.228362 -0.811767 -0.194394
-0.955970 -0.324792 0.249364
-0.767566 -0.923907 -0.147882
-1.014856 -0.396426 0.233037
-0.866048 -0.867950 0.105468
-0.683835 -0.712340 0.249180
-0.916916 -0.737953 -0.176435
-0.002085 -0.753654 0.040376
-0.602180 -0.502702 -0.126480
-0.384232 -0.721063 0.169748
-0.038901 -1.226745 0.102832
-0.801256 -0.512439 0.244635
-0.291985 -0.785658 0.189933
-0.844094 -0.768970 0.205230
-0.842087 -0.708169 -0.228656
-0.694290 -0.952906 0.174137
-0.833339 -0.303667 -0.222420
-0.837886 -0.016484 0.189813
-0.768017 -0.727559 0.242825
-0.648300 -0.776150 -0.249256
-0.542423 -0.529638 -0.062966
-0.432658 -1.016811 -0.226314
-0.365295 -0.890000 0.246810
-0.740106 -0.952951 0.139786
-0.177797 -0.916623 -0.240957
-0.938745 -0.563370 -0.231256
-0.664836 -0.945175 -0.195359
-0.599582 -0.479391 -0.091830
-0.199320 -0.860418 0.220578
-1.059345 -0.033034 -0.242433
-0.253445 -0.759242 -0.150382
-1.113996 -0.526814 -0.091803
-0.334158 -1.122020 -0.182036
-0.225343 -1.159358 -0.171839
-0.562676 -0.573902 0.154605
-0.609267 -1.005354 -0.177793
-0.458704 -0.733937 0.210184
-0.391995 -0.900633 0.248840
-1.016486 -0.699102 0.087391
-0.676724 -0.374738 0.104956
-0.332145 -0.686935 -0.078121
-0.277462 -1.210873 0.060536
-0.664334 -0.350508 0.017825
-0.981813 -0.760614 0.062014
-1.004457 -0.493523 -0.219351
-1.023005 -0.446261 -0.220863
-0.535180 -0.838860 -0.249677
-0.990147 -0.528579 0.217784
-0.251686 -0.739588 0.120541
-0.781728 -0.065730 0.126573
-0.809836 -0.132670 0.173887
-1.100385 -0.512230 0.128999
-1.093701 -0.255831 -0.217344
-0.542980 -0.992980 0.211948
-0.067127 -1.091275 0.231734
-0.728525 -1.003448 -0.068734
-0.302587 -0.999172 -0.245602
-0.644520 -1.033939 -0.121060
-0.597991 -0.454389 -0.016746
-0.243945 -1.222342 -0.039695
-0.358916 -1.019267 0.236063
-0.510108 -0.806327 0.245230
-0.764071 -0.264960 0.160291
-1.034734 -0.445518 -0.215401
-0.977424 -0.601769 -0.201203
-1.151529 -0.040829 0.198208
-0.905527 -0.563099 -0.240906
-0.681679 -0.316398 -0.024024
-0.609828 -1.062848 0.106892
-0.144317 -1.019216 0.248070
-0.906547 -0.062829 -0.232475
-0.239348 -0.719581 -0.063913
-1.111140 -0.134490 -0.219328
-0.409686 -1.166257 0.080295
-0.885333 -0.437911 -0.249199
-0.334070 -0.690245 -0.089372
-0.497090 -1.138170 -0.061842
-0.124639 -1.139009 -0.202546
-0.805452 -0.576628 -0.249387
-0.459997 -0.632611 -0.122433
-0.395791 -0.767994 -0.209186
-0.568341 -0.607479 0.184428
-0.177637 -0.740281 0.073047
-0.178216 -1.220144 0.089334
-0.428394 -0.835465 0.242209
-1.109193 -0.378040 0.181027
-0.497483 -0.962723 -0.235019
-1.020455 -0.523417 0.201849
-0.933315 -0.148526 0.243438
-0.620948 -0.440189 -0.072519
-1.039728 -0.650881 -0.104297
-0.398831 -1.066599 -0.207278
-0.000188 -1.051093 0.244188
-0.668017 -0.455324 0.159978
-0.425755 -0.618460 -0.013654
-0.043979 -1.063077 0.241611
-1.087539 -0.498166 -0.154519
-0.635377 -0.846499 0.242719
-0.829974 -0.463965 0.244586
-1.054783 -0.397028 -0.215099
-0.531222 -0.530563 -0.012219
-0.173737 -0.781555 -0.150679
-0.891144 -0.873653 0.029726
-0.046094 -0.943854 -0.243408
-0.493978 -0.890221 -0.248810
-0.616879 -0.540430 0.173304
-1.100448 -0.578919 -0.054511
-0.193416 -0.730212 0.049279
-1.213940 -0.035366 0.127987
-1.084370 -0.280405 0.218918
-0.656238 -0.376595 0.055357
-0.261956 -0.857019 0.226952
-1.102159 -0.059364 -0.226957
-0.178965 -1.040442 0.243265
-0.634910 -0.934152 0.213456
-0.864356 -0.791497 -0.180917
-0.800187 -0.909986 -0.131967
-0.110178 -0.747262 -0.048769
-0.716665 -0.254537 -0.070674
-0.039941 -1.142471 0.204310
-0.894680 -0.676405 -0.218146
-0.754674 -0.092990 0.070196
-0.173697 -0.744020 -0.081083
-1.146164 -0.454368 -0.089608
-0.831248 -0.635201 -0.245155
-0.654022 -0.690730 0.244658
-0.716018 -0.977056 -0.132649
-1.175763 -0.384211 0.077940
-0.900994 -0.075257 0.230905
-0.327503 -0.830767 0.225406
-0.721443 -0.753907 -0.245697
-0.426240 -0.619843 -0.033494
-0.559117 -1.004080 0.200251
-0.708147 -0.252958 -0.030134
-1.177916 -0.285783 -0.131497
-0.722939 -0.690253 0.249971
-1.117862 -0.548025 -0.046715
-0.246984 -0.919363 0.244809
-0.874225 -0.062128 -0.217224
-0.436422 -0.975955 -0.239981
-0.713696 -0.836481 0.229017
-1.122800 -0.544360 0.032180
-0.705827 -1.009259 -0.093737
-0.072512 -1.122596 -0.216497
-1.055162 -0.051167 -0.243131
-0.091789 -1.043016 0.244978
-0.114922 -1.231668 -0.077672
-0.236369 -0.973056 -0.249907
-0.759580 -0.004496 0.067995
-0.353796 -0.924343 0.249329
-0.610243 -0.734967 0.245468
-0.831724 -0.715063 0.230378
-0.075801 -0.779276 -0.123927
-0.390738 -0.646239 -0.048088
-1.014788 -0.694675 -0.097891
-0.262915 -0.965954 -0.249925
-0.934791 -0.052631 0.241687
-0.451813 -0.601423 0.033286
-0.661243 -0.864435 0.233431
-0.689382 -1.015780 -0.102303
-0.870813 -0.811094 -0.161555
-0.480451 -0.599009 -0.092462
-0.889243 -0.065159 -0.224709
-0.989484 -0.666868 0.157963
-0.678876 -0.941545 -0.190741
-0.596140 -1.025675 0.165776
-1.009178 -0.557956 -0.197423
-0.271443 -0.704079 -0.044970
-1.214412 -0.086347 0.122959
-0.585306 -0.635394 0.209122
-1.142868 -0.494358 0.045544
-0.553601 -0.530449 -0.088926
-0.288980 -1.113529 -0.199472
-0.710914 -0.481413 -0.205566
-0.588519 -1.020861 -0.174895
-0.860558 -0.444669 -0.247950
-0.943870 -0.728069 0.159292
-1.068116 -0.180599 -0.235161
-0.957991 -0.563606 -0.223135
-0.892475 -0.863649 -0.062009
-0.819488 -0.005513 0.172595
-0.932545 -0.507797 -0.242038
-0.428732 -0.620433 -0.043028
-0.947971 -0.701033 -0.174193
-0.822510 -0.184266 0.194035
-0.357377 -0.787443 -0.209694
-1.240905 -0.134202 0.026997
-0.716466 -0.246549 -0.060878
-0.195000 -1.233338 -0.019105
-0.642207 -0.512928 -0.175341
-0.560553 -1.112312 0.044089
-0.933589 -0.628262 -0.216279
-0.984023 -0.261741 0.248800
-0.291815 -1.067478 -0.225539
-0.160541 -0.874738 0.223614
-1.000932 -0.733149 0.066761
-1.080164 -0.520665 -0.150934
-0.791297 -0.216825 -0.173658
-0.889785 -0.368813 0.247031
-0.049698 -0.867373 0.212400
-1.246347 -0.079733 -0.015490
-0.037936 -1.053634 -0.243532
-0.102965 -1.238085 -0.059849
-0.500527 -0.559772 -0.014633
-1.199132 -0.352278 0.001625
-0.020553 -0.795379 -0.143204
-0.063797 -0.845090 -0.198077
-0.412127 -0.637826 0.067425
-0.615397 -0.931365 -0.220763
-0.116423 -0.933080 -0.242483
-0.054626 -1.224695 -0.105814
-0.916504 -0.688567 -0.202201
-0.643980 -0.933148 -0.210580
-0.416083 -1.053130 -0.211548
-1.044739 -0.338235 -0.229729
-0.478087 -0.832881 0.246474
-0.772609 -0.498590 0.236148
-0.277370 -1.214634 0.042248
-1.027495 -0.477497 -0.211097
-0.541105 -0.681763 0.213471
-0.781637 -0.973611 -0.020726
-0.745182 -1.001643 0.023589
-0.091398 -0.934519 -0.242215
-0.162065 -1.219051 -0.097913
-0.804898 -0.118107 0.165725
-0.520389 -1.102536 0.119563
-0.572387 -0.497211 0.063172
-1.163210 -0.192053 -0.174199
-0.148624 -0.747050 0.074050
-0.919023 -0.822028 0.089422
-0.036040 -1.102757 0.227149
-0.531803 -1.108254 0.099036
-0.735893 -0.398071 -0.188596
-0.955782 -0.717873 -0.155522
-0.867688 -0.595061 -0.243967
-0.624168 -0.416723 -0.007615
-0.428382 -0.991860 -0.236122
-0.855518 -0.581789 0.247457
-0.537697 -0.525327 0.027144
-0.083476 -0.774320 0.115608
-0.130778 -1.165319 -0.180333
-1.021355 -0.720019 0.005426
-0.935894 -0.675353 -0.196568
-1.079842 -0.614165 -0.060574
-0.001597 -0.862920 -0.208448
-0.706845 -0.811851 0.237480
-0.972148 -0.558580 -0.218351
-0.572301 -0.710326 0.233660
-0.897343 -0.044430 0.228069
-1.156447 -0.344636 -0.139578
-0.647202 -1.066968 -0.030840
-0.685275 -1.035269 0.064213
-0.447934 -0.674966 0.161817
-1.173866 -0.305728 -0.130080
-0.257847 -1.215410 0.059314
-0.032614 -1.227401 0.101972
-0.227795 -0.722632 -0.060800
-0.478641 -1.148214 -0.051973
-1.213904 -0.090121 0.123490
-1.223599 -0.060932 0.107522
-1.185073 -0.214643 -0.143072
-1.025970 -0.702494 0.054452
-0.751835 -0.141447 -0.084038
-0.926585 -0.727834 -0.175038
-1.165321 -0.142347 0.179212
-1.063135 -0.365678 -0.216826
-0.306618 -0.735038 -0.144388
-0.503741 -0.555755 0.001214
-0.225281 -1.225057 0.043552
-0.839886 -0.661222 -0.240030
-0.926170 -0.365631 0.249724
-1.099678 -0.110178 -0.226268
-0.039592 -1.033279 0.247566
-0.748908 -0.820667 0.223382
-1.049693 -0.308392 -0.231492
-0.481855 -0.892654 -0.249053
-0.241021 -0.756968 -0.141429
-0.933235 -0.793735 -0.107361
-0.932098 -0.689546 0.191974
-1.168993 -0.088138 0.180674
-0.730215 -0.778927 -0.240448
-1.244192 -0.096214 -0.031232
-1.196023 -0.361931 -0.006170
-0.672857 -0.332965 -0.011901
-0.543129 -1.122881 -0.034831
-0.009207 -0.803677 -0.154618
-0.467965 -0.714724 0.202713
-1.050077 -0.239990 -0.237242
-1.178446 -0.376719 -0.077070
-0.883472 -0.258483 0.236485
-0.548222 -0.553914 0.116652
-0.492023 -0.847732 -0.248705
-0.336412 -0.911454 0.248140
-0.707124 -1.020208 0.064977
-0.144993 -1.223976 0.090889
-0.566023 -0.799159 0.248645
-1.134161 -0.338902 -0.168810
-0.453454 -0.790971 -0.233498
-0.003705 -1.243583 -0.053910
-0.732250 -0.167243 0.017315
-0.910487 -0.559220 -0.240163
-1.088740 -0.596858 0.063599
-1.157389 -0.223402 -0.174451
-0.706794 -0.256670 0.030368
-0.746353 -0.924186 -0.163977
-1.069624 -0.037055 -0.239567
-0.133802 -0.867638 -0.217957
-0.693315 -1.033720 -0.048430
-0.740157 -0.721039 0.247711
-0.320821 -1.129055 0.179368
-0.154112 -1.099735 0.223630
-0.688120 -0.526064 -0.210649
-0.308131 -0.759279 0.172498
-0.001835 -1.073828 0.238377
-0.569607 -1.110264 -0.031518
-0.003881 -0.757627 -0.060462
-0.494142 -1.035589 0.201484
-0.575915 -1.065831 0.132447
-0.171615 -1.233526 -0.044532
-0.370893 -1.192769 0.012511
-0.172643 -0.854705 0.214498
-0.733889 -0.162603 -0.026090
-1.129786 -0.017324 0.213166
-0.700391 -1.032895 -0.029877
-0.705624 -0.330774 0.116564
-1.178926 -0.333051 -0.107513
-0.091981 -1.093571 -0.230061
-0.814373 -0.318335 -0.216119
-0.646379 -0.891927 -0.228047
-0.676175 -0.447114 -0.162463
-1.046686 -0.145758 0.243042
-0.779779 -0.841455 0.201606
-0.974517 -0.578220 0.211029
-0.974370 -0.550209 -0.219464
-0.470115 -1.146367 0.071828
-0.071254 -0.976063 -0.248602
-0.229995 -1.010095 0.247195
-0.498809 -0.828803 -0.247857
-0.046709 -0.893889 -0.226437
-1.236098 -0.102242 0.067874
-0.960565 -0.487652 -0.237206
-0.660668 -1.016310 -0.131345
-0.239483 -1.173282 -0.153110
-1.187182 -0.151544 0.153869
-0.215948 -0.868499 -0.226350
-1.034164 -0.133392 -0.245841
-0.925875 -0.188439 0.243392
-1.146951 -0.425672 0.110847
-0.535593 -0.722546 -0.228544
-0.665960 -1.055725 -0.026748
-1.046758 -0.003466 -0.245043
-0.637093 -0.618315 -0.222853
-0.931910 -0.726016 -0.171564
-0.669962 -0.346164 -0.042809
-0.745324 -0.258335 0.133064
-0.639743 -0.421375 -0.087018
-1.144164 -0.132556 -0.198539
-0.711268 -0.495564 -0.211112
-0.350906 -1.065866 -0.217909
-0.663448 -0.622929 -0.232933
-0.466029 -0.607348 -0.085547
-0.222222 -0.717035 0.011025
-0.478984 -1.026200 -0.211471
-0.456133 -0.683139 0.174728
-0.640996 -0.888991 0.230775
-0.473223 -1.071132 0.181819
-0.805810 -0.906412 0.130399
-0.856051 -0.583733 -0.247150
-0.368717 -0.838628 -0.234978
-1.003380 -0.739654 0.039082
-0.655437 -0.982067 -0.172294
-0.891948 -0.423710 -0.249180
-0.605957 -0.863524 0.243423
-0.383412 -0.911601 0.249279
-0.075983 -1.231739 0.086235
-0.658123 -0.410721 0.109429
-1.003458 -0.645789 0.157847
-0.543130 -0.851004 -0.249371
-0.775537 -0.031088 0.110239
-1.053806 -0.546071 -0.165147
-0.716056 -0.961924 0.150895
-0.560396 -0.941307 0.231018
-0.491633 -0.883828 -0.249251
-0.205473 -1.232218 -0.010591
-1.084405 -0.599645 0.071287
-1.034150 -0.555633 0.179218
-0.066522 -1.106182 0.224760
-1.087333 -0.260408 0.219878
-1.044667 -0.046804 -0.245250
-0.291081 -1.086860 0.216347
-0.489675 -1.093218 -0.152662
-0.238323 -1.225027 -0.029793
-0.127430 -1.217617 0.109123
-0.623182 -0.418044 0.006501
-0.574956 -0.660262 -0.216779
-0.807873 -0.464186 -0.240290
-0.674493 -0.777607 -0.248073
-0.774873 -0.832400 -0.208270
-0.215862 -1.131946 0.198137
-0.050843 -1.046815 0.244793
-1.150614 -0.468536 -0.059979
-0.713896 -1.025135 0.010932
-0.694312 -0.386827 -0.141993
-0.474028 -0.775528 -0.232551
-0.865620 -0.715859 0.217334
-0.866651 -0.390603 -0.244538
-0.441845 -0.692909 0.175181
-0.810818 -0.950513 -0.008756
-0.765355 -0.573960 0.245741
-0.511524 -0.616207 -0.151047
-1.237212 -0.165170 -0.026246
-0.698238 -0.547255 -0.222505
-0.453337 -1.040619 0.209728
-1.240124 -0.117682 -0.043285
-0.202871 -1.141231 -0.192216
-1.146439 -0.473394 0.068043
-0.390597 -1.181235 0.051323
-0.607144 -0.577874 0.189904
-0.580185 -0.574934 -0.169496
-0.746226 -0.179024 0.091033
-0.934792 -0.172924 -0.244550
-0.891694 -0.100442 0.227552
-1.168121 -0.366647 0.108995
-0.606540 -0.809768 -0.249228
-0.544732 -1.111093 -0.076339
-0.824971 -0.605324 0.248474
-1.042000 -0.643846 0.107858
-0.196065 -0.880966 -0.230088
-0.948846 -0.454183 0.244010
-0.156218 -1.148813 -0.191952
-0.670432 -0.360766 -0.073071
-1.230564 -0.010671 0.096228
-0.234283 -0.764418 0.149014
-0.619565 -0.795750 -0.249442
-0.930413 -0.656532 0.207325
-0.888514 -0.702594 0.211292
-0.148278 -0.928941 0.242571
-0.396722 -1.108764 0.175836
-1.121987 -0.414539 -0.154622
-0.770161 -0.517831 0.239036
-0.213105 -1.183042 -0.146483
-0.689541 -0.396303 -0.142756
-0.810289 -0.077499 -0.166273
-0.462758 -1.108282 0.148131
-0.582900 -1.070523 0.119924
-0.977534 -0.137337 0.249161
-0.687998 -0.318426 -0.062924
-0.364275 -0.657378 -0.024607
-0.700011 -0.471730 -0.195135
-0.451390 -0.600799 -0.023136
-0.825387 -0.893343 0.125216
-0.386340 -0.807221 -0.226345
-0.105897 -0.814152 -0.174309
-0.561068 -1.008982 0.196257
-0.359228 -0.976128 0.246355
-0.229727 -1.227752 -0.012922
-0.126446 -1.219151 -0.106250
-0.367571 -0.691535 0.124352
-0.147458 -1.080312 0.232755
-0.448697 -1.166276 -0.005725
-0.168782 -0.763727 0.122343
-0.222448 -0.861299 0.223715
-0.409391 -1.173002 0.059727
-0.154285 -0.938575 0.244653
-0.974659 -0.767420 0.067374
-0.868867 -0.741192 -0.205069
-0.263326 -0.958086 0.249583
-0.917110 -0.821074 0.095507
-0.733105 -1.004970 0.051890
-0.402666 -0.751020 0.201251
-1.075594 -0.635419 -0.010135
-0.993609 -0.319007 0.245673
-0.254213 -0.852684 0.223812
-1.129989 -0.392324 -0.154579
-0.002498 -1.231293 0.094629
-1.100363 -0.128261 -0.224950
-0.830911 -0.434952 0.242006
-0.688177 -0.887397 -0.217490
-0.878854 -0.017809 -0.218515
-0.058739 -0.908852 0.233171
-1.136885 -0.205606 0.195525
-0.112053 -0.742369 -0.012189
-0.346220 -1.141040 0.158950
-0.529686 -0.629977 0.176669
-1.198166 -0.065034 -0.149720
-0.410887 -1.055669 -0.211261
-1.052817 -0.365338 -0.221692
-0.769140 -0.777714 -0.231583
-0.395085 -0.637619 -0.002349
-0.826431 -0.019698 0.179802
-1.201417 -0.341570 0.013650
-0.940345 -0.820685 -0.027847
-0.468351 -0.732137 0.212607
-0.244145 -0.956067 0.249134
-0.857788 -0.279295 0.229896
-0.457363 -0.806615 0.238755
-1.163701 -0.417802 0.079541
-0.416448 -1.152063 -0.107646
-1.073097 -0.634020 0.039607
-0.968606 -0.500250 0.232813
-1.153129 -0.234769 -0.176706
-0.920984 -0.216770 0.243655
-1.224499 -0.158367 0.084491
-0.929289 -0.114441 -0.241684
-0.172505 -1.145867 -0.192536
-0.667438 -0.386122 -0.099937
-0.499299 -1.046350 0.192002
-0.447416 -1.115218 0.147143
-1.001770 -0.536221 -0.208980
-0.316668 -1.171621 -0.129156
-0.192475 -0.797586 0.173714
-0.283674 -0.710038 0.082811
-0.968989 -0.591827 0.209487
-0.800992 -0.194744 0.177788
-0.841554 -0.033200 0.193479
-0.462990 -0.747340 -0.218577
-1.059664 -0.107196 0.241346
-1.089812 -0.532325 -0.130302
-0.414926 -1.169406 -0.066501
-0.542977 -1.117182 -0.060915
-0.984275 -0.088125 0.249232
-0.662188 -1.059810 -0.003877
-0.518333 -1.118036 -0.091386
-0.541364 -1.090178 -0.123477
-0.866348 -0.072692 0.212802
-0.525088 -1.134222 -0.000691
-0.768450 -0.800333 -0.224114
-0.742827 -0.891922 -0.190777
-0.797971 -0.125606 0.159250
-0.489352 -1.052343 0.190942
-0.993498 -0.684813 -0.139617
-0.530992 -1.129541 -0.028119
-0.268512 -0.731204 -0.115887
-0.302161 -0.687914 0.021012
-0.653526 -0.569500 0.211088
-0.153319 -1.166686 0.176756
-0.790719 -0.370646 -0.215377
-0.075655 -0.908826 -0.233586
-0.033516 -0.915995 -0.235161
-0.743320 -0.330029 -0.165459
-0.583471 -1.102660 0.034096
-1.210524 -0.310418 0.003707
-0.357692 -1.165576 0.119401
-1.141731 -0.420998 -0.124072
-0.713788 -0.955135 -0.158929
-1.128919 -0.516600 -0.064118
-1.009035 -0.711947 -0.084005
-1.096678 -0.201970 -0.221338
-0.931465 -0.596340 -0.225847
-0.742805 -0.732428 0.245752
-0.668903 -0.641802 -0.238680
-0.955583 -0.145713 -0.247722
-1.197727 -0.183285 0.132155
-0.822697 -0.366488 0.229158
-0.725929 -0.362428 -0.163297
-0.545621 -1.094909 0.111067
-0.755751 -0.130872 0.089695
-0.757499 -0.463524 -0.222980
-0.922470 -0.220810 -0.244128
-0.340140 -0.763969 0.188230
-0.814279 -0.085235 0.171704
-1.144592 -0.422288 0.117723
-0.182158 -1.226905 -0.068020
-0.834081 -0.748081 0.218743
-0.936946 -0.042971 0.242012
-1.134277 -0.496708 0.074011
-0.701669 -0.363253 0.135008
-0.084134 -0.907702 -0.233452
-1.064260 -0.150676 0.238008
-0.451731 -0.939066 -0.245972
-0.885552 -0.207500 0.232760
-0.057258 -0.817296 0.172338
-0.895226 -0.447669 -0.249938
-0.891132 -0.384496 -0.248074
-0.270367 -0.721772 0.099267
-0.580956 -0.755627 -0.245043
-0.441627 -1.067669 0.195516
-0.586392 -0.876588 0.243482
-0.679440 -0.402105 -0.134068
-0.979004 -0.529367 -0.222418
-0.674953 -0.971471 0.169685
-0.228966 -1.180224 0.146284
-0.641441 -0.499755 -0.165291
-0.451423 -0.669183 0.158558
-0.794368 -0.185202 -0.168228
-0.673579 -0.994177 -0.148292
-0.598009 -0.639315 -0.216738
-0.982406 -0.749624 0.081344
-0.471080 -0.969639 0.236936
-0.833955 -0.253885 -0.214338
-0.692284 -0.927139 -0.194012
-0.146701 -0.829097 0.193248
-0.947890 -0.318502 0.249999
-0.974986 -0.416965 -0.242321
-0.761124 -0.271392 0.159499
-0.969257 -0.430347 -0.242317
-1.081055 -0.465366 -0.176463
-0.678113 -0.718902 0.249234
-0.742341 -0.371958 -0.183011
-0.796279 -0.957327 0.045617
-0.686942 -0.393926 0.137605
-0.420370 -0.678475 0.147018
-0.708821 -0.631374 0.244269
-0.422653 -0.956634 -0.245231
-0.908046 -0.358215 -0.248441
-0.926722 -0.082368 0.239834
-0.078942 -1.234228 -0.078379
-1.171710 -0.378361 -0.094526
-1.008417 -0.734115 0.034869
-1.039729 -0.663855 -0.087817
-0.385724 -0.912368 -0.249385
-0.998942 -0.713252 -0.102680
-1.111025 -0.517087 0.106701
-0.615070 -1.073703 -0.076566
-0.538786 -1.079944 0.139333
-0.728163 -0.397502 0.182415
-1.099201 -0.052740 -0.228598
-0.018784 -1.249227 0.008279
-0.052387 -1.246965 -0.028342
-0.265152 -0.863534 0.230491
-1.177448 -0.153651 0.164544
-0.027305 -1.051518 -0.244031
-0.440755 -1.150279 0.093044
-1.160181 -0.415486 -0.091639
-0.358477 -1.081746 -0.206745
-0.788613 -0.968673 -0.013042
-0.872357 -0.230737 0.230030
-0.955551 -0.765007 -0.109503
-1.219871 -0.207853 0.076454
-1.138574 -0.409454 -0.134764
-0.971749 -0.758817 -0.089905
-1.226706 -0.230571 0.026263
-1.175114 -0.380389 0.083163
-0.132642 -0.917024 0.238531
-0.381188 -0.691521 0.134263
-1.211979 -0.057474 0.129703
-0.169224 -1.010895 -0.248360
-0.450788 -0.627397 -0.102925
-0.697604 -0.477307 0.196162
-0.930674 -0.833295 -0.010928
-0.750135 -0.984514 0.075488
-0.823757 -0.530622 0.248684
-0.139074 -0.794301 -0.157592
-0.141897 -1.122439 -0.212224
-1.172181 -0.256030 -0.149880
-1.154483 -0.053740 0.195202
-1.072903 -0.004249 0.238681
-0.879977 -0.662507 0.228067
-0.622059 -0.570840 -0.195289
-0.545172 -0.850459 0.249328
-0.874189 -0.622073 -0.238671
-0.765906 -0.493362 -0.233273
-0.403243 -0.933600 -0.248883
-1.247281 -0.029826 0.033711
-1.118924 -0.117159 -0.216437
-0.847875 -0.913028 -0.041526
-0.922384 -0.011676 -0.237147
-0.760536 -0.083394 -0.084244
-0.179539 -1.115956 -0.212904
-0.523903 -0.548202 -0.063625
-0.907497 -0.403350 -0.249548
-0.151772 -1.239028 -0.025921
-0.562549 -1.046307 0.164002
-0.460441 -1.137477 0.103283
-0.713428 -0.273696 -0.081272
-0.877314 -0.808446 -0.158179
-0.166377 -1.140146 0.198284
-0.786706 -0.947102 0.094727
-0.738132 -0.611971 0.246171
-0.983100 -0.719057 -0.121820
-0.783738 -0.901056 0.156837
-0.751319 -0.109850 0.067079
-0.754974 -0.506443 -0.232597
-0.571844 -0.944284 0.226869
-1.216859 -0.280648 -0.017224
-0.756177 -0.993030 -0.026585
-1.203175 -0.335392 0.014147
-0.980663 -0.567359 0.211135
-0.515891 -0.744161 0.231385
-0.015607 -0.810131 -0.162066
-0.179747 -0.732903 0.045305
-0.183447 -1.208120 -0.113835
-0.799418 -0.330556 -0.209872
-0.567095 -0.637592 0.202047
-0.330655 -1.096412 0.203004
-1.000109 -0.481074 0.223971
-0.741353 -0.271500 -0.134071
-0.791081 -0.195276 -0.167235
-0.214997 -1.071340 0.231971
-0.407593 -0.631382 0.023907
-1.147685 -0.160077 0.192476
-0.773807 -0.476923 0.232570
-0.750520 -0.414792 0.204866
-0.552299 -0.704732 -0.226560
-1.105044 -0.506257 -0.126382
-1.212955 -0.300285 -0.005949
-0.752230 -0.109728 0.069692
-1.128396 -0.138095 0.208604
-1.104951 -0.541894 -0.096081
-0.289834 -0.761982 0.167719
-0.851092 -0.500150 -0.249164
-0.349324 -0.851747 -0.236504
-1.222512 -0.101453 0.104125
-1.141776 -0.251936 0.183345
-0.063724 -1.207254 0.136263
-1.126799 -0.441726 -0.134212
-1.095545 -0.510090 0.136919
-0.163313 -1.088958 0.228265
-0.503368 -1.103688 -0.130029
-1.057810 -0.663165 0.022032
-1.079198 -0.602811 0.080227
-1.142482 -0.245893 -0.183838
-0.866041 -0.256361 0.230433
-0.842273 -0.905111 0.079445
-0.302608 -1.211209 -0.023685
-1.187234 -0.127323 -0.156996
-0.664130 -0.352263 0.027394
-1.219688 -0.058860 0.115645
-0.233703 -0.910168 0.242366
-0.831042 -0.691934 -0.235795
-0.904182 -0.464242 0.248921
-0.511890 -1.132745 0.056492
-0.950649 -0.811534 -0.000138
-0.920108 -0.765504 0.153737
-0.380843 -1.147679 0.135880
-0.330986 -0.870816 -0.240241
-0.504489 -0.720235 -0.218661
-0.477782 -0.656765 -0.164236
-0.409482 -0.801623 0.228935
-1.234258 -0.126708 0.066720
-1.209608 -0.302037 -0.038180
-1.118187 -0.357704 -0.179131
-0.760015 -0.116079 -0.095175
-0.003222 -0.940347 -0.242494
-0.466772 -0.592348 -0.042953
-0.142261 -0.942268 0.244998
-0.644335 -0.515994 0.178810
-0.727955 -0.526303 0.228022
-0.318223 -0.758460 0.176010
-1.070684 -0.498098 -0.172025
-0.861338 -0.830825 0.153939
-0.042602 -0.884690 -0.221795
-0.224682 -0.835122 -0.209739
-0.745204 -1.003363 0.002493
-1.022283 -0.718223 -0.009464
-0.493849 -0.786979 0.239391
-0.644294 -0.456572 0.134276
-0.446228 -0.911709 -0.249008
-0.737378 -0.326834 -0.157781
-0.838214 -0.795969 -0.195045
-0.980110 -0.569735 0.210655
-1.188236 -0.353350 -0.069876
-0.030826 -1.011453 -0.249215
-0.622912 -0.532347 -0.172457
-0.891779 -0.026869 -0.225003
-0.344359 -1.196213 -0.047599
-0.667455 -0.350508 0.041683
-1.019991 -0.171872 -0.247506
-0.584488 -0.473937 0.034608
-0.731616 -0.290197 0.130433
-0.478921 -0.588472 -0.065408
-0.602913 -0.578874 0.187857
-0.244508 -0.837426 0.214806
-0.209669 -1.167373 -0.166125
-0.035637 -1.238981 0.070407
-0.837399 -0.925574 -0.027744
-0.749085 -0.165912 -0.090466
-1.225760 -0.221036 0.043983
-0.367664 -0.654140 0.006266
-1.052138 -0.372488 -0.220862
-0.369012 -1.189155 0.046181
-1.071097 -0.041074 0.239017
-1.157860 -0.435694 -0.077306
-0.788858 -0.543925 -0.246052
-0.843925 -0.167453 0.206739
-0.274662 -1.215945 -0.038983
-0.546708 -1.003208 0.204759
-1.074107 -0.616813 0.072952
-0.277216 -0.802841 0.199413
-0.703527 -0.277114 -0.052964
-0.835504 -0.125557 0.195790
-1.044932 -0.218824 -0.240473
-1.099235 -0.533174 0.114256
-0.775120 -0.519822 -0.240806
-0.633263 -1.077549 0.000927
-0.772407 -0.690512 0.247167
-0.385867 -0.647824 -0.042279
-0.181696 -1.235810 -0.013521
-0.114800 -1.012866 -0.248727
-1.019913 -0.597649 0.170586
-0.562954 -0.788487 -0.247961
-0.626765 -0.414294 0.020616
-0.445463 -0.604667 0.016240
-0.876499 -0.561690 0.246180
-0.747828 -0.401795 0.199102
-0.752279 -0.603947 -0.247348
-0.706613 -0.610163 -0.240907
-0.473765 -1.140610 -0.083496
-0.017579 -0.819390 0.172652
-1.168040 -0.372882 -0.105335
-0.233704 -0.720768 -0.060840
-0.938190 -0.085768 -0.242847
-0.809449 -0.525968 -0.247469
-0.085825 -0.809886 -0.166798
-1.188242 -0.259650 -0.125240
-0.422909 -1.132543 0.136208
-0.690177 -0.297380 0.023998
-0.918015 -0.370627 0.249350
-0.784302 -0.929007 -0.125915
-0.704979 -0.366643 0.141742
-0.862841 -0.563613 0.247989
-0.269336 -0.814303 0.204942
-1.045999 -0.479870 -0.199195
-0.741168 -0.447835 0.210488
-0.845000 -0.913837 -0.048381
-0.673532 -0.392694 -0.117324
-0.300524 -1.212859 0.006533
-0.438649 -1.052353 0.206389
-0.884088 -0.490424 0.249274
-0.768360 -0.378242 -0.204127
-0.622949 -0.443982 0.083842
-0.622001 -1.072462 -0.069444
-0.842647 -0.849047 0.154556
-0.686114 -0.784120 -0.246001
-0.255575 -0.776285 -0.170004
-0.198361 -1.103641 0.218288
-0.293748 -1.210500 0.043446
-0.866911 -0.858714 -0.117364
-0.136060 -1.238378 -0.042375
-0.251705 -1.130905 0.192715
-0.701562 -0.586884 0.234502
-0.705747 -0.626481 -0.243166
-1.011197 -0.726409 -0.046239
-1.201581 -0.089942 0.142283
-0.219718 -1.144807 0.186429
-0.787522 -0.098458 -0.140227
-0.552298 -0.878445 -0.246858
-0.062621 -0.980166 -0.248836
-0.570522 -0.744312 -0.241995
-0.500312 -0.853674 -0.249315
-1.145830 -0.452889 0.092140
-0.204787 -1.086307 0.226112
-0.641217 -0.806293 0.248017
-0.814583 -0.218940 -0.194599
-0.721969 -1.010769 0.061061
-0.555010 -0.643582 -0.199698
-0.642016 -0.885654 -0.231551
-0.330594 -0.920436 -0.248559
-0.733322 -0.884889 -0.200262
-0.585015 -1.050648 0.145787
-0.337069 -1.163574 -0.132487
-0.479517 -0.839913 -0.247826
-0.792584 -0.132188 -0.154377
-0.997563 -0.258020 -0.248004
-0.186414 -1.212699 0.103711
-0.583190 -1.097725 0.056774
-0.027414 -1.036441 0.247027
-0.239773 -1.148539 0.179752
-0.458852 -0.652887 0.146727
-0.776337 -0.977471 -0.025273
-0.825880 -0.319056 0.221622
-1.035336 -0.654236 -0.108312
-0.525109 -0.878757 -0.248446
-0.036136 -1.142686 -0.204260
-0.394814 -1.158277 0.110200
-0.959680 -0.359002 0.248381
-0.916733 -0.027364 -0.235335
-0.316505 -0.771305 -0.186006
-0.393452 -1.174882 0.071826
-0.824471 -0.661332 0.243011
-1.013167 -0.252675 -0.245558
-0.826304 -0.932503 0.041874
-0.165610 -0.835901 -0.201243
-1.117713 -0.103348 -0.217718
-1.007212 -0.218866 0.247983
-0.634645 -1.052997 0.098661
-0.568826 -0.616503 -0.190516
-0.605511 -1.085567 0.056599
-1.011339 -0.115655 0.248820
-0.411393 -0.891106 0.248791
-0.223232 -1.188691 0.135396
-0.097290 -1.024290 -0.248103
-0.313893 -0.920698 -0.248218
-0.816556 -0.045955 -0.170705
-0.345884 -0.748705 -0.178157
-0.813677 -0.947756 0.012864
-0.435228 -0.649451 0.121589
-0.185241 -1.168721 0.169229
-0.614008 -0.466043 -0.099467
-0.446621 -0.979972 0.237299
-1.120114 -0.539753 0.054779
-0.217059 -0.721585 -0.039696
-0.531858 -0.796135 0.245888
-0.909618 -0.713314 -0.195014
-1.082820 -0.481543 -0.167305
-0.249619 -0.929317 -0.246857
-0.178744 -1.234103 -0.036833
-0.099269 -0.979031 0.248957
-1.091152 -0.363867 -0.199630
-0.304924 -1.134881 -0.178153
-0.012589 -0.975436 0.248400
-0.441565 -0.639255 -0.111810
-1.221753 -0.250341 -0.035931
-0.943796 -0.808201 -0.059077
-0.877995 -0.591814 0.242642
-0.673511 -0.339692 -0.043663
-0.677777 -0.939659 0.192646
-1.085402 -0.558842 0.116078
-1.047795 -0.183842 -0.241657
-0.503915 -1.084686 0.154746
-0.560444 -0.783419 -0.247053
-1.185685 -0.234277 0.136793
-0.043561 -0.810739 0.163917
-0.122728 -0.949793 -0.245946
-0.151185 -0.951329 0.247060
-0.596574 -0.731192 0.243156
-0.770061 -0.619941 0.249257
-0.265952 -1.008501 0.245787
-0.083763 -1.220125 0.111716
-0.855986 -0.279857 0.229132
-0.108211 -0.750513 -0.063634
-1.022753 -0.601453 0.165604
-0.103958 -1.046043 0.244166
-1.077390 -0.472449 0.177042
-0.255094 -0.916956 -0.244763
-0.617472 -1.076999 -0.064550
-0.735768 -0.213477 -0.087243
-0.823454 -0.770843 0.214483
-0.229830 -1.224156 -0.043818
-0.763599 -0.023433 -0.080856
-0.446975 -0.984182 0.235949
-0.544260 -0.558470 -0.117654
-1.246285 -0.068668 -0.026789
-0.598495 -0.744568 0.245472
-0.311067 -0.788603 -0.198322
-0.878863 -0.638206 -0.234177
-0.558212 -0.610348 -0.180225
-0.501069 -0.802802 0.243690
-0.690719 -0.349556 0.106056
-0.093375 -0.762090 0.092036
-0.320865 -0.734210 0.151651
-0.532983 -0.819758 0.248549
-0.611451 -0.820544 0.248470
-0.376915 -0.908494 0.248924
-0.032136 -1.210237 -0.133703
-0.272570 -0.701484 -0.034944
-0.440035 -0.951364 0.244750
-0.654616 -1.037989 -0.103327
-1.074820 -0.008976 0.238011
-1.014940 -0.689939 0.103069
-1.155321 -0.371307 -0.129346
-1.091646 -0.339748 0.204236
-0.937850 -0.597673 0.222849
-0.617662 -0.500637 0.142399
-0.481739 -0.584861 0.060752
-0.382426 -1.101042 0.186536
-0.078249 -0.824325 0.181019
-0.277896 -0.850408 0.226218
-1.245602 -0.003023 0.043803
-0.951736 -0.027657 0.244840
-0.537354 -0.546944 0.089095
-0.664691 -0.418732 0.128167
-1.188640 -0.173221 0.147865
-0.241753 -1.070163 0.230242
-1.132810 -0.139140 -0.205595
-0.724338 -0.248686 0.086441
-1.073086 -0.396342 -0.203795
-0.744375 -0.095554 -0.007918
-1.016125 -0.423245 0.228454
-0.279987 -1.006545 -0.245445
-1.003933 -0.151504 0.248995
-1.174428 -0.285997 0.136502
-0.695446 -0.372156 0.132891
-1.145493 -0.457982 -0.087491
-0.674098 -0.545355 -0.211247
-0.418154 -1.110319 -0.165659
-0.972095 -0.040684 0.248231
-0.265630 -1.216350 -0.046589
-0.486602 -1.000339 0.222674
-0.889950 -0.742736 0.192152
-1.246134 -0.084970 -0.013835
-1.183463 -0.124563 -0.161617
-0.177636 -1.232599 -0.045078
-0.354070 -0.764498 0.193740
-0.729406 -0.283135 -0.122882
-0.716334 -0.888448 0.205589
-1.169242 -0.310140 0.135089
-0.940430 -0.821095 0.022724
-0.370310 -0.655132 0.034727
-0.770519 -0.395400 -0.210563
-0.090267 -1.074722 0.236770
-0.626925 -0.988388 -0.182319
-0.018636 -1.241675 -0.062581
-0.092184 -1.048927 0.243800
-0.735331 -0.725653 0.247757
-0.171952 -0.848883 -0.210597
-0.612971 -0.432761 -0.005395
-0.641214 -0.466931 0.139622
-0.047832 -0.749971 -0.023632
-0.603043 -0.448233 0.021223
-1.011414 -0.598755 -0.177968
-0.715156 -0.627635 0.244720
-1.160547 -0.436317 -0.069244
-0.773942 -0.418816 0.218992
-0.827397 -0.483053 -0.246029
-0.170954 -1.088549 -0.227865
-0.397288 -1.156236 0.112483
-0.055749 -1.247688 -0.015426
-0.238870 -1.026788 -0.243556
-0.806524 -0.067224 0.160989
-0.174156 -0.884991 0.229814
-0.013901 -1.223374 -0.110729
-0.250564 -1.000626 -0.247934
-0.924542 -0.691002 0.196505
-0.477067 -0.605434 0.099347
-0.775771 -0.174605 -0.142493
-0.849915 -0.864481 0.131165
-0.550861 -0.532469 -0.087304
-0.786617 -0.335476 0.203297
-0.831954 -0.894152 -0.115026
-0.045060 -1.196637 0.153061
-0.803713 -0.173806 0.175776
-0.498837 -0.756135 -0.231506
-1.203124 -0.249092 -0.100233
-0.871705 -0.825022 0.149315
-0.407057 -0.670730 0.126696
-1.148069 -0.053792 0.200231
-1.003902 -0.730999 0.062447
-1.144057 -0.248920 -0.181937
-1.229282 -0.218201 0.022167
-0.538129 -1.000902 -0.208874
-0.498340 -0.792259 0.241619
-0.849858 -0.843291 0.153381
-0.923464 -0.027424 -0.237619
-0.404143 -0.862411 -0.244893
-0.115208 -1.242844 0.026859
-0.567917 -1.026778 0.179686
-1.122234 -0.112257 -0.214599
-0.650563 -0.877701 -0.232039
-0.339775 -0.782312 -0.201784
-1.117959 -0.225557 0.206136
-0.604086 -0.466251 -0.078294
-0.856539 -0.534465 0.249366
-0.759768 -0.661307 -0.249521
-0.909404 -0.249301 0.243010
-1.206881 -0.285324 0.068355
-1.130459 -0.492309 -0.089457
-0.313005 -1.118384 0.190265
-1.002181 -0.388239 -0.238064
-0.166167 -0.775081 -0.138853
-0.813720 -0.948799 0.000269
-0.049611 -1.206971 -0.137626
-0.625975 -0.823807 0.247444
-0.602524 -0.451402 0.036440
-0.679160 -0.578443 -0.224968
-0.478261 -1.134615 0.094511
-0.756465 -0.344085 0.183688
-0.575011 -1.003196 -0.194680
-0.593820 -0.583781 -0.185155
-1.144194 -0.473594 0.073964
-1.000910 -0.612451 0.179647
-0.774856 -0.921997 -0.143044
-0.579150 -1.059073 -0.138974
-0.918090 -0.158482 0.240253
-0.118794 -1.156762 0.188951
-0.965312 -0.651911 -0.187210
-0.779480 -0.551604 -0.245388
-0.309129 -1.104863 0.201587
-0.750566 -0.031383 0.019356
-1.068961 -0.466201 -0.185996
-0.720665 -0.725147 0.248533
-0.260708 -0.892151 -0.239525
-0.188051 -1.181648 0.154165
-0.682593 -0.418172 0.150538
-0.509892 -0.733929 -0.225738
-0.503255 -0.847370 -0.249055
-0.018836 -0.994336 0.249644
-0.624212 -0.416742 -0.008335
-0.147224 -0.765963 -0.117974
-0.634418 -1.024961 -0.141465
-1.202705 -0.219720 -0.112450
-0.881534 -0.418593 0.248420
-0.807883 -0.501028 0.244546
-0.179964 -1.151700 -0.186445
