-0.767600 0.764987 -0.235025
-0.846732 -0.213309 -0.215304
-0.951157 -0.323422 0.249691
-0.956229 -0.804648 0.002639
-0.295937 -0.690616 -0.021492
-0.250663 0.896618 -0.240031
-0.816456 0.202203 -0.192495
-1.190754 0.273054 -0.114437
-0.876615 0.317981 -0.240548
-0.310616 0.726900 0.135551
-0.434799 -1.154798 -0.086680
-1.139299 0.510688 -0.021754
-0.452305 0.636292 0.119346
-0.859948 0.416240 0.245492
-0.686241 -0.403504 0.143917
-0.719519 -0.602964 0.242185
-0.273628 -0.700336 -0.029379
-0.834872 0.636683 -0.244402
-0.440045 0.858659 0.247372
-0.702330 -0.974058 0.148287
-0.404943 -1.100102 -0.180662
-0.944887 0.728353 0.158173
-0.527753 -0.583952 0.130414
-0.848531 -0.109033 -0.203510
-0.943144 -0.579897 -0.225264
-0.264396 -1.218537 -0.037115
-0.950599 0.028551 -0.244621
-0.208555 -0.720525 0.002398
-0.693357 -0.330867 0.093472
-1.229712 -0.142127 0.075025
-0.426481 -0.879577 -0.248531
-0.086263 1.185431 0.163318
-0.910669 0.649941 0.219526
-0.460273 -1.019501 -0.219636
-0.090164 0.974046 -0.248575
-0.365896 -0.768058 -0.200327
-0.757727 0.816576 -0.221901
-1.183153 0.188880 -0.152321
-0.147272 0.738527 -0.037323
-0.663600 -0.364921 0.058964
-0.741089 -0.226419 -0.107621
-1.226281 0.089562 -0.098534
-0.449879 -0.658885 -0.146531
-0.995039 -0.049842 0.249757
-1.226180 0.105301 -0.096044
-1.179528 0.217100 0.150559
-0.400327 1.181474 0.034274
-0.614289 -0.610950 -0.210762
-0.292412 -1.204789 0.069525
-0.634862 1.007091 0.161101
-0.746995 -0.094967 0.037146
-0.790521 0.575528 0.248551
-0.065964 -0.960850 0.247024
-0.659884 1.023251 -0.122665
-0.961620 -0.053598 -0.247026
-0.701042 0.460813 -0.190601
-0.538873 -0.782904 0.244507
-0.749909 -0.011372 -0.000744
-0.634075 1.056058 -0.093218
-0.736528 -0.892371 -0.194033
-0.401163 -0.988241 0.240829
-0.210685 0.811134 0.189829
-0.375421 -1.055745 0.218709
-0.911306 -0.561790 -0.239469
-0.675583 0.467736 0.175101
-1.080184 -0.530266 -0.144604
-0.173454 -0.796030 0.167122
-0.759901 0.991209 0.014290
-0.678686 -0.835224 -0.237561
-1.236158 0.185176 -0.000442
-0.855517 0.516864 -0.249971
-0.698618 -0.273378 -0.003627
-0.657285 0.534778 -0.197971
-0.528408 -0.789732 -0.244449
-1.234104 -0.189653 -0.020529
-0.892222 -0.217111 0.235717
-1.089859 -0.428660 -0.181669
-0.755858 0.057134 0.062249
-0.565119 -0.556357 0.139347
-0.100346 -0.751432 -0.062891
-1.067602 -0.427894 0.199637
-0.715118 -0.536403 -0.225867
-0.993037 0.005032 0.249548
-0.940059 0.579778 -0.226590
-1.197120 -0.354926 -0.019858
-0.100734 -0.925844 0.240151
-0.548001 0.927326 -0.237238
-0.222697 -0.847381 -0.217109
-1.023386 0.207543 0.245548
-1.142661 -0.165867 -0.196159
-1.083756 -0.553529 0.124003
-0.776303 -0.218336 0.157659
-0.311099 -0.910784 0.246897
-0.836917 -0.648143 0.242698
-0.424948 -0.661489 -0.129156
-0.129057 -1.221393 -0.101150
-0.304368 1.191421 -0.098162
-0.461699 -0.605745 -0.074063
-1.162584 0.114602 0.184281
-0.209456 1.044511 -0.241271
-1.062305 0.213989 0.235043
-0.831400 0.219688 -0.206484
-0.644313 -0.632948 -0.230442
-0.442731 0.880835 0.249072
-0.740568 -0.510806 -0.228693
-0.011870 0.769570 -0.097062
-0.733445 -0.161679 0.016540
-0.352884 -0.683802 -0.096714
-0.476896 1.065953 -0.184639
-1.175125 -0.386980 -0.077268
-0.157219 0.850033 -0.209500
-0.969775 0.143716 0.248713
-1.123985 0.065997 -0.215837
-0.643871 -1.057254 -0.075079
-0.773841 -0.277698 0.175574
-1.213880 0.236108 -0.078843
-0.925843 0.533081 -0.240224
-0.116032 -1.075081 -0.235814
-0.022748 0.807269 -0.158985
-0.736320 -0.967960 -0.125339
-1.125367 -0.246820 -0.198351
-1.114537 -0.543010 -0.069444
-0.586165 1.062831 0.128982
-0.368526 0.868424 0.243103
-0.435349 -1.160227 -0.071121
-0.490787 0.891449 -0.248840
-1.167122 0.435342 -0.043177
-0.906640 -0.109760 0.234009
-0.454511 -0.624139 -0.101992
-0.873094 -0.846989 0.124994
-0.513257 0.828138 0.248320
-0.358715 1.192559 0.045141
-0.840308 -0.227256 -0.213529
-1.027113 -0.640139 0.134229
-0.811590 0.746721 -0.227396
-0.317989 -0.784809 0.197487
-0.752318 0.037663 0.038311
-0.098646 1.164141 -0.184123
-0.666540 -0.347026 0.023232
-0.621122 -1.067152 -0.084265
-0.484834 -0.690191 0.194536
-0.706956 0.526985 -0.219851
-0.594227 -0.607349 -0.199639
-0.731153 0.611946 -0.245106
-0.626133 -1.067806 -0.075164
-1.048547 0.617724 0.123887
-0.705609 0.694683 -0.249361
-0.530797 -1.129871 -0.024775
-1.045136 -0.188590 -0.242004
-0.595221 -0.458815 0.023995
-0.636810 0.533097 -0.183205
-0.897971 -0.867175 -0.024205
-0.676826 -1.049480 -0.017019
-1.247650 -0.035508 -0.027377
-0.766767 -0.923611 0.148991
-0.802085 -0.325725 -0.210328
-0.790453 0.242522 0.179956
-1.178013 0.322355 -0.115158
-0.938510 -0.548638 0.233849
-0.739482 -0.479238 0.219593
-0.859262 0.580353 -0.247004
-0.832549 0.171980 0.199922
-0.885907 0.840877 0.114960
-1.083924 0.048562 0.234572
-0.721951 -0.929653 0.176420
-0.070627 1.185105 -0.164782
-0.969888 -0.156466 0.248853
-0.945059 0.174575 -0.246618
-0.006237 1.135328 0.209554
-1.175634 0.282526 0.135947
-0.981616 0.378850 -0.243971
-0.612096 0.630636 0.218432
-0.413823 -1.133126 -0.140129
-0.717128 0.483140 -0.209643
-0.160052 -0.776564 -0.139129
-1.055594 -0.664059 -0.036266
-0.557679 -0.536033 -0.104855
-0.040505 1.142617 -0.204199
-1.244884 -0.087908 0.030113
-0.805236 0.380363 -0.224178
-0.210122 1.229925 0.033037
-0.092503 -1.069088 -0.238610
-1.233847 -0.195774 -0.009569
-1.085435 0.220583 0.225053
-0.772670 0.467750 0.230443
-0.848514 0.404792 -0.242449
-0.315896 1.159657 0.146766
-0.656562 -0.585900 -0.218987
-0.586612 -0.790872 0.248996
-0.661561 -0.830790 -0.242001
-0.560910 -0.667209 -0.214317
-0.754016 -0.550617 0.240946
-0.981791 0.437751 0.237991
-0.235119 -0.809291 -0.193959
-0.827310 -0.640040 0.245195
-0.666463 0.390476 -0.102675
-0.358640 0.825650 -0.228951
-0.623895 0.429226 0.058782
-0.975611 -0.005468 -0.248406
-1.069688 -0.563078 -0.136373
-1.169701 0.140252 0.175243
-0.209290 0.780956 0.160065
-1.058337 -0.663998 0.008525
-0.779206 0.975942 0.016137
-0.236796 -1.092257 -0.220106
-0.855148 0.860546 -0.129911
-0.849465 -0.703161 0.227462
-0.316435 0.971973 0.248543
-0.101325 -0.788567 0.142354
-0.253893 -0.969119 0.249876
-0.385536 0.651050 -0.055456
-0.504749 0.555392 -0.007614
-0.682179 -0.902499 0.212234
-1.247455 -0.057179 -0.018184
-0.039611 -0.792255 -0.139606
-0.141360 -0.755221 0.093797
-0.267376 -0.928696 -0.247687
-0.834688 0.129563 -0.195641
-0.600980 -0.614633 -0.206274
-0.480799 -0.657221 0.166672
-1.019196 -0.714827 0.047456
-0.749671 0.802073 0.229845
-1.158468 0.294086 0.155708
-0.462338 0.664165 0.160881
-1.023452 0.715805 -0.015640
-0.158814 0.951588 -0.247351
-1.166979 0.160637 -0.175302
-0.976333 0.381343 -0.244763
-0.833716 0.250555 0.213550
-0.833034 0.097532 0.190412
-0.748467 0.982777 -0.082536
-0.878274 0.244868 0.233503
-0.941308 0.139914 0.244735
-0.063667 -0.902428 0.231097
-0.457473 -1.042488 0.207492
-0.154923 1.115836 -0.215424
-0.277930 1.126466 -0.191235
-0.264270 -0.720645 0.091526
-0.015673 0.755840 -0.052208
-0.367508 1.044520 0.225214
-0.145617 1.093252 -0.227362
-0.888121 -0.250557 -0.237251
-0.670433 0.339358 0.022075
-1.248004 0.036186 -0.021599
-0.425627 0.627240 0.062417
-0.321706 1.133899 -0.174559
-0.253039 0.980215 0.249186
-0.985563 0.496000 -0.227189
-0.087083 -0.887458 0.224754
-1.203475 0.198761 0.118202
-0.770373 0.199765 -0.143577
-1.122892 -0.140174 0.212079
-0.563689 0.974873 0.215713
-0.141639 1.028987 -0.246641
-0.679991 0.333816 -0.059909
-0.207071 1.188682 0.139837
-0.642669 0.938503 -0.208125
-0.182386 -1.127850 0.204755
-1.089112 -0.329906 -0.207829
-0.749721 0.648343 -0.249423
-0.948476 0.687664 -0.181299
-0.700816 -1.034073 -0.011383
-0.316356 -0.685113 0.045405
-0.256045 1.121093 0.199799
-0.036873 -1.243869 0.049643
-0.696901 -0.313961 0.082033
-0.550567 -0.609042 0.174266
-0.671436 -0.747832 -0.249667
-0.822670 -0.490359 -0.245948
-0.894273 -0.354472 -0.246800
-0.301589 -1.185599 -0.111016
-0.181756 1.223030 -0.079480
-0.923601 -0.326881 0.248674
-0.548741 -0.748084 -0.238941
-0.372173 -1.162122 -0.117210
-0.297509 0.759776 0.168527
-0.223464 -1.228877 -0.013547
-1.240763 0.149430 0.003538
-0.892302 0.868252 0.046469
-1.112233 0.119544 -0.219605
-0.866679 0.861063 -0.114373
-1.045004 -0.487947 0.197307
-0.401389 0.671699 -0.122992
-0.834416 -0.797233 -0.196688
-0.258610 0.943474 -0.248578
-0.726300 -0.362598 -0.163762
-0.238563 -1.220700 -0.052863
-0.755486 -0.990751 0.041863
-0.593223 -0.905382 0.235443
-0.021273 0.769330 0.096927
-0.756733 0.376565 0.196127
-0.044572 1.202399 -0.144742
-0.838925 -0.264880 -0.218880
-0.802479 -0.110719 0.161858
-1.200422 -0.339164 0.034551
-1.234864 0.156979 0.047767
-0.969944 0.262164 0.249685
-0.604855 -0.443947 0.005021
-0.409450 0.643100 -0.076147
-0.373656 -0.688297 -0.124458
-0.202459 0.856019 0.218824
-0.080955 0.766980 0.100249
-0.460405 -0.781548 0.231923
-1.229129 0.069376 -0.095104
-0.735925 0.393643 -0.186747
-0.820403 0.882953 -0.141686
-0.765216 -0.129771 -0.110155
-0.907766 -0.814862 -0.118099
-1.146678 0.267752 0.175833
-0.081572 -0.786325 -0.135611
-0.374690 0.729143 -0.172916
-0.540294 1.088101 -0.127371
-0.080399 -1.148042 0.199202
-0.335359 -0.683299 -0.072647
-0.849596 0.876345 -0.116584
-0.082359 0.751816 -0.053902
-0.658760 -0.974857 0.176908
-0.535768 0.729187 0.231162
-0.710524 -0.257624 0.051137
-0.956468 0.250365 -0.249264
-0.851792 -0.872804 0.118614
-0.906736 0.259158 -0.243036
-0.800967 -0.112903 0.160485
-0.763569 -0.076553 0.090906
-0.180647 -0.964108 -0.248752
-0.224100 0.744980 0.113813
-0.941147 -0.251724 0.248315
-1.202045 -0.066703 0.143772
-1.044125 -0.216439 -0.240908
-0.689435 0.653166 0.244354
-0.767638 -0.800162 -0.224454
-0.583244 -0.703077 -0.234100
-0.192082 -0.778609 -0.152556
-0.215380 1.219095 0.074915
-0.307816 -0.772936 0.184505
-0.843240 -0.539781 -0.249918
-0.576831 -0.906709 0.238100
-0.815777 0.391536 0.231170
-0.017070 -1.053843 0.243600
-0.389475 1.146683 -0.133087
-0.386347 0.721804 -0.171623
-1.248687 -0.010342 0.018099
-0.091163 1.206749 0.134420
-0.702465 0.901470 -0.204573
-0.564146 0.694926 0.226435
-0.387351 0.832625 -0.235736
-0.137632 1.121490 0.213224
-0.688449 -0.301343 -0.023585
-1.120041 0.007691 0.218905
-0.223866 -1.022406 0.245066
-0.782416 -0.590341 -0.248703
-1.202768 0.288216 -0.078175
-0.244963 0.995434 0.248350
-0.818346 -0.332114 -0.220563
-0.803788 -0.893800 0.146544
-0.401970 1.172773 0.069538
-0.842810 0.314253 0.228617
-0.716879 0.978707 -0.129892
-1.196739 -0.215584 0.125649
-0.996090 -0.481837 -0.225588
-1.008228 0.453168 -0.226150
-0.611172 0.661924 0.229325
-0.579036 0.986112 -0.204060
-0.540598 0.640792 0.190113
-0.670410 0.511499 0.194400
-0.015223 -1.088752 0.233255
-1.032248 -0.243828 0.242271
-0.958771 0.518877 0.232818
-0.829741 -0.836028 -0.175461
-0.723604 -0.198235 -0.004387
-0.917623 -0.644584 0.218277
-0.265301 -0.970097 0.249623
-0.525177 -0.918684 -0.242766
-0.333045 -0.713443 -0.130830
-0.725620 -0.716616 -0.248696
-0.751156 0.988998 -0.062060
-0.318055 -1.207375 -0.020470
-0.342624 0.697634 -0.112411
-0.118405 -0.743745 0.037799
-0.192440 0.848233 0.213038
-0.999690 0.036088 -0.249973
-1.141772 -0.025565 -0.205090
-0.685817 -0.398766 -0.139797
-0.268921 1.195842 -0.106334
-0.480397 0.733986 0.217633
-0.709537 0.598255 0.239059
-0.937722 -0.148135 0.244291
-0.661062 0.438296 0.139514
-0.158757 -1.164775 0.177780
-0.476961 -0.875820 -0.249826
-0.209878 -1.108881 0.214069
-0.075753 -0.967758 -0.248084
-0.529622 0.780751 0.243112
-0.893477 -0.245836 -0.238563
-0.554656 -0.509403 0.037603
-0.952502 0.567282 0.224561
-0.775374 -0.806547 -0.219535
-1.007596 -0.567437 0.194629
-0.292205 1.092449 0.212544
-0.772058 -0.579674 -0.247490
-0.736768 0.790158 0.236140
-0.772179 -0.002117 -0.102110
-0.726571 -1.011383 0.045002
-0.498139 0.567694 0.048585
-0.919740 0.742629 -0.170589
-0.793978 0.143339 0.158120
-0.435732 0.772904 -0.222566
-0.920397 -0.843214 0.025650
-0.666813 0.543085 0.206499
-0.406929 1.179167 -0.034443
-1.184272 -0.193193 -0.149682
-0.172643 1.119689 -0.211173
-0.802462 -0.747253 0.230516
-1.158437 -0.463794 -0.031664
-0.955251 0.465638 0.241865
-0.072429 0.847508 -0.200244
-1.223794 -0.235881 0.040039
-0.499721 0.939635 0.241566
-1.114131 -0.535962 0.079628
-0.294330 1.134032 0.181242
-0.756465 0.320501 0.174942
-0.866924 0.898430 0.021861
-0.520621 -0.751994 0.234486
-0.636650 0.961992 0.197072
-0.753571 0.976970 -0.087047
-0.337360 0.713668 -0.133824
-0.893809 0.771074 0.172593
-0.090153 1.164587 -0.184373
-0.694639 0.872927 0.221111
-1.066383 -0.598886 0.111647
-0.314708 -0.850668 -0.231905
-1.120285 0.242236 0.202307
-0.036033 0.811598 -0.164475
-0.883924 0.883518 -0.003457
-0.675722 0.325682 0.002437
-1.194814 0.332251 0.068574
-0.203585 -1.133664 -0.198557
-0.813596 0.079645 -0.170240
-0.972249 -0.068976 0.248343
-1.029163 -0.380557 -0.230141
-1.100097 -0.210529 -0.218907
-1.130715 -0.155397 -0.205530
-0.996750 -0.660703 -0.154984
-0.760412 -0.027842 0.071954
-0.226196 -0.832304 0.208176
-0.705440 -0.512504 0.214514
-0.576183 -1.106812 0.032056
-0.854917 0.464154 0.248220
-0.289422 0.798214 0.199202
-0.749911 0.279042 0.150009
-0.559159 0.507039 -0.046103
-0.489160 -0.793805 -0.240529
-0.352011 1.191461 0.059829
-0.461092 -0.614678 -0.093925
-0.192344 0.950494 -0.248020
-1.194748 -0.253534 0.114988
-0.556051 -0.503955 0.006748
-0.091653 -0.759248 -0.083155
-1.003503 -0.194590 0.248542
-0.472801 -0.629314 0.130512
-0.614638 0.456511 0.085660
-0.589812 0.770166 -0.248043
-1.072801 -0.332659 -0.217366
-0.883284 -0.884320 -0.001618
-0.938671 0.613489 -0.218256
-0.238406 1.226994 -0.000054
-0.106293 1.158788 -0.188225
-0.838603 -0.892318 -0.108574
-0.492076 -0.925210 -0.244814
-0.707788 0.405529 0.168278
-0.619213 0.733953 -0.246463
-0.352374 -1.187200 0.073607
-0.643486 -0.852778 -0.240230
-0.785515 0.041934 0.129750
-0.000475 -0.911074 0.233261
-0.541823 0.714963 0.227425
-1.206625 0.225894 0.102343
-0.070992 -0.747184 -0.008791
-0.612599 -0.735973 -0.245923
-0.638999 -0.410735 -0.068086
-0.739740 -0.159665 0.056196
-0.064569 0.978071 0.248706
-0.387225 -1.036292 -0.225700
-0.096904 0.861698 0.211290
-0.710572 0.752840 0.247337
-0.863003 0.152319 -0.217182
-0.879519 0.371797 -0.245388
-0.803999 -0.390377 -0.225791
-0.842636 0.008038 0.193887
-1.154965 -0.191175 -0.182056
-0.760278 0.730673 0.243508
-1.221248 0.201164 -0.075580
-0.420338 -0.948165 -0.246960
-0.545693 -0.541925 -0.095802
-0.547404 -1.079505 -0.134133
-1.189465 -0.254711 0.124973
-0.809241 -0.495176 -0.244165
-0.829586 -0.884746 -0.130365
-0.185109 0.901917 0.236550
-0.745503 0.084612 0.005233
-1.086796 0.013950 -0.233924
-0.102340 1.192840 0.153361
-0.865992 0.874693 0.095761
-0.232797 -1.122241 0.202335
-1.010093 -0.496646 -0.216061
-0.097462 1.172011 -0.177335
-0.016609 0.938109 -0.242082
-1.069557 -0.128600 0.237207
-1.058047 0.663669 -0.014928
-0.451511 1.022949 0.219868
-0.550757 0.585754 -0.154926
-0.541037 -0.681168 0.213132
-0.613800 -0.467158 -0.100501
-1.179760 -0.408265 0.022949
-0.736831 0.174158 -0.058025
-1.160720 -0.121832 0.185206
-0.955664 0.161002 0.247980
-1.155006 0.300928 -0.157537
-1.215941 0.277595 0.035591
-0.586165 0.587731 0.182793
-0.670030 -0.996616 0.148287
-0.565631 0.552989 0.136373
-0.607645 1.092192 -0.001104
-0.707376 0.382101 0.154874
-0.699937 0.846745 0.229513
-1.233133 0.050919 -0.085966
-0.190420 -0.921136 -0.242551
-0.775655 0.315103 -0.189092
-0.297400 -0.937448 -0.248923
-1.018774 -0.700350 0.079751
-0.688364 -0.794741 0.244122
-0.746662 -0.077894 0.011508
-0.213006 1.224109 -0.059532
-0.498252 0.769850 0.235300
-0.177853 -1.086863 -0.228146
-0.934988 -0.524324 0.238999
-0.545776 -1.101154 0.099548
-0.974629 -0.771044 -0.057993
-0.703677 -0.769714 0.245812
-0.422285 -0.743883 -0.203407
-0.606242 0.482158 -0.107078
-0.781237 -0.720243 -0.241889
-0.349579 1.114223 -0.184597
-0.143543 -1.239998 0.025054
-0.981763 -0.114351 0.249244
-0.069167 -0.798041 -0.151339
-0.694437 0.367487 -0.128318
-0.086807 -0.821924 -0.179691
-0.481116 0.844559 0.248165
-0.743665 -0.197265 0.096503
-0.418460 -0.773064 -0.218528
-1.112490 0.196411 -0.213345
-1.097374 -0.334282 0.201690
-0.618844 1.084601 -0.018749
-0.230287 -0.728385 0.080791
-0.254861 -1.112855 0.205338
-0.356010 -0.908883 -0.248438
-0.721005 -0.970869 -0.135754
-1.218328 0.065243 0.117656
-0.104726 1.236741 -0.065360
-0.003374 -1.112141 -0.222828
-0.766544 -0.559710 -0.244247
-0.727312 -0.197272 0.040119
-1.124937 0.310313 -0.185383
-0.710354 -0.915302 -0.192677
-1.176982 -0.184508 -0.160061
-0.735808 0.510768 -0.226746
-0.731122 -0.464175 -0.210517
-0.155826 -1.130673 -0.205519
-0.589076 -0.464631 -0.004565
-0.264440 -0.869731 0.232573
-0.168830 0.888941 -0.231161
-0.918458 0.822997 -0.088777
-0.815046 0.946198 -0.017610
-0.475795 -1.101231 -0.150144
-1.131124 -0.000381 0.212411
-0.520910 -0.604868 -0.147106
-0.830550 0.032009 -0.183796
-0.040922 -0.764000 -0.084178
-0.292133 -1.180343 -0.125766
-0.260743 0.729228 -0.106649
-0.692009 0.363239 0.121157
-1.128118 0.511821 -0.072369
-0.632604 0.936959 -0.212781
-0.587625 -0.968439 -0.211273
-0.308862 -0.977848 -0.248326
-0.569717 0.487757 0.000276
-0.886971 0.809974 0.147904
-0.749095 0.339545 0.175965
-0.641882 -0.587303 -0.213207
-0.140568 -0.748474 -0.073830
-0.725578 0.883515 0.204297
-0.399272 0.925279 -0.249487
-1.133911 0.130709 -0.205485
-0.716707 0.234726 0.042927
-1.039399 -0.643291 -0.112940
-1.205439 -0.178000 0.120918
-0.735809 -0.582952 0.242180
-0.747168 0.145739 0.072835
-0.588904 1.088553 -0.075838
-0.949181 0.012871 0.244275
-0.598232 0.457757 0.038615
-0.337386 -0.860104 0.237633
-0.526735 -1.126745 0.052836
-1.189126 0.031628 0.162184
-0.020957 -1.095184 -0.231048
-0.281901 0.992832 -0.247893
-0.118716 -0.753441 -0.077289
-0.351156 -1.060421 -0.220421
-0.078927 -1.037752 0.246241
-0.401665 1.062658 0.209087
-0.974858 -0.624704 -0.193328
-1.211204 -0.300243 0.032097
-1.039408 -0.693940 0.003443
-0.627806 -0.692310 -0.241239
-1.152024 -0.473858 0.043464
-0.066970 -0.759626 -0.076813
-1.136031 0.418888 -0.133413
-0.949764 0.400571 -0.247979
-1.143400 0.379827 0.142430
-1.030042 0.490829 0.205786
-0.741238 0.412104 0.198566
-0.632144 -0.585960 0.207828
-0.910689 -0.181721 -0.239226
-0.784574 -0.943553 -0.103311
-0.859882 0.862480 -0.122140
-0.632458 1.064127 0.075146
-0.149528 -1.203378 -0.130779
-0.362912 1.004620 -0.240296
-0.866164 -0.436208 -0.248021
-0.887206 0.632405 0.233035
-0.145288 -0.875474 -0.222672
-0.650120 -0.975075 0.181012
-0.108756 -0.758292 0.087002
-0.570911 -0.938817 0.229406
-1.150591 -0.239278 0.178082
-1.003641 0.433564 -0.231753
-1.029249 0.709030 0.001176
-0.139506 0.740851 -0.041619
-0.128711 -1.225167 -0.092689
-1.140500 0.360271 0.154697
-0.781207 0.099011 0.130972
-1.173135 0.367103 -0.099023
-0.616760 0.695510 0.239566
-0.991879 0.107198 0.249851
-0.728269 1.013566 0.028005
-0.232472 -1.226581 -0.022826
-0.171761 -0.831232 0.199031
-0.046923 -0.750686 0.032976
-0.736653 0.702730 -0.248814
-0.313092 1.121371 -0.187728
-0.568962 -1.093776 -0.089688
-0.598659 -0.913699 0.232070
-1.030325 -0.688354 0.071680
-0.902722 0.613078 0.232455
-0.608972 -0.439750 -0.018416
-0.646194 0.685865 0.242889
-0.263461 0.720062 -0.089084
-0.261136 -1.024780 0.242900
-0.628075 0.743044 -0.248230
-1.091408 0.287473 0.214022
-1.201147 0.241000 -0.107555
-0.528762 -1.005353 0.209162
-0.074278 1.157204 -0.191780
-0.484927 -1.025591 -0.210187
-0.648528 0.391578 0.060098
-0.352367 -0.974798 0.247079
-0.496521 0.705959 0.208548
-1.214750 0.199107 0.095443
-1.050410 0.377237 0.220890
-0.586105 -1.080444 -0.099163
-0.547154 -1.099756 -0.100870
-0.160159 -0.812946 0.181483
-1.232627 -0.105723 -0.077183
-0.612787 -0.956909 -0.208917
-0.635272 1.064278 -0.070587
-0.751538 0.974613 0.096035
-1.086896 0.615022 0.017631
-0.703724 0.259397 -0.000968
-0.769850 -0.570778 0.246070
-1.051788 0.102246 -0.243061
-0.022026 1.169839 -0.182624
-0.922907 -0.838445 -0.037403
-0.843132 -0.022951 0.194532
-0.727577 0.184508 0.009627
-0.849833 0.731781 -0.218236
-0.725189 0.247582 0.087754
-1.109564 -0.238027 0.209899
-1.045440 -0.683582 0.012478
-1.196650 -0.325510 0.068519
-1.056452 0.613769 0.114074
-0.862601 0.904018 -0.006901
-0.640933 0.910010 -0.222392
-0.577339 0.645481 0.210531
-0.758537 -0.240348 -0.143364
-0.106653 1.027909 -0.247693
-0.204512 0.853801 -0.217994
-0.549657 -0.535128 -0.090234
-0.788550 0.121884 -0.146648
-1.200759 -0.331470 0.043599
-0.774754 -0.957461 -0.093429
-0.863033 0.015252 -0.208635
-0.635317 -0.766288 -0.249702
-1.149340 0.266494 -0.173212
-0.662526 -0.417060 0.123774
-0.844762 -0.714325 -0.225692
-0.770962 0.647501 -0.249550
-0.548094 -0.539607 -0.096004
-1.231175 0.037233 0.093215
-0.921364 0.790705 -0.128497
-1.207093 0.181677 -0.116461
-0.070147 0.747461 0.011900
-0.427278 -0.620900 0.040827
-0.408404 -0.634733 -0.046104
-0.735693 0.806955 -0.232211
-1.000877 0.526689 0.212454
-0.122963 0.955560 -0.247089
-0.183042 -1.083307 0.229471
-0.699803 0.301917 0.075576
-0.660907 -1.058398 -0.032476
-0.900152 0.046521 0.229515
-1.038695 -0.599624 0.150559
-0.654523 -0.812448 -0.245725
-0.512697 -0.568816 0.086147
-1.117925 -0.486357 -0.119512
-0.895780 -0.310885 -0.244061
-1.099620 -0.551898 0.096898
-0.973302 0.545872 -0.220957
-0.029546 -0.813807 0.166721
-0.422117 1.113158 -0.161049
-0.808251 0.113527 0.168812
-1.002116 -0.343957 0.242501
-0.938760 0.623789 -0.215073
-1.242248 0.083368 -0.046434
-0.849701 0.428568 -0.244739
-0.974606 -0.759868 0.081357
-0.252634 -1.191857 -0.121100
-0.034081 1.201528 -0.146622
-1.031865 -0.678165 -0.084247
-0.806085 -0.262146 -0.198224
-0.036808 0.855058 0.203743
-1.036540 -0.595711 -0.155317
-0.587754 1.054043 -0.139360
-0.891874 0.236279 0.237210
-0.772667 0.148932 0.130147
-0.188319 -1.143035 -0.192784
-0.568561 -0.649760 0.208788
-0.171727 0.776150 0.142143
-0.048629 -1.232541 -0.087958
-0.167830 -1.109968 0.217680
-0.852410 0.318328 0.232887
-0.352339 0.734187 0.166713
-0.722404 -0.682521 0.249598
-0.622216 1.083560 0.006563
-0.292270 0.699598 -0.063200
-0.771626 -0.292522 0.178561
-0.933065 -0.736252 0.163269
-0.828693 0.144811 -0.192596
-0.348587 1.153698 0.141882
-0.017223 -1.134097 0.210286
-0.684513 -1.009294 -0.118735
-0.777752 0.668817 -0.248309
-1.185654 -0.393244 0.012461
-0.649150 -0.430323 -0.115601
-0.666225 -0.442944 0.149786
-0.258151 -0.772764 0.167140
-0.146291 0.943083 -0.245285
-1.021636 -0.498852 -0.208482
-1.208027 -0.063867 -0.135095
-0.451510 -0.637262 -0.119996
-0.400075 1.112623 0.170379
-0.820802 -0.419989 0.236991
-0.361954 -0.676005 -0.089142
-0.701563 -0.279467 -0.048191
-1.245076 0.100407 0.012305
-0.845933 -0.135049 0.204285
-0.986882 0.764589 0.023517
-0.892533 -0.851869 -0.087240
-1.211562 0.306702 0.002844
-0.468392 0.586317 0.007551
-0.027671 -0.885311 -0.221831
-0.081608 -0.788939 -0.139506
-0.711990 -0.241194 -0.027194
-0.069202 -0.933175 -0.241570
-0.759917 0.541079 0.240673
-0.032727 1.240071 -0.067511
-0.495920 -0.565949 -0.034621
-0.503950 0.832750 -0.248257
-0.452327 0.606070 0.053443
-1.134248 -0.265562 -0.187102
-0.729546 -0.311153 -0.139508
-0.742071 0.960189 -0.129383
-1.118993 -0.179672 0.210886
-1.240343 0.143332 -0.020168
-1.231374 -0.042782 -0.092027
-0.635542 0.472123 0.137316
-1.209946 0.307546 0.023403
-1.022240 -0.244226 -0.244190
-0.976200 0.659949 0.174917
-1.144804 -0.404373 0.128492
-0.450946 0.982065 0.236042
-0.879146 0.709422 -0.213328
-1.080967 0.593731 0.088560
-0.814796 0.108576 -0.175448
-0.749024 -0.065386 0.029430
-0.862447 0.008950 -0.208192
-1.138002 -0.511814 -0.032602
-0.738053 -0.187402 0.073488
-1.090234 0.145163 0.228867
-1.116716 0.559817 0.012165
-0.736049 0.706506 0.248670
-0.461540 -0.591333 0.001986
-0.742874 0.108268 -0.011336
-0.583329 0.519271 -0.119994
-0.985579 -0.069897 0.249219
-0.866103 -0.539523 -0.248659
-1.173892 0.228643 0.154856
-0.673125 -0.953596 0.185129
-0.750709 0.663079 -0.249889
-0.862197 0.487251 -0.249368
-0.535389 1.120034 0.064738
-0.276473 -0.829120 -0.215856
-0.745217 -0.565148 0.241491
-1.223316 0.207957 0.066387
-1.045867 0.476436 -0.200231
-0.114871 -0.745545 0.043913
-0.423944 0.641456 0.095375
-0.761007 -0.143169 -0.106588
-0.366590 -1.152427 0.135608
-1.102116 0.583564 -0.036310
-0.056044 -1.033692 0.247338
-0.797716 -0.000434 -0.146293
-0.150457 0.886619 -0.228504
-0.307489 0.817855 -0.215710
-0.690149 0.313332 0.062093
-0.776890 0.084854 0.121094
-0.908308 -0.780477 0.153040
-1.045296 0.121896 0.243921
-1.232213 -0.130059 0.071620
-0.997600 -0.645900 0.163377
-0.592482 0.994853 0.193286
-1.073323 -0.573840 -0.123809
-0.750430 0.935333 0.150821
-0.694274 1.018239 -0.091179
-0.775080 0.155761 0.135625
-0.382299 -0.986104 -0.242887
-0.983151 -0.723865 0.116026
-0.914714 0.844341 -0.047407
-0.189163 -1.114239 0.213015
-0.821605 -0.163890 0.189557
-0.630593 1.046577 -0.114055
-0.724857 1.009735 -0.056769
-0.731024 -0.554502 0.235475
-0.423303 0.637203 0.083842
-0.815759 0.945286 -0.021150
-0.766390 0.462251 0.226384
-0.541169 0.521459 -0.023847
-1.229571 -0.220860 0.010403
-0.606626 0.470328 0.091523
-0.161190 -1.229218 -0.069595
-1.114812 -0.144459 -0.216903
-1.023045 0.680134 0.100622
-0.009906 -1.166308 -0.185851
-0.554429 0.516059 -0.059547
-0.846618 -0.085505 0.200435
-0.122276 0.940150 0.244033
-0.197255 0.901634 0.237310
-0.491489 -0.659062 0.175575
-0.785432 0.328205 -0.200654
-0.896635 0.219897 0.237393
-0.494338 0.897269 -0.248394
-0.360470 -1.126434 0.169921
-0.092433 0.858864 0.209079
-0.247372 0.809463 -0.197135
-0.296760 -1.211749 -0.033838
-0.566049 -0.504110 0.062274
-1.110024 0.535486 0.091116
-0.665085 0.419314 -0.129126
-1.235370 -0.179229 -0.025236
-1.166902 0.407286 0.080799
-0.222354 1.209963 0.097002
-1.146548 -0.144000 -0.195362
-0.775194 -0.715508 0.243411
-0.524291 -0.742637 -0.232580
-0.944930 0.487959 0.241709
-0.165763 -1.083035 -0.230957
-0.420193 0.972917 -0.242446
-0.790469 0.182345 -0.163149
-0.769872 0.273495 0.169713
-0.081249 -1.009744 0.249143
-0.896330 0.776737 0.166162
-0.584218 0.660314 -0.219824
-0.916237 -0.019853 0.235095
-0.981997 0.621882 0.189429
-1.238283 -0.159112 -0.022504
-0.259657 -0.711518 0.059383
-0.733232 0.287242 0.131037
-0.769213 -0.001571 -0.096080
-0.171369 0.773478 -0.138119
-0.855524 -0.373119 0.240838
-0.529504 -1.100383 0.115427
-0.120111 -1.195381 0.147568
-0.827545 -0.886716 -0.130285
-0.039938 -1.227817 -0.100584
-0.416487 -1.177696 -0.011905
-0.242943 0.960489 -0.249395
-0.439947 0.698553 -0.178835
-0.287559 -1.215264 -0.016544
-0.837083 0.104921 0.194692
-0.755902 -0.569065 -0.243655
-1.173970 -0.254782 0.147647
-0.831356 -0.763609 0.213904
-0.732952 -0.644131 0.248416
-0.798847 0.265597 -0.193121
-1.225254 0.044733 0.105420
-0.171280 -1.227526 -0.070532
-0.198146 -1.074292 -0.232049
-0.546164 -1.089765 0.119960
-0.229554 1.046460 0.239211
-0.544290 1.008309 -0.202553
-0.740724 -0.168388 0.068022
-0.216028 -1.118213 0.207186
-0.026082 -0.761133 -0.073884
-0.437327 -0.868425 -0.248186
-0.829018 0.494183 -0.247422
-0.697271 -0.429626 -0.172035
-0.145616 -0.824103 -0.188768
-0.712815 -0.975180 0.137734
-0.148424 -1.032040 -0.245858
-0.135278 -0.934110 -0.243191
-0.331769 0.985516 0.246412
-0.070993 -0.990733 0.249561
-0.534914 0.557565 0.103105
-0.455874 -1.062874 -0.194471
-0.788604 0.960133 -0.059661
-0.753377 -0.058613 0.050460
-0.213705 -1.020778 0.245802
-1.102899 0.069021 -0.226300
-1.035078 0.570276 0.170971
-1.197092 0.152638 -0.139475
-0.431111 1.156183 -0.086641
-0.951858 0.790618 0.076587
-0.519351 0.572894 -0.104252
-0.184843 -0.910890 -0.239512
-0.449477 1.105114 0.158171
-1.131255 -0.404093 0.147804
-0.821914 0.768604 -0.216255
-0.509340 0.898153 -0.247868
-0.043564 0.822937 0.177565
-0.411524 1.127170 0.149683
-1.102553 -0.171285 -0.221020
-0.919573 -0.054077 0.236706
-1.107091 -0.046299 -0.224827
-0.758172 -0.089083 -0.079171
-0.989722 0.611909 0.188250
-1.133598 0.035331 -0.210349
-1.106107 0.288938 -0.204275
-0.634932 -0.788103 0.249206
-0.189843 0.894826 -0.234528
-0.007308 -1.137501 -0.208094
-0.211550 -0.960876 0.248947
-1.081558 0.096729 -0.234269
-0.985493 0.435831 0.237113
-1.172381 0.396390 -0.075977
-0.294261 0.943784 0.249257
-0.352582 -0.961140 0.248438
-0.942036 0.757369 0.136500
-0.026833 1.229113 0.098769
-0.564639 -0.575971 -0.157857
-0.015883 -0.780441 0.119206
-0.972029 -0.456259 0.238388
-0.749185 -0.055947 0.019509
-1.226707 -0.229069 0.030438
-0.593202 0.793456 0.249392
-0.164602 -0.951211 -0.247460
-0.152436 0.790906 -0.156574
-0.775122 -0.744942 0.237950
-1.034355 -0.644318 0.120556
-1.182550 -0.288357 -0.123453
-1.004961 0.724598 0.071899
-0.952829 0.701776 0.169207
-1.050536 0.512153 0.183757
-0.513277 1.031019 -0.198620
-0.073682 -1.099789 0.227691
-0.394636 1.162921 0.101412
-0.674875 0.687849 0.247132
-0.136016 0.970267 -0.248677
-0.544948 0.926888 0.237889
-1.052022 -0.272783 -0.233952
-0.291126 1.082781 0.218328
-0.062524 -1.015606 -0.248846
-0.413471 0.670272 0.131148
-0.798948 0.355664 -0.216208
-0.585893 -0.953128 -0.219521
-0.570750 -0.646826 0.208288
-0.394247 1.132464 0.150887
-0.910593 -0.716535 0.192582
-0.432493 0.871001 -0.248199
-0.617878 -0.977412 0.194696
-1.090973 0.600034 -0.046064
-0.949185 0.162490 -0.246996
-0.970523 0.211921 0.249570
-0.216612 0.948335 0.248217
-0.639604 0.927445 0.215376
-0.833703 -0.479359 0.246743
-0.667629 0.556380 0.212583
-0.925791 0.422384 0.248842
-0.661252 -1.057243 -0.036615
-0.297872 -0.945256 0.249420
-0.097275 1.197922 -0.146799
-0.441453 -0.979245 -0.238254
-0.091379 1.154099 -0.193444
-0.723978 0.941149 -0.164587
-0.049610 0.926025 -0.238800
-1.058248 -0.661739 -0.027766
-0.733751 -0.303852 -0.140990
-0.305865 -1.200913 0.071125
-0.030880 0.773496 -0.106087
-1.154361 -0.436110 -0.086541
-0.363803 1.039092 0.228340
-1.175434 -0.033230 -0.177502
-0.061270 0.819926 0.175635
-0.065259 1.204266 0.140586
-0.857111 0.032752 -0.205014
-0.051830 -1.232126 -0.088830
-0.798907 0.012643 -0.148300
-0.467221 -0.857692 0.248477
-0.769049 0.801806 -0.223388
-0.955534 0.668751 -0.185925
-0.458917 0.988961 -0.232786
-0.651970 -0.479906 -0.161223
-0.646428 -0.408293 0.082572
-0.853065 0.877608 0.109838
-1.042401 -0.608821 0.138835
-1.082678 -0.301523 0.217048
-0.814123 0.497846 -0.245271
-0.934951 0.821044 -0.050171
-0.063232 0.910438 -0.233801
-0.177057 -0.783098 -0.153578
-0.214598 0.735565 0.087589
-0.859389 -0.602046 -0.244542
-0.098073 -0.922513 0.238928
-0.200198 -1.222193 0.073285
-0.017671 0.874067 0.216028
-0.130208 -0.825048 0.187384
-0.660358 -1.047697 0.073570
-1.007984 -0.717552 0.076842
-0.386105 -0.778006 -0.212224
-0.342442 -1.073276 0.215394
-1.156256 0.355853 0.134997
-0.471513 -1.151149 0.051924
-1.207320 -0.207322 -0.107745
-0.479022 -1.053754 -0.193589
-0.864314 -0.857301 0.123134
-1.000872 -0.746143 -0.024065
-0.692869 0.415031 -0.159036
-1.138510 -0.513396 0.015508
-1.104433 -0.495256 -0.134071
-1.050839 -0.352144 -0.224732
-0.013461 -1.143371 -0.204121
-0.928691 0.231803 -0.245837
-0.615442 -0.654467 -0.228064
-1.157110 -0.356069 0.133681
-0.492833 0.622665 -0.140946
-0.429655 0.911322 0.249506
-1.235917 -0.167368 0.035494
-0.193628 0.792817 -0.168727
-0.464730 0.594447 -0.044779
-0.572370 -0.517391 -0.100820
-1.072912 0.372338 -0.209314
-0.733917 0.194372 -0.066936
-0.608682 -0.814009 -0.248921
-0.730131 0.481349 0.216219
-0.088924 -1.044317 -0.244769
-0.772960 -0.899404 0.166328
-0.637647 -0.395365 -0.004959
-0.391736 -0.932251 -0.249262
-0.943729 0.152935 0.245622
-0.976570 -0.689139 -0.155707
-0.854553 -0.794630 -0.185346
-1.103137 -0.577047 -0.046842
-0.553581 1.120371 0.003779
-0.271570 -0.887764 0.239140
-0.929464 -0.606330 -0.223987
-0.778457 0.720460 0.242265
-0.187919 -1.097785 0.222039
-0.364671 1.167479 -0.111448
-0.744195 0.889941 -0.191334
-0.229517 -1.221173 -0.058849
-0.783678 0.684232 -0.246315
-0.665168 1.045012 -0.072659
-1.052477 -0.464637 -0.199470
-0.932397 -0.201741 -0.245209
-1.204978 0.034132 -0.141459
-0.513907 -0.737939 -0.228489
-0.133658 1.037320 0.245212
-0.931646 -0.786322 0.119506
-1.163854 -0.019859 0.187895
-0.599275 -0.464935 0.064640
-0.118679 -0.775006 0.125872
-0.663492 0.599007 -0.225829
-0.131536 1.072869 -0.235980
-1.185637 0.313266 -0.104904
-0.743754 -0.650564 0.249226
-0.339299 1.112804 0.188507
-0.463590 -0.771171 0.228738
-1.171745 -0.432223 -0.015093
-0.771848 0.927973 -0.139100
-1.084164 -0.433089 0.184864
-0.955048 -0.269259 -0.249497
-0.356322 1.189830 -0.061668
-0.495580 -0.766459 -0.233840
-1.177441 0.418310 -0.006544
-1.118370 0.132307 -0.215689
-1.223742 0.173905 -0.080537
-0.184423 -0.743103 0.085755
-1.146620 0.129232 0.196782
-0.077120 -1.150415 0.197571
-0.416982 0.753452 -0.207288
-0.919499 0.405069 0.249686
-0.201602 1.102985 -0.218313
-1.103526 0.581322 -0.035206
-0.234843 -0.747795 -0.125549
-0.742476 -0.263031 -0.131320
-0.405717 -1.068357 0.204574
-0.921480 -0.838450 0.042639
-0.888405 -0.145769 -0.229007
-0.541956 0.572290 -0.132052
-0.054079 -1.042623 -0.245589
-0.692663 -0.303741 -0.053878
-0.811049 0.129207 -0.174626
-0.878000 0.058352 -0.218968
-0.477605 -0.967904 0.236494
-1.080087 -0.234146 -0.226248
-1.110271 -0.374442 -0.181160
-0.826243 -0.918221 -0.082968
-0.679713 0.329180 -0.048432
-0.250027 0.789058 -0.180778
-0.456721 -1.017279 0.221362
-1.026744 0.711446 0.011846
-1.044889 0.217728 -0.240564
-1.158216 0.469400 0.003040
-0.724286 -0.308106 -0.130475
-0.753502 -0.004311 0.039752
-0.124777 1.144019 -0.199208
-0.550937 -0.732146 -0.235046
-0.699746 1.032763 0.034107
-0.619332 -0.885927 0.235956
-0.908422 -0.561356 0.240379
-0.029475 -1.144915 -0.202935
-0.701484 -0.744215 0.248508
-0.568497 -0.994265 0.202899
-1.135652 0.443087 0.119786
-0.117996 1.163629 0.183042
-0.122441 -1.062460 -0.239832
-0.624303 1.063039 0.090014
-1.193667 0.111413 0.151328
-0.229073 1.221567 0.057308
-1.178020 0.065073 0.173235
-0.826378 0.090408 0.183921
-0.389747 1.175599 0.073379
-0.142483 -0.792106 -0.155842
-1.155104 0.117845 -0.190488
-0.750491 0.495412 0.228494
-0.476044 -0.738110 0.218167
-0.900716 0.740070 -0.186432
-0.724869 -0.905366 0.191593
-1.128066 -0.213074 0.201074
-0.328431 -0.857072 0.235565
-1.171949 0.124403 0.174688
-0.520187 -0.542699 0.026995
-0.007190 -1.098648 0.229458
-1.184005 0.231189 -0.140112
-0.893480 -0.677455 -0.218304
-0.882605 -0.840071 0.120979
-0.761624 0.986689 0.039428
-0.078422 -1.192148 -0.156221
-1.115350 0.338644 -0.186552
-1.103646 -0.373545 0.186910
-1.048266 0.522416 0.181599
-1.096910 0.345976 -0.199626
-0.389997 -0.843345 0.239419
-0.047876 0.908623 0.232867
-0.170255 0.870226 0.222303
-0.675597 0.933196 0.198355
-1.055510 -0.667426 0.017810
-1.225196 -0.083242 -0.101516
-0.124481 -1.202324 0.136519
-0.101602 -0.752144 0.066217
-0.981698 -0.047818 -0.248877
-1.029599 0.245938 -0.242687
-0.734700 0.179613 0.053940
-0.063683 -1.176276 0.175318
-0.760406 -0.125926 -0.099286
-0.403879 -0.825033 0.235832
-0.340058 -1.003120 0.242564
-0.247671 0.919258 -0.244823
-0.689291 1.003943 0.122203
-1.070537 -0.030556 0.239339
-0.062327 1.248193 -0.003657
-0.874007 -0.187158 -0.225820
-0.687316 0.574308 -0.226732
-0.079336 -1.242003 0.048902
-1.245938 -0.099248 -0.000719
-0.850858 -0.370616 0.239047
-0.883403 -0.445844 0.249315
-0.371468 1.006952 0.238542
-0.348076 1.186868 0.078073
-0.054366 0.768638 0.098820
-0.260155 0.847059 0.222001
-0.542459 -0.898149 -0.244547
-0.515350 1.125796 -0.074260
-0.472688 0.802020 -0.240027
-1.112531 -0.354814 0.184626
-0.484966 -0.574550 -0.029286
-0.758730 0.591544 -0.246810
-0.750573 0.026725 -0.016859
-0.921511 -0.032968 0.237026
-0.355470 1.159797 0.130117
-0.108715 1.138040 -0.204307
-0.858040 -0.908549 -0.004124
-0.395421 0.923480 -0.249695
-1.104705 -0.490205 -0.136848
-0.738050 -0.594970 -0.244022
-0.890923 -0.109985 -0.227695
-0.003184 -1.156385 -0.194625
-1.071210 -0.604493 -0.097589
-0.510322 -0.775082 0.239023
-0.850342 -0.287478 -0.227689
-0.963380 0.671626 0.178825
-0.333062 -1.021334 0.238220
-0.663461 0.468729 -0.164376
-0.655159 0.376000 -0.049163
-0.280945 -1.120275 -0.195901
-0.800568 -0.626709 -0.248904
-1.010288 0.091272 -0.249052
-1.108984 0.103630 0.221995
-0.329227 1.177665 -0.112128
-1.089320 0.307059 -0.211947
-0.348705 0.731354 0.161992
-0.389070 -1.158380 0.113792
-0.925488 -0.649285 0.212796
-0.097559 0.884984 0.224106
-0.283251 -1.217303 0.001460
-0.073643 -1.046422 -0.244596
-1.184752 0.057901 -0.166065
-1.103118 -0.554827 0.084408
-1.040547 0.531714 -0.183953
-0.749030 0.393160 0.196749
-1.163436 0.453301 0.020292
-0.825599 -0.465750 0.243995
-0.719438 -0.908665 0.192311
-0.916465 0.190900 0.241662
-0.749995 0.564154 -0.242128
-0.343019 0.691055 0.100772
-0.605042 -0.646916 -0.221844
-1.083363 0.417348 0.190632
-0.824059 0.838064 0.177967
-1.018778 0.194354 0.246949
-1.122496 0.165887 0.210028
-0.767417 -0.533425 -0.241262
-1.247000 -0.015949 -0.035977
-0.641418 0.513742 0.175219
-0.302141 0.917810 0.247644
-0.831576 0.099300 -0.189313
-0.978731 0.109477 0.249011
-0.600852 0.452569 0.033301
-0.445759 0.846117 0.245681
-0.589067 0.759219 0.246589
-0.758504 0.128684 -0.096365
-0.426515 0.967852 -0.242877
-0.730246 -0.571067 0.238678
-0.384629 0.647096 -0.035984
-0.272586 1.129729 0.189535
-0.891711 -0.451215 -0.249960
-0.287426 1.211587 -0.045468
-0.772920 0.978586 -0.036566
-0.593832 0.760716 -0.247401
-0.063249 1.246765 -0.024547
-0.813956 -0.296050 -0.210604
-0.460381 -0.598496 0.047658
-0.657937 -0.971581 -0.179686
-0.151788 1.003350 -0.249030
-0.235480 -0.980550 0.249443
-0.347728 0.760509 0.188243
-0.854438 -0.903344 0.054738
-1.051140 -0.632095 -0.104580
-0.259591 1.006816 -0.246434
-0.344027 -0.883916 0.244115
-0.677448 -0.839862 -0.236594
-1.059318 -0.649520 -0.058677
-0.433784 -0.892423 0.249498
-0.276948 1.011663 -0.244622
-0.896906 -0.721044 -0.199210
-0.765280 0.101073 0.101650
-0.327948 -0.721591 -0.138739
-0.146943 0.971744 0.248874
-0.337427 0.935050 0.249613
-1.204323 -0.002608 0.143186
-1.002002 0.702720 0.110042
-0.609721 -0.880721 -0.239259
-0.596991 1.086992 -0.068380
-0.780571 0.973310 0.033238
-0.810917 -0.010403 -0.162889
-1.219871 0.234020 -0.061141
-0.597599 0.497533 0.113148
-0.926750 -0.818906 -0.078462
-0.150093 0.799976 0.166254
-0.124638 0.996197 0.249739
-0.250422 -1.000315 -0.247956
-0.407463 -1.134249 0.141870
-0.273404 1.203681 0.085642
-0.695302 -0.826286 0.236294
-0.564183 0.986617 0.208766
-0.728125 -0.474890 0.212742
-0.205914 -1.135936 0.196293
-0.455989 -0.656049 0.148205
-0.508116 1.130040 0.071767
-0.261256 -1.212514 0.067814
-0.358510 0.720470 0.155743
-0.208836 -1.108042 -0.214747
-0.429755 -1.162409 -0.070838
-1.082025 0.581517 -0.100841
-0.873514 0.011016 -0.215604
-0.644482 -0.486137 0.158647
-0.468907 1.012726 0.220901
-1.135026 -0.522551 -0.005660
-0.553706 -0.767444 0.243693
-0.715329 -1.013170 0.068296
-0.768521 0.508973 -0.236907
-0.444197 -0.606331 -0.025506
-0.187028 1.224146 0.073767
-1.060392 -0.346827 -0.221090
-0.402015 0.918896 0.249801
-1.223626 -0.008622 -0.110349
-0.839696 0.879389 0.125877
-0.492232 -0.906133 -0.247951
-0.107813 1.234849 0.070131
-0.750471 0.791191 0.232717
-0.877117 -0.168588 -0.225494
-0.643320 -0.459715 0.135850
-0.519921 -1.124456 0.072241
-0.554116 -0.522836 -0.074594
-0.001502 -1.249250 -0.011163
-0.499921 0.811418 0.245029
-0.458072 0.891207 -0.249862
-0.182433 1.235594 0.015272
-0.976155 0.446726 0.238462
-0.541840 -0.846031 -0.249691
-0.708619 -0.909120 -0.197914
-0.017257 1.073344 0.238477
-0.792895 -0.760809 -0.229371
-0.830044 0.289607 0.218565
-0.205315 0.780573 -0.158488
-0.638556 -0.594887 0.215028
-0.172876 1.140342 -0.197268
-0.430388 -0.748925 0.209045
-1.015439 -0.014710 -0.248976
-0.640161 -0.578897 0.208557
-0.916304 -0.159981 -0.239744
-0.794575 0.026272 0.142315
-0.702693 0.421177 -0.172244
-0.764856 -0.602827 0.248290
-1.157202 0.401360 0.107945
-0.381548 1.118077 0.171422
-0.096210 0.802935 0.160225
-0.806731 -0.920539 0.109617
-0.730001 0.593944 0.242644
-0.324143 -1.201655 0.048630
-0.908496 -0.829237 0.097463
-1.236146 0.068504 0.074625
-0.307942 0.695361 0.070543
-0.563504 0.536488 0.113955
-0.739741 0.179779 -0.072959
-0.509562 0.845833 0.249180
-0.647765 0.480626 0.157822
-1.014100 -0.729785 -0.007858
-0.174982 -0.730126 -0.013064
-1.039394 -0.076245 0.245960
-0.685555 0.455680 0.176756
-1.217904 0.213187 0.079547
-0.036208 0.801758 0.153269
-1.189837 0.368206 -0.044137
-0.961788 -0.159953 0.248365
-0.808991 -0.881143 -0.154557
-0.761987 -0.505569 -0.234417
-0.029597 -1.249178 -0.007003
-0.469345 -1.049888 0.199762
-0.630970 -0.415849 -0.050657
-0.593431 1.046537 -0.145086
-0.471776 0.682634 0.182592
-0.653563 -0.530356 0.193000
-1.187068 -0.289448 0.114028
-0.228882 -1.222836 -0.051214
-1.082618 -0.515791 -0.150833
-0.730230 -0.854474 -0.216977
-0.831707 0.902883 0.102395
-1.041031 -0.399857 0.221339
-0.705191 -0.270691 0.048895
-0.865480 -0.632936 0.238907
-0.372177 0.687361 0.121349
-0.191117 -1.231249 0.041645
-0.625068 0.635622 0.224660
-0.676209 0.945651 -0.189193
-0.937815 0.469508 0.244645
-0.872430 0.556005 0.247475
-1.046990 -0.547335 0.171382
-1.177133 -0.323371 0.116358
-0.229885 1.121639 0.203131
-0.569168 -0.664224 0.216344
-0.746747 -0.350118 0.178142
-0.690268 1.004685 0.119841
-0.608358 0.590456 -0.198362
-0.632360 -0.863475 0.239574
-0.582925 0.473097 0.012012
-0.347740 1.163822 -0.127682
-0.540771 -0.875459 0.248094
-0.842127 0.892446 0.103519
-0.970164 0.048610 0.248125
-0.737087 -1.007425 0.025129
-0.281171 1.192043 -0.108091
-0.920326 0.142948 -0.240165
-0.206454 -0.888002 -0.233487
-0.263164 -0.924770 -0.246703
-0.226701 -0.927756 0.245422
-1.121547 -0.371014 -0.171588
-1.004449 0.230938 0.247987
-0.592085 0.470393 0.053297
-0.854271 0.553277 -0.248829
-0.847812 0.790644 0.192057
-0.960974 -0.076535 0.247205
-0.905606 -0.227342 0.240944
-0.757740 -0.289843 0.163189
-0.853397 -0.555878 0.248784
-0.855092 -0.031806 0.203643
-0.034770 1.247872 -0.024413
-0.832474 0.445133 0.243216
-0.653638 -0.826916 -0.243588
-0.425113 -0.732822 -0.197859
-0.424735 1.174421 -0.016628
-1.195346 -0.363919 -0.007169
-0.450900 -0.638458 -0.121237
-0.414750 -0.956678 0.245842
-0.867994 0.751351 0.201112
-0.755199 -0.356829 0.187332
-0.398394 -0.644589 0.061218
-0.922881 0.658964 0.210452
-0.606901 0.443027 -0.022101
-0.590586 -0.579639 -0.180588
-0.379977 1.095172 -0.192103
-0.534606 0.769515 0.241830
-1.126654 0.377884 -0.163533
-0.697927 0.294204 0.059311
-1.187130 0.354470 0.072087
-0.307878 0.840275 -0.226350
-0.901786 0.678849 0.213961
-0.780302 0.975914 0.006025
-0.738156 0.143513 0.030670
-0.896659 0.329434 0.245466
-0.633636 1.034916 -0.129393
-1.105295 -0.238919 -0.212566
-0.103905 1.239338 -0.053166
-1.158070 -0.042878 0.192410
-0.147495 -0.736152 -0.012122
-1.142759 -0.434531 -0.112555
-1.200347 0.226034 -0.114808
-0.211902 0.860529 0.222065
-0.975529 0.776738 -0.036573
-0.195052 -1.201397 -0.123557
-1.225158 0.155611 0.083657
-0.973678 0.772688 0.056561
-1.130919 -0.486142 -0.095372
-1.055653 -0.086399 0.242566
-0.797612 0.493998 0.242073
-1.032590 0.349193 -0.232860
-0.799271 0.922223 -0.117079
-0.187216 -0.980031 0.249857
-0.021155 -0.812236 0.164579
-0.322977 -0.882336 0.242348
-1.024224 0.132495 0.247825
-0.449170 -0.616882 0.078309
-1.094291 -0.092476 -0.229687
-0.623796 0.845731 0.244222
-0.524670 -1.121597 0.074074
-0.168036 0.747453 -0.087072
-0.888127 -0.473254 -0.249583
-0.137949 1.094477 -0.227272
-0.256020 -0.929941 -0.247302
-1.086436 0.469987 0.168747
-0.045647 1.223336 0.109239
-0.754487 0.954925 0.123826
-0.820120 0.896478 0.127143
-0.726082 -0.367964 -0.166285
-0.908751 -0.857821 0.004139
-1.097276 0.435908 -0.172215
-0.000261 -0.817318 0.170047
-0.226266 0.948799 0.248393
-0.405785 0.929898 -0.249041
-0.799222 -0.502693 -0.243253
-0.654676 0.369314 -0.025571
-1.225548 0.166844 -0.078067
-1.167796 0.227592 -0.161909
-0.004016 0.755531 -0.049932
-0.863252 -0.191795 -0.221104
-0.790661 0.815646 -0.209125
-0.355527 -0.748502 -0.181546
-0.439582 0.874980 -0.248637
-0.040961 -0.928856 0.239618
-0.763769 -0.067127 0.089012
-0.483043 -0.885051 -0.249452
-0.212445 -0.735966 -0.086958
-0.217228 -1.211395 0.096050
-0.736511 0.573284 -0.240819
-1.185615 -0.391959 0.019400
-0.688029 0.895800 0.213429
-0.089921 0.792246 -0.145798
-0.713865 0.567237 -0.233524
-0.847258 -0.912336 0.046187
-0.933215 -0.213556 -0.245874
-0.629670 -0.428315 0.073746
-1.210367 0.037499 -0.133213
-0.444106 -1.162374 -0.050200
-0.802621 -0.757341 0.227073
-1.038680 0.583755 0.159962
-0.796943 -0.724004 0.237402
-0.409999 -0.752616 0.204548
-0.864762 0.885140 -0.076303
-0.927738 -0.135904 0.241952
-0.135409 0.798429 0.161540
-1.048671 -0.045460 0.244464
-0.662865 -0.653719 -0.240039
-0.275955 1.217239 0.028135
-0.730947 -1.007529 -0.047820
-0.733241 0.160743 -0.010537
-0.384355 -1.168655 0.097118
-0.162755 0.832466 -0.198637
-1.007194 0.738906 -0.011736
-0.112857 1.139326 0.203203
-1.156906 0.114016 -0.189287
-0.540048 -0.713381 0.226274
-0.523426 -1.134565 -0.006491
-0.765143 0.419531 -0.214953
-0.995618 0.050946 -0.249800
-0.748895 0.062240 -0.023339
-0.641328 -1.061854 0.067471
-0.879112 -0.258415 0.235057
-0.930036 0.412864 0.248849
-0.778260 0.350288 -0.202143
-0.098113 0.861756 0.211418
-1.067847 0.333048 0.219637
-0.182591 -1.234529 -0.031049
-0.919730 -0.240737 -0.244562
-0.707754 -0.580057 -0.234624
-0.243937 -0.889959 -0.237243
-0.352711 0.722654 -0.155080
-0.061524 -1.116693 -0.219737
-0.410702 0.801533 0.229173
-0.413508 -1.096876 -0.180697
-1.041707 -0.568367 -0.165399
-0.593373 0.459482 -0.007728
-0.965751 0.050548 0.247809
-0.601138 -1.090854 0.043912
-0.591468 -0.465312 -0.034912
-0.428040 1.095607 -0.177190
-1.019198 -0.159865 -0.247920
-0.815559 0.717602 -0.234118
-0.686543 0.757883 -0.248518
-0.672743 -0.640599 -0.239328
-0.761740 0.523859 0.237836
-0.583235 0.671304 -0.223563
-1.147975 -0.328866 -0.156868
-0.544157 0.518363 0.023480
-1.208591 0.308791 0.034583
-0.399745 -0.918234 0.249899
-0.786827 -0.289485 0.190129
-0.611813 -0.600596 -0.204746
-0.903372 0.530787 -0.244836
-0.745234 -1.002539 -0.012226
-0.058543 -1.233687 -0.083508
-0.198640 0.845735 0.212372
-0.723387 -0.536126 -0.229034
-0.168381 -0.768257 0.129548
-0.941096 0.375573 -0.249125
-0.044898 -1.080055 0.235931
-1.028492 -0.379591 -0.230618
-0.761364 -0.063389 0.081009
-0.389978 0.849554 -0.241333
-0.923263 -0.496173 0.244771
-0.957529 -0.089434 0.246742
-0.320533 -1.128517 0.179891
-0.243927 1.223284 -0.035081
-0.049998 -1.203905 0.142190
-0.637689 -0.443837 0.111797
-0.774743 -0.352278 0.200560
-1.152398 0.393621 0.122262
-1.154623 0.291937 -0.160572
-0.195596 -1.233118 0.020979
-0.153910 -1.170420 -0.172446
-0.999917 0.628865 -0.171654
-0.239081 -0.832257 -0.210479
-0.795123 -0.329151 0.206858
-0.992875 0.549154 0.210020
-0.017593 -1.248729 0.016105
-0.839426 -0.176395 0.205029
-0.273166 -0.828089 0.214492
-0.022126 0.931621 0.240326
-0.127279 0.748472 0.066843
-1.230436 -0.055501 0.093409
-1.219555 0.255395 -0.041483
-0.687196 -0.566519 0.224214
-1.243902 0.120438 -0.003929
-0.324625 -0.747471 -0.167368
-0.692667 -0.619077 0.239365
-1.094233 0.169414 -0.225218
-0.401753 -1.097787 0.183540
-0.329510 -0.997395 0.244324
-0.213436 1.231161 0.007213
-1.126443 0.541128 0.003853
-0.249676 -0.718466 0.071032
-0.184870 -0.740984 0.079988
-0.998924 -0.503628 -0.219609
-0.197356 0.732845 -0.066125
-0.484821 0.726404 0.215398
-0.188547 1.121511 -0.208283
-0.039121 -0.909501 0.233028
-1.238433 -0.098416 0.060070
-0.688180 0.431224 0.164164
-0.091920 -1.245001 0.024546
-0.826532 0.069226 0.182269
-0.818810 0.579290 0.249801
-0.915435 0.303784 0.247298
-0.685713 -0.346429 0.093424
-0.993267 -0.725656 0.097271
-0.374813 -0.709856 -0.153457
-0.603642 -0.445313 0.002227
-0.732021 -0.501989 -0.222757
-0.772743 -0.919157 0.148334
-1.243036 0.075607 0.044871
-0.562766 0.498723 0.030613
-0.623542 -0.725260 -0.245694
-1.200550 -0.219681 -0.116761
-0.417631 -0.636807 0.073752
-0.091975 -0.779100 -0.126580
-0.941975 -0.414691 0.248083
-0.285321 1.213546 -0.038333
-0.908146 -0.365179 0.248616
-0.341288 -0.681533 0.075632
-0.910919 -0.512330 0.245372
-1.000346 0.724943 -0.082323
-0.603226 -0.880880 0.240462
-0.887411 -0.271108 -0.238978
-0.879201 0.296277 0.238947
-0.673620 -1.000818 -0.140061
-0.434410 -1.081942 0.186244
