0.16919585 0.83029348 0.50066835 -0.00015308 0.00217983 -0.00023010
0.25561228 0.25351220 0.59326798 0.00024264 -0.00030785 0.00019690
0.28172290 0.19318365 0.38048726 0.00036521 -0.00135310 -0.00089519
0.47796014 0.53784996 0.43414912 0.00004562 0.00022118 -0.00053573
0.41706514 0.68556076 0.47628132 -0.00030739 -0.00014992 0.00033902
0.07649469 0.34297326 0.49780843 -0.00179745 -0.00076553 -0.00003140
0.33810738 0.67676127 0.39197525 -0.00093971 0.00035967 -0.00022737
0.63359421 0.37194428 0.64570749 -0.00002320 0.00050344 0.00117125
0.24552445 0.34437981 0.59669000 -0.00037705 -0.00006867 0.00075987
0.42708558 0.60983741 0.45985660 -0.00008495 0.00005888 -0.00020722
0.60872191 0.39672607 0.47803217 0.00007809 0.00012684 0.00001855
0.22339159 0.19693355 0.41016221 -0.00104826 0.00005910 -0.00075432
0.64689535 0.37635264 0.64602172 -0.00002594 0.00052590 0.00114211
0.21983132 0.17166287 0.44052160 -0.00072162 -0.00152537 -0.00012166
0.35850561 0.28741139 0.59938216 -0.00023013 0.00004818 0.00010569
0.33196911 0.27682790 0.59752905 -0.00015682 0.00007622 0.00009487
0.59506023 0.59614164 0.44263300 0.00020338 0.00026853 -0.00093289
0.10415057 0.49430004 0.59499151 -0.00008119 -0.00027494 0.00105427
0.40273306 0.23681231 0.36581463 -0.00004835 -0.00105159 -0.00082379
0.06612995 0.49336734 0.45000139 -0.00109116 0.00022201 -0.00095799
0.44397593 0.24870728 0.47900310 0.00004084 -0.00072286 -0.00014563
0.17174655 0.50165570 0.56237245 0.00038415 0.00014829 -0.00006725
0.36175200 0.62291473 0.49315360 -0.00021998 0.00031780 -0.00009167
0.82857770 0.47332576 0.59573317 -0.00055740 0.00035103 0.00022341
0.30670431 0.26159456 0.59759408 -0.00014283 0.00015030 0.00007910
0.57742119 0.38426808 0.47699431 0.00004056 0.00008272 -0.00000038
0.38890508 0.38499525 0.41222861 0.00023081 -0.00023494 -0.00051704
0.32869169 0.73064190 0.47558835 -0.00010814 -0.00011578 -0.00014285
0.16602756 0.56616437 0.50732553 0.00012490 0.00010400 0.00012346
0.46468225 0.33945617 0.46930060 -0.00008432 0.00007165 -0.00006239
0.57532841 0.29659835 0.41811267 0.00046600 -0.00080194 0.00053578
0.84719622 0.51541108 0.41770476 0.00025484 0.00039396 -0.00090445
0.58617562 0.58174497 0.55657846 0.00011447 -0.00010561 0.00075319
0.81055534 0.43578669 0.63767791 0.00003351 0.00091123 0.00098287
0.61547047 0.59256589 0.44414327 0.00021834 0.00005298 -0.00093328
0.15349045 0.30507311 0.41742373 -0.00058407 -0.00058750 -0.00108667
0.48961410 0.26469374 0.63137865 0.00038888 -0.00102946 0.00077552
0.32450658 0.71781737 0.49465317 0.00001478 -0.00005553 -0.00000712
0.25865775 0.21024694 0.37387285 -0.00069547 -0.00013758 -0.00145798
0.09787769 0.54327756 0.59990466 -0.00087219 0.00060451 0.00090479
0.44460166 0.25241899 0.36385098 0.00035665 -0.00090032 -0.00093194
0.18171294 0.50915754 0.57058579 0.00025850 0.00019434 -0.00007489
0.38821292 0.73482746 0.58228344 -0.00010763 0.00076505 0.00085020
0.41387448 0.64547557 0.45036522 -0.00005459 0.00022014 -0.00004264
0.64076889 0.31956705 0.63731861 0.00060889 -0.00123351 0.00098875
0.16359736 0.52838159 0.64525229 -0.00023530 -0.00011653 0.00115946
0.65439284 0.32592180 0.37211931 0.00026149 -0.00118953 -0.00079421
0.30705953 0.59177595 0.38968873 -0.00019787 -0.00013298 0.00038117
0.20968305 0.19865708 0.49174866 -0.00054967 0.00045217 0.00000322
0.69960910 0.43145564 0.50539458 0.00006967 0.00025072 0.00008036
0.44703415 0.47564179 0.57616013 0.00003050 0.00009393 0.00046456
0.37709302 0.68018287 0.39063826 0.00027191 -0.00010839 -0.00080194
0.90593225 0.46124431 0.40744916 0.00084895 0.00132947 -0.00110656
0.38936511 0.66498131 0.50098020 0.00023485 0.00050415 0.00003300
0.12851855 0.27760917 0.50783819 -0.00044604 -0.00180812 -0.00024671
0.33658123 0.49353817 0.50010538 -0.00034363 0.00025830 0.00009177
0.31972942 0.20321962 0.62116581 -0.00017640 -0.00135729 0.00077117
0.73864144 0.36068636 0.35729709 0.00036559 -0.00089764 -0.00112548
0.10961942 0.50085258 0.39979655 -0.00080724 0.00008053 -0.00070047
0.12382823 0.30424547 0.55959755 -0.00107932 -0.00071093 0.00103857
0.04600846 0.46022063 0.49596676 -0.00160790 -0.00020343 -0.00005990
0.45833474 0.25402108 0.46976230 0.00018072 -0.00062877 -0.00013123
0.36896867 0.22404553 0.37052903 -0.00006888 -0.00118528 -0.00066796
0.39407259 0.57598966 0.53375435 -0.00011285 0.00003002 0.00012220
0.53440779 0.28169331 0.43200406 0.00045151 -0.00068515 0.00025660
0.09703002 0.64596623 0.53618407 0.00001469 -0.00011768 0.00109636
0.43380490 0.48646542 0.42607313 -0.00000906 -0.00011506 -0.00055144
0.15599705 0.77360344 0.56331605 -0.00035136 0.00066514 0.00172788
0.07833919 0.42734647 0.44871262 -0.00049900 -0.00014204 -0.00126762
0.36864951 0.62595344 0.63431913 0.00046153 -0.00027815 0.00052868
0.40895894 0.31175846 0.40988800 0.00008322 -0.00009044 0.00009211
0.43469122 0.68153030 0.54943335 -0.00036906 -0.00010879 0.00012210
0.07318135 0.41470614 0.55515730 -0.00097954 -0.00020935 0.00107074
0.66494453 0.58298558 0.44512779 -0.00004061 -0.00013046 -0.00095116
0.09679174 0.63077432 0.53560317 0.00010132 -0.00004243 0.00095886
0.73124897 0.46887732 0.46972290 0.00004732 -0.00002716 -0.00017613
0.29380387 0.75384623 0.54343313 -0.00007429 -0.00025877 0.00064040
0.42083505 0.24032618 0.49568778 -0.00027912 -0.00090228 -0.00024546
0.81005466 0.37728578 0.63417536 0.00070450 -0.00132074 0.00078172
0.15120669 0.58029979 0.51274008 0.00023271 0.00021992 0.00006555
0.23561311 0.28105029 0.39345273 0.00036511 -0.00075819 -0.00077658
0.04760281 0.44078311 0.49532247 -0.00166669 -0.00026368 -0.00013771
0.20570758 0.33205551 0.59477824 -0.00074596 0.00042324 0.00090796
0.31021640 0.82605612 0.49918661 0.00041376 0.00204557 -0.00004028
0.17599805 0.53056353 0.65090942 -0.00015982 -0.00008109 0.00117704
0.09363030 0.35326752 0.55467439 -0.00100613 -0.00027062 0.00112502
0.55399859 0.28759375 0.62971336 0.00049565 -0.00109222 0.00075180
0.25452998 0.23254533 0.38414255 -0.00058392 0.00015108 -0.00057445
0.37844568 0.67975175 0.61916625 0.00011231 0.00007767 0.00087302
0.23532890 0.23046030 0.46910444 0.00003792 -0.00003935 -0.00000035
0.54383582 0.66438466 0.51078761 -0.00036214 0.00082576 0.00018445
0.56961805 0.53199309 0.51387727 0.00031054 -0.00054698 -0.00002276
0.37452188 0.54588449 0.51658905 -0.00016055 0.00022689 0.00009400
0.66702867 0.58011061 0.55360979 -0.00002027 0.00002797 0.00094384
0.35623676 0.52250022 0.49798161 -0.00020874 0.00036828 0.00005216
0.75988305 0.44164214 0.36886054 -0.00007184 0.00087935 -0.00062449
0.08419185 0.37938130 0.55465388 -0.00091976 -0.00011961 0.00113836
0.33940226 0.62376654 0.40218219 -0.00012563 -0.00032812 0.00034980
0.29022816 0.59964323 0.63534272 -0.00048061 0.00042603 -0.00015461
0.16923222 0.56346601 0.51994967 0.00014482 0.00005056 0.00014814
0.80230749 0.48811290 0.41844282 -0.00053807 -0.00005614 -0.00016628
0.25499153 0.23913337 0.39717263 -0.00028212 0.00000293 0.00005595
0.26804346 0.36288965 0.40380520 -0.00010476 -0.00005045 -0.00069360
0.42662480 0.68791914 0.46452579 -0.00045587 -0.00020040 0.00034686
0.26098564 0.74146003 0.50344872 -0.00029062 -0.00012052 0.00001955
0.29028180 0.54778719 0.35430980 0.00035710 -0.00042113 0.00003807
0.66172034 0.32782131 0.63767427 0.00077724 -0.00120682 0.00091633
0.55145794 0.35016519 0.64151192 -0.00030594 0.00041091 0.00100971
0.23627888 0.23258990 0.53083622 0.00001626 -0.00034938 -0.00028858
0.23445714 0.78460348 0.46988502 0.00015482 0.00039654 -0.00061909
0.41975659 0.23991552 0.63168561 0.00009963 -0.00104416 0.00074707
0.36491275 0.59136802 0.47247756 -0.00014295 -0.00002777 -0.00020375
0.58945036 0.35250306 0.36018068 -0.00022126 0.00027090 -0.00116106
0.90155751 0.48422918 0.58285230 0.00109077 0.00110238 0.00089115
0.11887913 0.68639976 0.45291680 -0.00028691 -0.00021922 -0.00101538
0.28706989 0.25597337 0.59557319 -0.00002448 0.00013681 0.00006554
0.22078632 0.17241323 0.54749292 -0.00080720 -0.00114619 0.00022711
0.32273579 0.64965701 0.38289154 -0.00072820 0.00023306 -0.00004695
0.92419970 0.43290401 0.40734681 0.00138555 0.00029512 -0.00150284
0.81257492 0.57992554 0.49914721 0.00082716 0.00130450 0.00019957
0.75453967 0.41043645 0.64486164 -0.00008445 0.00071989 0.00104587
0.83005881 0.38420716 0.63319540 0.00054591 -0.00136686 0.00094528
0.44516781 0.69053668 0.55102271 -0.00021861 -0.00001678 0.00033679
0.71417749 0.43414462 0.53514886 0.00008497 0.00024262 -0.00002778
0.27277336 0.53482246 0.35644895 0.00032116 -0.00045774 0.00018841
0.66152793 0.63980389 0.49749243 0.00075627 0.00119589 -0.00006671
0.55411828 0.57215285 0.55845159 0.00011482 -0.00001114 0.00064619
0.28881934 0.25781327 0.38596338 -0.00009738 0.00024072 -0.00017740
0.35463199 0.63684618 0.59363723 -0.00028351 -0.00021768 -0.00039457
0.35165548 0.40373385 0.59406972 0.00036322 0.00042383 0.00061325
0.46162221 0.31496859 0.63634002 -0.00049329 0.00045482 0.00076218
0.46148255 0.25852999 0.36465725 0.00047783 -0.00092182 -0.00090900
0.87935191 0.53804231 0.49478349 0.00130846 0.00099242 -0.00002877
0.50494844 0.55475330 0.43861890 0.00013592 0.00010092 -0.00050961
0.87683254 0.40128452 0.39596161 0.00027008 -0.00134999 0.00002288
0.40817654 0.68195593 0.48878643 -0.00009148 0.00000344 0.00016168
0.36684752 0.69008154 0.51322418 -0.00001795 0.00004867 0.00001078
0.32055116 0.26114845 0.37031394 -0.00029390 0.00043173 -0.00060981
0.22176903 0.34389821 0.40303123 -0.00044679 0.00030487 -0.00072473
0.21112551 0.66095084 0.49612090 -0.00000323 -0.00014747 0.00007213
0.50751776 0.70393014 0.49245167 0.00082805 0.00059073 -0.00005506
0.82984966 0.38385019 0.43659797 0.00060442 -0.00084097 0.00037551
0.46138433 0.25546584 0.63375384 0.00034610 -0.00092144 0.00092592
0.29530776 0.82708794 0.49929434 -0.00033577 0.00205573 -0.00003992
0.89331287 0.48145950 0.59289736 0.00087643 0.00099643 0.00111837
0.60981655 0.37524033 0.64091074 -0.00024950 0.00074773 0.00085890
0.69189596 0.56825459 0.55141014 -0.00003425 -0.00005571 0.00081621
0.13790284 0.50861502 0.37393382 -0.00039398 0.00008700 -0.00107413
0.21506414 0.17206943 0.53507632 -0.00091860 -0.00111039 0.00009130
0.35106772 0.76862204 0.53367805 -0.00024494 0.00030346 0.00064157
0.38738677 0.71908933 0.59509152 0.00006124 0.00041017 0.00096346
0.16917674 0.30024818 0.40947735 -0.00037982 -0.00063208 -0.00114069
0.69283956 0.33488226 0.54145646 0.00039945 -0.00064556 -0.00022025
0.46775320 0.38153273 0.49220702 0.00021359 -0.00027433 -0.00009709
0.54478943 0.58129478 0.44000182 -0.00013218 0.00009859 -0.00073022
0.90448612 0.51709217 0.49175474 0.00136208 0.00102163 -0.00017167
0.61603707 0.37214115 0.36113474 -0.00041217 0.00033404 -0.00099041
0.30787760 0.38284153 0.59452039 -0.00034212 0.00001822 0.00059325
0.48603886 0.73113757 0.49178663 0.00085712 0.00115431 0.00003241
0.37078303 0.69176954 0.46028015 -0.00025706 -0.00028287 0.00041504
0.33824244 0.75400764 0.53686875 -0.00008173 -0.00006021 0.00038115
0.30787715 0.71228898 0.49997923 0.00010932 -0.00003435 -0.00002090
0.63749874 0.40747872 0.48407507 0.00010371 0.00017891 0.00002569
0.42206177 0.29965839 0.36601472 -0.00045213 0.00067264 -0.00057810
0.64281619 0.38880017 0.36191416 -0.00040001 0.00048164 -0.00090297
0.63523495 0.64729685 0.50045258 0.00016294 0.00133571 0.00001019
0.29444143 0.78086674 0.54611266 -0.00005759 0.00037082 0.00117347
0.20513915 0.54053968 0.66042966 -0.00021232 0.00004482 0.00112532
0.21920149 0.81538802 0.50379962 0.00102653 0.00076916 0.00007324
0.17920907 0.56038743 0.36306107 -0.00055085 0.00125668 -0.00041859
0.76818866 0.56596845 0.44228834 0.00017089 0.00031015 -0.00121128
0.54671168 0.28618175 0.42800313 0.00052058 -0.00069740 0.00033380
0.46739346 0.51141089 0.57225609 0.00003573 0.00021925 0.00051664
0.08726146 0.32263118 0.49959153 -0.00178084 -0.00090313 -0.00004944
0.25256863 0.41039416 0.50027061 -0.00051782 0.00027320 -0.00004382
0.43610093 0.61932313 0.45694393 -0.00009537 0.00006307 -0.00023191
0.10812328 0.79607189 0.50415659 -0.00178654 0.00134510 -0.00003324
0.18391714 0.51655447 0.34824067 0.00008634 -0.00030862 -0.00125558
0.22594140 0.77058607 0.55152071 0.00055024 0.00016053 0.00080236
0.59253448 0.30286255 0.41164562 0.00039499 -0.00087804 0.00057390
0.93914294 0.42644969 0.57078177 0.00121768 -0.00075317 0.00196495
0.62828952 0.55460495 0.53374004 -0.00005373 -0.00106665 -0.00014334
0.22008008 0.32002455 0.59749311 -0.00030473 0.00005547 0.00099243
0.58497465 0.29732642 0.57743484 0.00003244 -0.00097292 -0.00051649
0.30742469 0.45152256 0.48502430 -0.00044876 0.00019788 0.00003798
0.43049383 0.24740580 0.36340714 0.00013118 -0.00095173 -0.00094636
0.16128995 0.45605555 0.50172919 0.00052037 0.00006135 -0.00012736
0.19644970 0.52299112 0.41821864 0.00029760 0.00003371 0.00028571
0.92296284 0.49836907 0.50198579 0.00163685 0.00091595 0.00010800
0.43119186 0.73961878 0.54461712 0.00074900 0.00036290 0.00069605
0.10684862 0.71128207 0.54368800 -0.00040871 -0.00013568 0.00155998
0.70379186 0.56145853 0.55138785 -0.00006183 -0.00012530 0.00075613
0.24884644 0.27694342 0.39234087 0.00040743 -0.00066032 -0.00064639
0.12682140 0.53227508 0.62715077 -0.00059185 0.00010604 0.00124278
0.50280243 0.31533921 0.36133346 -0.00020679 0.00045877 -0.00112756
0.45035064 0.50829571 0.42950788 -0.00008722 -0.00005594 -0.00054209
0.26302114 0.22380134 0.60809022 -0.00067342 0.00017188 0.00091890
0.76674300 0.36112931 0.50740337 0.00058796 -0.00054940 0.00012564
0.16809079 0.56873053 0.62494433 -0.00004282 0.00094651 0.00028451
0.38113895 0.55900884 0.51059240 -0.00011994 0.00010352 0.00000893
0.48886877 0.54659760 0.43567574 0.00002988 0.00019478 -0.00055053
0.77470440 0.53436357 0.56542617 -0.00027424 0.00003216 0.00094638
0.31849974 0.58835077 0.60661775 -0.00021979 -0.00004461 -0.00028701
0.12452899 0.81305015 0.50256968 -0.00141417 0.00188348 -0.00016793
0.24220021 0.51852322 0.64095080 0.00005187 -0.00062648 -0.00002426
0.23376547 0.40494621 0.50643432 -0.00058440 0.00034488 -0.00015702
0.18464974 0.27143091 0.58234072 -0.00042420 -0.00112955 0.00075911
0.21764897 0.24073818 0.47030339 0.00010654 -0.00044487 -0.00006486
0.77871847 0.59746540 0.49794275 0.00097691 0.00125534 0.00015028
0.47658318 0.25995564 0.63311809 0.00042091 -0.00099406 0.00088770
0.33703691 0.43027011 0.42332825 -0.00023145 0.00032454 -0.00039075
0.27165601 0.53106552 0.64751238 0.00019794 -0.00060880 0.00021350
0.37967035 0.56815106 0.49754429 -0.00006167 0.00003047 -0.00003007
0.75105584 0.35536575 0.51843745 0.00052607 -0.00055252 0.00009609
0.70749450 0.34452304 0.63916135 0.00034251 -0.00142772 0.00083863
0.18969660 0.77304131 0.56362623 0.00030704 0.00042746 0.00149461
0.35190132 0.21953483 0.63597983 -0.00003161 -0.00091482 0.00126293
0.47252354 0.69143754 0.44442749 0.00017041 0.00019705 -0.00096990
0.29465520 0.80248988 0.54185122 -0.00006705 0.00094948 0.00164965
0.25131938 0.79427791 0.50777626 -0.00019323 -0.00007282 0.00021174
0.29405352 0.74066973 0.53993094 -0.00005333 -0.00036406 0.00044508
0.35666698 0.60848814 0.53474540 -0.00028566 0.00018355 0.00034597
0.76310730 0.36095285 0.43833831 0.00030296 -0.00080736 0.00004016
0.12203239 0.50419438 0.38726491 -0.00068860 0.00004184 -0.00083840
0.24684779 0.74443322 0.49851972 0.00002849 -0.00012507 0.00013419
0.23023790 0.17432229 0.46600273 0.00040588 -0.00100687 0.00010425
0.08742426 0.58566588 0.46198937 0.00022627 0.00029507 -0.00118867
0.32307050 0.47412974 0.49986535 -0.00041573 0.00018861 0.00007890
0.22410329 0.23916246 0.50565279 0.00009821 -0.00052957 -0.00023208
0.40667331 0.68359536 0.50745976 -0.00001073 -0.00007074 -0.00003241
0.45815879 0.51902223 0.43086034 -0.00006976 0.00009685 -0.00054218
0.17579977 0.50355470 0.53515077 0.00019119 0.00000325 0.00007857
0.08178212 0.44968945 0.44412053 -0.00039152 -0.00045090 -0.00093717
0.16433179 0.46862039 0.50550312 0.00040044 -0.00002783 -0.00013020
0.16844732 0.48053178 0.51112479 0.00027457 -0.00006271 -0.00009222
0.17231500 0.55671197 0.54093480 0.00024241 -0.00005220 0.00017842
0.38305083 0.29734868 0.60116798 -0.00011772 0.00015551 0.00000493
0.69261032 0.33726972 0.41663337 0.00037220 -0.00090363 0.00063005
0.28011349 0.72794431 0.50335449 -0.00034136 -0.00007992 -0.00008358
0.78940791 0.53351939 0.56748253 -0.00015119 0.00022655 0.00100260
0.55856347 0.29058650 0.42272159 0.00049908 -0.00074528 0.00041847
0.22982408 0.51493412 0.63747919 0.00009201 -0.00058760 -0.00010259
0.40073311 0.67599231 0.49836588 0.00011118 0.00021758 0.00001602
0.50773060 0.27140635 0.63027084 0.00039651 -0.00103938 0.00071618
0.21044111 0.17045459 0.49937013 -0.00085080 -0.00115533 -0.00006124
0.91622788 0.47959042 0.43674123 0.00110304 0.00123848 -0.00082000
0.51973337 0.34029430 0.63831496 -0.00037538 0.00047133 0.00085379
0.25922528 0.80458397 0.50491005 -0.00050223 0.00040954 0.00016506
0.31510273 0.59113610 0.34283635 0.00037375 0.00009181 -0.00093600
0.41166484 0.77343196 0.49920917 0.00010645 0.00149523 -0.00004589
0.19982898 0.26621351 0.58725113 -0.00019487 -0.00112693 0.00074913
0.22660033 0.53576887 0.60043579 -0.00017883 0.00003606 -0.00024148
0.30441102 0.24677230 0.61888385 -0.00048275 0.00057521 0.00065785
0.41544950 0.74435228 0.45317331 0.00046696 0.00076812 -0.00050363
0.07662339 0.49214599 0.43632421 -0.00109845 0.00016223 -0.00066865
0.35704023 0.65787214 0.37077007 0.00012271 0.00008484 -0.00102626
0.05023447 0.55320770 0.49451336 -0.00120325 0.00051321 -0.00016827
0.72369146 0.43658164 0.54650307 0.00007821 0.00021411 -0.00001125
0.33430928 0.81232250 0.49854672 0.00111780 0.00121651 -0.00009019
0.08250156 0.59935808 0.46609390 0.00020773 0.00025182 -0.00137266
0.60180104 0.65547788 0.50815076 0.00011942 0.00126007 0.00031584
0.23323976 0.17381249 0.57188904 -0.00067038 -0.00136459 0.00073672
0.33518058 0.72751957 0.52480376 -0.00008895 -0.00016925 0.00007514
0.40355721 0.58541304 0.53925323 -0.00010107 0.00009292 0.00020460
0.07690398 0.72260416 0.49974164 -0.00161298 0.00043834 -0.00012544
0.73973608 0.46842352 0.45908439 0.00008200 0.00005487 -0.00014649
0.17982435 0.54489130 0.57137340 0.00038198 -0.00013455 -0.00001643
0.06001488 0.38414529 0.49513125 -0.00172420 -0.00069009 -0.00009800
0.06435321 0.66663760 0.49676144 -0.00153152 0.00011602 -0.00005057
0.05622359 0.61499023 0.49926773 -0.00130972 0.00052688 0.00019472
0.59189606 0.38987431 0.47743645 0.00005050 0.00009772 0.00000284
0.83304161 0.52897447 0.42551881 0.00036122 0.00006342 -0.00117043
0.27670968 0.75888890 0.46170872 -0.00014713 -0.00026575 -0.00055113
0.12748991 0.57176906 0.58668131 0.00019449 0.00094920 0.00020724
0.24664180 0.75183028 0.52325726 0.00003586 -0.00028726 -0.00009573
0.42469868 0.76908088 0.50006282 0.00039968 0.00146106 0.00004318
0.25031167 0.57960355 0.64070976 -0.00039177 0.00076570 -0.00001872
0.39267510 0.63281846 0.46043265 -0.00004801 0.00020647 -0.00016339
0.78013414 0.45030019 0.59465045 -0.00020448 0.00048899 -0.00025789
0.70540214 0.57889324 0.44317916 0.00007812 0.00006629 -0.00114242
0.27535090 0.59009886 0.63868332 -0.00043012 0.00054620 -0.00007948
0.94250357 0.42453200 0.44851297 0.00166750 -0.00078314 -0.00037067
0.29438549 0.76756656 0.54568249 -0.00006416 -0.00004987 0.00091021
0.49060091 0.53821313 0.56847888 0.00017729 0.00030820 0.00055093
0.59887600 0.58682734 0.55754662 0.00012868 -0.00002200 0.00087859
0.61824399 0.30893853 0.56916606 0.00012956 -0.00089975 -0.00037544
0.17438230 0.50353569 0.52165711 0.00017885 -0.00010540 0.00012582
0.21335700 0.54164243 0.60158181 0.00004865 -0.00001907 -0.00039882
0.38404691 0.22972678 0.36684963 -0.00008975 -0.00112420 -0.00083211
0.50681973 0.33574721 0.63701439 -0.00038762 0.00047102 0.00079603
0.29188707 0.37448677 0.59480554 -0.00030661 0.00005250 0.00059969
0.26882559 0.81627208 0.50154507 -0.00083137 0.00109568 0.00005311
0.36889994 0.59137803 0.53916317 -0.00014601 -0.00000014 0.00030568
0.17614220 0.50332117 0.54890579 0.00023814 0.00009973 0.00002261
0.56986779 0.29212901 0.58043164 0.00005526 -0.00097031 -0.00064213
0.45644253 0.33424377 0.45945019 -0.00007045 0.00008741 -0.00009143
0.94631898 0.42562661 0.46260944 0.00171112 -0.00069813 -0.00028012
0.24593420 0.76449835 0.53079361 0.00006522 -0.00018948 0.00008663
0.29263970 0.56253749 0.33803371 0.00033342 -0.00021968 -0.00085232
0.47727436 0.64463151 0.45383540 -0.00001818 -0.00006826 -0.00046701
0.56685317 0.29216084 0.63066286 0.00050633 -0.00111342 0.00083266
0.36157364 0.27456915 0.36608657 -0.00041690 0.00055727 -0.00067815
0.11349802 0.29061696 0.50435615 -0.00097762 -0.00154671 -0.00020232
0.78826153 0.36924848 0.46980524 0.00071119 -0.00058609 -0.00017370
0.94579601 0.42803541 0.55586678 0.00153960 -0.00061382 0.00144397
0.40315986 0.63895261 0.45491502 -0.00003893 0.00020427 -0.00009526
0.70855808 0.39384428 0.64618546 -0.00002415 0.00079366 0.00109218
0.20225373 0.50817716 0.62990707 0.00037837 -0.00051845 -0.00012487
0.71918392 0.45101279 0.49159345 -0.00003561 0.00009082 0.00000086
0.40906259 0.75180656 0.55393362 0.00065980 0.00098241 0.00048438
0.21542385 0.20566164 0.53070903 -0.00041997 0.00074353 -0.00014774
0.48944998 0.26531810 0.45381680 0.00026438 -0.00059471 0.00005895
0.22198732 0.67259115 0.49598968 0.00015260 0.00001727 0.00006880
0.60403568 0.30708814 0.40558013 0.00039621 -0.00092169 0.00046299
0.37695876 0.69890964 0.39684609 -0.00009424 0.00025844 -0.00106918
0.37537041 0.63821179 0.62906802 0.00046226 -0.00031815 0.00050602
0.39771557 0.77651155 0.49867395 -0.00011738 0.00137810 -0.00010675
0.18462883 0.29498625 0.40237319 -0.00017366 -0.00075036 -0.00121368
0.27424309 0.22468767 0.36752540 -0.00058268 0.00011260 -0.00132069
0.78238112 0.36698651 0.48191515 0.00068321 -0.00056642 -0.00011626
0.33825698 0.39816537 0.59421659 0.00019586 0.00033354 0.00059903
0.34577030 0.63435000 0.40697849 -0.00014214 -0.00034234 0.00039080
0.24750538 0.23291823 0.57323974 -0.00006514 -0.00029757 -0.00049677
0.16995981 0.54434776 0.45136973 0.00024889 0.00008305 0.00005351
0.51977068 0.27845320 0.38026625 0.00039918 -0.00111869 -0.00059762
0.32242474 0.82073367 0.49863648 0.00089761 0.00169322 -0.00007698
0.49396881 0.64383757 0.45599550 -0.00000467 0.00014278 -0.00059471
0.28208852 0.37353861 0.40652055 -0.00005411 0.00000643 -0.00063781
0.16507713 0.72934085 0.43678397 -0.00038688 0.00026865 -0.00124823
0.78542018 0.42306906 0.64224136 0.00012023 0.00085505 0.00101635
0.39804661 0.30723822 0.40375382 0.00002352 -0.00003523 0.00009697
0.36164826 0.66549754 0.42563704 -0.00038961 -0.00044575 0.00048542
0.32785723 0.61008751 0.39645004 -0.00012370 -0.00022189 0.00035624
0.35331210 0.59956908 0.64228183 0.00044160 -0.00032594 0.00051540
0.47338212 0.62522131 0.54915553 -0.00028820 0.00019065 0.00057328
0.41031021 0.45473492 0.42003036 0.00015956 -0.00014648 -0.00064039
0.67532289 0.33159304 0.41314086 0.00036256 -0.00091841 0.00068990
0.23566723 0.22773767 0.49215394 0.00002969 -0.00006570 -0.00013686
0.07059107 0.35621113 0.49759856 -0.00175977 -0.00073167 -0.00004188
0.16737138 0.54324937 0.46603605 0.00023951 0.00001474 0.00011055
0.16386066 0.51241463 0.35765722 -0.00018342 -0.00018305 -0.00115097
0.44473854 0.72415119 0.54276019 0.00035826 0.00016492 0.00065686
0.75305945 0.36659497 0.35693327 0.00065343 -0.00072486 -0.00116333
0.51843143 0.55449951 0.56217963 0.00019308 0.00009462 0.00052181
0.38225529 0.69394100 0.61170328 0.00010505 0.00021159 0.00088478
0.46103555 0.61554962 0.54987860 -0.00030686 0.00022532 0.00048552
0.35545701 0.69838119 0.49783027 -0.00016119 0.00003175 0.00000034
0.56692505 0.35346669 0.64273977 -0.00031396 0.00031804 0.00107678
0.21208368 0.20638335 0.47993481 -0.00030549 0.00073632 0.00001524
0.66585219 0.52760184 0.49434397 -0.00012837 -0.00071604 -0.00008876
0.18150602 0.64837646 0.49160245 -0.00048853 -0.00025616 -0.00002100
0.43951523 0.76236600 0.49830276 0.00068851 0.00133442 0.00005459
0.14119482 0.59437448 0.50712597 0.00033301 0.00024379 0.00002848
0.29949602 0.44170442 0.48055503 -0.00046502 0.00020678 0.00005749
0.67901278 0.32997635 0.54735470 0.00024970 -0.00073346 -0.00018813
0.15099022 0.50281274 0.62573379 -0.00002631 -0.00081401 0.00054833
0.45550349 0.25176096 0.56424510 0.00039492 -0.00061674 -0.00017836
0.55284995 0.37354863 0.47742546 0.00001029 0.00006596 0.00000883
0.46002874 0.49914747 0.57341164 0.00002305 0.00012427 0.00048864
0.76940787 0.36909065 0.35890830 0.00059687 -0.00092318 -0.00108456
0.13823074 0.52946806 0.63361925 -0.00050142 -0.00003410 0.00121491
0.75118357 0.61004066 0.49875847 0.00070790 0.00136147 0.00019018
0.83987015 0.48025346 0.59485781 -0.00058673 0.00040648 0.00041766
0.18445420 0.50511783 0.63493025 0.00028308 -0.00074399 0.00030690
0.04608122 0.50596923 0.49504685 -0.00144466 0.00016071 -0.00000260
0.21343386 0.20553251 0.51724720 -0.00035077 0.00078799 -0.00008422
0.36859700 0.22496958 0.63707173 -0.00003700 -0.00093709 0.00116640
0.23744850 0.25646630 0.59229028 0.00052074 -0.00080632 0.00038186
0.41737154 0.29518270 0.63260698 -0.00052112 0.00060540 0.00056279
0.26082146 0.18582210 0.38591155 -0.00008202 -0.00147269 -0.00108809
0.23317744 0.25328803 0.41177794 -0.00001679 -0.00099677 0.00024371
0.28145871 0.77701539 0.45900887 -0.00015379 0.00009285 -0.00102038
0.21478219 0.57024986 0.35835120 -0.00008981 0.00104376 -0.00022733
0.29172385 0.24721524 0.36971641 -0.00027956 0.00032749 -0.00084549
0.84321260 0.45246255 0.62925583 0.00003604 0.00107270 0.00104830
0.89556843 0.40919453 0.38244903 0.00092398 -0.00101724 -0.00134996
0.93442261 0.48221233 0.50293368 0.00168881 0.00103956 0.00000772
0.53908587 0.51034838 0.50249720 0.00032931 -0.00038993 -0.00000755
0.26024348 0.18250649 0.59149307 -0.00020100 -0.00142693 0.00073277
0.64108127 0.32125965 0.37361819 0.00022134 -0.00119274 -0.00076588
0.25617892 0.55512071 0.38582969 0.00007809 0.00003250 0.00045786
0.30781212 0.58019245 0.60808432 -0.00016044 0.00001486 -0.00027665
0.08853295 0.36578870 0.55393541 -0.00094012 -0.00026165 0.00110859
0.14345405 0.76951879 0.56065172 -0.00065805 0.00054419 0.00171884
0.34048131 0.63033229 0.35778090 0.00018747 0.00008729 -0.00098786
0.36639124 0.69049984 0.49200189 -0.00002233 0.00004451 0.00002983
0.04545456 0.49282551 0.49688840 -0.00151130 -0.00009019 0.00011082
0.58453810 0.30128366 0.38036400 0.00032737 -0.00116037 -0.00074013
0.73383975 0.35098830 0.42818505 0.00037257 -0.00084144 0.00043494
0.85793751 0.49289724 0.59094006 -0.00020433 0.00070642 0.00083730
0.36389351 0.63109720 0.50740671 -0.00014194 0.00043853 0.00004179
0.22185543 0.17603761 0.56036294 -0.00100839 -0.00103114 0.00050738
0.27753824 0.59803975 0.35674179 -0.00057867 0.00064333 -0.00007402
0.45125154 0.61497658 0.45235747 -0.00020037 0.00019135 -0.00034060
0.74705899 0.44174671 0.57240480 -0.00001016 0.00023155 -0.00009239
0.63068515 0.53813690 0.49867228 0.00015977 -0.00069407 0.00012795
0.27814987 0.42399949 0.48584023 -0.00047677 0.00022245 0.00006196
0.10696593 0.58408606 0.55263120 0.00009823 0.00053568 0.00046964
0.10291091 0.69066358 0.54159606 -0.00024737 -0.00012424 0.00147238
0.94007975 0.42464432 0.43301451 0.00176457 -0.00069766 -0.00100054
0.61519533 0.31217459 0.37507796 0.00029043 -0.00116626 -0.00085569
0.38673493 0.74476975 0.57285088 -0.00025351 0.00101355 0.00066692
0.06081934 0.64570886 0.49707016 -0.00145900 0.00015419 0.00002641
0.19215137 0.53877592 0.40963560 0.00036822 0.00013136 0.00043567
0.22401097 0.17132364 0.51032943 -0.00007234 -0.00106244 -0.00024119
0.36710405 0.67761308 0.38210842 0.00003423 0.00016110 -0.00104633
0.24580598 0.18102671 0.39472970 -0.00037706 -0.00153460 -0.00107472
0.91908371 0.49002552 0.46290055 0.00129835 0.00086840 -0.00091341
0.23678045 0.54327911 0.66576302 -0.00012695 -0.00012811 0.00110185
0.16031632 0.44225103 0.49735504 0.00058553 0.00013486 -0.00006423
0.78631788 0.36878735 0.63602489 0.00073494 -0.00135769 0.00074278
0.29277024 0.58024019 0.38674009 -0.00016308 -0.00005865 0.00041883
0.21334472 0.18672889 0.43443289 -0.00116719 -0.00046479 -0.00021486
0.37324899 0.69675636 0.54703313 -0.00026786 -0.00044227 -0.00027410
0.31983718 0.25038263 0.36255586 -0.00036949 0.00037447 -0.00101600
0.31582081 0.40441504 0.41595533 -0.00007612 0.00021773 -0.00047916
0.11633842 0.53731167 0.61985153 -0.00068150 0.00033140 0.00121284
0.10048570 0.59669143 0.53972584 0.00017068 0.00031390 0.00062268
0.29254195 0.58053762 0.33597183 0.00004941 0.00022741 -0.00109643
0.39166892 0.72813940 0.42416227 0.00001483 0.00082155 -0.00060224
0.65116638 0.58614653 0.44534197 -0.00000991 -0.00008894 -0.00095048
0.41456425 0.30934554 0.59504151 0.00001847 0.00010147 -0.00025910
0.23029158 0.53461206 0.33509505 0.00020957 -0.00012865 -0.00116399
0.80262947 0.53391594 0.56845433 0.00018365 0.00042745 0.00104584
0.44558209 0.32772124 0.44121647 -0.00007436 0.00005793 -0.00003697
0.34543946 0.79888231 0.49619246 0.00083990 0.00071870 -0.00022940
0.35469934 0.64557290 0.36601105 0.00027363 -0.00003857 -0.00098873
0.68347979 0.51697004 0.48327267 -0.00019270 -0.00062104 -0.00005161
0.31015229 0.63024586 0.37339172 -0.00065831 0.00027613 -0.00007022
0.53306407 0.34223610 0.64109856 -0.00031667 0.00041528 0.00100646
0.22174811 0.54233199 0.66371071 -0.00020783 -0.00003450 0.00110440
0.61608940 0.59089196 0.55791038 0.00012161 0.00006555 0.00099393
0.44572490 0.60929948 0.54740381 -0.00030787 0.00025134 0.00037114
0.67372811 0.33357075 0.36426070 0.00005650 -0.00125325 -0.00103407
0.90857440 0.48732120 0.57154989 0.00122873 0.00123287 0.00065770
0.77497041 0.36489418 0.44366804 0.00042325 -0.00075013 -0.00010287
0.72248358 0.35348624 0.35851172 -0.00006830 -0.00118073 -0.00103590
0.14043720 0.30806133 0.42529505 -0.00077684 -0.00069462 -0.00100690
0.18414724 0.74130183 0.43587491 -0.00011081 0.00046365 -0.00125696
0.35371009 0.26675010 0.62602848 -0.00047989 0.00074354 0.00049832
0.20203272 0.56972677 0.63225269 -0.00005018 0.00075208 -0.00004447
0.38446870 0.62136590 0.46177363 -0.00003729 0.00014951 -0.00027079
0.38403255 0.23060036 0.63674021 0.00002341 -0.00088917 0.00109257
0.37571612 0.67685723 0.57237113 -0.00028524 -0.00053044 -0.00056865
0.59707022 0.36209291 0.64463335 -0.00023924 0.00037229 0.00115412
0.05834320 0.63014358 0.49764097 -0.00138936 0.00032266 0.00008463
0.42292568 0.24016882 0.55195630 0.00012132 -0.00078682 0.00021324
0.49263188 0.32756570 0.63852328 -0.00039043 0.00042347 0.00088965
0.44760987 0.73601890 0.46367306 0.00024781 0.00045335 -0.00111895
0.11136615 0.32041156 0.55786449 -0.00115302 -0.00049381 0.00114838
0.04772879 0.53310406 0.49577767 -0.00133296 0.00039293 -0.00003467
0.86194390 0.55028981 0.49495220 0.00127413 0.00100346 -0.00004537
0.38362736 0.70765179 0.40554056 0.00000496 0.00033143 -0.00095661
0.56498641 0.37889153 0.47817850 0.00002749 0.00007019 -0.00000404
0.16326584 0.65609586 0.48343137 -0.00030463 -0.00038066 -0.00004996
0.11724293 0.57599598 0.56959850 0.00015414 0.00076363 0.00030722
0.29576385 0.80680591 0.46574587 -0.00013068 0.00073488 -0.00207680
0.34267309 0.27282652 0.37377870 -0.00033248 0.00046515 -0.00043394
0.88282621 0.47811887 0.60308522 0.00058084 0.00097694 0.00124946
0.10259984 0.66621101 0.46001777 -0.00007714 -0.00025365 -0.00112311
0.25254408 0.22064990 0.60059994 -0.00071790 0.00006803 0.00072239
0.20375986 0.50460726 0.40459284 0.00029599 0.00000245 0.00039019
0.52356517 0.56856006 0.43941244 0.00001516 0.00010282 -0.00060813
0.07773664 0.39925542 0.55493540 -0.00091725 -0.00015619 0.00112259
0.52747464 0.66581494 0.50569272 -0.00025159 0.00049988 -0.00007312
0.74157828 0.40669790 0.64527184 -0.00004929 0.00079932 0.00103356
0.41852573 0.39972562 0.58275956 0.00027950 -0.00031788 0.00028376
0.21952346 0.26125124 0.59044850 0.00037470 -0.00111989 0.00059072
0.24552266 0.54615480 0.60444540 -0.00023803 -0.00000422 -0.00024256
0.92639613 0.48526114 0.53923225 0.00142472 0.00128091 0.00049656
0.41533357 0.24171181 0.36443943 0.00002627 -0.00099630 -0.00088410
0.17251919 0.77513504 0.56463534 0.00000896 0.00063881 0.00166926
0.36948153 0.69201326 0.47349706 -0.00010959 -0.00011143 0.00022683
0.24860905 0.74450684 0.48478171 0.00006292 -0.00018250 0.00021712
0.22473221 0.57313329 0.63536185 -0.00020351 0.00070465 -0.00008643
0.17205079 0.50096720 0.50742877 0.00020751 -0.00017535 0.00008257
0.20526738 0.30342191 0.59719706 -0.00023324 0.00033068 0.00132052
0.52298713 0.27672607 0.62993479 0.00032447 -0.00109033 0.00071380
0.34102550 0.58429295 0.64643103 0.00036565 -0.00035267 0.00050617
0.57977587 0.59679830 0.44110370 0.00009933 0.00040078 -0.00093417
0.52153105 0.53899419 0.55041605 0.00046489 -0.00036451 -0.00001561
0.33811966 0.61676425 0.65120775 -0.00002932 0.00021861 0.00104489
0.21630563 0.75308585 0.44401047 0.00042851 0.00043199 -0.00085664
0.38688144 0.71940720 0.41464201 -0.00006920 0.00060505 -0.00084214
0.31968346 0.59983242 0.65776986 -0.00012006 0.00027098 0.00107528
0.91783321 0.48696065 0.55751252 0.00133096 0.00130675 0.00051516
0.55722243 0.66253340 0.51349580 -0.00033824 0.00098340 0.00037089
0.43795997 0.32475260 0.57126337 0.00016336 -0.00017662 -0.00024433
0.47804427 0.32358754 0.63563514 -0.00041128 0.00045438 0.00073648
0.10549527 0.54139882 0.61063504 -0.00079807 0.00052221 0.00113252
0.32626969 0.63577431 0.62427717 -0.00072086 0.00023201 -0.00009806
0.49255136 0.26483560 0.57410145 0.00029849 -0.00071092 -0.00057847
0.29487345 0.19780214 0.37743357 0.00040174 -0.00140556 -0.00080183
0.44615102 0.24941534 0.63050503 0.00019038 -0.00097691 0.00069220
0.13783692 0.70857590 0.44362801 -0.00047286 0.00005111 -0.00113853
0.08127189 0.61481786 0.46742907 0.00009593 0.00013446 -0.00144402
0.50800437 0.48409459 0.49161091 0.00032645 -0.00038514 -0.00004125
0.41283521 0.38100886 0.58603328 0.00030059 -0.00056918 0.00030643
0.12485097 0.75114584 0.55415094 -0.00088355 -0.00002033 0.00161329
0.95267195 0.42870709 0.52977824 0.00207040 -0.00052377 -0.00016605
0.46790004 0.52859783 0.43248338 0.00000090 0.00017526 -0.00053701
0.38757896 0.56436241 0.52365416 -0.00012282 0.00005271 0.00005291
0.15011528 0.52766699 0.63920951 -0.00038804 -0.00012464 0.00116903
0.37664536 0.77777761 0.49810398 -0.00018188 0.00086150 -0.00012038
0.19685534 0.27862874 0.59225208 -0.00026452 -0.00061906 0.00116725
0.21231651 0.52872688 0.40281430 0.00029269 0.00007265 0.00042170
0.30601719 0.55107015 0.64761245 0.00021977 -0.00050865 0.00028369
0.34597817 0.50732261 0.49915469 -0.00028096 0.00031717 0.00007358
0.31521642 0.46174726 0.49003625 -0.00044361 0.00017722 0.00003374
0.07138371 0.44157162 0.56011325 -0.00094180 0.00003304 0.00107822
0.21651663 0.51176631 0.63152146 0.00019571 -0.00044033 -0.00017392
0.44299045 0.30288395 0.36383280 -0.00039431 0.00072198 -0.00076015
0.75404763 0.35803559 0.63836408 0.00079186 -0.00131638 0.00079149
0.50329679 0.54603601 0.56540203 0.00021172 0.00020250 0.00052646
0.78545386 0.55945671 0.44072261 0.00017820 0.00037545 -0.00116188
0.53902042 0.56507635 0.55900908 0.00016821 0.00001331 0.00055117
0.82646447 0.38405618 0.37261909 0.00100355 -0.00097122 -0.00060221
0.13773869 0.64225000 0.49351257 0.00032451 -0.00035066 0.00002340
0.24985601 0.54709971 0.66647929 -0.00006519 -0.00012882 0.00110287
0.62753326 0.31526917 0.40723270 0.00042099 -0.00091050 0.00066492
0.71101886 0.43851703 0.50484055 -0.00001235 0.00017237 0.00010106
0.73777103 0.35348216 0.63916081 0.00068097 -0.00130797 0.00082319
0.86453146 0.39683020 0.39337134 0.00039592 -0.00125316 0.00020746
0.36312300 0.77965480 0.51150703 -0.00004624 0.00055135 0.00043619
0.84675968 0.39066193 0.38638902 0.00071957 -0.00110832 0.00014488
0.41263968 0.23655400 0.54204071 -0.00012069 -0.00089884 0.00021757
0.34593651 0.70920026 0.49576554 -0.00017280 -0.00002850 0.00001582
0.30289125 0.62057692 0.36783144 -0.00064442 0.00036341 -0.00008141
0.08606818 0.75331682 0.50147182 -0.00176529 0.00057750 -0.00019771
0.93188053 0.48329362 0.52298957 0.00157249 0.00118154 0.00035446
0.34484360 0.28177926 0.59822708 -0.00017245 0.00007468 0.00010069
0.42538971 0.68242478 0.53972989 -0.00048867 -0.00018798 -0.00011790
0.22870037 0.17326951 0.49217677 0.00031468 -0.00090797 -0.00001586
0.34346062 0.21494317 0.37643266 0.00004397 -0.00126566 -0.00042926
0.93339944 0.42795354 0.41646647 0.00172343 -0.00024362 -0.00138300
0.25450358 0.35611972 0.40259239 -0.00023380 -0.00002111 -0.00071713
0.25480601 0.52320111 0.64492851 0.00010263 -0.00063272 0.00011650
0.28885210 0.23455854 0.36458722 -0.00034663 0.00030102 -0.00127896
0.23023839 0.21218055 0.57153618 -0.00062385 0.00045816 -0.00003842
0.86572748 0.46009651 0.38050953 0.00079487 0.00047240 -0.00125795
0.36904570 0.69267726 0.52612901 -0.00008841 -0.00009333 -0.00002554
0.56088907 0.59184599 0.43999091 -0.00007029 0.00033145 -0.00086187
0.18762520 0.53619593 0.65546060 -0.00018417 0.00003359 0.00117467
0.72078013 0.34824520 0.63933045 0.00038440 -0.00140947 0.00083692
0.38665029 0.35454765 0.40955469 0.00023161 -0.00075453 -0.00044493
0.04547684 0.47603109 0.49609378 -0.00156233 -0.00018565 0.00001665
0.38588208 0.31544471 0.59844673 0.00006563 -0.00024794 0.00017264
0.73948824 0.35124248 0.52394921 0.00051445 -0.00055139 0.00001379
0.08925282 0.48524931 0.42757067 -0.00072538 -0.00025714 -0.00052471
0.35396314 0.77063978 0.47446874 -0.00014496 0.00022056 -0.00081031
0.47649628 0.26390791 0.36741397 0.00054169 -0.00097839 -0.00080629
0.37576041 0.54980588 0.49956408 -0.00013376 0.00023614 0.00002329
0.67298865 0.52512199 0.48344341 -0.00013479 -0.00074123 -0.00000590
0.28263420 0.57127786 0.33325741 0.00006762 0.00019730 -0.00115266
0.94979787 0.42706364 0.47619057 0.00181052 -0.00059673 -0.00031802
0.13830577 0.29197031 0.56367445 -0.00082339 -0.00098472 0.00090496
0.76902223 0.44791499 0.58751214 -0.00013257 0.00033930 -0.00016434
0.25087148 0.58206195 0.35507515 -0.00034018 0.00082840 -0.00003794
0.42738095 0.43208954 0.58139801 0.00009055 -0.00006282 0.00044142
0.55266029 0.33816466 0.36114156 -0.00021287 0.00028200 -0.00112933
0.23517017 0.23043846 0.51195955 0.00001650 -0.00023145 -0.00020857
0.19949882 0.74797070 0.43739289 0.00018352 0.00052666 -0.00117098
0.33461806 0.26258820 0.36607289 -0.00036115 0.00048119 -0.00075273
0.47683600 0.70355630 0.45069081 0.00026771 0.00041651 -0.00113690
0.20733286 0.18104309 0.49019644 -0.00095972 -0.00048358 0.00003665
0.20172803 0.29040232 0.59642577 -0.00018486 -0.00016573 0.00138919
0.26162004 0.55351514 0.66712278 0.00002286 -0.00002188 0.00113280
0.09105864 0.64950472 0.46435925 -0.00002690 -0.00016897 -0.00131059
0.05310762 0.58204013 0.49595159 -0.00119449 0.00052843 -0.00005674
0.24579686 0.74124086 0.51181513 0.00001838 -0.00011433 0.00001306
0.67714959 0.63572383 0.49803177 0.00085409 0.00123167 0.00002309
0.21481949 0.52797961 0.33764395 0.00009835 -0.00023015 -0.00123437
0.71682644 0.34342390 0.53230023 0.00043805 -0.00058322 -0.00013408
0.06716269 0.68113828 0.49660045 -0.00156527 0.00013463 -0.00012477
0.76567888 0.60353130 0.49670789 0.00093560 0.00127492 0.00006718
0.45074993 0.30750519 0.63817042 -0.00052434 0.00049435 0.00085975
0.20420144 0.29010627 0.39728585 0.00006702 -0.00077516 -0.00111359
0.17861879 0.49577639 0.42378482 0.00049567 -0.00005507 0.00039454
0.22437023 0.20824558 0.55977768 -0.00054192 0.00060970 -0.00010181
0.56980312 0.34743893 0.36111656 -0.00018070 0.00037747 -0.00109972
0.81654310 0.52997339 0.57012188 0.00061637 0.00035823 0.00109035
0.06911585 0.54380941 0.55648112 -0.00103835 0.00047512 0.00077771
0.16420901 0.48478419 0.47014618 0.00044479 -0.00012493 0.00039461
0.51686025 0.66620964 0.51737541 -0.00022389 0.00044434 0.00038993
0.23452491 0.69664770 0.49325308 0.00019957 0.00022734 0.00003589
0.43194950 0.31997815 0.42501676 -0.00000184 0.00002255 0.00006662
0.57033294 0.66124099 0.51005596 -0.00021241 0.00111379 0.00023923
0.29151374 0.71561456 0.50300175 -0.00004963 -0.00006113 -0.00003348
0.42833528 0.74523538 0.46152589 0.00042850 0.00057190 -0.00091904
0.33962962 0.65419734 0.61717349 -0.00078833 0.00019877 -0.00008965
0.42044589 0.74824268 0.54787719 0.00089751 0.00066885 0.00059262
0.32171988 0.38966054 0.59447086 -0.00015415 0.00011391 0.00059876
0.26405433 0.26134172 0.39377743 0.00008930 -0.00030817 -0.00020647
0.80598921 0.45509917 0.36830437 0.00018038 0.00087140 -0.00088388
0.09052750 0.54341346 0.58880734 -0.00091109 0.00060329 0.00076414
0.09998048 0.61328083 0.53543562 0.00023542 0.00014409 0.00072445
0.23446804 0.71788377 0.48696953 0.00029757 0.00020280 0.00009621
0.05562195 0.39787024 0.49477190 -0.00174323 -0.00061392 -0.00011678
0.48343629 0.31324643 0.64255017 -0.00033158 0.00036203 0.00118221
0.23650214 0.78201503 0.53708398 0.00036368 0.00023994 0.00055833
0.25698248 0.53798062 0.33691320 0.00030455 -0.00037545 -0.00080614
0.32714006 0.58110148 0.35892281 0.00042949 -0.00031295 -0.00018482
0.36736023 0.46602604 0.42915002 -0.00038960 0.00046785 -0.00035197
0.50033039 0.64624822 0.54393286 -0.00007605 0.00030585 0.00076624
0.27668694 0.22791231 0.61785972 -0.00072647 0.00027779 0.00118042
0.91355854 0.47266909 0.42494854 0.00099906 0.00138780 -0.00087157
0.08406817 0.48211348 0.57886410 -0.00052230 0.00028295 0.00117108
0.77381718 0.47849491 0.43150881 -0.00005796 0.00009624 -0.00005845
0.69111377 0.41251376 0.36372411 -0.00029540 0.00075244 -0.00080060
0.71267867 0.43717825 0.52095759 0.00002502 0.00016666 0.00004946
0.12950674 0.69881094 0.44765303 -0.00042083 -0.00009756 -0.00106090
0.16999394 0.27646866 0.57759941 -0.00069458 -0.00111285 0.00077557
0.06445735 0.37161228 0.49565011 -0.00172213 -0.00073441 -0.00007919
0.30657065 0.39286339 0.41201445 0.00000705 0.00012428 -0.00055367
0.67865765 0.58144850 0.44469169 -0.00001925 -0.00007813 -0.00099232
0.19895585 0.56607449 0.35932982 -0.00031630 0.00112670 -0.00034842
0.07858022 0.41141006 0.45203233 -0.00054344 -0.00014365 -0.00133560
0.51325679 0.66266525 0.52973580 -0.00014701 0.00047864 0.00071764
0.75845468 0.54036671 0.56189907 -0.00020475 0.00006350 0.00090024
0.27626178 0.36685193 0.59476370 -0.00038171 0.00008738 0.00059406
0.53280300 0.28302255 0.37996018 0.00048652 -0.00111076 -0.00068473
0.25733489 0.35332662 0.59588695 -0.00043583 -0.00003045 0.00067911
0.91738760 0.48655468 0.44878539 0.00119309 0.00106978 -0.00088927
0.23765449 0.57630569 0.63799167 -0.00030806 0.00073759 -0.00004704
0.46198779 0.67634702 0.44040790 -0.00008477 -0.00002966 -0.00072073
0.72176689 0.46284640 0.48614532 -0.00001666 -0.00004563 -0.00011818
0.24221887 0.23269995 0.41398671 -0.00021773 0.00013409 0.00032103
0.40459350 0.29374748 0.36698243 -0.00048424 0.00062798 -0.00051833
0.25475234 0.52413446 0.35783094 0.00042640 -0.00045258 0.00023440
0.50428677 0.65777439 0.53825486 -0.00007211 0.00040323 0.00076943
0.22855078 0.23765087 0.48364446 0.00005422 -0.00034784 -0.00017592
0.42270675 0.41517863 0.58216518 0.00019196 -0.00019231 0.00036550
0.64668113 0.32182810 0.40772021 0.00030955 -0.00096057 0.00066657
0.24913886 0.75451058 0.47610095 0.00004187 -0.00019382 0.00011635
0.24918979 0.25401109 0.40332818 0.00002880 -0.00060342 0.00002944
0.46108058 0.69104606 0.55681491 -0.00001828 0.00027059 0.00072159
0.63116133 0.38212031 0.36162996 -0.00047815 0.00038376 -0.00093328
0.35344657 0.63240457 0.64350826 0.00007866 0.00008637 0.00098039
0.07613272 0.46657854 0.56866032 -0.00076437 0.00030882 0.00108441
0.28039774 0.82356721 0.50019884 -0.00085124 0.00165139 0.00001042
0.38453311 0.57160938 0.47945347 -0.00005253 0.00007344 -0.00008659
0.19815731 0.54196864 0.59562820 0.00025023 -0.00002990 -0.00040552
0.16933182 0.41463655 0.49047199 0.00036103 0.00056304 0.00000923
0.10413601 0.30017725 0.50229234 -0.00141006 -0.00123182 -0.00016890
0.21213825 0.20428647 0.50394857 -0.00038489 0.00064974 -0.00010306
0.82464820 0.57348984 0.49867374 0.00087061 0.00129617 0.00016428
0.48854047 0.63906354 0.54658836 -0.00016877 0.00022721 0.00068578
0.35715866 0.77772576 0.48541424 0.00001464 0.00031803 -0.00061280
0.16560146 0.56602854 0.49119154 0.00010753 0.00012497 0.00011974
0.27704164 0.56474131 0.66629326 -0.00004478 0.00009993 0.00113051
0.47092649 0.71856362 0.45763418 0.00018121 0.00060868 -0.00127879
0.33478177 0.73822403 0.53262389 -0.00008249 -0.00020843 0.00015257
0.86522728 0.49605319 0.40363878 0.00064629 0.00091996 -0.00077165
0.87782848 0.46051624 0.38709116 0.00096858 0.00058460 -0.00116450
0.47711933 0.30675435 0.36139759 -0.00032208 0.00059976 -0.00103612
0.58474594 0.65895402 0.50935608 -0.00002163 0.00120123 0.00027588
0.47064725 0.25713253 0.56918967 0.00028122 -0.00066297 -0.00040772
0.57187366 0.57888412 0.55751884 0.00007974 -0.00004291 0.00072956
0.75496894 0.56975418 0.44315553 0.00019272 0.00023174 -0.00122245
0.29547739 0.38393432 0.40951192 0.00000177 0.00007141 -0.00058806
0.49265686 0.45897096 0.48765591 0.00034705 -0.00030187 -0.00005306
0.91178042 0.42188123 0.39109710 0.00128750 -0.00032097 -0.00158672
0.43367255 0.24496193 0.48664546 -0.00003315 -0.00077934 -0.00022163
0.27092341 0.55448848 0.33287725 0.00022628 -0.00008517 -0.00105901
0.72316027 0.57680321 0.44286177 0.00012055 0.00015631 -0.00121850
0.48203337 0.43089446 0.49379593 0.00030558 -0.00023386 -0.00015065
0.69541937 0.39074606 0.64599258 -0.00004818 0.00073393 0.00106403
0.46514380 0.74734461 0.49604750 0.00079829 0.00119911 0.00009963
0.33038020 0.21033925 0.37650725 0.00012575 -0.00132022 -0.00049674
0.05180564 0.56876236 0.49575415 -0.00117419 0.00059252 -0.00008476
0.30751199 0.61402661 0.63195705 -0.00056706 0.00035987 -0.00013039
0.85570014 0.50697017 0.41195986 0.00032770 0.00072667 -0.00072727
0.11032202 0.72545636 0.54590851 -0.00059214 -0.00016621 0.00159149
0.75764430 0.44517645 0.57989550 -0.00008748 0.00024489 -0.00011786
0.34650344 0.66568714 0.61454594 -0.00086033 0.00017386 0.00004328
0.23967044 0.73201799 0.48685810 0.00024101 -0.00000548 0.00019086
0.89439517 0.52630848 0.49424356 0.00128846 0.00106953 -0.00006432
0.33807829 0.75469792 0.46606979 -0.00019621 -0.00001918 -0.00052746
0.21891591 0.20385084 0.54711461 -0.00056043 0.00064651 -0.00012365
0.47637987 0.52736449 0.57168448 0.00001569 0.00036183 0.00059984
0.35626706 0.64438963 0.63854468 -0.00006096 0.00017027 0.00090835
0.65181077 0.32036194 0.55688995 0.00018298 -0.00082110 -0.00027445
0.36061719 0.61393344 0.48326492 -0.00024574 0.00014551 -0.00020207
0.92220336 0.49641201 0.48887235 0.00158394 0.00085108 -0.00022267
0.72520125 0.55250084 0.55470437 -0.00008309 -0.00005901 0.00081305
0.31646380 0.55950743 0.64868891 0.00025304 -0.00049804 0.00036821
0.26463959 0.24119338 0.38454548 -0.00033937 0.00007065 -0.00038163
0.16677383 0.56186944 0.47557923 0.00013240 0.00011853 0.00009761
0.11812289 0.74017131 0.55048478 -0.00078537 -0.00018649 0.00157563
0.69201052 0.58037937 0.44396365 0.00006769 -0.00000346 -0.00106284
0.62104481 0.65100217 0.50257981 0.00010879 0.00133003 0.00006624
0.83174551 0.44573763 0.63289845 0.00004502 0.00101207 0.00101771
0.42019224 0.46498328 0.42210039 0.00012284 -0.00019970 -0.00060841
0.95051628 0.42862433 0.54299653 0.00192877 -0.00053036 0.00067330
0.08125371 0.73792523 0.50310582 -0.00168217 0.00049085 0.00005280
0.21819104 0.18861294 0.42086715 -0.00116032 -0.00038579 -0.00061411
0.35983029 0.77595764 0.52401298 -0.00015343 0.00048647 0.00071867
0.89024329 0.42346150 0.61803979 0.00184373 -0.00025233 0.00107408
0.20103090 0.34416151 0.40777659 -0.00036455 0.00072777 -0.00066450
0.82347310 0.53804290 0.43020275 0.00039028 0.00023326 -0.00117405
0.16787568 0.48945490 0.48235771 0.00031351 -0.00018066 0.00028426
0.80356896 0.37486744 0.43878761 0.00070325 -0.00072150 0.00013004
0.45248437 0.32714280 0.56208688 0.00000221 -0.00006069 -0.00023344
0.49891111 0.47075999 0.48866504 0.00035126 -0.00033650 -0.00003991
0.08651658 0.46718886 0.43779355 -0.00038844 -0.00057608 -0.00062266
0.07983077 0.38217849 0.45820102 -0.00086047 -0.00016506 -0.00131514
0.31768709 0.59932303 0.39258459 -0.00015229 -0.00016300 0.00036499
0.24088143 0.79419470 0.49798074 0.00015662 -0.00007695 -0.00013818
0.32930514 0.57262582 0.64972067 0.00029403 -0.00040936 0.00052725
0.34763834 0.26532993 0.36402285 -0.00040807 0.00054541 -0.00081932
0.30084437 0.55599809 0.35419202 0.00035437 -0.00042651 -0.00004705
