-0.277207 0.002932 0.010163
-0.218068 -0.500000 0.001720
-0.016519 0.453034 0.010163
-0.261017 0.189606 -0.010163
-0.349049 0.280068 0.010163
-0.471232 -0.500000 -0.009855
-0.003032 -0.224866 -0.010163
-0.280232 0.185528 0.010163
-0.264299 0.335445 0.010163
-0.373809 -0.272752 -0.010163
-0.014845 -0.331707 0.010163
-0.395278 -0.125453 0.010163
-0.201371 0.038336 0.010163
-0.486354 0.164481 0.010163
-0.485729 -0.493930 0.010163
-0.321877 -0.308983 0.010163
-0.095355 0.295511 0.010163
-0.158178 0.446817 -0.010163
-0.060725 0.198613 -0.010163
-0.000841 0.458246 0.010163
-0.353458 0.410993 0.010163
-0.327829 0.312447 -0.010163
-0.033859 -0.431203 -0.010163
-0.317959 0.028112 -0.010163
-0.249436 -0.055052 0.010163
-0.495518 -0.073575 -0.010163
-0.041880 0.277707 -0.010163
-0.124889 -0.197640 0.010163
-0.185900 -0.429860 0.010163
-0.467058 -0.090549 -0.010163
-0.007980 0.046763 0.010163
-0.486502 -0.042282 -0.010163
-0.326374 0.457811 -0.010163
-0.028696 -0.431016 0.010163
-0.174118 -0.104979 -0.010163
-0.031951 0.300934 0.010163
-0.282152 0.289695 0.010163
-0.230265 0.372445 -0.010163
-0.113244 0.081509 -0.010163
-0.233291 -0.486260 -0.010163
-0.142690 -0.353893 -0.010163
-0.088844 -0.001983 0.010163
-0.086839 0.500000 -0.005701
-0.480951 -0.308508 0.010163
-0.192208 -0.449502 -0.010163
-0.343854 0.285882 -0.010163
-0.392502 0.240523 0.010163
-0.232874 -0.336974 0.010163
-0.211209 0.193943 -0.010163
-0.162290 0.362535 0.010163
-0.273328 0.220918 -0.010163
-0.033659 -0.010608 0.010163
-0.443125 0.500000 0.006465
-0.019017 0.459361 0.010163
-0.437003 -0.355381 0.010163
-0.232289 0.500000 0.005493
-0.240606 -0.237799 -0.010163
-0.057125 0.094635 0.010163
-0.124736 0.311264 0.010163
-0.307994 0.033913 0.010163
-0.083450 -0.121291 -0.010163
-0.050118 0.011279 -0.010163
-0.044598 0.220382 0.010163
-0.286099 0.318884 -0.010163
-0.217981 -0.241927 0.010163
-0.215568 0.197928 0.010163
-0.305025 0.435659 -0.010163
-0.086500 0.135635 0.010163
-0.029024 0.133137 0.010163
-0.121445 -0.257473 0.010163
-0.069384 0.038185 -0.010163
-0.471198 -0.224966 0.010163
-0.038245 0.058236 -0.010163
-0.099053 -0.275863 -0.010163
-0.259427 -0.294898 -0.010163
-0.044484 0.439777 -0.010163
-0.263112 -0.411017 -0.010163
-0.066903 -0.215716 -0.010163
-0.261797 0.500000 0.002974
-0.282539 0.238242 -0.010163
-0.339691 0.080033 -0.010163
-0.054454 0.039131 -0.010163
-0.361052 0.108765 -0.010163
-0.390207 0.183884 0.010163
-0.343992 0.408119 0.010163
-0.500000 -0.226480 -0.010149
-0.307413 0.276419 0.010163
-0.122034 0.495370 -0.010163
-0.460953 -0.173688 -0.010163
-0.066031 -0.499612 -0.010163
-0.366680 -0.381963 -0.010163
-0.461523 0.374664 0.010163
-0.165633 0.334471 -0.010163
-0.154418 -0.030426 0.010163
-0.128623 -0.192460 -0.010163
-0.289376 0.458357 0.010163
-0.073280 0.019017 0.010163
-0.239479 -0.361273 0.010163
-0.176002 -0.182096 0.010163
-0.311808 0.063478 0.010163
-0.402417 0.011885 -0.010163
-0.400652 -0.322172 0.010163
-0.404318 -0.263382 0.010163
-0.191657 -0.026204 -0.010163
-0.500000 0.357390 0.010148
-0.058097 -0.441565 -0.010163
-0.001607 -0.334987 0.010163
-0.364079 0.422882 0.010163
-0.210662 -0.055353 0.010163
-0.264313 -0.205479 0.010163
-0.386422 0.003661 -0.010163
-0.226952 -0.285306 0.010163
-0.276953 0.097281 -0.010163
-0.045726 -0.204118 0.010163
-0.087793 -0.469036 -0.010163
-0.321976 0.233414 0.010163
-0.407196 0.307006 -0.010163
-0.208001 -0.179048 -0.010163
-0.453611 0.052166 -0.010163
-0.312254 -0.500000 -0.001551
-0.500000 -0.496080 -0.006615
-0.219900 0.381275 -0.010163
-0.010016 -0.250123 0.010163
-0.372216 -0.158260 0.010163
-0.193521 0.237426 0.010163
-0.038086 0.447328 0.010163
-0.215582 0.453767 -0.010163
-0.078343 -0.310628 -0.010163
-0.427815 -0.465561 0.010163
-0.018009 -0.003678 -0.010163
-0.202694 -0.488254 -0.010163
-0.463063 0.229409 -0.010163
-0.222396 0.409214 0.010163
-0.240057 -0.331528 0.010163
-0.427460 -0.257515 0.010163
-0.215941 0.017359 0.010163
-0.432601 0.000831 0.010163
-0.325645 0.168504 0.010163
-0.168904 0.000734 0.010163
-0.490479 0.368294 -0.010163
-0.014444 -0.458645 0.010163
-0.073096 0.202838 -0.010163
-0.480159 -0.120978 0.010163
-0.226391 -0.219129 -0.010163
-0.464305 0.245902 0.010163
-0.424458 -0.032484 -0.010163
-0.391090 -0.029222 0.010163
-0.390724 -0.299779 0.010163
-0.500000 0.283176 0.004068
-0.084793 0.008536 0.010163
-0.478729 -0.223678 0.010163
-0.319128 -0.267825 0.010163
-0.168897 -0.414421 -0.010163
-0.162280 -0.473465 -0.010163
-0.485618 0.161190 -0.010163
-0.329225 0.327565 -0.010163
-0.273061 0.366983 0.010163
-0.166781 0.037018 0.010163
-0.187683 0.283328 0.010163
-0.192092 -0.411995 -0.010163
-0.500000 0.092230 -0.004420
-0.175468 0.001135 0.010163
-0.471113 0.298887 -0.010163
-0.227790 0.257733 -0.010163
-0.193312 0.316932 0.010163
-0.132870 0.431692 -0.010163
-0.181229 -0.500000 -0.005633
-0.446139 0.500000 -0.009255
-0.036449 -0.300830 0.010163
-0.446565 0.194430 -0.010163
-0.329365 0.240919 -0.010163
-0.194038 -0.259687 -0.010163
-0.202884 -0.000303 0.010163
-0.015138 -0.322133 -0.010163
-0.105506 0.461667 -0.010163
-0.003624 0.172770 0.010163
-0.195874 0.353116 -0.010163
-0.456565 -0.230975 0.010163
-0.132118 -0.058784 0.010163
-0.319683 -0.056779 0.010163
-0.348898 0.383219 0.010163
-0.080113 0.452357 -0.010163
-0.340195 0.500000 0.001379
-0.345469 -0.097932 0.010163
-0.208258 -0.337177 0.010163
-0.066216 0.486154 -0.010163
-0.054284 0.351323 -0.010163
-0.054964 0.448212 0.010163
-0.396631 -0.361705 -0.010163
-0.290929 -0.461115 0.010163
-0.379967 -0.296139 -0.010163
-0.207255 0.076357 -0.010163
-0.123738 -0.356490 0.010163
-0.016214 0.456711 -0.010163
-0.432800 0.201840 -0.010163
-0.045110 0.364551 0.010163
-0.382723 -0.230197 0.010163
-0.094011 -0.448605 -0.010163
-0.237470 0.247218 0.010163
-0.062458 0.141644 -0.010163
-0.433384 -0.016023 0.010163
-0.325573 0.471391 0.010163
-0.109355 -0.420239 0.010163
-0.213757 -0.286833 -0.010163
-0.471140 0.037440 0.010163
-0.295378 -0.085820 -0.010163
-0.420959 -0.033166 -0.010163
-0.101584 0.126350 0.010163
-0.102007 -0.230686 0.010163
-0.332975 -0.098675 0.010163
-0.489186 0.009040 0.010163
-0.218371 0.319955 -0.010163
-0.426065 0.114944 -0.010163
-0.409343 -0.043116 -0.010163
-0.080863 0.090711 -0.010163
-0.406970 0.390952 -0.010163
-0.440516 -0.273251 -0.010163
-0.478180 0.251532 0.010163
-0.259848 0.325910 -0.010163
-0.070113 0.020197 -0.010163
-0.249019 -0.469083 -0.010163
-0.486023 -0.073203 0.010163
-0.026540 0.444550 0.010163
-0.249366 0.081758 -0.010163
-0.096526 -0.211170 -0.010163
-0.285492 -0.138746 0.010163
-0.132561 0.321725 -0.010163
-0.306642 -0.230295 -0.010163
-0.037095 -0.281921 -0.010163
-0.230070 0.230226 0.010163
-0.209985 -0.343175 0.010163
-0.263250 0.351880 -0.010163
-0.063057 0.152574 0.010163
-0.062562 0.020818 -0.010163
-0.070175 -0.231299 -0.010163
-0.373011 0.350585 0.010163
-0.138543 0.077547 -0.010163
-0.312119 0.318568 0.010163
-0.115297 -0.287961 0.010163
-0.066582 0.124391 -0.010163
-0.336847 -0.003905 0.010163
-0.177100 -0.404279 0.010163
-0.225063 -0.090672 -0.010163
-0.233086 -0.426407 0.010163
-0.097780 -0.348995 0.010163
-0.193678 0.296139 0.010163
-0.362117 0.018755 -0.010163
-0.146136 0.232876 -0.010163
-0.076155 0.375975 0.010163
-0.165866 -0.033913 0.010163
-0.358624 0.500000 0.007623
-0.359835 -0.408534 -0.010163
-0.104647 -0.106641 -0.010163
-0.192026 0.310356 -0.010163
-0.058805 -0.184195 0.010163
-0.048304 -0.268059 0.010163
-0.492150 0.033157 0.010163
-0.189893 0.091216 -0.010163
-0.045813 -0.407920 0.010163
-0.432758 -0.311487 0.010163
-0.174389 0.375617 -0.010163
-0.386544 0.277834 -0.010163
-0.435538 0.030813 -0.010163
-0.478333 -0.188321 -0.010163
-0.170976 -0.294972 0.010163
-0.203548 -0.152854 0.010163
-0.124830 0.294244 -0.010163
-0.254110 0.121354 -0.010163
-0.067087 -0.004326 -0.010163
-0.156831 0.167928 -0.010163
-0.011286 0.330134 0.010163
-0.387967 0.211836 -0.010163
-0.127749 -0.008589 -0.010163
-0.150471 -0.201787 0.010163
-0.453392 -0.321852 -0.010163
-0.131430 -0.298979 -0.010163
-0.499448 0.260062 0.010163
-0.105124 -0.393248 0.010163
-0.138719 -0.058561 -0.010163
-0.128926 0.088676 0.010163
-0.165838 -0.162118 -0.010163
-0.315665 -0.028676 -0.010163
-0.456819 -0.132960 -0.010163
-0.074151 -0.396551 -0.010163
-0.435798 0.233540 0.010163
-0.057235 -0.015556 0.010163
-0.359884 -0.345709 0.010163
-0.197776 0.118619 -0.010163
-0.281429 -0.041851 -0.010163
-0.163056 -0.043444 -0.010163
-0.259318 -0.366216 0.010163
-0.060395 -0.253258 0.010163
-0.100926 0.319753 -0.010163
-0.046332 0.456717 0.010163
-0.101136 0.494754 0.010163
-0.111010 -0.335523 -0.010163
-0.013445 -0.475158 -0.010163
-0.086574 -0.211628 0.010163
-0.174962 0.062519 0.010163
-0.243728 -0.316786 -0.010163
-0.201934 0.210039 -0.010163
-0.041735 -0.500000 0.009328
-0.464377 -0.321318 0.010163
-0.491679 0.475246 -0.010163
-0.419366 0.171188 -0.010163
-0.147861 0.468122 -0.010163
-0.105666 0.085908 -0.010163
-0.043636 -0.351269 -0.010163
-0.386221 -0.439232 0.010163
-0.386968 -0.169554 -0.010163
-0.417317 -0.385651 -0.010163
-0.446787 -0.311455 0.010163
-0.441135 0.040735 0.010163
-0.393504 -0.002984 0.010163
-0.069932 0.002799 -0.010163
-0.500000 -0.471509 -0.009511
-0.255580 0.176542 -0.010163
-0.125089 0.207922 -0.010163
-0.253450 0.209414 0.010163
-0.021555 0.058864 -0.010163
-0.409778 0.294301 -0.010163
-0.180448 -0.080828 -0.010163
-0.424515 0.155429 -0.010163
-0.384229 0.175687 0.010163
-0.057429 0.349508 -0.010163
-0.338015 -0.039441 -0.010163
-0.353221 -0.456916 0.010163
-0.107518 -0.136985 0.010163
-0.014959 -0.350183 -0.010163
-0.040647 -0.092208 -0.010163
-0.337028 0.212871 -0.010163
-0.488482 0.438812 0.010163
-0.122605 0.011719 0.010163
-0.130129 0.214945 -0.010163
-0.215546 -0.219274 0.010163
-0.163493 0.045247 -0.010163
-0.119224 -0.025048 0.010163
-0.039779 0.004287 0.010163
-0.126608 0.086054 0.010163
-0.356171 -0.374165 0.010163
-0.148515 -0.149994 0.010163
-0.024286 0.337386 0.010163
-0.263714 -0.395030 0.010163
-0.038089 0.172305 -0.010163
-0.476909 -0.354177 -0.010163
-0.415965 0.013016 -0.010163
-0.124032 -0.003743 0.010163
-0.321139 0.019114 -0.010163
-0.265645 0.445018 0.010163
-0.394908 0.266105 -0.010163
-0.374457 0.467185 -0.010163
-0.276949 -0.066798 0.010163
-0.030028 -0.136418 0.010163
-0.217781 0.242295 0.010163
-0.207292 -0.298247 0.010163
-0.407690 -0.481161 0.010163
-0.178202 -0.461214 -0.010163
-0.086843 0.112012 -0.010163
-0.033663 0.023610 -0.010163
-0.006337 0.015427 -0.010163
-0.320143 0.122357 0.010163
-0.487094 0.114182 0.010163
-0.071847 0.240248 0.010163
-0.094538 0.226664 -0.010163
-0.276416 -0.312240 0.010163
-0.399845 0.241529 -0.010163
-0.107362 -0.261463 0.010163
-0.171762 -0.212840 0.010163
-0.240489 -0.304806 0.010163
-0.224341 0.142817 -0.010163
-0.229626 0.348839 0.010163
-0.345697 0.025131 -0.010163
-0.421516 0.333754 -0.010163
-0.059790 -0.345160 0.010163
-0.006939 -0.191705 -0.010163
-0.412063 -0.169230 0.010163
-0.481129 -0.286901 0.010163
-0.180553 0.465394 0.010163
-0.233573 -0.133374 0.010163
-0.120849 0.460382 0.010163
-0.119818 0.280335 -0.010163
-0.077817 -0.125353 0.010163
-0.213775 0.108810 -0.010163
-0.459403 0.041218 0.010163
-0.095850 -0.342181 -0.010163
-0.293868 -0.435530 -0.010163
-0.479667 -0.117902 0.010163
-0.165969 -0.142296 -0.010163
-0.331644 0.099451 0.010163
-0.046647 -0.178938 -0.010163
-0.091139 -0.458461 0.010163
-0.239834 0.492622 -0.010163
-0.254727 -0.272199 -0.010163
-0.356849 -0.017513 0.010163
-0.062106 0.410719 0.010163
-0.220173 -0.176033 -0.010163
-0.203484 -0.262372 0.010163
-0.318840 0.065720 0.010163
-0.144580 -0.127709 -0.010163
-0.020031 0.465720 0.010163
-0.097090 0.500000 -0.007257
-0.081021 -0.032034 0.010163
-0.101897 0.427081 -0.010163
-0.225256 -0.481185 0.010163
-0.120912 0.404364 0.010163
-0.416023 0.286121 -0.010163
-0.318437 -0.080563 0.010163
-0.414320 0.111815 -0.010163
-0.219239 -0.382467 -0.010163
-0.257367 -0.411931 -0.010163
-0.104915 -0.304630 0.010163
-0.023710 -0.055526 0.010163
-0.286671 0.270562 -0.010163
-0.499753 0.254196 0.010163
-0.274239 0.063769 0.010163
-0.245687 0.080010 -0.010163
-0.041763 0.337677 -0.010163
-0.129439 0.108415 -0.010163
-0.044754 -0.054583 0.010163
-0.177025 -0.181160 -0.010163
-0.138886 0.012660 -0.010163
-0.174509 -0.150504 -0.010163
-0.488949 -0.160978 -0.010163
-0.488576 0.296574 -0.010163
-0.300043 -0.393332 -0.010163
-0.059505 -0.075320 0.010163
-0.484378 -0.033621 -0.010163
-0.212185 -0.241806 -0.010163
-0.005922 0.350904 0.010163
-0.370141 0.067777 -0.010163
-0.229230 -0.372112 -0.010163
-0.146450 -0.177324 -0.010163
-0.086122 0.286914 -0.010163
-0.187076 0.282568 -0.010163
-0.014779 -0.188545 0.010163
-0.003057 -0.430204 0.010163
-0.262541 0.063422 -0.010163
-0.405142 -0.212685 0.010163
-0.310259 0.441648 0.010163
-0.064380 -0.162277 0.010163
-0.192494 0.426833 0.010163
-0.241368 0.069948 0.010163
-0.052001 0.084235 0.010163
-0.379660 0.000808 0.010163
-0.500000 0.147331 0.010158
-0.180416 -0.026943 -0.010163
-0.170604 0.021408 0.010163
-0.432915 -0.147288 -0.010163
-0.112348 -0.252575 0.010163
-0.118367 -0.485420 -0.010163
-0.368214 0.500000 -0.005780
-0.059486 -0.428257 -0.010163
-0.288693 -0.367445 0.010163
-0.424592 -0.488460 0.010163
-0.223502 0.221592 0.010163
-0.131834 0.004497 -0.010163
-0.152727 -0.199275 0.010163
-0.268423 -0.376971 0.010163
-0.178488 0.368505 0.010163
-0.029600 0.202739 0.010163
-0.399409 0.323932 -0.010163
-0.461329 -0.492243 0.010163
-0.040757 -0.113257 0.010163
-0.496648 -0.403341 -0.010163
-0.401246 -0.238040 0.010163
-0.184197 -0.452170 -0.010163
-0.379134 0.044223 0.010163
-0.070164 -0.054718 0.010163
-0.030886 0.201539 -0.010163
-0.470686 0.316995 -0.010163
-0.248992 0.452946 0.010163
-0.210506 -0.407504 -0.010163
-0.280037 0.480835 0.010163
-0.147741 -0.482821 -0.010163
-0.367153 -0.444744 0.010163
-0.289570 0.442247 -0.010163
-0.083254 -0.076702 0.010163
-0.032781 0.365155 -0.010163
-0.229833 0.006093 0.010163
-0.291652 0.369196 -0.010163
-0.496948 -0.116679 -0.010163
-0.500000 -0.213326 0.005733
-0.243583 -0.282758 0.010163
-0.328663 0.401207 -0.010163
-0.172411 -0.437717 -0.010163
-0.218341 0.311926 0.010163
-0.091747 -0.473602 -0.010163
-0.228567 0.239311 0.010163
-0.349845 0.483400 0.010163
-0.478980 0.077772 -0.010163
-0.435609 0.121658 -0.010163
-0.032867 0.404474 -0.010163
-0.495501 0.101946 0.010163
-0.241489 -0.414393 0.010163
-0.134144 0.118864 0.010163
-0.466043 -0.064043 0.010163
-0.247525 -0.431108 0.010163
-0.363102 0.168410 -0.010163
-0.074916 -0.211284 -0.010163
-0.416005 -0.342334 -0.010163
-0.361880 -0.458831 -0.010163
-0.099625 -0.253855 -0.010163
-0.471796 -0.167862 -0.010163
-0.248756 0.197588 0.010163
-0.318931 0.149356 0.010163
-0.046009 0.012690 -0.010163
-0.019757 0.214800 0.010163
-0.390544 -0.465393 0.010163
-0.019612 -0.327982 0.010163
-0.255898 0.105700 0.010163
-0.299250 0.400176 0.010163
-0.256218 -0.005149 0.010163
-0.171972 0.448523 0.010163
-0.500000 0.109835 -0.006029
-0.256923 0.317214 -0.010163
-0.499474 0.305840 0.010163
-0.205649 0.079131 -0.010163
-0.382683 0.472671 -0.010163
-0.367296 0.251307 0.010163
-0.458709 0.325145 -0.010163
-0.222580 -0.038168 0.010163
-0.072104 -0.023846 -0.010163
-0.395581 0.459288 -0.010163
-0.111934 -0.402737 0.010163
-0.137572 0.472548 -0.010163
-0.002094 -0.485046 0.010163
-0.341452 -0.144247 -0.010163
-0.485082 0.486448 0.010163
-0.436850 0.354183 -0.010163
-0.397442 0.366597 0.010163
-0.133637 0.113435 -0.010163
-0.236033 -0.374540 0.010163
-0.232102 -0.164834 -0.010163
-0.250526 -0.409007 0.010163
-0.417679 0.346177 0.010163
-0.423151 0.473452 -0.010163
-0.158078 -0.299799 0.010163
-0.349260 0.391942 -0.010163
-0.474772 -0.318914 -0.010163
-0.433221 0.296974 -0.010163
-0.040144 0.113886 -0.010163
-0.436737 -0.124723 0.010163
-0.367988 -0.356329 0.010163
-0.283157 -0.013471 0.010163
-0.052993 0.500000 -0.001803
-0.067380 -0.147823 0.010163
-0.231578 -0.019926 0.010163
-0.379738 -0.379198 -0.010163
-0.243942 0.121004 0.010163
-0.381196 -0.203570 0.010163
-0.058179 0.040766 -0.010163
-0.117475 0.419485 0.010163
-0.149518 -0.357029 0.010163
-0.275026 0.267707 -0.010163
-0.333792 0.034339 0.010163
-0.048481 -0.261810 0.010163
-0.456064 0.115669 0.010163
-0.321993 0.439212 0.010163
-0.022428 0.122267 0.010163
-0.497631 0.145218 -0.010163
-0.295277 0.393995 0.010163
-0.180468 -0.333496 0.010163
-0.199923 0.459740 0.010163
-0.344075 0.108795 0.010163
-0.462037 0.216642 0.010163
-0.099979 0.116779 0.010163
-0.073593 0.387515 0.010163
-0.177033 0.295448 -0.010163
-0.363008 0.166546 0.010163
-0.472113 -0.134651 0.010163
-0.104036 -0.396786 -0.010163
-0.080019 -0.260100 0.010163
-0.080328 -0.343036 0.010163
-0.416800 0.076015 0.010163
-0.407323 -0.090117 0.010163
-0.216244 0.168063 -0.010163
-0.263715 0.221718 -0.010163
-0.282145 0.333337 -0.010163
-0.330712 -0.031154 0.010163
-0.240016 0.129139 -0.010163
-0.131915 -0.086558 -0.010163
-0.193982 0.313132 0.010163
-0.304647 -0.151654 0.010163
-0.299074 -0.390044 -0.010163
-0.366681 0.041783 -0.010163
-0.378856 -0.388676 0.010163
-0.324181 -0.082185 -0.010163
-0.275503 0.350027 0.010163
-0.054528 0.042294 -0.010163
-0.172645 0.216806 -0.010163
-0.122201 0.099944 0.010163
-0.346066 0.230064 0.010163
-0.083705 -0.090783 0.010163
-0.356876 -0.441269 -0.010163
-0.070223 0.024057 0.010163
-0.345604 -0.353433 -0.010163
-0.171592 -0.275336 0.010163
-0.319698 -0.150800 -0.010163
-0.225214 0.378759 -0.010163
-0.150128 0.098619 0.010163
-0.294161 0.173421 -0.010163
-0.427328 -0.177084 -0.010163
-0.376750 -0.064130 -0.010163
-0.047856 0.500000 -0.001946
-0.064395 -0.472801 0.010163
-0.128413 -0.379195 -0.010163
-0.085849 0.037134 0.010163
-0.383147 0.485159 0.010163
-0.379121 -0.299622 0.010163
-0.276216 -0.208136 0.010163
-0.015767 -0.413735 -0.010163
-0.282567 -0.120739 -0.010163
-0.109909 0.211790 -0.010163
-0.196672 -0.192887 0.010163
-0.245398 -0.254081 -0.010163
-0.012202 0.356739 -0.010163
-0.183498 0.008694 0.010163
-0.500000 -0.342554 -0.000723
-0.457396 -0.161990 0.010163
-0.076791 -0.193361 -0.010163
-0.430509 -0.166213 -0.010163
-0.263603 0.374290 -0.010163
-0.129332 0.342657 -0.010163
-0.188400 0.111413 0.010163
-0.182828 -0.440922 0.010163
-0.357930 0.478392 0.010163
-0.249050 0.259573 0.010163
-0.453981 0.202347 -0.010163
-0.191644 -0.277553 -0.010163
-0.458138 0.374761 0.010163
-0.219236 -0.321484 0.010163
-0.058960 -0.082443 -0.010163
-0.233349 -0.430176 0.010163
-0.108134 0.300021 -0.010163
-0.309630 -0.255065 -0.010163
-0.011057 0.434764 -0.010163
-0.318317 -0.477449 0.010163
-0.486378 -0.346810 0.010163
-0.179415 -0.155780 -0.010163
-0.008012 0.220888 0.010163
-0.470193 0.211739 -0.010163
-0.282878 0.285750 -0.010163
-0.025111 -0.002197 -0.010163
-0.096781 -0.028290 -0.010163
-0.052629 0.144320 -0.010163
-0.364338 0.349239 -0.010163
-0.085301 0.050728 0.010163
-0.349704 0.238419 -0.010163
-0.022931 0.148936 -0.010163
-0.423407 -0.243554 -0.010163
-0.483677 0.421370 -0.010163
-0.050711 -0.164367 -0.010163
-0.418601 0.152988 0.010163
-0.368278 0.500000 0.007686
-0.318084 0.020036 -0.010163
-0.034807 0.490168 -0.010163
-0.184180 0.205168 0.010163
-0.367947 -0.135867 -0.010163
-0.500000 0.249701 0.001686
-0.110304 0.453096 -0.010163
-0.333849 0.382790 -0.010163
-0.024032 0.465476 -0.010163
-0.074893 -0.224610 0.010163
-0.013886 -0.290962 -0.010163
-0.492798 -0.248695 0.010163
-0.087826 -0.261161 0.010163
-0.485022 0.345955 0.010163
-0.014977 0.453391 -0.010163
-0.388963 -0.393741 -0.010163
-0.214433 0.303216 0.010163
-0.180141 -0.297182 0.010163
-0.159927 -0.418813 -0.010163
-0.023338 0.209810 -0.010163
-0.306216 -0.429267 0.010163
-0.440304 -0.301205 0.010163
-0.432884 0.069049 -0.010163
-0.048568 -0.262324 -0.010163
-0.439662 -0.472336 -0.010163
-0.074124 -0.419403 -0.010163
-0.496394 0.252888 0.010163
-0.197312 0.380066 0.010163
-0.254464 0.213265 0.010163
-0.269964 0.185321 0.010163
-0.086050 -0.303846 0.010163
-0.302542 0.096334 0.010163
-0.002371 0.241465 -0.010163
-0.254824 -0.308893 -0.010163
-0.241094 0.134922 -0.010163
-0.486973 0.262034 0.010163
-0.366914 0.129613 0.010163
-0.413115 0.450846 0.010163
-0.145347 -0.084565 0.010163
-0.285974 -0.477703 0.010163
-0.087927 0.340539 0.010163
-0.087858 0.187714 0.010163
-0.254620 0.058027 0.010163
-0.023054 -0.365949 -0.010163
-0.221159 -0.075093 -0.010163
-0.437793 0.273149 -0.010163
-0.294421 -0.310527 -0.010163
-0.283325 0.401298 -0.010163
-0.286898 0.398955 0.010163
-0.093527 0.297648 -0.010163
-0.062814 0.169450 -0.010163
-0.354797 0.164080 0.010163
-0.458871 0.099913 0.010163
-0.226084 -0.415236 -0.010163
-0.209525 -0.163256 0.010163
-0.337050 -0.285474 0.010163
-0.302098 0.484526 0.010163
-0.140545 0.470702 -0.010163
-0.196149 0.139379 -0.010163
-0.055083 -0.458448 0.010163
-0.206745 -0.484638 0.010163
-0.356213 -0.357117 -0.010163
-0.495041 -0.265041 -0.010163
-0.457194 0.287144 0.010163
-0.242463 0.276854 -0.010163
-0.100305 -0.173879 0.010163
-0.450434 0.305137 0.010163
-0.482482 0.182226 0.010163
-0.288398 -0.248410 -0.010163
-0.318785 0.242355 -0.010163
-0.349735 -0.451368 -0.010163
-0.436833 -0.439171 -0.010163
-0.124344 -0.325705 -0.010163
-0.247384 0.206945 0.010163
-0.222203 -0.500000 0.003791
-0.397937 0.273545 -0.010163
-0.499210 0.110020 0.010163
-0.477833 0.184355 -0.010163
-0.492770 -0.156587 0.010163
-0.089736 0.169000 0.010163
-0.296299 0.126261 0.010163
-0.409077 0.276744 -0.010163
-0.081242 -0.013741 -0.010163
-0.140561 0.105522 -0.010163
-0.465907 -0.152683 0.010163
-0.356943 0.456299 -0.010163
-0.206256 -0.186052 -0.010163
-0.073109 0.143000 0.010163
-0.248113 -0.435305 -0.010163
-0.251339 0.348278 -0.010163
-0.173951 0.325197 0.010163
-0.317243 0.400754 -0.010163
-0.024424 0.169603 0.010163
-0.001347 -0.362875 -0.010163
-0.085862 -0.456790 -0.010163
-0.125051 -0.381743 0.010163
-0.088723 0.427565 0.010163
-0.405708 -0.466318 -0.010163
-0.183196 -0.356906 0.010163
-0.062009 0.324727 -0.010163
-0.270847 0.388823 0.010163
-0.448698 0.403408 0.010163
-0.412284 0.285055 -0.010163
-0.070596 0.168127 -0.010163
-0.452136 -0.382469 0.010163
-0.498063 0.098301 -0.010163
-0.291827 0.336123 -0.010163
-0.067766 0.144946 0.010163
-0.249864 -0.017815 -0.010163
-0.190140 0.129580 0.010163
-0.334556 0.124825 0.010163
-0.432192 -0.400165 -0.010163
-0.422324 0.199384 -0.010163
-0.278186 0.475193 -0.010163
-0.005183 0.262989 -0.010163
-0.066284 -0.085683 -0.010163
-0.493541 0.103398 -0.010163
-0.124558 0.039382 0.010163
-0.268037 0.184258 -0.010163
-0.254730 0.100343 -0.010163
-0.270694 0.203623 0.010163
-0.361597 0.189390 -0.010163
-0.370194 0.224097 0.010163
-0.074615 -0.432126 0.010163
-0.087375 -0.312621 -0.010163
-0.481224 0.138453 0.010163
-0.247031 0.056216 0.010163
-0.216911 -0.350256 -0.010163
-0.333485 -0.173536 0.010163
-0.036899 0.041354 0.010163
-0.320177 0.025591 -0.010163
-0.243306 0.041220 0.010163
-0.471126 -0.433358 -0.010163
-0.176100 -0.177372 0.010163
-0.461241 -0.246707 -0.010163
-0.056333 -0.037391 -0.010163
-0.225342 -0.465842 0.010163
-0.349721 -0.482114 -0.010163
-0.036970 -0.225543 -0.010163
-0.390985 -0.177723 0.010163
-0.122933 -0.500000 -0.005556
-0.193169 -0.412767 0.010163
-0.319281 0.500000 0.005569
-0.330161 -0.114548 -0.010163
-0.354780 0.329943 -0.010163
-0.338827 0.116372 -0.010163
-0.129915 0.416398 -0.010163
-0.360003 0.449983 -0.010163
-0.103298 0.253383 0.010163
-0.150987 -0.155886 0.010163
-0.298853 -0.417927 0.010163
-0.458471 0.375191 -0.010163
-0.020479 -0.279689 0.010163
-0.107225 0.220315 0.010163
-0.069843 0.232831 0.010163
-0.468900 -0.129622 -0.010163
-0.113543 0.432884 0.010163
-0.098823 -0.259420 -0.010163
-0.251374 0.500000 0.009806
-0.107488 0.337583 0.010163
-0.042546 0.500000 -0.009880
-0.006084 0.483294 0.010163
-0.494867 0.221386 0.010163
-0.190677 -0.086141 0.010163
-0.030645 -0.362782 0.010163
-0.479034 0.098455 -0.010163
-0.221648 0.131653 0.010163
-0.190429 -0.025471 0.010163
-0.275187 0.071962 0.010163
-0.401839 -0.162293 -0.010163
-0.204967 0.200961 0.010163
-0.230224 0.233138 -0.010163
-0.448204 -0.339915 -0.010163
-0.006763 -0.076624 -0.010163
-0.399124 -0.262670 -0.010163
-0.413622 0.290887 0.010163
-0.085875 0.384215 0.010163
-0.067890 -0.307742 -0.010163
-0.453981 0.351783 -0.010163
-0.320510 0.299387 -0.010163
-0.424361 0.256028 -0.010163
-0.241861 -0.399786 -0.010163
-0.027178 -0.055077 -0.010163
-0.245862 -0.313768 -0.010163
-0.237781 -0.421235 0.010163
-0.466911 0.399420 0.010163
-0.255356 0.211897 -0.010163
-0.041822 -0.326192 -0.010163
-0.089107 0.101804 -0.010163
-0.432902 -0.383065 0.010163
-0.066469 -0.242416 0.010163
-0.234513 -0.051933 0.010163
-0.073510 -0.146199 -0.010163
-0.436084 -0.188033 -0.010163
-0.002620 0.291112 -0.010163
-0.199022 -0.030543 0.010163
-0.134302 0.491485 -0.010163
-0.015375 0.226833 0.010163
-0.169904 -0.356721 0.010163
-0.346386 -0.104941 -0.010163
-0.374939 0.456956 -0.010163
-0.227037 -0.207876 -0.010163
-0.428222 -0.485384 0.010163
-0.373861 0.017757 -0.010163
-0.308558 0.184668 0.010163
-0.221445 0.058113 0.010163
-0.500000 0.097508 0.009787
-0.049641 0.059812 -0.010163
-0.093717 0.133328 0.010163
-0.500000 -0.447202 -0.006544
-0.182409 0.137984 0.010163
-0.065619 0.418492 0.010163
-0.057132 -0.136112 -0.010163
-0.171751 0.253967 0.010163
-0.421010 -0.157833 -0.010163
-0.165094 0.009768 -0.010163
-0.185212 -0.070928 -0.010163
-0.198502 0.371763 0.010163
-0.156976 -0.460963 0.010163
-0.005297 -0.476235 -0.010163
-0.043628 -0.140980 0.010163
-0.194394 -0.485647 0.010163
-0.005765 -0.322698 0.010163
-0.115773 -0.461962 -0.010163
-0.064769 0.318645 0.010163
-0.404146 -0.216176 -0.010163
-0.137861 -0.183179 -0.010163
-0.270986 0.002092 0.010163
-0.079208 0.319374 -0.010163
-0.361754 -0.104873 0.010163
-0.486697 0.149831 -0.010163
-0.029136 0.129865 0.010163
-0.464539 -0.313017 0.010163
-0.279165 0.251187 0.010163
-0.122315 0.417964 0.010163
-0.190075 -0.048583 -0.010163
-0.421824 -0.418697 0.010163
-0.380487 -0.491471 -0.010163
-0.097629 0.185721 -0.010163
-0.140424 -0.391609 -0.010163
-0.376060 -0.053539 0.010163
-0.057436 -0.295511 0.010163
-0.057526 -0.121185 -0.010163
-0.323272 -0.219742 -0.010163
-0.453373 0.240671 0.010163
-0.133956 0.195946 -0.010163
-0.212293 -0.327098 -0.010163
-0.374557 0.303248 0.010163
-0.366990 -0.392657 0.010163
-0.175226 0.073819 -0.010163
-0.060702 0.461800 0.010163
-0.411043 -0.075941 0.010163
-0.102476 0.397526 0.010163
-0.158828 -0.318490 -0.010163
-0.477756 -0.171746 0.010163
-0.083056 0.419815 -0.010163
-0.500000 -0.469181 -0.001794
-0.101591 0.018946 0.010163
-0.157037 0.031130 -0.010163
-0.266098 -0.379769 -0.010163
-0.061259 0.157829 0.010163
-0.233541 -0.493790 -0.010163
-0.284525 -0.185669 0.010163
-0.116626 0.210169 -0.010163
-0.062812 -0.011816 -0.010163
-0.240782 -0.196296 0.010163
-0.464666 0.486550 -0.010163
-0.253939 -0.033641 -0.010163
-0.392307 0.460409 -0.010163
-0.421699 -0.358546 -0.010163
-0.191285 -0.370085 0.010163
-0.073054 0.443352 0.010163
-0.343240 0.151593 0.010163
-0.243289 0.057147 0.010163
-0.164245 -0.019867 -0.010163
-0.365958 0.445062 0.010163
-0.422427 -0.241808 0.010163
-0.436077 -0.088481 -0.010163
-0.186253 -0.002240 -0.010163
-0.147005 -0.008509 -0.010163
-0.234435 -0.171225 0.010163
-0.059176 -0.399757 -0.010163
-0.205079 -0.357875 -0.010163
-0.030764 0.345273 0.010163
-0.412857 0.425503 -0.010163
-0.247701 -0.450494 0.010163
-0.205293 -0.146506 -0.010163
-0.492702 -0.151442 -0.010163
-0.257833 0.022034 -0.010163
-0.126419 0.156579 -0.010163
-0.442523 -0.500000 0.004855
-0.205464 -0.164319 0.010163
-0.108236 0.368823 -0.010163
-0.109024 0.200912 0.010163
-0.406074 0.221430 -0.010163
-0.312315 -0.207054 0.010163
-0.271864 0.006445 0.010163
-0.452238 -0.054125 0.010163
-0.229421 0.035223 -0.010163
-0.151173 0.131031 0.010163
-0.014078 0.123076 0.010163
-0.018842 -0.310418 0.010163
-0.403767 -0.299280 -0.010163
-0.103792 0.347423 0.010163
-0.285350 -0.094364 -0.010163
-0.077042 0.063606 0.010163
-0.219763 0.405369 -0.010163
-0.101531 0.380816 -0.010163
-0.500000 -0.396198 -0.004379
-0.200693 -0.466583 -0.010163
-0.382896 0.083479 -0.010163
-0.343608 -0.316058 -0.010163
-0.500000 -0.246921 -0.009979
-0.476367 -0.167961 0.010163
-0.255544 -0.339542 0.010163
-0.089410 -0.099441 0.010163
-0.352901 -0.369732 0.010163
-0.333942 -0.149303 -0.010163
-0.167603 -0.145142 -0.010163
-0.109586 0.434183 -0.010163
-0.119862 0.055715 -0.010163
-0.123157 0.394047 0.010163
-0.452870 0.262776 0.010163
-0.019390 0.418838 0.010163
-0.244322 -0.306411 -0.010163
-0.064030 -0.398827 -0.010163
-0.026054 0.486330 -0.010163
-0.048196 0.070708 0.010163
-0.014117 0.139590 -0.010163
-0.093437 -0.455974 -0.010163
-0.422200 0.134970 -0.010163
-0.096228 -0.322969 -0.010163
-0.141506 0.046732 0.010163
-0.271540 -0.262409 0.010163
-0.468843 -0.500000 0.003502
-0.023603 0.003460 0.010163
-0.406755 -0.278702 0.010163
-0.198494 0.083948 0.010163
-0.439857 0.070108 -0.010163
-0.021659 0.500000 0.000569
-0.050148 -0.421482 0.010163
-0.100226 -0.015126 -0.010163
-0.131699 0.359520 -0.010163
-0.300258 -0.478449 -0.010163
-0.493212 -0.134450 -0.010163
-0.345387 -0.365831 -0.010163
-0.295459 -0.384925 -0.010163
-0.315926 -0.457995 0.010163
-0.267883 -0.383141 -0.010163
-0.390240 -0.437817 0.010163
-0.004886 0.299068 -0.010163
-0.190434 -0.400075 -0.010163
-0.023220 0.376505 -0.010163
-0.171724 0.294957 -0.010163
-0.275723 0.051403 -0.010163
-0.051694 0.129113 -0.010163
-0.486115 -0.014031 -0.010163
-0.030651 0.252633 -0.010163
-0.030441 -0.053979 -0.010163
-0.400878 -0.478868 -0.010163
-0.383712 0.134407 0.010163
-0.216893 0.101692 -0.010163
-0.500000 0.453478 -0.008686
-0.343576 0.312214 -0.010163
-0.099379 0.455574 0.010163
-0.108477 0.137609 0.010163
-0.148004 -0.077662 -0.010163
-0.047952 -0.383614 0.010163
-0.022731 0.197322 0.010163
-0.014887 -0.287055 0.010163
-0.447058 -0.008963 -0.010163
-0.183402 0.193259 -0.010163
-0.020135 -0.081101 -0.010163
-0.415898 -0.457452 -0.010163
-0.177808 0.053378 -0.010163
-0.319522 0.307169 0.010163
-0.093816 0.023765 -0.010163
-0.267247 0.252809 0.010163
-0.287179 0.202401 -0.010163
-0.055301 0.106707 -0.010163
-0.022385 0.273696 -0.010163
-0.214787 -0.243869 0.010163
-0.181448 0.440010 0.010163
-0.470147 0.113839 0.010163
-0.298460 -0.349973 -0.010163
-0.333965 -0.035120 0.010163
-0.437205 -0.061293 -0.010163
-0.119480 -0.479577 0.010163
-0.376814 -0.271480 -0.010163
-0.364115 -0.396977 -0.010163
-0.173329 -0.387839 0.010163
-0.253078 -0.251792 0.010163
-0.120434 -0.015235 -0.010163
-0.202472 0.111447 0.010163
-0.018952 -0.312291 -0.010163
-0.229218 -0.306933 -0.010163
-0.071720 0.347133 -0.010163
-0.395809 -0.394784 -0.010163
-0.484752 -0.296072 -0.010163
-0.001026 -0.344989 -0.010163
-0.178900 -0.062915 -0.010163
-0.027589 -0.488326 0.010163
-0.468186 0.345525 0.010163
-0.408112 0.327412 0.010163
-0.108673 -0.049467 0.010163
-0.425574 -0.471738 0.010163
-0.081650 0.449374 -0.010163
-0.386168 -0.343025 -0.010163
-0.379074 -0.061934 -0.010163
-0.435400 0.469870 -0.010163
-0.472158 0.085426 -0.010163
-0.256859 -0.485987 -0.010163
-0.217300 -0.059404 -0.010163
-0.440152 -0.293125 0.010163
-0.159255 -0.083732 -0.010163
-0.436950 -0.462217 0.010163
-0.042400 0.428431 -0.010163
-0.450317 -0.498623 0.010163
-0.113581 0.411407 -0.010163
-0.266273 -0.286887 0.010163
-0.457264 -0.456715 -0.010163
-0.210787 -0.485571 0.010163
-0.087543 0.500000 -0.009551
-0.175172 -0.424439 -0.010163
-0.090074 -0.282349 0.010163
-0.331253 -0.304221 -0.010163
-0.093312 0.244450 -0.010163
-0.065660 0.120362 -0.010163
-0.209929 0.358119 0.010163
-0.119950 0.384355 -0.010163
-0.467930 0.316583 0.010163
-0.393156 -0.003592 -0.010163
-0.076065 0.166066 -0.010163
-0.348789 0.491393 0.010163
-0.077465 0.311110 -0.010163
-0.317627 0.385288 0.010163
-0.400843 0.268441 0.010163
-0.295452 -0.035347 -0.010163
-0.251436 -0.284973 0.010163
-0.245385 -0.355057 0.010163
-0.484196 -0.460187 -0.010163
-0.041208 -0.056533 0.010163
-0.135754 -0.056814 -0.010163
-0.134659 -0.405608 0.010163
-0.295774 0.045222 0.010163
-0.425934 -0.033874 0.010163
-0.490505 -0.230979 0.010163
-0.055860 -0.273178 -0.010163
-0.458337 0.471099 0.010163
-0.460650 0.456163 -0.010163
-0.228854 -0.333654 -0.010163
-0.057885 0.300577 -0.010163
-0.228721 0.243826 0.010163
-0.251523 0.104219 0.010163
-0.082944 -0.353265 0.010163
-0.131906 0.137085 -0.010163
-0.382033 0.482133 0.010163
-0.176496 -0.421321 -0.010163
-0.430220 0.074929 -0.010163
-0.268801 -0.496373 -0.010163
-0.325001 -0.500000 0.000039
-0.033668 0.320090 0.010163
-0.343086 -0.489697 -0.010163
-0.282781 0.063874 -0.010163
-0.125928 -0.374865 -0.010163
-0.297861 -0.156531 -0.010163
-0.048745 -0.489637 0.010163
-0.016525 0.011876 -0.010163
-0.055528 -0.370375 0.010163
-0.500000 -0.495011 0.006767
-0.072524 -0.079932 0.010163
-0.214549 -0.232713 0.010163
-0.281386 0.447811 0.010163
-0.172076 -0.172381 0.010163
-0.092112 -0.065515 -0.010163
-0.467617 0.356497 0.010163
-0.027240 -0.300737 0.010163
-0.023748 0.103415 0.010163
-0.229162 0.480327 -0.010163
-0.399544 0.393378 -0.010163
-0.465396 0.150284 -0.010163
-0.181999 0.352020 0.010163
-0.223810 0.006045 -0.010163
-0.269090 -0.414594 -0.010163
-0.479310 0.176900 0.010163
-0.248061 0.272441 -0.010163
-0.037482 0.232148 0.010163
-0.176579 -0.332564 -0.010163
-0.304109 -0.234043 -0.010163
-0.387860 -0.185356 0.010163
-0.183941 -0.193742 -0.010163
-0.211777 0.315459 0.010163
-0.363435 -0.391436 0.010163
-0.042631 -0.366869 0.010163
-0.455815 -0.329161 0.010163
-0.309138 0.222937 -0.010163
-0.369130 -0.492102 0.010163
-0.478759 -0.366565 0.010163
-0.500000 0.478081 -0.004619
-0.018220 0.335906 0.010163
-0.102421 -0.054671 0.010163
-0.428046 -0.072838 -0.010163
-0.446932 -0.351976 -0.010163
-0.322575 -0.282638 0.010163
-0.457108 -0.108587 0.010163
-0.041713 -0.431758 0.010163
-0.304472 0.104120 0.010163
-0.341093 -0.122860 0.010163
-0.260771 0.113226 0.010163
-0.290617 0.154490 0.010163
-0.486567 0.101143 -0.010163
-0.225476 0.083266 -0.010163
-0.307113 0.029672 0.010163
-0.419569 0.374045 0.010163
-0.285938 -0.467021 -0.010163
-0.139737 0.439953 -0.010163
-0.044058 0.372574 -0.010163
-0.151097 -0.225725 0.010163
-0.060913 -0.439560 -0.010163
-0.126386 0.206875 0.010163
-0.083816 0.294703 0.010163
-0.494699 -0.046532 0.010163
-0.264089 -0.254213 0.010163
-0.084773 0.315337 -0.010163
-0.234202 0.047599 -0.010163
-0.405448 0.365533 0.010163
-0.021289 -0.458068 -0.010163
-0.244964 -0.318251 0.010163
-0.101026 -0.182279 0.010163
-0.090232 0.177181 -0.010163
-0.120399 -0.482794 -0.010163
-0.325611 0.010296 0.010163
-0.421690 0.069451 0.010163
-0.257579 -0.275895 -0.010163
-0.444894 -0.226950 -0.010163
-0.457393 -0.013787 0.010163
-0.396812 -0.085801 0.010163
-0.114519 0.386155 0.010163
-0.051113 -0.075655 -0.010163
-0.434254 0.391543 -0.010163
-0.091963 -0.080214 -0.010163
-0.194585 -0.286344 0.010163
-0.275213 0.417794 0.010163
-0.116692 0.058171 -0.010163
-0.397560 -0.055484 -0.010163
-0.491983 0.342707 0.010163
-0.163770 0.041688 -0.010163
-0.245430 0.493793 0.010163
-0.078089 0.263647 -0.010163
-0.242348 0.442339 -0.010163
-0.036612 -0.386378 -0.010163
-0.354536 0.144647 -0.010163
-0.025644 -0.009865 0.010163
-0.102743 0.339258 -0.010163
-0.310267 0.187830 0.010163
-0.025090 -0.020307 -0.010163
-0.395337 0.051559 -0.010163
-0.056206 -0.471722 0.010163
-0.161371 0.096927 -0.010163
-0.180786 -0.293448 0.010163
-0.030339 -0.491894 0.010163
-0.500000 0.224275 0.005943
-0.191533 0.111326 0.010163
-0.342333 -0.127421 0.010163
-0.403774 -0.276088 -0.010163
-0.285482 -0.308423 -0.010163
-0.110042 -0.443345 0.010163
-0.070636 -0.481629 -0.010163
-0.093208 -0.273163 -0.010163
-0.395030 -0.444252 -0.010163
-0.376618 0.410898 0.010163
-0.297739 -0.377241 0.010163
-0.490530 0.446361 -0.010163
-0.029495 -0.068858 -0.010163
-0.132382 -0.254888 0.010163
-0.256193 0.044641 -0.010163
-0.308744 -0.443932 -0.010163
-0.432957 -0.430005 0.010163
-0.129265 0.154346 0.010163
-0.400050 -0.109765 -0.010163
-0.500000 -0.403489 0.009956
-0.103920 0.321705 0.010163
-0.374563 -0.112525 -0.010163
-0.497283 0.246987 -0.010163
-0.269979 0.086077 -0.010163
-0.296412 0.075612 -0.010163
-0.294962 0.222257 0.010163
-0.000281 -0.436218 0.010163
-0.475285 0.374442 -0.010163
-0.109903 -0.032268 0.010163
-0.230605 -0.208693 -0.010163
-0.307536 0.350717 -0.010163
-0.173257 0.443800 -0.010163
-0.277388 -0.439391 -0.010163
-0.443046 0.414364 -0.010163
-0.494180 -0.489379 -0.010163
-0.496864 0.301217 0.010163
-0.060466 0.500000 0.009171
-0.126198 0.182798 -0.010163
-0.315082 0.002943 -0.010163
-0.308400 0.153956 0.010163
-0.188458 0.478947 0.010163
-0.175918 0.261486 0.010163
-0.403527 0.342344 -0.010163
-0.019366 0.445327 -0.010163
-0.155526 -0.382898 0.010163
-0.067791 -0.045539 0.010163
-0.151066 -0.041983 0.010163
-0.348437 -0.491705 -0.010163
-0.057439 0.321853 0.010163
-0.363369 -0.264202 0.010163
-0.144054 0.245178 -0.010163
-0.272211 0.433339 0.010163
-0.116293 0.325721 -0.010163
-0.478412 -0.406574 0.010163
-0.169411 0.281374 0.010163
-0.369176 -0.063823 0.010163
-0.254291 0.183709 0.010163
-0.280475 -0.232778 0.010163
-0.302711 0.279476 0.010163
-0.414154 -0.390702 0.010163
-0.499881 0.339221 0.010163
-0.323207 -0.056988 -0.010163
-0.491722 -0.490509 0.010163
-0.233222 0.487794 0.010163
-0.118818 -0.445339 -0.010163
-0.418249 0.364965 -0.010163
-0.223402 -0.343321 -0.010163
-0.045933 -0.405951 -0.010163
-0.421872 0.493403 0.010163
-0.193442 -0.269476 0.010163
-0.283078 -0.490661 -0.010163
-0.442112 0.104840 -0.010163
-0.446077 0.379249 0.010163
-0.476023 -0.196542 -0.010163
-0.470074 0.259787 -0.010163
-0.352272 -0.190611 -0.010163
-0.181560 0.500000 -0.009927
-0.486995 0.379980 0.010163
-0.500000 -0.257228 -0.009829
-0.125013 -0.143114 -0.010163
-0.167234 0.196062 0.010163
-0.219514 0.411670 0.010163
-0.117269 0.179004 -0.010163
-0.459484 0.040300 -0.010163
-0.151527 0.280703 0.010163
-0.278553 0.064138 -0.010163
-0.050171 -0.295587 -0.010163
-0.371941 -0.332629 -0.010163
-0.500000 0.208275 0.005553
-0.026999 0.492450 0.010163
-0.077306 -0.023723 0.010163
-0.039324 0.221972 0.010163
-0.265693 -0.324074 0.010163
-0.499700 0.073179 -0.010163
-0.408619 0.266005 0.010163
-0.269734 0.483285 0.010163
-0.389607 0.338466 0.010163
-0.304608 0.136096 -0.010163
-0.277049 0.270552 -0.010163
-0.021062 0.248032 0.010163
-0.205381 -0.366962 0.010163
-0.148337 -0.486368 0.010163
-0.011849 0.234015 -0.010163
-0.068993 0.190917 0.010163
-0.322486 -0.315190 0.010163
-0.235388 -0.361986 0.010163
-0.443467 -0.312300 0.010163
-0.097988 -0.249409 0.010163
-0.409404 -0.486082 -0.010163
-0.340358 -0.278762 0.010163
-0.116070 -0.493464 -0.010163
-0.442982 0.143691 0.010163
-0.382448 0.160990 -0.010163
-0.089645 0.066186 0.010163
-0.084663 -0.367093 0.010163
-0.042817 -0.339901 -0.010163
-0.266330 -0.142304 -0.010163
-0.115533 -0.130912 0.010163
-0.281665 0.115056 0.010163
-0.286485 -0.489267 -0.010163
-0.413579 0.430256 0.010163
-0.147481 -0.275495 -0.010163
-0.117129 -0.171413 0.010163
-0.067295 0.148564 0.010163
-0.219979 -0.351537 0.010163
-0.190011 -0.428232 0.010163
-0.389913 -0.170681 -0.010163
-0.006957 -0.094212 0.010163
-0.321282 -0.424726 0.010163
-0.165657 -0.268231 -0.010163
-0.092770 -0.486892 -0.010163
-0.307280 -0.361520 -0.010163
-0.397546 -0.243908 -0.010163
-0.054587 -0.468975 0.010163
-0.022172 -0.017332 0.010163
-0.090624 -0.448275 -0.010163
-0.475985 0.035704 -0.010163
-0.035944 -0.394272 0.010163
-0.297150 -0.449117 0.010163
-0.226005 0.456282 -0.010163
-0.396929 -0.420464 -0.010163
-0.336634 0.048704 -0.010163
-0.117992 -0.309030 0.010163
-0.277392 0.140185 0.010163
-0.018370 -0.346199 -0.010163
-0.255430 -0.428913 0.010163
-0.500000 0.461734 0.001906
-0.395151 0.234011 -0.010163
-0.462084 0.203393 -0.010163
-0.110382 -0.361882 0.010163
-0.488131 0.005254 0.010163
-0.026885 -0.116346 -0.010163
-0.257065 0.463019 0.010163
-0.128597 -0.089642 -0.010163
-0.059944 -0.318065 -0.010163
-0.109626 0.489215 -0.010163
-0.080065 0.077905 -0.010163
-0.298387 -0.230053 0.010163
-0.021243 0.022441 0.010163
-0.080343 -0.330004 0.010163
-0.275302 0.021803 0.010163
-0.206594 0.491909 0.010163
-0.195289 -0.120267 0.010163
-0.471309 0.027678 -0.010163
-0.146833 -0.211515 0.010163
-0.437718 0.426215 -0.010163
-0.484661 0.270334 0.010163
-0.225260 0.062769 0.010163
-0.276097 -0.155729 -0.010163
-0.394335 -0.482758 -0.010163
-0.438383 0.331640 0.010163
-0.321167 -0.464412 0.010163
-0.371478 0.178702 0.010163
-0.033446 0.086644 -0.010163
-0.013621 -0.060563 -0.010163
-0.500000 -0.065053 -0.003512
-0.345532 0.440063 -0.010163
-0.013013 0.025695 -0.010163
-0.462520 -0.034541 -0.010163
-0.134857 0.440305 0.010163
-0.422059 0.370907 0.010163
-0.293106 0.262916 -0.010163
-0.176737 0.358312 0.010163
-0.350266 -0.208630 0.010163
-0.230480 0.361114 -0.010163
-0.320792 -0.066820 -0.010163
-0.500000 0.405819 0.003053
-0.004170 0.064987 0.010163
-0.130356 0.336186 -0.010163
-0.500000 0.482566 0.010018
-0.146365 0.458358 -0.010163
-0.020382 -0.271797 -0.010163
-0.310595 -0.384626 0.010163
-0.424099 -0.380991 0.010163
-0.085210 0.158877 -0.010163
-0.040759 0.404379 0.010163
-0.374541 0.386427 0.010163
-0.158401 -0.390277 -0.010163
-0.008949 -0.135637 0.010163
-0.379911 -0.092296 0.010163
-0.388921 0.025485 0.010163
-0.252699 0.306728 -0.010163
-0.062279 -0.434425 -0.010163
-0.243372 -0.055329 0.010163
-0.361288 -0.444014 -0.010163
-0.037192 0.404370 0.010163
-0.175934 0.411788 0.010163
-0.372771 0.144589 0.010163
-0.048934 0.222683 -0.010163
-0.465833 -0.299822 -0.010163
-0.282203 0.500000 0.004885
-0.212615 0.088876 -0.010163
-0.219511 -0.152718 -0.010163
-0.161173 -0.042111 0.010163
-0.500000 -0.327516 -0.007964
-0.193677 -0.061305 -0.010163
-0.224017 -0.304523 0.010163
-0.034734 -0.497806 -0.010163
-0.031372 -0.108200 -0.010163
-0.400948 0.100719 -0.010163
-0.372443 0.394150 0.010163
-0.483073 0.077306 -0.010163
-0.256176 0.120395 0.010163
-0.094112 0.413474 0.010163
-0.000790 0.456504 -0.010163
-0.337274 0.287383 0.010163
-0.358983 -0.431253 -0.010163
-0.110723 0.443411 -0.010163
-0.233381 0.386012 0.010163
-0.201421 -0.427835 0.010163
-0.322824 -0.439193 0.010163
-0.309550 0.345769 -0.010163
-0.441573 0.283780 0.010163
-0.459470 -0.489580 0.010163
-0.208732 0.497511 0.010163
-0.260766 0.453308 0.010163
-0.152760 0.069916 0.010163
-0.302054 0.275945 -0.010163
-0.238140 0.197705 -0.010163
-0.011801 -0.319815 0.010163
-0.240558 0.399256 0.010163
-0.319576 -0.093524 0.010163
-0.022141 0.463001 -0.010163
-0.418305 -0.011267 -0.010163
-0.208128 -0.174462 0.010163
-0.299114 -0.496052 0.010163
-0.365857 -0.339848 0.010163
-0.034233 -0.033405 0.010163
-0.135209 0.403377 0.010163
-0.151114 0.193773 0.010163
-0.490764 0.257131 0.010163
-0.487550 -0.445335 -0.010163
-0.313838 0.421889 0.010163
-0.163887 -0.374637 0.010163
-0.316973 0.421900 -0.010163
-0.347930 -0.117340 0.010163
-0.088414 -0.244966 -0.010163
-0.350670 -0.489019 -0.010163
-0.439760 0.276767 -0.010163
-0.208118 -0.001329 -0.010163
-0.348074 0.307902 0.010163
-0.500000 -0.430590 0.010040
-0.154877 -0.308953 0.010163
-0.488238 0.081864 -0.010163
-0.139963 -0.215184 -0.010163
-0.469261 0.416694 -0.010163
-0.407047 -0.440706 0.010163
-0.309796 0.004054 -0.010163
-0.224370 0.074363 -0.010163
-0.294439 -0.197637 -0.010163
-0.453492 0.190745 0.010163
-0.500000 0.479017 0.008510
-0.213465 -0.397576 0.010163
-0.130685 0.203366 -0.010163
-0.428991 -0.130835 -0.010163
-0.348631 -0.395114 0.010163
-0.421405 0.260778 -0.010163
-0.499556 -0.233389 -0.010163
-0.448192 -0.332720 -0.010163
-0.288300 -0.500000 -0.005727
-0.270439 -0.076536 -0.010163
-0.500000 0.290166 -0.003290
-0.220346 0.128766 0.010163
-0.179680 -0.440706 0.010163
-0.140910 -0.342922 0.010163
-0.196015 0.171418 0.010163
-0.493979 -0.354180 0.010163
-0.441468 0.425838 -0.010163
-0.460076 -0.436238 -0.010163
-0.302463 0.437817 0.010163
-0.192602 0.056374 0.010163
-0.056811 0.140472 -0.010163
-0.481507 0.349880 -0.010163
-0.291180 -0.274286 0.010163
-0.224019 -0.467767 -0.010163
-0.269170 -0.115723 0.010163
-0.042424 -0.079989 -0.010163
-0.061264 -0.402048 0.010163
-0.477164 -0.424616 -0.010163
-0.460099 0.474021 0.010163
-0.342591 -0.423429 -0.010163
-0.343925 0.158661 0.010163
-0.102507 -0.399920 0.010163
-0.403430 0.277421 0.010163
-0.214136 -0.353176 0.010163
-0.475839 0.376782 0.010163
-0.195967 -0.142046 0.010163
-0.432244 -0.154732 0.010163
-0.453270 -0.265478 0.010163
-0.382843 0.116808 -0.010163
-0.115454 0.062929 0.010163
-0.238219 -0.136648 0.010163
-0.056659 -0.332866 -0.010163
-0.290463 -0.098375 0.010163
-0.027398 0.000714 -0.010163
-0.259526 0.433865 0.010163
-0.491514 0.213925 -0.010163
-0.457050 0.213584 0.010163
-0.096735 0.347721 0.010163
-0.223778 -0.073100 -0.010163
-0.382726 0.341081 -0.010163
-0.346871 0.293936 -0.010163
-0.028083 0.263865 0.010163
-0.170747 -0.071038 0.010163
-0.123953 0.500000 0.002743
-0.211410 0.164353 -0.010163
-0.215926 -0.355313 -0.010163
-0.329620 -0.258674 -0.010163
-0.458141 -0.122459 0.010163
-0.307859 -0.449161 0.010163
-0.228762 -0.367657 -0.010163
-0.154770 -0.205968 -0.010163
-0.303689 0.314957 0.010163
-0.425240 -0.459813 -0.010163
-0.110481 -0.265103 -0.010163
-0.466631 -0.099837 0.010163
-0.306516 0.297232 0.010163
-0.226938 -0.236694 0.010163
-0.403159 0.028937 0.010163
-0.122624 -0.330259 -0.010163
-0.128479 0.141918 0.010163
-0.406342 0.256477 0.010163
-0.274925 -0.048848 0.010163
-0.066648 0.367497 0.010163
-0.356661 -0.040652 -0.010163
-0.222498 0.469758 -0.010163
-0.124459 0.159120 -0.010163
-0.407908 -0.169833 -0.010163
-0.001536 -0.405514 0.010163
-0.175107 0.488916 -0.010163
-0.018773 -0.496445 -0.010163
-0.138844 -0.025170 -0.010163
-0.200624 -0.375845 0.010163
-0.090336 0.054805 -0.010163
-0.175810 0.422467 0.010163
-0.454786 0.061980 0.010163
-0.371337 -0.444644 0.010163
-0.008552 -0.311040 0.010163
-0.070118 -0.262339 0.010163
-0.405361 0.302267 0.010163
-0.424850 0.469180 -0.010163
-0.344345 0.464254 0.010163
-0.157431 0.388439 0.010163
-0.488671 -0.313907 -0.010163
-0.447118 0.379718 -0.010163
-0.469738 -0.486950 -0.010163
-0.288389 0.445273 -0.010163
-0.025004 -0.267955 0.010163
-0.035301 0.051029 0.010163
-0.409499 -0.189284 -0.010163
-0.098525 0.079858 -0.010163
-0.137931 -0.160362 0.010163
-0.488858 -0.001086 -0.010163
-0.441732 0.464198 -0.010163
-0.093677 -0.338915 -0.010163
-0.104351 0.337843 0.010163
-0.340748 0.259575 0.010163
-0.335742 0.018950 -0.010163
-0.212042 -0.489861 -0.010163
-0.418255 0.296174 0.010163
-0.422080 0.201568 0.010163
-0.116244 -0.088009 0.010163
-0.165123 0.240771 0.010163
-0.198577 -0.411310 0.010163
-0.368486 0.164370 -0.010163
-0.037459 -0.465158 0.010163
-0.026947 0.228403 0.010163
-0.017562 0.026819 -0.010163
-0.250635 0.355135 -0.010163
-0.342088 -0.055792 0.010163
-0.238104 0.145252 -0.010163
-0.229609 0.405789 0.010163
-0.500000 -0.121386 -0.009953
-0.007738 0.165029 -0.010163
-0.273730 -0.103102 -0.010163
-0.244681 -0.182893 0.010163
-0.482703 0.364935 0.010163
-0.340095 0.037422 -0.010163
-0.185100 -0.433293 0.010163
-0.425333 -0.240513 0.010163
-0.299291 -0.192281 -0.010163
-0.288738 -0.139069 0.010163
-0.374203 0.185098 -0.010163
-0.197337 -0.063466 0.010163
-0.379803 0.026799 0.010163
-0.477513 0.446346 -0.010163
-0.126259 0.293204 0.010163
-0.142597 -0.140407 -0.010163
-0.069205 0.393353 -0.010163
-0.483197 -0.007276 -0.010163
-0.500000 -0.406997 -0.008413
-0.373253 -0.496409 -0.010163
-0.323117 -0.004365 -0.010163
-0.422394 0.480807 0.010163
-0.282240 -0.321841 0.010163
-0.188569 0.049912 -0.010163
-0.371379 -0.041896 -0.010163
-0.449452 0.142842 -0.010163
-0.107170 -0.244375 -0.010163
-0.246157 -0.214861 -0.010163
-0.198419 -0.060569 0.010163
-0.350106 -0.253369 -0.010163
-0.118085 0.433918 -0.010163
-0.286440 0.155717 0.010163
-0.410981 -0.472841 -0.010163
-0.400228 0.443519 -0.010163
-0.308392 -0.452560 0.010163
-0.484894 -0.362724 -0.010163
-0.167880 0.371362 -0.010163
-0.185750 -0.236661 -0.010163
-0.304182 -0.401435 -0.010163
-0.341732 0.383637 -0.010163
-0.351318 0.239045 0.010163
-0.321805 0.069770 -0.010163
-0.389239 0.105851 0.010163
-0.399987 -0.322830 -0.010163
-0.158713 -0.103072 -0.010163
-0.452186 -0.208065 0.010163
-0.133033 -0.404698 -0.010163
-0.465117 -0.483074 0.010163
-0.241686 0.434569 0.010163
