0.294592 0.110148 0.010163 
0.063940 0.152659 0.010163 
0.292962 -0.500000 -0.008589 
0.009365 0.500000 0.005244 
-0.123440 -0.408272 0.010163 
0.021933 -0.500000 0.006638 
-0.437091 -0.226864 -0.010163 
-0.104311 0.335561 0.010163 
0.057067 -0.500000 0.008653 
-0.398917 0.313519 -0.010163 
-0.380806 0.499080 -0.010163 
-0.500000 -0.183580 -0.001676 
0.206741 -0.058289 0.010163 
-0.500000 0.211764 0.007617 
-0.335405 -0.060634 -0.010163 
-0.033310 0.500000 0.001216 
-0.379055 0.138944 -0.010163 
-0.207152 -0.500000 0.000377 
-0.367458 -0.073185 0.010163 
0.299854 0.500000 0.008623 
-0.068188 0.489671 0.010163 
-0.261416 -0.066479 0.010163 
-0.384451 -0.213684 0.010163 
0.324804 0.102937 0.010163 
-0.148235 -0.218685 0.010163 
-0.500000 0.070330 -0.003591 
0.203438 -0.211319 -0.010163 
0.399655 -0.108706 -0.010163 
0.178133 -0.064105 -0.010163 
0.500000 -0.003240 -0.002755 
-0.317835 0.315499 0.010163 
-0.421129 -0.263964 -0.010163 
-0.409599 0.499669 0.010163 
0.102999 -0.132556 0.010163 
0.262351 0.500000 0.002983 
0.439046 0.310646 0.010163 
0.468205 -0.492069 -0.010163 
-0.462796 0.500000 0.006444 
0.385599 -0.324718 0.010163 
-0.147670 -0.369640 0.010163 
-0.425530 -0.447347 0.010163 
0.227666 -0.034161 -0.010163 
-0.054492 0.277954 0.010163 
-0.222388 -0.331289 0.010163 
-0.418449 -0.208574 0.010163 
0.294285 -0.269598 0.010163 
0.033884 -0.464002 0.010163 
0.371995 0.094185 0.010163 
0.182286 -0.329727 0.010163 
0.500000 -0.392896 0.008809 
-0.138222 0.497112 -0.010163 
-0.259311 -0.413410 -0.010163 
0.500000 -0.428877 0.002153 
-0.427664 -0.391978 0.010163 
0.425747 0.179270 0.010163 
-0.500000 -0.121115 -0.007465 
0.165115 -0.499162 0.010163 
0.225793 0.236754 0.010163 
0.036879 0.373095 0.010163 
0.147702 0.122924 -0.010163 
0.086020 0.500000 -0.004545 
0.177852 0.500000 0.005822 
-0.088725 0.001114 0.010163 
-0.221615 -0.356404 -0.010163 
0.151425 0.154501 -0.010163 
0.499925 0.320038 -0.010163 
0.376138 0.388024 -0.010163 
-0.500000 0.303190 -0.009501 
0.141263 -0.249107 0.010163 
0.112553 -0.404952 0.010163 
0.007602 -0.085733 -0.010163 
0.500000 -0.060221 0.009788 
0.037495 -0.094241 -0.010163 
0.199000 0.229975 -0.010163 
-0.469966 0.206236 -0.010163 
-0.099326 -0.435012 -0.010163 
0.445913 -0.118271 0.010163 
-0.297920 -0.183850 0.010163 
0.311652 0.380397 -0.010163 
0.183555 -0.365304 -0.010163 
-0.079593 -0.159187 -0.010163 
-0.038927 -0.065236 -0.010163 
0.384856 0.060332 -0.010163 
0.424152 0.284428 -0.010163 
-0.225184 -0.297820 0.010163 
0.312826 -0.333379 0.010163 
-0.070574 -0.398569 -0.010163 
0.216758 -0.180482 -0.010163 
0.467434 0.162876 -0.010163 
0.115082 -0.179555 -0.010163 
0.030925 -0.144156 -0.010163 
-0.260989 0.295083 0.010163 
0.462261 -0.421707 0.010163 
0.311282 -0.170875 -0.010163 
-0.093725 -0.387346 0.010163 
0.500000 0.160182 0.008487 
-0.414242 -0.002240 0.010163 
0.439638 0.149338 0.010163 
-0.466872 0.360840 -0.010163 
-0.001080 -0.150789 0.010163 
0.500000 0.231480 -0.008987 
-0.145174 0.345983 -0.010163 
-0.206721 0.042881 -0.010163 
0.438761 0.333951 -0.010163 
0.082045 0.333549 0.010163 
-0.313737 -0.214643 0.010163 
0.316235 -0.195291 0.010163 
-0.331418 0.067597 0.010163 
-0.071728 -0.045552 0.010163 
-0.269693 0.439485 -0.010163 
0.470964 0.324548 0.010163 
0.384972 0.251049 0.010163 
-0.360995 0.369941 0.010163 
-0.100311 0.133436 -0.010163 
0.388207 0.350050 -0.010163 
-0.371624 -0.489373 -0.010163 
0.349476 0.334442 -0.010163 
0.151251 0.361999 -0.010163 
0.499585 0.284077 -0.010163 
0.407123 0.048210 0.010163 
-0.447105 -0.335232 -0.010163 
-0.218647 -0.209531 -0.010163 
0.347580 0.065850 -0.010163 
-0.047016 -0.240266 0.010163 
-0.338105 -0.406687 0.010163 
0.041156 -0.379041 0.010163 
-0.336250 -0.370845 0.010163 
0.286227 -0.323139 -0.010163 
0.429128 -0.327033 0.010163 
0.169766 -0.263417 0.010163 
0.141378 0.230908 0.010163 
0.498597 -0.232163 -0.010163 
0.064816 -0.259446 -0.010163 
-0.251780 0.135225 0.010163 
0.337590 -0.484031 0.010163 
0.293023 -0.140724 0.010163 
-0.350224 -0.463871 -0.010163 
0.431073 0.239407 0.010163 
0.416854 0.157593 -0.010163 
-0.285776 0.468649 0.010163 
-0.220639 0.390245 0.010163 
0.104196 -0.356292 -0.010163 
0.314995 0.356529 0.010163 
0.093412 -0.266165 0.010163 
0.008161 0.451398 -0.010163 
0.458712 -0.392161 -0.010163 
-0.041410 -0.356586 -0.010163 
0.313040 0.468649 0.010163 
-0.223249 -0.184628 0.010163 
0.309920 0.018303 0.010163 
-0.204223 -0.168382 -0.010163 
-0.387616 -0.250525 -0.010163 
-0.195357 -0.372922 -0.010163 
0.259003 0.471877 -0.010163 
-0.442003 0.119554 0.010163 
0.169842 0.447085 0.010163 
-0.215743 -0.272694 -0.010163 
-0.028712 -0.102396 -0.010163 
-0.385266 -0.286233 0.010163 
0.386811 0.500000 -0.008417 
0.044876 -0.168819 0.010163 
-0.491332 -0.089637 -0.010163 
0.110261 -0.100041 0.010163 
0.149417 -0.058997 0.010163 
0.489080 0.366756 -0.010163 
-0.433592 0.257100 -0.010163 
-0.109391 0.499624 0.010163 
0.273376 0.374880 0.010163 
-0.245873 -0.045437 -0.010163 
0.173708 0.234133 0.010163 
-0.500000 -0.319972 -0.002908 
0.202519 0.463229 0.010163 
0.426913 0.024008 0.010163 
-0.351854 0.182793 0.010163 
0.072301 0.410683 0.010163 
0.285846 0.346711 -0.010163 
0.117153 -0.029294 0.010163 
0.023632 -0.303955 0.010163 
0.187387 -0.028898 0.010163 
-0.314989 -0.075227 0.010163 
-0.353362 -0.318273 -0.010163 
-0.395319 -0.077398 -0.010163 
-0.367321 -0.036505 0.010163 
-0.233252 -0.153419 0.010163 
0.337417 0.313244 0.010163 
0.129372 0.140119 0.010163 
-0.307724 0.043299 0.010163 
0.409936 0.215638 0.010163 
-0.188579 -0.013871 0.010163 
-0.367410 -0.378983 0.010163 
-0.339954 -0.095707 0.010163 
0.016315 -0.181320 0.010163 
0.401008 0.408679 -0.010163 
0.414742 -0.220849 0.010163 
-0.244076 0.167044 0.010163 
0.195602 -0.500000 -0.004906 
-0.387261 0.095272 -0.010163 
-0.015509 -0.077826 0.010163 
-0.397428 0.370968 -0.010163 
-0.490500 0.335846 -0.010163 
0.283443 -0.394806 -0.010163 
-0.006368 0.389777 0.010163 
0.328561 0.500000 -0.007178 
-0.049056 0.455909 0.010163 
0.382052 0.171147 -0.010163 
-0.122161 0.421441 -0.010163 
0.361990 -0.386674 0.010163 
0.263166 0.239821 0.010163 
-0.371789 -0.428780 0.010163 
-0.015891 -0.236825 0.010163 
0.003060 0.359735 0.010163 
0.032955 -0.410148 0.010163 
-0.058902 -0.500000 0.005992 
-0.355579 -0.248707 0.010163 
0.377915 0.032442 0.010163 
0.428293 -0.143774 0.010163 
-0.457088 -0.432433 0.010163 
0.211753 -0.349389 -0.010163 
-0.402548 -0.466036 -0.010163 
-0.111688 0.013978 -0.010163 
-0.006833 -0.293470 0.010163 
0.425491 -0.004404 -0.010163 
0.367497 -0.297253 -0.010163 
-0.226200 -0.383552 0.010163 
-0.407984 -0.169260 -0.010163 
0.280319 -0.181739 -0.010163 
0.330928 -0.152151 0.010163 
-0.482959 0.185926 0.010163 
0.490740 -0.032328 -0.010163 
0.114924 -0.440817 0.010163 
0.069699 -0.189400 0.010163 
-0.077847 -0.364618 -0.010163 
0.173364 -0.462037 0.010163 
0.443732 -0.255031 0.010163 
-0.040604 -0.479425 -0.010163 
-0.348539 0.403513 -0.010163 
0.491856 0.193356 0.010163 
-0.306067 -0.404644 0.010163 
-0.195363 0.408181 0.010163 
-0.126063 -0.247658 0.010163 
-0.410419 -0.239298 0.010163 
0.139551 -0.389885 0.010163 
0.321090 0.438796 0.010163 
0.145719 0.393822 -0.010163 
0.313285 -0.462996 -0.010163 
-0.390789 -0.037715 -0.010163 
0.099189 0.149542 0.010163 
0.444067 0.267391 0.010163 
-0.011908 -0.182403 -0.010163 
-0.216046 0.004362 0.010163 
-0.109557 0.165497 -0.010163 
0.498889 -0.129378 0.010163 
0.282045 0.463665 0.010163 
0.167595 0.474400 -0.010163 
0.500000 -0.344865 0.000122 
0.181581 0.372673 -0.010163 
-0.166506 -0.121849 0.010163 
-0.500000 0.146521 0.009063 
-0.071075 0.197810 -0.010163 
0.220118 -0.445723 0.010163 
0.473819 -0.235346 0.010163 
0.009872 -0.050081 -0.010163 
0.110046 0.321101 -0.010163 
-0.093694 0.430145 0.010163 
0.072269 -0.101281 0.010163 
0.470013 -0.260064 -0.010163 
-0.034641 -0.379393 0.010163 
0.228386 0.457348 -0.010163 
-0.206935 0.355744 0.010163 
-0.222861 0.217712 -0.010163 
-0.360582 0.214895 0.010163 
-0.010858 -0.348929 -0.010163 
-0.317516 -0.425809 -0.010163 
0.214804 0.380453 0.010163 
0.005420 -0.208199 -0.010163 
-0.286859 0.121846 -0.010163 
0.368860 -0.487167 0.010163 
-0.462959 0.450565 -0.010163 
0.154707 -0.356411 0.010163 
-0.105163 -0.278722 0.010163 
0.471884 -0.125358 -0.010163 
-0.342093 0.229841 -0.010163 
-0.287332 0.028532 -0.010163 
-0.168726 -0.152911 -0.010163 
-0.194772 -0.468271 0.010163 
-0.236977 0.289855 -0.010163 
-0.051650 -0.459017 0.010163 
0.341131 0.465502 -0.010163 
0.128379 0.338736 0.010163 
0.427112 0.405001 0.010163 
-0.322188 0.408091 0.010163 
-0.442372 -0.500000 -0.010106 
-0.340877 -0.437657 0.010163 
0.477002 0.294305 0.010163 
-0.032601 -0.296581 -0.010163 
-0.362311 0.311527 -0.010163 
0.117910 -0.060688 0.010163 
-0.384433 0.191734 0.010163 
-0.376193 -0.000211 0.010163 
0.033122 0.477011 -0.010163 
-0.294900 0.499151 -0.010163 
-0.455967 -0.466915 -0.010163 
-0.203918 0.190033 -0.010163 
-0.295321 -0.500000 -0.001563 
-0.137549 -0.335042 0.010163 
0.470664 0.248378 -0.010163 
0.471632 -0.361705 0.010163 
-0.014460 0.249905 -0.010163 
-0.176969 0.168717 -0.010163 
-0.418811 0.096173 -0.010163 
-0.075328 -0.421657 0.010163 
-0.064224 0.434618 -0.010163 
0.277070 -0.295589 0.010163 
-0.492010 -0.215067 -0.010163 
0.091103 0.063256 -0.010163 
-0.218494 -0.111065 0.010163 
0.390024 -0.394399 -0.010163 
-0.172950 0.494381 -0.010163 
-0.168548 -0.040367 0.010163 
0.498258 0.025228 0.010163 
-0.455146 0.272102 0.010163 
0.120130 0.396563 0.010163 
-0.435583 0.370532 -0.010163 
-0.046058 -0.146714 -0.010163 
0.459213 -0.000021 0.010163 
-0.489286 0.371846 0.010163 
-0.250038 -0.500000 -0.004863 
0.037603 0.246079 -0.010163 
0.234880 0.421607 -0.010163 
0.343507 -0.455199 -0.010163 
-0.135758 0.155112 0.010163 
-0.037606 -0.208038 0.010163 
0.101514 0.352173 -0.010163 
-0.188884 -0.344821 0.010163 
0.139743 0.428731 -0.010163 
-0.325391 0.023019 -0.010163 
-0.089738 -0.500000 -0.006698 
0.010607 0.030667 -0.010163 
0.349207 0.247786 -0.010163 
0.095667 -0.210022 0.010163 
-0.495312 -0.360344 -0.010163 
-0.494051 -0.146529 0.010163 
-0.500000 -0.398056 -0.003844 
0.248299 0.071318 -0.010163 
-0.418722 -0.075762 0.010163 
-0.242727 0.241574 0.010163 
-0.353307 -0.343302 0.010163 
-0.125289 0.104445 -0.010163 
-0.266484 -0.383307 0.010163 
-0.177958 0.067841 -0.010163 
-0.013200 0.340647 -0.010163 
-0.339041 -0.130337 -0.010163 
-0.473659 -0.195331 0.010163 
-0.199970 0.281891 0.010163 
0.053282 0.346112 0.010163 
-0.070390 0.110253 -0.010163 
-0.143856 -0.107753 -0.010163 
-0.394768 0.214295 -0.010163 
-0.462538 -0.092506 0.010163 
-0.365391 0.254351 -0.010163 
-0.438971 0.220480 -0.010163 
-0.379741 0.343996 0.010163 
0.500000 -0.491325 -0.001093 
-0.130194 -0.443839 0.010163 
-0.352035 -0.006247 -0.010163 
-0.316855 -0.154173 -0.010163 
-0.227233 -0.433518 -0.010163 
0.152221 0.069719 0.010163 
0.450927 0.360339 0.010163 
-0.412356 0.132420 -0.010163 
-0.034726 0.201615 -0.010163 
-0.456306 0.415989 -0.010163 
0.114713 -0.500000 0.008805 
0.040509 -0.068575 0.010163 
-0.039966 -0.265580 -0.010163 
0.122397 -0.330545 -0.010163 
-0.395478 -0.435517 -0.010163 
-0.045662 0.254701 -0.010163 
-0.020566 0.468925 -0.010163 
0.125632 -0.147062 -0.010163 
-0.437135 0.183537 -0.010163 
0.270226 -0.249371 0.010163 
-0.219588 0.311339 0.010163 
-0.160316 0.216096 0.010163 
-0.257120 0.189772 -0.010163 
0.191737 -0.292730 0.010163 
0.247158 0.346410 0.010163 
-0.280315 0.152128 -0.010163 
0.093503 -0.300082 -0.010163 
0.270492 0.264011 -0.010163 
0.253201 -0.500000 0.000709 
0.500000 0.125424 -0.004032 
0.135479 0.496698 -0.010163 
0.347315 0.357718 0.010163 
-0.225844 -0.475154 -0.010163 
0.249585 -0.052250 0.010163 
0.327612 -0.279510 -0.010163 
-0.038571 -0.175312 0.010163 
0.317430 -0.249355 -0.010163 
-0.226940 0.500000 0.009982 
-0.213838 0.067848 0.010163 
0.240124 -0.457305 -0.010163 
-0.071435 -0.273627 -0.010163 
-0.239824 0.063998 -0.010163 
0.239853 0.151658 0.010163 
-0.077823 0.245059 0.010163 
0.273566 -0.478654 0.010163 
0.443124 -0.280252 -0.010163 
0.354232 0.190535 -0.010163 
0.347917 -0.327878 0.010163 
-0.175947 0.363505 0.010163 
-0.250338 -0.438064 0.010163 
0.211376 -0.380382 0.010163 
0.001116 0.054033 0.010163 
-0.409098 -0.295350 -0.010163 
0.359074 -0.348408 -0.010163 
-0.180679 -0.278473 0.010163 
0.500000 0.091733 0.008226 
-0.058212 0.175635 0.010163 
-0.134953 0.185887 -0.010163 
-0.362678 -0.108789 -0.010163 
-0.431800 -0.424856 -0.010163 
0.349621 0.431810 -0.010163 
0.214721 0.353058 -0.010163 
0.143099 0.311256 0.010163 
0.498679 0.398052 0.010163 
-0.255558 -0.319034 0.010163 
0.464684 -0.328727 -0.010163 
-0.114461 0.267201 0.010163 
0.058262 -0.289611 -0.010163 
-0.323047 0.175439 -0.010163 
-0.154889 -0.087196 0.010163 
0.054437 0.392293 -0.010163 
0.201621 -0.141720 0.010163 
0.030563 0.071787 0.010163 
-0.493028 -0.432526 0.010163 
-0.100432 0.467301 0.010163 
0.372035 -0.103319 0.010163 
0.294006 -0.063133 0.010163 
-0.483851 0.276803 -0.010163 
0.223975 -0.481799 0.010163 
0.080110 0.257474 -0.010163 
0.405100 -0.196274 -0.010163 
0.083486 0.089390 0.010163 
0.456259 -0.035898 -0.010163 
-0.324890 -0.037172 0.010163 
0.466265 -0.286784 0.010163 
0.448487 0.395158 -0.010163 
-0.464886 0.015131 0.010163 
-0.189664 0.218072 -0.010163 
0.142928 -0.491679 -0.010163 
0.199916 -0.459083 -0.010163 
0.143879 0.474975 0.010163 
-0.072726 -0.083396 0.010163 
-0.069829 -0.444335 -0.010163 
0.165076 0.302478 -0.010163 
0.466473 0.126445 -0.010163 
0.253879 0.403975 0.010163 
0.052357 0.273420 -0.010163 
-0.301437 -0.110008 -0.010163 
0.093755 -0.067623 -0.010163 
-0.370764 -0.171903 -0.010163 
0.038389 0.184394 -0.010163 
-0.167508 0.320429 -0.010163 
-0.475327 0.311319 0.010163 
-0.177601 0.006897 -0.010163 
-0.314279 0.339600 -0.010163 
0.157267 0.257442 -0.010163 
0.426765 -0.042335 0.010163 
0.445594 -0.440086 -0.010163 
-0.186740 -0.096744 0.010163 
0.054528 0.086677 -0.010163 
0.367953 0.413091 0.010163 
-0.241839 0.095014 0.010163 
0.260640 0.109534 0.010163 
0.389932 -0.161396 -0.010163 
-0.395051 0.288968 0.010163 
0.500000 -0.208563 0.009816 
-0.497330 0.395917 -0.010163 
0.018162 -0.238472 -0.010163 
-0.427989 0.395183 0.010163 
-0.344500 -0.158048 0.010163 
-0.194988 -0.436159 -0.010163 
0.182849 0.063574 -0.010163 
-0.267965 0.328056 -0.010163 
0.316566 0.074503 -0.010163 
0.170108 -0.385329 0.010163 
0.161682 0.340995 0.010163 
-0.336137 -0.227219 -0.010163 
-0.130048 0.449127 0.010163 
0.007151 -0.477245 -0.010163 
-0.233564 0.346079 -0.010163 
-0.001872 -0.124679 -0.010163 
0.024136 0.163187 0.010163 
0.469169 0.025198 -0.010163 
0.148600 -0.014253 0.010163 
-0.359596 0.068946 -0.010163 
0.102139 -0.461376 -0.010163 
0.061427 -0.475796 -0.010163 
0.188734 0.326187 0.010163 
0.064840 -0.125155 -0.010163 
-0.103024 0.241161 -0.010163 
-0.402662 -0.112705 -0.010163 
0.353355 0.284715 0.010163 
-0.308705 0.129637 0.010163 
-0.195543 -0.307615 -0.010163 
-0.327452 -0.003636 0.010163 
-0.327896 0.096125 -0.010163 
0.211589 0.200990 0.010163 
0.149763 0.197433 0.010163 
0.058201 -0.236227 0.010163 
-0.199050 -0.143280 0.010163 
0.177641 -0.133018 -0.010163 
0.368151 -0.151377 0.010163 
-0.286193 0.180264 0.010163 
0.090766 0.438907 0.010163 
0.141570 -0.116156 0.010163 
0.261363 -0.273359 -0.010163 
0.426773 -0.415078 -0.010163 
0.334967 -0.431897 0.010163 
0.484683 -0.463886 -0.010163 
-0.328512 -0.345447 -0.010163 
0.321194 0.204824 -0.010163 
-0.241661 0.412188 -0.010163 
0.208023 0.061857 0.010163 
-0.357993 0.093805 0.010163 
0.306514 -0.357257 -0.010163 
0.041596 -0.120880 0.010163 
0.391427 -0.003071 -0.010163 
-0.193470 0.482776 0.010163 
-0.463645 -0.358070 0.010163 
-0.015797 -0.456337 -0.010163 
0.390111 0.125454 0.010163 
-0.468469 0.230111 0.010163 
-0.416963 -0.038487 0.010163 
-0.500000 0.242296 -0.002115 
0.457947 -0.152830 0.010163 
-0.001304 -0.428484 0.010163 
0.433088 -0.082205 0.010163 
0.232415 0.038204 0.010163 
0.311291 0.282903 -0.010163 
-0.156070 -0.469548 -0.010163 
0.051932 -0.316998 0.010163 
0.271340 -0.082208 -0.010163 
0.307022 -0.227701 0.010163 
-0.500000 0.115594 0.002941 
0.269505 -0.447867 -0.010163 
-0.134035 0.027293 0.010163 
-0.073567 -0.124296 -0.010163 
-0.099661 -0.353732 0.010163 
-0.285519 -0.004525 -0.010163 
0.183304 -0.005025 -0.010163 
-0.123312 -0.491550 -0.010163 
0.034233 0.432303 0.010163 
-0.087530 -0.322825 -0.010163 
-0.074052 0.400598 0.010163 
0.384563 0.207902 -0.010163 
-0.155937 0.473651 0.010163 
0.363998 -0.266664 -0.010163 
0.425716 0.124359 -0.010163 
-0.498147 -0.266832 0.010163 
0.436463 0.488032 -0.010163 
0.288524 0.009416 -0.010163 
0.339657 -0.256417 0.010163 
0.406630 -0.428261 0.010163 
-0.038597 0.066955 0.010163 
-0.099078 -0.467227 -0.010163 
0.176665 0.096088 -0.010163 
0.351167 0.110810 -0.010163 
0.311968 0.126625 -0.010163 
-0.155333 -0.399556 0.010163 
-0.008078 0.284550 -0.010163 
0.016282 0.331755 0.010163 
-0.078556 -0.194168 0.010163 
-0.188030 -0.213357 -0.010163 
-0.430384 0.291742 0.010163 
0.243084 -0.375690 0.010163 
0.322047 -0.042279 0.010163 
-0.171182 0.031113 0.010163 
0.144623 -0.422891 0.010163 
0.065959 -0.346948 0.010163 
0.098360 0.472196 0.010163 
0.369730 0.151379 0.010163 
-0.464765 -0.320248 0.010163 
-0.168887 -0.500000 -0.005433 
0.352652 0.218197 0.010163 
-0.103260 -0.179485 -0.010163 
0.338468 -0.023718 -0.010163 
0.352010 -0.127670 -0.010163 
-0.500000 0.037530 0.007468 
0.243479 0.265300 0.010163 
0.129477 -0.203077 0.010163 
-0.044191 0.008879 0.010163 
0.462851 0.418039 0.010163 
-0.137567 -0.056931 -0.010163 
0.202245 -0.110581 -0.010163 
0.500000 -0.312078 -0.000212 
-0.258216 -0.025675 0.010163 
-0.331290 0.153099 0.010163 
-0.181946 -0.064642 -0.010163 
-0.147335 0.061661 0.010163 
0.404424 0.098012 0.010163 
0.127714 -0.303332 0.010163 
0.409443 0.437019 0.010163 
-0.449691 0.315577 -0.010163 
0.282498 0.300298 0.010163 
0.281628 -0.031392 0.010163 
0.032098 0.014761 0.010163 
0.325365 -0.396702 0.010163 
0.170500 0.207679 -0.010163 
-0.046741 0.036701 -0.010163 
-0.269921 0.396660 -0.010163 
0.169100 0.278435 0.010163 
0.188679 -0.185538 0.010163 
0.464392 0.500000 -0.002399 
-0.267952 0.096878 -0.010163 
0.115767 0.180400 -0.010163 
-0.359760 -0.286741 -0.010163 
0.388023 0.466922 -0.010163 
-0.174866 0.251026 0.010163 
-0.119693 -0.079578 0.010163 
-0.061034 -0.342500 0.010163 
-0.500000 -0.002748 -0.004723 
0.206421 0.411107 0.010163 
-0.151779 0.138222 -0.010163 
0.190821 -0.401934 -0.010163 
-0.429168 -0.107392 0.010163 
0.364926 0.469074 0.010163 
-0.014170 0.074684 -0.010163 
-0.473842 -0.298562 -0.010163 
-0.278148 -0.221661 0.010163 
-0.459261 0.391846 0.010163 
-0.119054 0.076876 0.010163 
-0.251760 0.462229 0.010163 
-0.297930 0.085580 -0.010163 
0.450790 0.099696 -0.010163 
0.465831 0.446969 -0.010163 
-0.473406 -0.405862 0.010163 
-0.111945 0.189510 0.010163 
0.224705 -0.284624 0.010163 
0.252116 0.210232 -0.010163 
0.068813 0.175469 -0.010163 
-0.155779 -0.433080 -0.010163 
0.045345 0.320096 -0.010163 
0.151519 -0.452349 -0.010163 
-0.131500 0.231477 0.010163 
-0.441935 -0.302458 -0.010163 
0.341505 0.396448 0.010163 
-0.124528 -0.371119 -0.010163 
0.266071 0.015080 0.010163 
-0.002087 -0.019417 -0.010163 
0.236666 -0.133700 -0.010163 
-0.062724 -0.016715 -0.010163 
-0.253299 -0.351859 -0.010163 
0.091814 0.186093 0.010163 
-0.393495 0.157531 0.010163 
-0.114194 -0.036810 0.010163 
0.293693 0.217720 0.010163 
-0.029447 0.303476 0.010163 
-0.463360 -0.163449 -0.010163 
0.169349 -0.227053 0.010163 
-0.205156 0.091439 -0.010163 
0.467759 0.196671 -0.010163 
-0.332172 0.500000 0.001652 
0.225817 0.498667 -0.010163 
0.075835 0.367664 0.010163 
-0.285170 0.415540 0.010163 
0.040134 -0.340063 -0.010163 
0.500000 0.434942 -0.000037 
-0.020470 0.166353 0.010163 
0.192173 0.180470 -0.010163 
0.313403 -0.076280 -0.010163 
-0.320624 -0.475120 0.010163 
0.342907 -0.172425 -0.010163 
-0.323126 -0.186429 -0.010163 
0.396191 -0.491269 -0.010163 
0.054157 0.201680 0.010163 
0.409955 0.484695 0.010163 
0.000737 0.176347 -0.010163 
0.500000 0.056593 0.006159 
0.243952 -0.246894 -0.010163 
-0.296958 -0.470030 -0.010163 
0.285623 0.187285 0.010163 
-0.306096 -0.237180 -0.010163 
0.087180 -0.423243 0.010163 
0.028502 -0.012472 -0.010163 
-0.241261 0.001561 -0.010163 
0.141667 0.100229 0.010163 
0.278527 0.130627 -0.010163 
0.225927 -0.423279 -0.010163 
0.193279 -0.428542 0.010163 
0.174363 0.121397 0.010163 
0.198451 0.254904 0.010163 
-0.472846 -0.500000 0.003618 
0.419864 -0.390657 0.010163 
0.373645 0.305960 -0.010163 
-0.151619 0.085358 -0.010163 
0.168344 -0.199262 -0.010163 
0.292345 0.409800 -0.010163 
0.216785 0.086500 -0.010163 
-0.018672 -0.045149 0.010163 
-0.500000 -0.062001 0.004902 
0.500000 -0.097161 0.001790 
0.224723 0.173966 -0.010163 
0.021054 -0.266400 0.010163 
-0.353088 0.025206 0.010163 
-0.459291 0.040248 -0.010163 
0.021550 0.214172 -0.010163 
0.145343 -0.163643 0.010163 
0.374111 -0.456127 0.010163 
0.014956 -0.360302 0.010163 
-0.265485 0.500000 0.008474 
0.337382 -0.218746 0.010163 
-0.047407 -0.408227 0.010163 
0.496175 -0.257002 0.010163 
-0.299811 -0.382023 -0.010163 
0.274454 0.435904 -0.010163 
0.186418 0.154431 0.010163 
-0.176772 -0.187288 0.010163 
-0.095891 0.037021 0.010163 
0.083186 -0.038923 0.010163 
-0.103323 0.310591 -0.010163 
-0.113692 -0.308696 0.010163 
-0.327899 -0.265336 -0.010163 
0.249754 -0.017710 0.010163 
-0.412474 0.231446 0.010163 
-0.270352 0.264570 0.010163 
-0.288949 -0.036361 0.010163 
0.007643 0.301649 0.010163 
-0.245593 -0.216602 0.010163 
-0.218970 -0.080779 -0.010163 
0.199306 0.130099 -0.010163 
0.047034 0.052105 -0.010163 
0.441265 -0.226294 -0.010163 
0.297023 -0.107340 -0.010163 
0.278966 -0.353393 0.010163 
-0.396542 0.063262 -0.010163 
-0.345392 0.284340 -0.010163 
-0.178849 -0.404655 -0.010163 
0.153448 -0.284915 -0.010163 
-0.437848 0.031614 0.010163 
-0.265935 -0.200420 -0.010163 
-0.047270 0.228590 0.010163 
-0.293894 -0.258373 0.010163 
0.467317 0.076649 0.010163 
-0.400994 -0.500000 0.002811 
0.268969 -0.150322 -0.010163 
0.318925 -0.301130 0.010163 
0.128862 -0.001957 -0.010163 
0.201387 -0.235508 0.010163 
0.251505 -0.430716 0.010163 
-0.256889 -0.293254 -0.010163 
-0.155077 -0.004990 0.010163 
-0.106264 -0.154839 0.010163 
0.058319 -0.436446 0.010163 
0.183716 -0.089415 0.010163 
0.097310 0.386598 -0.010163 
-0.372327 0.403824 0.010163 
-0.055714 -0.298177 0.010163 
-0.228772 0.116263 -0.010163 
-0.494970 0.479832 0.010163 
0.122244 0.080116 -0.010163 
0.353679 -0.201702 -0.010163 
-0.348597 0.119815 -0.010163 
-0.287168 0.303751 -0.010163 
-0.028316 -0.425251 -0.010163 
-0.300972 -0.282937 -0.010163 
-0.320693 0.383703 -0.010163 
0.433869 0.207048 -0.010163 
-0.290402 0.352200 0.010163 
0.205294 0.032000 -0.010163 
-0.135002 0.324633 0.010163 
0.052416 -0.025760 0.010163 
-0.021450 0.135958 -0.010163 
0.254826 -0.180924 0.010163 
-0.027896 -0.128163 0.010163 
-0.333443 -0.289565 0.010163 
0.073237 0.220566 -0.010163 
-0.289577 -0.354355 0.010163 
-0.356382 0.478579 -0.010163 
-0.248535 0.036752 0.010163 
0.434306 0.077048 0.010163 
-0.419245 -0.319448 0.010163 
-0.421932 0.478963 -0.010163 
-0.078510 -0.241295 0.010163 
0.065168 -0.371228 -0.010163 
0.060019 0.006921 -0.010163 
0.305134 0.041646 -0.010163 
0.232944 -0.220587 0.010163 
-0.226162 0.148088 -0.010163 
0.391982 -0.042360 -0.010163 
0.421116 -0.358703 -0.010163 
-0.464873 -0.067389 -0.010163 
-0.288144 -0.439344 -0.010163 
-0.423310 -0.478141 0.010163 
-0.077230 0.162426 -0.010163 
0.500000 -0.157223 -0.007640 
0.215045 -0.317388 -0.010163 
0.395842 0.282862 0.010163 
-0.403968 0.406416 -0.010163 
-0.084059 0.347023 -0.010163 
-0.141762 0.260922 -0.010163 
0.436411 -0.489138 -0.010163 
0.358383 0.500000 0.009267 
-0.403236 -0.385355 -0.010163 
-0.482679 0.429990 0.010163 
-0.033545 0.401406 -0.010163 
0.172785 0.029426 -0.010163 
-0.106332 -0.059692 -0.010163 
-0.401037 -0.144817 0.010163 
-0.405624 0.020369 -0.010163 
0.468783 -0.093778 0.010163 
-0.318242 0.235756 0.010163 
0.402761 0.318617 -0.010163 
-0.500000 -0.476484 -0.008490 
-0.057671 0.373164 0.010163 
-0.139163 -0.139386 -0.010163 
0.416901 -0.300607 -0.010163 
-0.142134 -0.274000 0.010163 
-0.002589 0.007796 0.010163 
0.329128 0.044373 0.010163 
0.112122 0.297544 0.010163 
0.379803 -0.193532 0.010163 
0.040978 -0.206638 -0.010163 
0.239684 -0.108941 0.010163 
-0.133983 -0.024278 -0.010163 
-0.435260 -0.054831 -0.010163 
0.195174 0.292379 -0.010163 
-0.247117 -0.096709 0.010163 
-0.032202 0.106817 0.010163 
0.080319 0.301590 -0.010163 
0.242117 0.376455 -0.010163 
0.325773 -0.102083 0.010163 
-0.110665 -0.228451 -0.010163 
-0.149816 -0.251696 -0.010163 
-0.083416 0.059288 -0.010163 
-0.444758 -0.277858 0.010163 
0.403049 -0.457346 -0.010163 
0.156914 -0.094476 -0.010163 
-0.441606 -0.185300 0.010163 
0.344268 0.153757 -0.010163 
-0.288051 -0.153003 0.010163 
0.393098 -0.286839 0.010163 
0.229046 0.285138 -0.010163 
0.240180 -0.082181 -0.010163 
0.218920 0.113796 0.010163 
0.467749 -0.175846 -0.010163 
-0.430327 -0.154311 0.010163 
0.179175 0.414448 -0.010163 
-0.290382 -0.309206 0.010163 
0.014001 0.096877 -0.010163 
0.388405 -0.360441 -0.010163 
-0.141412 -0.170922 -0.010163 
0.298848 -0.443706 0.010163 
0.268271 0.319217 -0.010163 
-0.196277 0.144473 0.010163 
0.457202 -0.466831 0.010163 
-0.453369 -0.248209 0.010163 
-0.454668 0.140625 -0.010163 
0.020597 0.393304 -0.010163 
-0.144196 0.292321 0.010163 
0.055244 0.461504 0.010163 
0.067312 0.434564 -0.010163 
-0.255367 -0.257818 -0.010163 
-0.185079 0.105118 0.010163 
-0.367361 -0.131928 0.010163 
0.073328 -0.152181 0.010163 
0.413880 0.353443 0.010163 
0.150182 0.017195 0.010163 
0.114804 0.032684 0.010163 
0.244376 0.308325 0.010163 
-0.048265 0.340482 0.010163 
0.070761 0.043859 0.010163 
0.132803 0.282778 -0.010163 
-0.441272 -0.000071 -0.010163 
0.090609 -0.377377 0.010163 
0.261208 0.039999 -0.010163 
-0.226446 0.462648 -0.010163 
0.413443 -0.245573 -0.010163 
0.010956 0.135981 -0.010163 
0.026665 -0.434604 -0.010163 
0.307879 0.321051 -0.010163 
-0.153339 0.111727 0.010163 
-0.464579 -0.033794 -0.010163 
0.437259 -0.182610 -0.010163 
-0.127461 -0.199212 -0.010163 
0.234958 -0.342133 0.010163 
-0.023806 0.435311 -0.010163 
-0.098620 0.105281 0.010163 
0.212634 0.003466 0.010163 
-0.065117 0.307898 0.010163 
0.065060 -0.399967 0.010163 
0.358699 0.009174 -0.010163 
-0.389851 -0.331360 0.010163 
-0.113884 0.365065 -0.010163 
0.471925 0.224931 0.010163 
-0.219193 -0.057448 0.010163 
-0.001009 0.114998 0.010163 
-0.095820 -0.089602 -0.010163 
-0.291157 0.383239 0.010163 
-0.478784 0.094133 0.010163 
-0.349485 0.344476 -0.010163 
0.456269 -0.059338 0.010163 
0.106443 0.416801 -0.010163 
-0.275091 0.059789 -0.010163 
0.117988 0.216680 -0.010163 
-0.361703 -0.404325 -0.010163 
0.372834 -0.417211 0.010163 
-0.381814 0.461230 -0.010163 
-0.177949 0.458346 -0.010163 
-0.164776 0.423078 0.010163 
-0.264741 -0.176952 0.010163 
-0.102791 -0.119495 0.010163 
-0.262987 0.230465 -0.010163 
-0.346084 -0.189145 0.010163 
0.109951 -0.243762 -0.010163 
-0.203032 0.450711 0.010163 
-0.006128 -0.262859 -0.010163 
-0.315630 -0.129334 0.010163 
0.400180 -0.078736 0.010163 
-0.174423 0.283000 -0.010163 
-0.231471 -0.237756 -0.010163 
-0.175829 0.392108 -0.010163 
0.000275 -0.405301 -0.010163 
-0.202962 -0.412175 0.010163 
-0.200972 -0.241989 -0.010163 
-0.350196 0.434271 -0.010163 
0.048290 0.497875 0.010163 
-0.258063 -0.468174 -0.010163 
-0.260931 0.369092 0.010163 
0.124295 -0.273287 -0.010163 
-0.454143 0.075135 0.010163 
0.500000 0.487138 0.002607 
0.433864 0.432742 -0.010163 
0.200232 -0.267628 -0.010163 
-0.097037 0.403085 -0.010163 
-0.208795 0.236287 0.010163 
0.012699 0.235543 0.010163 
-0.237139 -0.126918 -0.010163 
0.261548 0.168258 -0.010163 
0.369507 -0.078992 -0.010163 
-0.140405 0.377573 0.010163 
0.307099 0.175745 -0.010163 
-0.421851 0.200857 0.010163 
-0.500000 0.448944 -0.009167 
-0.070918 0.016182 -0.010163 
-0.265395 -0.142262 -0.010163 
-0.065836 0.139482 0.010163 
0.008238 -0.321916 -0.010163 
-0.382604 0.043968 0.010163 
0.061973 -0.056319 -0.010163 
-0.201054 0.258616 -0.010163 
-0.284665 -0.077625 -0.010163 
-0.438517 0.461298 0.010163 
0.337279 -0.365125 0.010163 
-0.017099 -0.491534 0.010163 
-0.017132 0.217227 0.010163 
0.122441 0.258193 0.010163 
-0.000565 0.425993 0.010163 
-0.067369 0.079146 0.010163 
-0.495299 -0.030345 0.010163 
0.086275 -0.494304 -0.010163 
0.475766 -0.071747 -0.010163 
0.360793 -0.014525 0.010163 
-0.275975 -0.113632 0.010163 
-0.418443 -0.356217 0.010163 
0.447654 0.465407 0.010163 
0.318147 0.238254 -0.010163 
0.047829 0.118038 -0.010163 
-0.317283 0.440220 0.010163 
-0.303243 0.285319 0.010163 
-0.422282 0.438157 -0.010163 
-0.284486 0.220447 0.010163 
-0.028071 -0.326272 0.010163 
-0.374674 -0.355213 -0.010163 
0.094741 -0.005312 0.010163 
0.088133 0.028574 -0.010163 
0.155806 -0.316735 -0.010163 
-0.070529 0.465386 -0.010163 
-0.459876 0.338323 0.010163 
-0.065323 -0.221257 -0.010163 
0.231643 -0.159059 0.010163 
-0.165743 -0.315153 0.010163 
-0.459402 -0.122893 -0.010163 
-0.077904 0.268807 -0.010163 
0.138922 0.038518 -0.010163 
0.102010 0.104981 -0.010163 
0.387512 -0.240378 0.010163 
-0.199798 0.326866 -0.010163 
-0.401481 0.263555 -0.010163 
0.347164 -0.405746 -0.010163 
0.458431 0.054818 -0.010163 
0.297830 0.153080 0.010163 
0.284448 0.055691 0.010163 
-0.168723 -0.356366 -0.010163 
0.367717 -0.051774 0.010163 
0.312442 -0.416148 -0.010163 
-0.153313 -0.294805 -0.010163 
-0.381266 0.427609 -0.010163 
0.282799 0.084207 -0.010163 
-0.301348 0.252744 -0.010163 
-0.095662 -0.021534 -0.010163 
0.127403 -0.083191 -0.010163 
0.029129 0.278167 0.010163 
0.307415 -0.017796 -0.010163 
0.287052 -0.211912 -0.010163 
0.454146 -0.202264 0.010163 
0.408063 0.377484 -0.010163 
0.491819 0.258186 0.010163 
-0.432282 0.156994 0.010163 
-0.344921 -0.500000 0.002563 
-0.334422 0.468827 0.010163 
0.095888 0.238612 0.010163 
0.269252 -0.120029 0.010163 
0.171827 -0.163670 -0.010163 
-0.304818 0.209009 -0.010163 
0.363859 -0.230945 -0.010163 
-0.446847 -0.374347 -0.010163 
-0.420534 0.057354 0.010163 
0.308169 0.259623 0.010163 
-0.412709 0.352273 0.010163 
-0.478661 -0.251020 -0.010163 
-0.226937 -0.027268 0.010163 
-0.478510 -0.460376 0.010163 
0.317961 -0.130409 -0.010163 
0.219464 0.321326 -0.010163 
0.246546 -0.321209 -0.010163 
0.142690 -0.222352 -0.010163 
0.250215 0.446020 0.010163 
0.408860 0.255720 -0.010163 
-0.215542 0.429496 -0.010163 
-0.424180 0.323119 0.010163 
-0.027900 0.363938 0.010163 
-0.321593 -0.309827 -0.010163 
-0.097034 0.218340 0.010163 
0.495724 -0.281178 -0.010163 
0.158374 -0.037691 -0.010163 
0.118009 0.453358 -0.010163 
0.252726 -0.397568 -0.010163 
0.255990 -0.206344 -0.010163 
-0.033322 -0.026200 -0.010163 
0.338948 -0.069896 0.010163 
-0.174373 -0.237681 0.010163 
