-0.404119 -0.121462 0.010163 
0.471235 -0.474194 0.010163 
-0.451638 -0.103689 0.010163 
-0.500000 0.252837 0.009997 
0.151431 0.323157 0.010163 
0.132217 0.402039 -0.010163 
-0.219354 0.402072 0.010163 
0.366103 -0.484429 0.010163 
0.184438 -0.397417 -0.010163 
0.313348 -0.320934 0.010163 
0.100182 -0.212345 -0.010163 
-0.255169 -0.024017 -0.010163 
0.048016 -0.452855 -0.010163 
-0.500000 -0.325611 0.008975 
0.084757 0.500000 -0.002408 
-0.088607 -0.351137 -0.010163 
-0.186861 -0.442733 -0.010163 
-0.410499 0.115954 0.010163 
0.478086 -0.050687 0.010163 
-0.497030 0.443360 0.010163 
-0.100727 0.208774 0.010163 
0.147011 0.359029 0.010163 
-0.379450 -0.325095 0.010163 
-0.066505 0.139030 0.010163 
0.463909 -0.059564 -0.010163 
-0.094355 -0.331697 -0.010163 
0.173380 0.406159 -0.010163 
-0.243190 -0.044893 -0.010163 
-0.145510 0.025652 -0.010163 
-0.449845 0.326471 -0.010163 
-0.476267 0.435000 0.010163 
-0.056744 -0.092848 -0.010163 
0.442516 0.095009 0.010163 
-0.478546 0.094788 0.010163 
-0.012122 -0.067972 -0.010163 
-0.093689 -0.053984 -0.010163 
0.044311 -0.230425 -0.010163 
-0.138325 0.118320 0.010163 
-0.015735 0.137703 -0.010163 
0.254151 -0.470897 -0.010163 
-0.306156 0.051347 0.010163 
-0.121582 -0.142700 -0.010163 
0.070261 -0.444516 0.010163 
0.091850 0.345130 0.010163 
0.475207 -0.181696 -0.010163 
0.153000 0.145504 -0.010163 
0.076927 0.342015 0.010163 
-0.008275 -0.220195 -0.010163 
0.092246 -0.461471 0.010163 
0.384379 -0.468075 0.010163 
0.359224 0.382269 -0.010163 
-0.245387 -0.230632 0.010163 
-0.040065 -0.062054 0.010163 
-0.340325 -0.074548 -0.010163 
-0.186275 -0.441845 0.010163 
-0.434103 -0.189905 -0.010163 
0.130908 -0.357855 -0.010163 
0.332213 0.297730 0.010163 
0.316672 0.316230 -0.010163 
0.293599 -0.383874 -0.010163 
-0.479014 0.030421 0.010163 
0.220016 -0.077002 0.010163 
0.314493 0.401447 -0.010163 
0.496107 -0.102690 -0.010163 
-0.367634 0.298208 0.010163 
0.077260 0.215481 0.010163 
-0.235598 0.372746 0.010163 
0.040472 0.119364 -0.010163 
-0.110631 0.015203 -0.010163 
0.058817 0.182814 0.010163 
0.309881 0.440747 -0.010163 
0.076470 -0.039503 0.010163 
-0.163448 -0.279248 -0.010163 
-0.442050 -0.377002 0.010163 
0.364648 -0.303817 -0.010163 
-0.163558 -0.240372 0.010163 
-0.170473 -0.044145 0.010163 
0.032648 -0.429013 -0.010163 
-0.403088 -0.316501 0.010163 
-0.219274 -0.166866 -0.010163 
-0.127557 0.454580 -0.010163 
0.260214 0.087668 0.010163 
0.363833 -0.465642 0.010163 
0.316984 -0.104936 0.010163 
-0.495836 0.208418 -0.010163 
-0.452299 -0.147762 -0.010163 
0.258183 0.333665 0.010163 
0.303597 -0.500000 -0.008628 
-0.155131 -0.222003 0.010163 
-0.094130 0.500000 -0.001750 
-0.113636 0.129130 0.010163 
-0.170693 0.386267 0.010163 
-0.294193 -0.207077 0.010163 
-0.492613 -0.242674 0.010163 
0.144781 -0.446175 -0.010163 
0.189165 -0.003008 -0.010163 
0.017656 -0.293652 -0.010163 
0.127088 -0.146736 -0.010163 
-0.266434 0.004144 -0.010163 
0.194584 0.285206 -0.010163 
0.139052 0.219882 0.010163 
-0.272360 0.356063 -0.010163 
-0.181981 -0.304750 0.010163 
0.485492 0.186786 0.010163 
-0.071654 0.333687 -0.010163 
0.286012 -0.090352 0.010163 
-0.331578 0.319345 -0.010163 
0.396996 -0.175182 0.010163 
-0.083944 -0.349261 -0.010163 
-0.195705 0.308574 0.010163 
0.167369 0.457733 0.010163 
-0.458447 0.194248 0.010163 
-0.408383 -0.477388 -0.010163 
0.340892 0.268003 -0.010163 
-0.179687 0.217967 -0.010163 
-0.044236 -0.247541 -0.010163 
-0.302090 0.449543 -0.010163 
0.246048 0.127351 0.010163 
0.330927 0.312907 -0.010163 
0.315518 -0.394850 0.010163 
0.262261 0.022884 -0.010163 
-0.369798 -0.249849 0.010163 
-0.400952 0.269173 -0.010163 
-0.442838 0.252440 0.010163 
-0.484971 -0.099452 -0.010163 
-0.500000 0.254934 0.003257 
0.392704 0.106761 0.010163 
-0.456592 -0.373868 0.010163 
0.355222 -0.393427 -0.010163 
0.283576 -0.179857 -0.010163 
-0.083744 -0.465027 -0.010163 
0.414172 -0.305873 0.010163 
-0.031800 0.213191 0.010163 
0.411490 0.381779 0.010163 
0.295943 -0.335745 0.010163 
0.060847 -0.456125 0.010163 
-0.213373 -0.131130 0.010163 
-0.366694 -0.261096 0.010163 
-0.428649 -0.414229 0.010163 
0.107637 -0.085824 0.010163 
0.215777 -0.273621 0.010163 
-0.241412 -0.453914 0.010163 
-0.056517 -0.474748 0.010163 
-0.206118 0.007373 -0.010163 
0.397187 0.383779 0.010163 
0.243866 0.022166 0.010163 
-0.161124 0.369113 -0.010163 
-0.218111 -0.196828 -0.010163 
0.474997 -0.045934 -0.010163 
-0.321166 -0.272259 -0.010163 
-0.120836 0.348232 0.010163 
0.006189 -0.447679 0.010163 
0.103626 0.212870 -0.010163 
0.115654 0.500000 -0.003988 
0.453425 -0.055464 -0.010163 
0.378679 -0.090051 0.010163 
-0.173758 0.010966 0.010163 
-0.094684 -0.375836 0.010163 
0.435356 -0.255689 -0.010163 
0.341617 -0.020951 -0.010163 
-0.326246 0.335131 -0.010163 
0.500000 0.399203 -0.000629 
-0.261677 -0.054273 0.010163 
0.094841 0.135365 0.010163 
-0.235842 0.040754 0.010163 
-0.360981 0.167501 -0.010163 
0.081240 -0.291836 0.010163 
0.209138 0.080885 0.010163 
-0.283477 0.275787 -0.010163 
0.189295 -0.280176 -0.010163 
-0.038582 0.229108 0.010163 
-0.488434 0.500000 -0.002768 
0.130844 -0.081185 0.010163 
-0.208599 -0.205311 -0.010163 
-0.188208 -0.427815 0.010163 
-0.483475 -0.367287 0.010163 
0.221153 -0.451254 0.010163 
0.275031 -0.020598 -0.010163 
0.298047 -0.058182 -0.010163 
-0.162733 0.117335 0.010163 
-0.176698 0.075996 0.010163 
-0.250113 -0.309110 0.010163 
0.189252 0.432669 -0.010163 
-0.069917 0.195207 0.010163 
0.353679 0.485972 0.010163 
-0.046771 0.137557 -0.010163 
0.474855 -0.105694 0.010163 
-0.393756 -0.193322 0.010163 
-0.162403 -0.421449 0.010163 
0.102452 0.150245 -0.010163 
-0.239966 0.136259 0.010163 
0.342408 0.041034 -0.010163 
0.044982 -0.150295 -0.010163 
-0.149194 0.419684 -0.010163 
-0.382014 0.475101 -0.010163 
0.021031 0.200716 -0.010163 
-0.419640 -0.267855 0.010163 
-0.098393 0.054998 -0.010163 
-0.026791 -0.355251 0.010163 
-0.178128 -0.154725 -0.010163 
-0.284614 -0.243718 -0.010163 
0.170595 -0.182698 0.010163 
-0.031699 0.387373 -0.010163 
-0.043115 0.489711 0.010163 
0.087398 0.260347 -0.010163 
0.317316 0.382356 -0.010163 
0.158771 0.273173 -0.010163 
0.314318 0.042697 -0.010163 
-0.392098 0.226958 -0.010163 
-0.456534 0.424968 -0.010163 
0.134168 -0.204861 -0.010163 
-0.396846 0.169621 -0.010163 
-0.024568 -0.149655 0.010163 
-0.280735 0.419394 0.010163 
0.448794 -0.160185 0.010163 
0.076042 -0.209638 -0.010163 
0.482222 -0.488509 -0.010163 
-0.013443 -0.324350 0.010163 
0.481417 0.469007 -0.010163 
0.191828 0.361809 -0.010163 
0.500000 -0.419329 0.007434 
0.414704 -0.062030 -0.010163 
-0.206242 0.122269 0.010163 
-0.279929 0.228951 0.010163 
-0.387200 -0.468307 -0.010163 
0.292876 0.051342 -0.010163 
0.158964 -0.023396 -0.010163 
-0.333661 0.427903 -0.010163 
0.104948 -0.466712 0.010163 
-0.057556 0.169872 -0.010163 
-0.246223 -0.321257 -0.010163 
0.121312 0.023543 -0.010163 
-0.223946 -0.353757 -0.010163 
0.155249 0.226540 -0.010163 
-0.386651 0.274031 0.010163 
-0.307855 0.068477 -0.010163 
-0.323350 0.498620 -0.010163 
-0.358624 0.119705 -0.010163 
0.144690 -0.210717 -0.010163 
0.324115 0.500000 0.002534 
0.194890 -0.081251 0.010163 
-0.219544 0.404831 0.010163 
-0.333396 -0.454728 0.010163 
0.370430 0.367447 0.010163 
0.187925 -0.196050 0.010163 
-0.362598 -0.316991 0.010163 
0.232541 -0.066050 -0.010163 
-0.324039 -0.148094 0.010163 
-0.005352 -0.057281 -0.010163 
-0.443392 -0.212234 0.010163 
0.497203 0.195798 -0.010163 
0.353474 -0.051811 0.010163 
0.266677 -0.304273 0.010163 
0.262726 0.489776 0.010163 
0.312906 0.269751 -0.010163 
-0.141615 -0.391900 -0.010163 
0.342418 0.398180 0.010163 
0.089916 -0.440139 0.010163 
-0.436999 0.121447 0.010163 
0.338762 0.285672 0.010163 
-0.413556 0.300032 0.010163 
0.081928 0.031983 0.010163 
-0.199751 -0.325168 0.010163 
-0.500000 -0.180464 0.001846 
0.260907 0.330927 0.010163 
0.187277 0.067695 -0.010163 
-0.332466 0.454795 0.010163 
0.018101 0.252772 0.010163 
-0.451643 0.337766 -0.010163 
0.156591 0.264239 -0.010163 
0.148923 -0.398722 0.010163 
-0.034424 -0.208947 -0.010163 
0.260291 -0.010095 0.010163 
0.235005 0.212717 -0.010163 
0.224049 -0.266910 0.010163 
-0.231759 -0.017857 0.010163 
-0.261910 0.417105 0.010163 
0.310732 -0.442511 0.010163 
0.083703 -0.258097 -0.010163 
0.500000 0.274164 0.005749 
-0.016113 0.486789 -0.010163 
-0.294911 0.025143 0.010163 
-0.416096 -0.302503 -0.010163 
-0.283858 0.326456 0.010163 
0.225597 0.292308 0.010163 
-0.343878 -0.253883 0.010163 
0.321255 0.305428 -0.010163 
-0.263357 -0.364988 0.010163 
0.397844 0.314418 -0.010163 
0.245836 -0.413635 -0.010163 
0.276168 0.286114 0.010163 
-0.472098 0.224806 0.010163 
0.439143 -0.474453 -0.010163 
-0.415721 -0.372733 -0.010163 
0.058990 0.128553 0.010163 
0.058410 -0.340585 -0.010163 
-0.413802 0.104604 0.010163 
0.332808 -0.419644 0.010163 
0.184364 -0.469039 -0.010163 
0.352886 0.003949 0.010163 
-0.097494 -0.057002 -0.010163 
-0.500000 -0.162674 -0.003119 
0.488116 0.475329 -0.010163 
0.253425 -0.059311 -0.010163 
-0.045483 -0.255775 -0.010163 
0.027743 -0.488902 0.010163 
-0.128519 0.228098 0.010163 
0.364594 -0.379958 0.010163 
0.468964 -0.068683 0.010163 
-0.325117 -0.166937 -0.010163 
-0.217515 0.482329 0.010163 
0.219329 -0.363776 -0.010163 
0.200374 -0.126042 0.010163 
-0.237621 -0.468230 0.010163 
0.034544 -0.239423 0.010163 
-0.221423 0.361735 -0.010163 
-0.345619 0.145336 -0.010163 
-0.308003 -0.262560 -0.010163 
0.493220 0.477916 -0.010163 
-0.285485 0.072476 0.010163 
-0.374249 0.056566 -0.010163 
0.438623 -0.465512 0.010163 
0.304476 0.248386 -0.010163 
-0.449505 -0.353967 0.010163 
0.366331 0.277578 0.010163 
0.332436 0.433198 0.010163 
-0.005048 0.250982 0.010163 
0.382981 -0.490803 -0.010163 
-0.274674 -0.026421 0.010163 
0.463179 -0.170088 0.010163 
-0.498467 -0.124619 -0.010163 
-0.459211 0.059256 0.010163 
-0.024861 0.499126 -0.010163 
-0.274397 0.305258 0.010163 
-0.366425 0.187585 0.010163 
-0.031895 -0.361052 0.010163 
-0.371381 -0.035890 0.010163 
-0.457025 0.226375 0.010163 
0.037804 -0.166996 0.010163 
0.100665 -0.022069 -0.010163 
-0.198518 -0.448744 0.010163 
0.007559 -0.225962 -0.010163 
0.282785 0.350581 -0.010163 
0.167982 -0.336026 -0.010163 
-0.097124 0.420022 -0.010163 
0.160991 0.340318 -0.010163 
0.381535 0.124114 -0.010163 
0.204584 0.460309 -0.010163 
0.103621 -0.240287 -0.010163 
0.134818 0.297415 -0.010163 
-0.369266 -0.294700 -0.010163 
0.397819 0.009666 0.010163 
0.439401 0.251811 0.010163 
0.267659 -0.080129 -0.010163 
0.159492 -0.418083 0.010163 
-0.329878 0.436141 0.010163 
-0.239191 0.065253 -0.010163 
-0.072449 0.305333 -0.010163 
0.377820 -0.362702 -0.010163 
-0.329705 0.300500 -0.010163 
-0.225673 -0.087611 -0.010163 
0.073040 0.356461 -0.010163 
-0.291480 0.478286 -0.010163 
-0.159141 -0.092371 0.010163 
-0.177013 -0.310158 0.010163 
-0.227414 -0.410738 0.010163 
-0.109195 0.457590 -0.010163 
-0.264788 0.113003 -0.010163 
0.410148 0.300973 -0.010163 
0.474505 -0.238180 0.010163 
-0.475860 -0.121782 0.010163 
-0.078622 0.355875 -0.010163 
-0.123964 -0.180684 0.010163 
0.185723 0.128841 0.010163 
-0.347698 -0.400038 0.010163 
-0.169564 -0.014297 -0.010163 
0.219299 -0.407207 0.010163 
-0.099605 -0.351952 0.010163 
-0.201842 -0.419535 -0.010163 
-0.300329 0.289622 -0.010163 
0.249539 -0.492932 0.010163 
-0.334954 -0.090051 -0.010163 
-0.304355 0.275454 -0.010163 
0.179267 -0.323461 0.010163 
-0.102653 0.468716 -0.010163 
-0.500000 0.443274 -0.009453 
0.420116 -0.100873 0.010163 
0.107591 0.475332 -0.010163 
-0.359398 0.435914 -0.010163 
-0.174866 -0.024290 -0.010163 
0.222333 0.259550 -0.010163 
0.325884 0.199363 0.010163 
-0.212332 0.041852 0.010163 
-0.411703 0.442586 0.010163 
-0.073127 0.415503 0.010163 
0.449786 0.132713 -0.010163 
-0.476559 0.342755 -0.010163 
-0.074631 -0.091998 -0.010163 
0.204877 0.119691 0.010163 
-0.321307 -0.407716 -0.010163 
0.142485 0.301707 -0.010163 
0.203922 -0.188692 -0.010163 
-0.360032 0.308786 -0.010163 
0.237671 0.246361 -0.010163 
0.179279 -0.450964 -0.010163 
0.338894 -0.068380 -0.010163 
-0.449422 -0.408341 -0.010163 
-0.366782 -0.002543 -0.010163 
0.500000 -0.356934 0.001267 
-0.408881 -0.420461 -0.010163 
-0.499972 -0.331540 -0.010163 
-0.111844 0.346848 0.010163 
-0.167695 -0.386899 -0.010163 
0.500000 0.182087 -0.003480 
-0.373919 -0.134022 0.010163 
-0.082211 -0.473051 0.010163 
0.028645 0.428681 -0.010163 
0.238752 0.218742 -0.010163 
-0.493349 -0.315498 -0.010163 
0.147108 0.391788 -0.010163 
0.002438 0.055333 0.010163 
0.091818 -0.367667 -0.010163 
0.415732 0.309274 -0.010163 
-0.288149 -0.465961 0.010163 
0.073643 -0.329521 -0.010163 
-0.389459 -0.414022 -0.010163 
0.000915 -0.172858 -0.010163 
0.382161 -0.212418 0.010163 
-0.352096 -0.343979 0.010163 
0.293747 0.208996 -0.010163 
-0.084126 0.037881 0.010163 
-0.141903 0.082524 0.010163 
-0.343349 0.151836 0.010163 
-0.405028 -0.095179 0.010163 
-0.213261 -0.155901 0.010163 
-0.413399 0.451920 0.010163 
0.124043 0.080016 -0.010163 
-0.186242 0.054946 -0.010163 
0.207053 0.056727 -0.010163 
-0.150661 0.109811 0.010163 
-0.102945 -0.397677 -0.010163 
-0.153524 0.321035 0.010163 
0.335821 0.393443 0.010163 
0.062585 0.264256 0.010163 
0.222570 0.217818 0.010163 
0.211917 0.444264 -0.010163 
0.303768 0.165364 0.010163 
0.077076 -0.136972 0.010163 
-0.444927 0.316196 -0.010163 
0.217053 0.318427 0.010163 
0.048459 -0.033289 0.010163 
0.184702 -0.236244 -0.010163 
-0.274865 -0.492384 0.010163 
0.365986 0.260524 -0.010163 
-0.448527 0.045074 -0.010163 
-0.113020 0.033020 0.010163 
-0.263019 0.256974 -0.010163 
0.190917 -0.323789 -0.010163 
-0.320018 -0.046025 0.010163 
0.187302 0.285686 -0.010163 
-0.233919 -0.119770 -0.010163 
0.335546 0.210953 0.010163 
-0.472633 -0.022214 -0.010163 
0.472918 0.086539 -0.010163 
0.196495 -0.081418 0.010163 
0.206159 0.473706 -0.010163 
0.147443 0.316603 0.010163 
-0.336501 -0.481364 0.010163 
0.240208 0.414340 -0.010163 
-0.312021 -0.356352 0.010163 
-0.065762 0.265965 0.010163 
-0.366131 -0.330797 -0.010163 
-0.194540 -0.028448 -0.010163 
-0.210407 0.056660 -0.010163 
0.236776 -0.290782 0.010163 
0.131439 -0.403533 -0.010163 
-0.315966 -0.046622 -0.010163 
-0.048638 -0.041085 -0.010163 
-0.435416 -0.216808 -0.010163 
-0.090089 0.296009 -0.010163 
0.081864 0.295237 0.010163 
0.214354 -0.376632 -0.010163 
0.399722 0.313108 -0.010163 
-0.035846 -0.268587 0.010163 
-0.346030 -0.285100 0.010163 
0.500000 -0.283898 -0.000247 
0.183909 -0.270572 0.010163 
-0.478284 0.053651 -0.010163 
0.171087 -0.319550 -0.010163 
0.115092 0.195539 -0.010163 
0.091856 0.246538 -0.010163 
0.256346 -0.282304 -0.010163 
0.119733 -0.102183 0.010163 
-0.450794 0.466263 0.010163 
-0.309031 -0.385301 0.010163 
0.182614 0.169561 0.010163 
0.370205 0.222664 -0.010163 
0.267712 -0.068073 0.010163 
-0.450198 -0.025511 0.010163 
-0.010858 -0.137696 -0.010163 
0.176577 -0.079187 -0.010163 
0.492758 -0.114968 0.010163 
0.024516 0.096868 0.010163 
0.285627 -0.409382 -0.010163 
0.129658 -0.054895 -0.010163 
-0.459136 -0.189600 -0.010163 
0.026521 0.302552 0.010163 
0.425699 -0.425800 0.010163 
-0.225649 0.426212 -0.010163 
-0.245201 -0.488427 -0.010163 
-0.019434 -0.203890 -0.010163 
-0.371795 0.453464 -0.010163 
-0.023586 0.231972 0.010163 
-0.476049 -0.004973 -0.010163 
-0.119834 -0.262856 -0.010163 
0.170871 0.078270 0.010163 
-0.110744 0.425700 -0.010163 
-0.038297 0.105481 -0.010163 
0.344963 -0.473946 0.010163 
0.185005 0.478241 -0.010163 
-0.428351 -0.242790 0.010163 
0.491187 -0.475714 -0.010163 
0.469527 -0.160777 0.010163 
-0.172762 0.475980 -0.010163 
0.024604 0.104230 0.010163 
-0.312155 -0.306450 -0.010163 
-0.146129 -0.335961 0.010163 
-0.416045 -0.089483 0.010163 
0.042008 -0.107135 -0.010163 
-0.095894 -0.145836 0.010163 
0.067996 0.295289 -0.010163 
-0.223690 -0.257205 -0.010163 
-0.376677 0.160013 0.010163 
0.366997 -0.171230 -0.010163 
0.068624 -0.065066 -0.010163 
-0.207449 0.024525 -0.010163 
0.371615 -0.362849 0.010163 
-0.310459 0.182904 -0.010163 
-0.486031 -0.149630 -0.010163 
0.027982 0.302830 0.010163 
-0.361793 -0.295939 0.010163 
-0.137789 -0.493030 -0.010163 
-0.419798 -0.457564 -0.010163 
0.461956 0.434483 -0.010163 
0.136531 0.108771 -0.010163 
-0.307047 0.160246 -0.010163 
-0.072170 -0.271564 -0.010163 
-0.458114 -0.449134 0.010163 
-0.117913 0.014388 -0.010163 
-0.344568 0.080740 -0.010163 
-0.407317 -0.232858 -0.010163 
-0.047448 -0.068593 -0.010163 
-0.297928 -0.021132 0.010163 
-0.138903 -0.483210 0.010163 
-0.110420 0.196213 0.010163 
0.429866 0.111100 0.010163 
-0.306304 0.072837 -0.010163 
0.067278 -0.349569 -0.010163 
0.262268 0.287728 -0.010163 
-0.227011 -0.024571 -0.010163 
0.269428 0.183077 0.010163 
0.449651 0.323506 -0.010163 
0.002314 -0.170819 -0.010163 
0.467929 0.469640 -0.010163 
0.108252 -0.240060 -0.010163 
0.454224 0.370239 0.010163 
0.427111 -0.204692 -0.010163 
0.500000 -0.453460 0.004087 
-0.389333 0.344246 -0.010163 
0.469983 -0.500000 0.002059 
0.500000 0.261034 0.003955 
-0.094842 -0.105131 0.010163 
0.011237 0.371109 -0.010163 
0.130519 0.496707 0.010163 
0.209378 -0.056971 -0.010163 
-0.012460 0.403275 0.010163 
0.452878 0.244338 0.010163 
-0.268456 0.018781 -0.010163 
0.018789 -0.318369 0.010163 
-0.398448 -0.428089 0.010163 
0.456971 0.030622 -0.010163 
0.369769 0.332568 0.010163 
0.316941 -0.041701 -0.010163 
0.345109 0.139806 0.010163 
-0.085969 0.137292 -0.010163 
0.493279 0.173403 0.010163 
0.357597 0.409619 0.010163 
0.422681 -0.183430 0.010163 
0.349624 -0.128151 -0.010163 
-0.449371 0.036712 0.010163 
-0.118969 -0.407534 0.010163 
0.165492 -0.197723 -0.010163 
-0.028881 -0.068053 0.010163 
-0.376732 0.384598 -0.010163 
-0.005018 -0.341257 0.010163 
-0.356944 -0.425645 0.010163 
0.395553 0.154839 -0.010163 
-0.491327 0.062682 -0.010163 
0.497887 0.262913 -0.010163 
0.469548 -0.250940 -0.010163 
-0.125090 -0.166416 -0.010163 
0.103532 -0.274412 0.010163 
0.377038 -0.325887 0.010163 
-0.034181 0.238479 0.010163 
-0.083684 -0.222885 0.010163 
-0.500000 -0.319411 0.003593 
0.350638 0.411151 0.010163 
0.485024 -0.355335 -0.010163 
-0.407326 0.375287 0.010163 
0.389389 -0.130046 -0.010163 
0.248356 -0.065582 -0.010163 
-0.243722 -0.339268 0.010163 
-0.495732 -0.482528 0.010163 
0.357578 0.309037 0.010163 
0.018007 -0.397143 0.010163 
-0.325817 -0.326247 0.010163 
0.295831 -0.374901 -0.010163 
-0.067477 0.208512 -0.010163 
-0.165244 -0.228045 0.010163 
-0.117514 -0.500000 0.009004 
0.157633 0.440001 -0.010163 
-0.101010 0.014175 0.010163 
-0.097836 0.067396 0.010163 
-0.221758 -0.169448 -0.010163 
0.056354 0.035549 -0.010163 
0.312457 -0.422354 -0.010163 
-0.261999 -0.186375 -0.010163 
0.485493 -0.030622 -0.010163 
0.140277 -0.403843 -0.010163 
-0.007617 -0.135764 -0.010163 
0.171610 0.300195 -0.010163 
-0.434874 0.276346 -0.010163 
-0.360995 -0.420512 0.010163 
-0.491804 0.368912 -0.010163 
0.277930 0.121975 0.010163 
-0.219365 -0.342360 0.010163 
0.185465 0.379446 0.010163 
-0.215572 0.039015 0.010163 
0.335632 0.425783 -0.010163 
0.435594 0.314797 -0.010163 
-0.467763 -0.116184 -0.010163 
0.043449 -0.363578 -0.010163 
-0.274884 0.094336 -0.010163 
-0.015914 -0.004948 0.010163 
0.020768 0.371610 -0.010163 
0.099912 -0.426800 -0.010163 
0.238115 -0.455328 0.010163 
0.049487 0.028223 0.010163 
-0.068711 -0.184841 0.010163 
-0.369407 -0.149195 0.010163 
-0.107849 0.443285 -0.010163 
-0.421452 0.297006 0.010163 
-0.190877 -0.364787 -0.010163 
-0.097031 -0.387989 -0.010163 
0.115783 -0.375053 0.010163 
0.499075 -0.394571 -0.010163 
-0.364165 0.161829 -0.010163 
-0.204595 0.458130 -0.010163 
-0.400554 0.470394 0.010163 
0.500000 -0.142875 -0.001892 
0.193048 -0.235001 0.010163 
-0.217598 -0.277201 0.010163 
-0.366035 0.187608 0.010163 
0.140182 -0.113726 -0.010163 
-0.007203 -0.076875 -0.010163 
0.373088 0.022942 -0.010163 
-0.181879 0.490740 0.010163 
-0.060041 0.480065 0.010163 
0.309212 -0.291239 0.010163 
0.179143 -0.377817 -0.010163 
0.138590 -0.110517 0.010163 
-0.461478 -0.375193 0.010163 
-0.426121 -0.467880 -0.010163 
0.084723 -0.335954 -0.010163 
-0.370823 -0.463776 -0.010163 
0.174157 0.266512 -0.010163 
0.412163 0.427344 -0.010163 
0.243367 -0.264005 -0.010163 
0.405840 -0.172386 -0.010163 
-0.469597 -0.162950 -0.010163 
-0.441784 -0.308339 0.010163 
-0.240792 0.300662 -0.010163 
0.373519 0.174543 -0.010163 
-0.465262 -0.125175 -0.010163 
-0.340661 -0.390336 0.010163 
-0.265159 -0.281694 0.010163 
0.038492 0.414513 -0.010163 
-0.439110 -0.480099 -0.010163 
-0.475669 -0.439802 0.010163 
-0.288066 0.242510 -0.010163 
-0.074203 -0.058964 0.010163 
0.097425 0.260195 -0.010163 
0.345102 -0.482471 0.010163 
-0.197836 -0.105363 0.010163 
0.116359 0.201758 -0.010163 
0.078337 -0.493612 -0.010163 
-0.326635 0.008559 -0.010163 
-0.443929 -0.039840 -0.010163 
-0.085462 -0.468450 -0.010163 
0.450275 -0.341937 0.010163 
-0.117904 -0.107224 -0.010163 
0.156841 0.160326 0.010163 
0.414997 0.067760 0.010163 
0.407270 -0.087303 -0.010163 
0.252660 -0.427452 0.010163 
-0.344278 0.419173 0.010163 
0.147840 0.248273 -0.010163 
-0.120962 -0.430536 -0.010163 
0.250837 0.474052 0.010163 
-0.395131 -0.181322 -0.010163 
-0.242226 -0.048363 -0.010163 
0.187610 0.008632 -0.010163 
0.036162 -0.199369 0.010163 
-0.289760 -0.237124 -0.010163 
-0.185383 -0.311445 0.010163 
-0.015640 0.356057 -0.010163 
0.434497 0.016810 0.010163 
0.181358 0.363153 0.010163 
0.390914 0.448479 -0.010163 
0.226094 0.159708 0.010163 
-0.395872 0.331074 -0.010163 
0.097603 -0.467470 0.010163 
0.232160 -0.444111 0.010163 
0.185115 -0.362678 0.010163 
0.471054 0.288593 0.010163 
-0.116264 0.133965 0.010163 
-0.279249 0.053532 0.010163 
-0.228402 -0.114352 -0.010163 
0.491833 0.282734 0.010163 
-0.075364 0.221246 0.010163 
0.026174 -0.315521 0.010163 
-0.305411 -0.081579 0.010163 
-0.382251 -0.363249 0.010163 
-0.068437 -0.041551 -0.010163 
0.210132 0.414065 0.010163 
0.232439 0.011166 0.010163 
-0.431193 -0.220898 -0.010163 
-0.475896 0.249520 -0.010163 
-0.225143 0.205360 -0.010163 
0.368268 -0.294895 -0.010163 
-0.127132 -0.320936 0.010163 
-0.089615 0.118849 -0.010163 
-0.290641 -0.370798 -0.010163 
-0.012563 -0.453074 0.010163 
0.364003 -0.195873 0.010163 
0.181181 -0.104276 0.010163 
-0.263868 -0.187099 -0.010163 
-0.178631 -0.165126 0.010163 
-0.109812 0.160540 -0.010163 
0.081442 0.096504 -0.010163 
-0.292541 -0.179975 -0.010163 
-0.428127 0.232639 -0.010163 
0.316524 0.450333 -0.010163 
-0.360931 0.272661 -0.010163 
0.292761 0.141764 -0.010163 
0.261946 0.348487 0.010163 
0.402275 0.120817 0.010163 
-0.102559 0.091795 -0.010163 
-0.073368 -0.328650 -0.010163 
-0.017182 -0.427707 -0.010163 
0.438759 0.166913 -0.010163 
0.378521 0.176270 0.010163 
-0.486528 -0.317816 -0.010163 
0.373820 -0.479784 -0.010163 
-0.365056 -0.054509 0.010163 
-0.482591 0.318374 -0.010163 
0.330481 -0.474271 -0.010163 
0.110554 0.116821 0.010163 
0.267721 -0.386609 0.010163 
0.254223 0.408750 -0.010163 
0.361438 -0.360093 -0.010163 
-0.089367 -0.348831 0.010163 
-0.434336 -0.182227 -0.010163 
-0.389191 0.092085 0.010163 
0.093368 -0.369970 -0.010163 
-0.053966 -0.071519 -0.010163 
-0.025303 -0.272343 0.010163 
-0.480811 -0.310719 0.010163 
-0.462362 0.273645 -0.010163 
0.284401 -0.363054 -0.010163 
-0.012608 -0.203810 -0.010163 
0.021437 -0.433596 -0.010163 
0.373662 0.331999 0.010163 
-0.367097 0.199525 0.010163 
-0.372093 0.213582 -0.010163 
0.144475 0.026909 -0.010163 
-0.073911 -0.049754 0.010163 
-0.084037 0.214959 -0.010163 
0.476381 -0.445366 -0.010163 
0.271653 0.401584 -0.010163 
0.252953 -0.192244 0.010163 
0.236825 -0.392788 0.010163 
-0.386210 -0.121765 0.010163 
0.033625 0.134971 -0.010163 
0.051622 -0.485079 0.010163 
-0.424466 -0.335958 -0.010163 
0.162794 -0.429316 0.010163 
0.327094 0.005606 -0.010163 
0.418544 -0.012578 -0.010163 
-0.323598 -0.284704 0.010163 
0.132480 -0.149611 -0.010163 
-0.402552 -0.023517 -0.010163 
-0.324362 0.414632 0.010163 
-0.399378 -0.401263 -0.010163 
0.500000 -0.185985 -0.002030 
0.057340 -0.053577 0.010163 
-0.471294 0.494107 -0.010163 
0.448246 0.079049 0.010163 
-0.314737 0.500000 0.006447 
0.318431 -0.336328 -0.010163 
-0.002662 -0.500000 -0.002427 
-0.135302 -0.498367 -0.010163 
0.142284 -0.161847 0.010163 
-0.468945 0.136866 -0.010163 
-0.150499 0.078944 -0.010163 
-0.402780 0.054852 -0.010163 
-0.375945 0.264446 0.010163 
0.148093 -0.467182 0.010163 
-0.095648 -0.032787 0.010163 
0.416534 0.467102 -0.010163 
-0.484176 -0.263301 -0.010163 
-0.410305 0.437483 -0.010163 
-0.470880 0.189976 0.010163 
-0.333675 0.342186 -0.010163 
0.487134 0.290330 0.010163 
0.407986 -0.500000 0.001685 
-0.424662 0.214598 -0.010163 
-0.133387 0.211905 0.010163 
-0.460336 0.273995 -0.010163 
-0.483204 -0.260114 -0.010163 
0.450809 0.261224 -0.010163 
0.266081 -0.039931 -0.010163 
0.245212 0.484114 -0.010163 
-0.251403 -0.447076 -0.010163 
0.133571 -0.043514 0.010163 
0.138013 0.424544 0.010163 
0.004715 0.054625 -0.010163 
0.235382 -0.256653 -0.010163 
0.445875 0.327926 -0.010163 
-0.355825 0.214144 0.010163 
0.406325 -0.444905 -0.010163 
0.233632 -0.405730 0.010163 
0.272291 -0.193435 0.010163 
0.196044 0.425098 0.010163 
-0.361254 0.140649 0.010163 
-0.234338 -0.380985 -0.010163 
-0.174486 -0.370739 -0.010163 
-0.039438 -0.103189 -0.010163 
0.443872 0.056586 0.010163 
-0.114967 0.099465 0.010163 
-0.382877 -0.021595 -0.010163 
-0.139058 -0.304477 -0.010163 
-0.031479 0.325882 -0.010163 
0.474944 -0.456575 -0.010163 
0.356067 -0.269337 -0.010163 
0.130839 -0.000810 -0.010163 
0.082942 -0.199698 0.010163 
-0.298030 -0.418607 0.010163 
0.048272 -0.160350 -0.010163 
0.083404 -0.202032 0.010163 
0.355138 0.290408 -0.010163 
0.235475 -0.314021 -0.010163 
-0.252570 0.195173 -0.010163 
0.396981 -0.048472 0.010163 
0.366167 0.083329 -0.010163 
0.397896 -0.370733 -0.010163 
-0.053741 0.318758 -0.010163 
0.076906 0.294974 0.010163 
0.255508 -0.297916 0.010163 
0.110299 0.427362 -0.010163 
0.439102 -0.042384 0.010163 
0.041619 0.136503 -0.010163 
-0.500000 -0.349556 -0.004928 
-0.182980 0.052099 -0.010163 
-0.011608 -0.248971 0.010163 
-0.043309 0.460073 -0.010163 
0.195277 -0.194717 -0.010163 
-0.177353 0.117601 0.010163 
0.424641 0.330038 -0.010163 
-0.016331 -0.272908 -0.010163 
-0.439041 0.164306 -0.010163 
0.386230 -0.459912 -0.010163 
-0.018693 0.210520 0.010163 
-0.179871 -0.293496 -0.010163 
0.368615 0.394569 0.010163 
-0.294444 -0.383463 -0.010163 
-0.411880 0.087786 0.010163 
-0.028169 0.035742 -0.010163 
-0.190354 -0.252125 0.010163 
-0.004720 -0.124323 0.010163 
0.312258 -0.116656 0.010163 
0.116493 0.091407 -0.010163 
-0.084978 -0.199145 -0.010163 
0.480897 0.135891 -0.010163 
0.482026 0.486226 0.010163 
0.163525 -0.009830 0.010163 
0.309887 -0.490150 0.010163 
-0.280021 -0.394272 -0.010163 
0.205716 -0.146016 -0.010163 
0.301673 -0.007335 -0.010163 
0.034937 -0.337112 -0.010163 
0.165433 -0.335743 -0.010163 
-0.363624 -0.367953 0.010163 
-0.110167 0.500000 -0.008517 
-0.308666 0.247040 0.010163 
0.413840 0.291800 0.010163 
-0.132146 -0.468955 -0.010163 
-0.207355 -0.073753 0.010163 
-0.256382 -0.152075 0.010163 
0.259918 -0.427455 0.010163 
-0.264890 0.132077 0.010163 
-0.308536 -0.500000 -0.009905 
-0.416290 -0.005043 0.010163 
-0.298697 0.231569 0.010163 
-0.018137 -0.312210 0.010163 
0.269481 0.419640 0.010163 
0.090623 0.272838 -0.010163 
-0.380400 0.216615 0.010163 
0.053447 0.231456 0.010163 
-0.284439 -0.320810 -0.010163 
0.446446 -0.153566 -0.010163 
-0.174986 -0.334738 -0.010163 
0.419606 0.413542 -0.010163 
0.277206 -0.020138 0.010163 
-0.054813 0.177108 -0.010163 
0.401518 -0.363429 -0.010163 
0.060938 0.216577 -0.010163 
-0.326927 0.444514 -0.010163 
-0.153004 -0.383020 -0.010163 
0.280296 0.109425 -0.010163 
-0.074920 -0.073043 -0.010163 
0.114209 0.213713 -0.010163 
-0.472602 0.066571 0.010163 
-0.471446 -0.361493 0.010163 
-0.335841 0.205488 0.010163 
0.003145 0.243858 -0.010163 
-0.358062 -0.143979 0.010163 
-0.108258 0.471225 0.010163 
-0.485498 -0.367878 -0.010163 
0.336813 0.397929 -0.010163 
0.116516 0.183579 0.010163 
-0.056966 -0.471563 0.010163 
-0.323151 0.074906 0.010163 
-0.382769 -0.021082 0.010163 
-0.307566 -0.349778 -0.010163 
0.218634 0.334668 -0.010163 
-0.289930 -0.061004 0.010163 
-0.322291 0.433555 -0.010163 
0.137357 -0.387296 0.010163 
-0.445158 0.019383 0.010163 
0.147437 -0.481497 -0.010163 
-0.013308 0.484933 0.010163 
0.029768 -0.243146 0.010163 
-0.416635 -0.171565 0.010163 
0.089734 -0.390104 -0.010163 
0.234490 -0.497118 -0.010163 
0.415204 -0.107747 0.010163 
0.225397 0.124775 0.010163 
0.067825 0.207108 0.010163 
0.401351 0.335025 -0.010163 
0.500000 0.445043 0.007434 
0.488228 -0.484739 0.010163 
-0.299696 -0.260797 0.010163 
-0.217077 -0.296427 -0.010163 
0.356901 -0.025420 0.010163 
0.333500 0.376712 0.010163 
-0.198298 -0.195877 0.010163 
-0.430806 -0.159645 -0.010163 
-0.012124 0.349512 0.010163 
-0.290178 -0.370987 0.010163 
-0.500000 -0.204582 -0.009987 
0.130508 -0.457668 0.010163 
-0.320511 -0.134453 0.010163 
-0.055817 0.402416 0.010163 
-0.452551 -0.027073 -0.010163 
-0.402560 0.263249 0.010163 
0.124509 -0.489110 0.010163 
-0.102018 0.306116 -0.010163 
-0.402122 0.146536 0.010163 
-0.243894 0.266174 -0.010163 
-0.392541 -0.010998 0.010163 
0.030362 0.013153 -0.010163 
0.468503 -0.077739 -0.010163 
-0.332760 -0.076818 -0.010163 
0.389109 -0.225239 -0.010163 
-0.500000 -0.476416 -0.007580 
-0.420260 -0.477381 0.010163 
0.137733 0.035376 0.010163 
-0.064557 0.483425 0.010163 
0.145872 0.011927 0.010163 
0.150538 -0.197419 -0.010163 
-0.038808 0.308215 -0.010163 
0.450436 0.278910 0.010163 
-0.024878 0.136735 0.010163 
0.250307 0.223743 0.010163 
-0.321273 -0.379146 0.010163 
-0.086278 -0.359913 -0.010163 
0.286000 0.315586 0.010163 
-0.010412 -0.358207 0.010163 
0.129072 -0.388753 0.010163 
