0.50328887 0.37760374 0.57665676 -0.00005741 0.00002005 0.00084134
0.64248824 0.63161618 0.49451450 0.00145329 0.00078379 0.00003090
0.40522671 0.06083274 0.50930905 0.00040971 -0.00076922 -0.00011880
0.46891600 0.46785319 0.57431328 -0.00010269 0.00008836 0.00087304
0.57330424 0.11522567 0.41888866 0.00012938 -0.00015319 -0.00104636
0.47323057 0.39748058 0.42529485 -0.00008892 0.00003502 -0.00088022
0.53394306 0.25837827 0.57777101 -0.00004475 -0.00006933 0.00086632
0.42670676 0.44357327 0.56750190 -0.00024298 0.00004605 0.00105730
0.42805612 0.34419036 0.56781083 -0.00022065 0.00004993 0.00107462
0.57709789 0.06821062 0.41934380 0.00015902 -0.00001571 -0.00100308
0.62024045 0.46863648 0.47390240 0.00104874 0.00020982 -0.00001377
0.38849548 0.32697606 0.45972896 -0.00114265 0.00005154 -0.00057428
0.38164195 0.49131584 0.48922396 -0.00111656 0.00012698 -0.00008562
0.60340202 0.51553220 0.57111585 0.00071470 0.00015337 0.00080824
0.38157594 0.33370081 0.50944275 -0.00123869 0.00001022 -0.00000036
0.55497062 0.68165493 0.57655543 0.00030518 0.00069418 0.00110063
0.64346218 0.14671676 0.46450529 0.00144367 0.00018870 -0.00027090
0.59409314 0.25358909 0.57617414 0.00037144 0.00002914 0.00109793
0.39170888 0.67975879 0.42847618 -0.00052326 0.00026904 -0.00122514
0.35822126 0.69388890 0.48197031 -0.00132099 0.00022710 -0.00008149
0.53771991 0.71714503 0.55460882 0.00045932 0.00086148 0.00056908
0.50009167 0.50312406 0.57650280 -0.00003189 0.00008726 0.00082314
0.48390776 0.65273738 0.41978562 -0.00003881 0.00003827 -0.00093600
0.55361354 0.34860551 0.57822615 -0.00005992 0.00000689 0.00091994
0.52829009 0.51904124 0.57762843 -0.00003441 0.00010960 0.00083081
0.50963402 0.50176460 0.42302379 -0.00007833 0.00010948 -0.00082200
0.38982606 0.25143123 0.45697722 -0.00110442 -0.00001787 -0.00057858
0.54239213 0.18319276 0.57886320 -0.00000804 0.00000769 0.00086335
0.62730253 0.36321324 0.51319754 0.00111863 0.00005100 -0.00000493
0.35404626 0.07356080 0.51691842 -0.00114595 0.00011827 0.00003628
0.63034588 0.05780768 0.43852159 0.00132855 -0.00071865 -0.00110076
0.38468301 0.30226928 0.52990884 -0.00122204 0.00003767 0.00032596
0.61523128 0.19273539 0.45326957 0.00079399 0.00007062 -0.00008971
0.46884847 0.36637488 0.42570505 -0.00015591 0.00000289 -0.00088921
0.58505380 0.08780599 0.57958466 0.00010324 0.00035856 0.00112196
0.58601952 0.59234065 0.42277950 0.00009245 0.00008061 -0.00116217
0.53117442 0.85831165 0.52767020 0.00109716 0.00001614 0.00059776
0.49653441 0.13240331 0.41612533 0.00000778 -0.00008990 -0.00093382
0.42806664 0.58886003 0.56790197 -0.00014193 0.00014647 0.00086093
0.38813204 0.47083041 0.46029016 -0.00110381 0.00009041 -0.00055035
0.46325597 0.23827596 0.42637652 -0.00003490 -0.00000546 -0.00091180
0.46446732 0.62124991 0.57389891 -0.00009932 0.00004933 0.00078976
0.62346119 0.24344832 0.51536560 0.00102178 -0.00020871 0.00006504
0.38146088 0.39959502 0.49350706 -0.00119470 0.00005359 0.00000914
0.50774598 0.56721771 0.42311084 -0.00001799 0.00013595 -0.00082108
0.43488768 0.28691721 0.56938249 -0.00014867 -0.00005948 0.00104383
0.55487216 0.09137553 0.58251524 0.00011259 -0.00001094 0.00105322
0.57874423 0.46097100 0.42222169 -0.00020519 -0.00000604 -0.00107588
0.59697199 0.49659407 0.42403808 0.00053399 0.00033470 -0.00105737
0.62297446 0.07801265 0.56731075 0.00090789 0.00016772 0.00117802
0.42358869 0.06154087 0.48037934 -0.00014018 -0.00078768 0.00043871
0.39042509 0.05628418 0.53794569 0.00081690 -0.00064880 -0.00060113
0.38161030 0.17190662 0.52212822 -0.00079571 0.00026876 0.00010815
0.64496142 0.10971001 0.52678931 0.00141506 -0.00015729 0.00007644
0.43478820 0.88007081 0.52515429 -0.00085709 0.00104022 0.00061375
0.50397289 0.29234487 0.42330199 -0.00003664 -0.00001999 -0.00085295
0.59858072 0.04560624 0.42487592 0.00050979 -0.00143955 -0.00102707
0.62307942 0.42546576 0.53446066 0.00113735 0.00009735 0.00015388
0.49817750 0.56962770 0.57639867 -0.00001569 0.00015498 0.00081621
0.63125616 0.62345964 0.55704165 0.00128513 0.00055683 0.00102173
0.54461086 0.57087481 0.57805377 -0.00005543 0.00017928 0.00087218
0.36203098 0.71644515 0.52887106 -0.00134586 0.00032562 0.00031758
0.39060658 0.25194776 0.54425538 -0.00105667 -0.00004111 0.00063174
0.47896567 0.07554174 0.41648006 -0.00014989 -0.00000885 -0.00081697
0.43840587 0.18346226 0.57010388 -0.00017942 0.00005079 0.00082652
0.48569757 0.70312858 0.57881141 0.00002638 0.00027693 0.00100666
0.61203343 0.30343437 0.57254863 0.00090318 -0.00022544 0.00103999
0.53996241 0.06300480 0.52544963 0.00015399 -0.00070314 -0.00030182
0.38156405 0.52675098 0.50890732 -0.00096623 0.00017557 0.00003773
0.56318504 0.42819366 0.42170057 -0.00029039 0.00006456 -0.00098311
0.52693498 0.13101867 0.41642967 0.00009276 -0.00012330 -0.00092952
0.46257070 0.51563621 0.42630181 -0.00008377 0.00009016 -0.00087662
0.44817585 0.75604427 0.42463070 0.00009226 0.00034364 -0.00112204
0.60874671 0.16992432 0.57437289 0.00069619 0.00009154 0.00112590
0.59346569 0.56273884 0.42365399 0.00036010 0.00005494 -0.00113141
0.53949815 0.63976091 0.58119386 -0.00010384 -0.00005798 0.00104832
0.49869022 0.80422163 0.53803158 0.00063966 0.00024872 0.00039270
0.44557476 0.32391757 0.42865631 -0.00007019 0.00008403 -0.00099609
0.49384215 0.90471935 0.54760450 -0.00004011 0.00056613 0.00155106
0.43519473 0.63792938 0.57510209 -0.00003725 -0.00002895 0.00092852
0.53623855 0.53003633 0.42213461 -0.00005215 0.00012403 -0.00084678
0.61332321 0.48347044 0.55147195 0.00101848 0.00016830 0.00025159
0.50078261 0.18144649 0.57733828 0.00005216 0.00006336 0.00078566
0.41220903 0.41285372 0.56235242 -0.00051836 0.00007783 0.00105918
0.44618663 0.48787096 0.42849818 -0.00012334 0.00006799 -0.00093988
0.49248531 0.09211299 0.58379173 -0.00008413 0.00001754 0.00089333
0.41659901 0.48302492 0.43572435 -0.00036071 0.00007285 -0.00106918
0.38584122 0.09906508 0.57195514 -0.00069639 -0.00006787 0.00117207
0.39435717 0.80038768 0.55042505 -0.00106708 0.00058042 0.00094425
0.38875353 0.22173910 0.54099804 -0.00108661 -0.00017053 0.00045310
0.48346373 0.82558030 0.55413353 0.00054700 0.00037667 0.00078563
0.38271126 0.45699114 0.52026713 -0.00114584 0.00010281 0.00021245
0.46280888 0.53711081 0.57372063 -0.00012263 0.00009654 0.00086028
0.46345451 0.20658731 0.57360244 -0.00005816 -0.00000015 0.00085514
0.59554058 0.48632911 0.57617003 0.00043210 0.00013475 0.00107763
0.41854605 0.86648017 0.50253987 -0.00091011 0.00109406 -0.00002794
0.43247679 0.06173243 0.54083627 -0.00004124 -0.00056695 -0.00082406
0.52383661 0.04554849 0.41765159 0.00013577 -0.00107191 -0.00063102
0.61987746 0.19598317 0.51717478 0.00070753 0.00014962 -0.00000951
0.55573517 0.28444541 0.57826185 -0.00009027 0.00002652 0.00093097
0.37412426 0.78773659 0.48736581 -0.00138349 0.00062807 -0.00007121
0.62106633 0.20877360 0.48588672 0.00083841 -0.00010018 -0.00000064
0.61439800 0.65783226 0.53204596 0.00081476 0.00113929 0.00007624
0.39681524 0.75303298 0.56624424 -0.00063424 0.00037581 0.00125609
0.50871980 0.35678136 0.42308426 -0.00004803 0.00001331 -0.00084559
0.53703123 0.46781582 0.42211810 -0.00001328 0.00003530 -0.00086279
0.45703626 0.04561127 0.58090788 0.00005343 -0.00108287 0.00063059
0.57580954 0.06135019 0.53587872 -0.00004953 -0.00063505 -0.00071688
0.36082417 0.72705710 0.48800197 -0.00135924 0.00035646 -0.00009608
0.44336969 0.40519157 0.57104164 -0.00009889 0.00004129 0.00098728
0.57215244 0.51098275 0.57806206 -0.00006431 0.00016427 0.00096699
0.45329711 0.83054680 0.44303945 0.00013401 0.00057784 -0.00104350
0.38860685 0.36172459 0.54052818 -0.00109793 0.00005089 0.00063540
0.40484583 0.84584576 0.53324550 -0.00106393 0.00114304 0.00072435
0.63758403 0.63413155 0.45997024 0.00146060 0.00098469 -0.00057989
0.48438191 0.82601660 0.44603744 0.00033392 0.00036139 -0.00091784
0.61863309 0.41627225 0.44592422 0.00118005 0.00002433 -0.00040509
0.48578906 0.76163602 0.43757191 0.00049903 0.00030824 -0.00068260
0.49917802 0.31683895 0.57644504 -0.00006997 0.00004917 0.00084793
0.44671053 0.11443090 0.58256930 -0.00001314 -0.00019046 0.00099516
0.51775801 0.04811152 0.56101781 0.00015905 -0.00114841 -0.00012389
0.54625493 0.71690851 0.45527986 0.00050217 0.00091327 -0.00039455
0.60998511 0.05468090 0.53013307 -0.00062342 -0.00082497 -0.00053422
0.54216385 0.50013429 0.42198884 -0.00006667 0.00007987 -0.00086490
0.50272429 0.38762042 0.42335287 -0.00004103 0.00006090 -0.00084360
0.41756931 0.47809049 0.56462491 -0.00037523 0.00006589 0.00104030
0.53245127 0.27938488 0.42225102 0.00000623 0.00000382 -0.00087266
0.51569992 0.78084868 0.52223885 0.00062890 0.00042084 0.00024279
0.41862348 0.82669264 0.55818892 -0.00060113 0.00088839 0.00122698
0.60590541 0.66981280 0.50434864 0.00076662 0.00097652 0.00009212
0.36009404 0.04576666 0.46650055 -0.00115506 -0.00127190 -0.00010280
0.53926188 0.34172034 0.42207319 0.00000544 -0.00000731 -0.00088274
0.61583400 0.55864173 0.56838739 0.00075174 -0.00017844 0.00091806
0.51044196 0.83357781 0.45985550 0.00076708 0.00018711 -0.00066209
0.38360226 0.39622059 0.52516615 -0.00120173 0.00007894 0.00027269
0.61563140 0.50885147 0.52930880 0.00085719 0.00036611 -0.00003336
0.59713972 0.09455688 0.42254573 0.00031106 0.00014313 -0.00119631
0.37015229 0.61598176 0.43832359 -0.00092557 -0.00009438 -0.00117741
0.64333659 0.60660046 0.53266251 0.00149598 0.00029764 0.00037548
0.38820487 0.42419353 0.53969771 -0.00109371 -0.00002073 0.00062434
0.64494491 0.11472332 0.47319669 0.00141104 -0.00022728 -0.00007856
0.46766478 0.35589498 0.57417077 -0.00003680 0.00001061 0.00090353
0.41410747 0.25959516 0.43684497 -0.00035843 0.00003083 -0.00113671
0.64489496 0.57298404 0.52716362 0.00135653 -0.00047541 0.00014857
0.64220089 0.08198829 0.54027736 0.00136514 0.00006251 0.00040905
0.54176515 0.14329253 0.58306754 0.00005725 -0.00002486 0.00097384
0.47548395 0.30584249 0.42511106 -0.00005654 0.00001221 -0.00088844
0.39630970 0.05794016 0.57574052 -0.00046546 -0.00056442 0.00106166
0.56980526 0.63653415 0.57925367 0.00002573 -0.00006334 0.00118232
0.37857428 0.77498096 0.54089534 -0.00127197 0.00059876 0.00061373
0.59345192 0.25349236 0.42373052 0.00026454 0.00000869 -0.00115107
0.48863092 0.94484246 0.52026367 -0.00097796 0.00166220 0.00084809
0.60919774 0.22240049 0.42927966 0.00089697 -0.00018521 -0.00093608
0.38678357 0.38603947 0.46363375 -0.00114397 0.00001731 -0.00050221
0.41117045 0.35880998 0.43809122 -0.00045075 0.00007963 -0.00113694
0.55929834 0.26246253 0.42172119 -0.00004586 0.00002134 -0.00096233
0.52965468 0.83915311 0.48526612 0.00100883 0.00000035 -0.00025968
0.56176877 0.18541849 0.42098004 0.00000796 0.00001114 -0.00093560
0.36576414 0.57942331 0.53350341 -0.00101523 -0.00050543 0.00056147
0.45611161 0.06296125 0.51825655 -0.00013237 -0.00079113 0.00003179
0.41285300 0.78247255 0.56756836 -0.00043880 0.00040403 0.00129711
0.61830580 0.25344378 0.54875261 0.00115594 0.00004178 0.00026097
0.51130819 0.95454544 0.48065367 0.00018075 0.00220972 -0.00079750
0.62749463 0.28423500 0.50101900 0.00111887 -0.00004756 0.00004223
0.36145210 0.07202629 0.45072994 -0.00145160 -0.00010920 -0.00050242
0.50882477 0.79069471 0.45934951 0.00077598 0.00022686 -0.00040747
0.48932847 0.06434453 0.51142466 -0.00001787 -0.00076471 0.00008388
0.54087311 0.73478097 0.48107073 0.00047163 0.00088566 -0.00017068
0.38136509 0.19443904 0.49557638 -0.00100503 0.00000444 0.00002025
0.40661636 0.56674427 0.55972344 -0.00038790 0.00005932 0.00083415
0.48778692 0.47821331 0.42420262 -0.00004401 0.00008050 -0.00084050
0.39163145 0.59641898 0.56105584 -0.00020445 -0.00021800 0.00105419
0.45645919 0.06300250 0.48477134 -0.00008559 -0.00081193 0.00005497
0.35437259 0.62829369 0.48436448 -0.00133148 0.00026523 -0.00009271
0.48276299 0.21479343 0.42458442 -0.00002380 -0.00005470 -0.00084556
0.48560113 0.79668748 0.43817371 0.00050894 0.00041945 -0.00093052
0.46167338 0.86719567 0.44804221 -0.00026251 0.00051852 -0.00128186
0.64179337 0.14129139 0.54178262 0.00147133 0.00018253 0.00047773
0.43505359 0.39531991 0.43052816 -0.00017355 -0.00000344 -0.00103098
0.49318165 0.60022134 0.42386025 -0.00005239 0.00013159 -0.00081215
0.41268387 0.61748469 0.56916660 0.00004346 -0.00005127 0.00097381
0.40263340 0.28589192 0.55681574 -0.00069036 0.00006341 0.00106052
0.61993015 0.48025155 0.51895636 0.00097067 0.00026683 0.00002696
0.56044692 0.39759076 0.42171749 -0.00021530 0.00007067 -0.00095905
0.40775308 0.63264102 0.42648426 0.00004654 -0.00003368 -0.00114472
0.35819471 0.68565941 0.52305090 -0.00134334 0.00027648 0.00014725
0.60588068 0.04965199 0.45561379 -0.00055218 -0.00116943 0.00026589
0.45373094 0.64625186 0.42265344 -0.00006223 0.00001145 -0.00088808
0.46488944 0.18136080 0.42621931 -0.00006192 0.00003404 -0.00078065
0.61443788 0.33819252 0.43068215 0.00095457 0.00012234 -0.00095266
0.39154023 0.72312731 0.43212959 -0.00065890 0.00029704 -0.00120377
0.40054843 0.44057927 0.44461796 -0.00075094 0.00012351 -0.00094586
0.56953669 0.22101355 0.42187884 -0.00015512 -0.00008195 -0.00101597
0.60945570 0.41009068 0.57323664 0.00083995 -0.00002565 0.00108340
0.46190697 0.65215480 0.57903278 -0.00005951 0.00003699 0.00093030
0.50905102 0.75998920 0.46021059 0.00053704 0.00047664 -0.00026434
0.56473470 0.31983835 0.57823205 -0.00015161 0.00001069 0.00097864
0.58192420 0.20704703 0.57752073 0.00004316 -0.00007899 0.00104618
0.52621710 0.87876827 0.46009919 0.00093937 -0.00000562 -0.00103923
0.62421840 0.28461361 0.46780482 0.00113528 -0.00010543 -0.00002468
0.61400294 0.49122235 0.45398733 0.00101287 0.00032181 -0.00015452
0.42646477 0.04545454 0.58080977 -0.00021179 -0.00119152 0.00083005
0.52706259 0.33057082 0.57757664 -0.00005071 0.00002500 0.00085383
0.61006671 0.53691643 0.54761773 0.00065104 -0.00008825 -0.00001613
0.42217517 0.22748117 0.43383735 -0.00023186 -0.00010012 -0.00109922
0.35349303 0.60161698 0.50386596 -0.00140170 -0.00003318 -0.00002343
0.35509586 0.04560029 0.49833107 -0.00088635 -0.00120752 -0.00024579
0.58676845 0.06122277 0.50400239 -0.00028395 -0.00082206 0.00007367
0.61005890 0.53830796 0.44808117 0.00074387 -0.00014072 -0.00031299
0.56419796 0.24411844 0.57821697 -0.00011262 -0.00007140 0.00097252
0.57703835 0.68904471 0.54310596 0.00079217 0.00095281 0.00012411
0.38273230 0.48800936 0.52043194 -0.00112410 0.00015354 0.00018473
0.47149056 0.55546087 0.42540714 -0.00009078 0.00014377 -0.00083635
0.49783698 0.32809809 0.42360771 -0.00008135 0.00002804 -0.00085153
0.38028437 0.76121068 0.44988796 -0.00113125 0.00047412 -0.00087900
0.62786859 0.17153215 0.54124480 0.00100938 0.00044570 0.00022360
0.38862702 0.51044321 0.54054886 -0.00104372 0.00014337 0.00051009
0.51904160 0.93180269 0.46003380 0.00034581 0.00105969 -0.00176094
0.46961817 0.92075670 0.52763373 -0.00095575 0.00111684 0.00099225
0.48365572 0.70655876 0.42134625 0.00000734 0.00031071 -0.00100545
0.48535037 0.04558425 0.41643697 -0.00034234 -0.00113083 -0.00075552
0.62254363 0.65173864 0.48173961 0.00085889 0.00107282 -0.00010855
0.49988356 0.47248918 0.57649171 -0.00002594 0.00007613 0.00083007
0.64253134 0.04548891 0.46363091 0.00143981 -0.00151646 -0.00033187
0.42742085 0.43316364 0.43231431 -0.00020996 0.00012436 -0.00106172
0.42003334 0.73100978 0.42443317 -0.00022133 0.00026055 -0.00118685
0.58984661 0.19755805 0.42326623 0.00031662 -0.00008185 -0.00101013
0.52033478 0.94819742 0.53437310 0.00034793 0.00181744 0.00137214
0.53096849 0.60613114 0.42227164 -0.00001384 0.00012609 -0.00087093
0.51634532 0.06410849 0.48644987 0.00002484 -0.00077973 -0.00007325
0.58528429 0.55766135 0.57720995 0.00010142 0.00014027 0.00100903
0.53766233 0.70140386 0.42977834 0.00032168 0.00076150 -0.00093504
0.35422549 0.65209979 0.50514138 -0.00130317 0.00023774 0.00006951
0.49398017 0.44027871 0.57616311 -0.00004870 0.00004860 0.00083889
0.45325887 0.78599763 0.42753199 0.00010087 0.00041939 -0.00121794
0.63471937 0.58620530 0.55634451 0.00127374 -0.00005617 0.00092894
0.61173826 0.64972198 0.56464964 0.00101273 0.00082751 0.00096634
0.49673590 0.73320389 0.42947078 0.00033634 0.00065137 -0.00081512
0.52527475 0.88623601 0.54179394 0.00090093 0.00010675 0.00115171
0.49976790 0.53419119 0.57648575 -0.00002981 0.00011293 0.00081789
0.57208139 0.70545048 0.50140774 0.00074531 0.00084304 0.00004713
0.46123967 0.61669540 0.42646316 -0.00013137 0.00001381 -0.00078010
0.41801068 0.50862044 0.56479359 -0.00031627 0.00007580 0.00103557
0.51500064 0.41996858 0.42282027 0.00001443 0.00006236 -0.00084154
0.62640786 0.42102414 0.50266916 0.00109854 0.00009172 -0.00004086
0.38553646 0.55423754 0.53301555 -0.00073099 -0.00005890 0.00034321
0.38169053 0.45621571 0.48849344 -0.00116000 0.00006041 -0.00014169
0.61439210 0.53852844 0.51459265 0.00050107 -0.00013934 0.00000083
0.51179165 0.83185631 0.53815621 0.00073206 0.00001529 0.00064279
0.64657980 0.59940958 0.50234681 0.00148025 0.00007260 -0.00004487
0.62819403 0.15780859 0.43635595 0.00106518 0.00034618 -0.00103033
0.46039179 0.72207445 0.57774532 -0.00004691 0.00028206 0.00104036
0.40581521 0.15106274 0.57209903 -0.00033296 0.00029051 0.00107297
0.35606521 0.10149796 0.53221530 -0.00140425 0.00004740 0.00040688
0.38896894 0.07502107 0.42681193 -0.00058189 0.00002571 -0.00136216
0.60371828 0.36916754 0.42547131 0.00058900 0.00003892 -0.00108489
0.46158427 0.06085978 0.55103606 0.00001811 -0.00040298 -0.00076415
0.44749245 0.21039015 0.42845646 -0.00012447 -0.00009460 -0.00091676
0.39056352 0.51642364 0.45583177 -0.00096891 0.00012221 -0.00060430
0.48806989 0.04555950 0.58223844 0.00016636 -0.00118860 0.00082571
0.45656109 0.81598765 0.57037705 0.00026270 0.00061404 0.00129032
0.41842183 0.69570529 0.42256913 -0.00013624 0.00018096 -0.00115706
0.37878969 0.56824392 0.46369237 -0.00070329 -0.00035964 -0.00054891
0.60471976 0.43567452 0.42557809 0.00067766 0.00008711 -0.00109624
0.44642451 0.15368949 0.42008123 -0.00013503 0.00013055 -0.00100229
0.57594520 0.35219938 0.42212224 -0.00015477 -0.00002139 -0.00105598
0.38431084 0.35511535 0.47146159 -0.00119051 -0.00000032 -0.00034788
0.36044651 0.60669541 0.54697746 -0.00128267 -0.00017566 0.00075733
0.42890587 0.04550219 0.41946569 -0.00002332 -0.00117843 -0.00102959
0.38797069 0.41629043 0.46065629 -0.00111623 0.00006071 -0.00055814
0.53652436 0.06263309 0.45182857 0.00001533 -0.00034985 0.00080605
0.62950903 0.17334536 0.47901982 0.00079345 0.00046766 0.00001127
0.44234759 0.54470134 0.42907384 -0.00007312 0.00012878 -0.00093109
0.53303790 0.43657359 0.57776272 0.00000147 0.00008015 0.00085779
0.47201371 0.42916292 0.42539111 -0.00011597 0.00004859 -0.00087608
0.62530464 0.39317003 0.52622849 0.00110803 0.00004002 0.00011567
0.62020105 0.61543500 0.43259802 0.00083768 0.00028688 -0.00139943
0.57658917 0.38838241 0.57785672 -0.00000516 -0.00000789 0.00103482
0.50737447 0.90140104 0.45207605 0.00026704 0.00038521 -0.00154963
0.61809635 0.22078851 0.54033256 0.00101073 -0.00014621 0.00003346
0.38158053 0.42753741 0.50921929 -0.00116798 0.00004744 0.00007042
0.58168584 0.66660357 0.57358038 0.00052680 0.00074776 0.00107139
0.36198604 0.57522768 0.49008551 -0.00109375 -0.00045089 -0.00015777
0.46207076 0.45871931 0.42639533 -0.00008791 0.00005076 -0.00089736
0.57964307 0.04548478 0.57976294 -0.00014946 -0.00122170 0.00104932
0.53199130 0.74355406 0.52039903 0.00046068 0.00078284 0.00015329
0.50155723 0.41067487 0.57657701 -0.00007231 0.00006075 0.00083767
0.39235744 0.32790557 0.54685372 -0.00103188 0.00003669 0.00075860
0.61983758 0.36328566 0.55313063 0.00109407 0.00014421 0.00052020
0.42862445 0.60744524 0.43194580 -0.00006350 0.00002372 -0.00081440
0.55386609 0.92917633 0.52103180 0.00187192 0.00072547 0.00094381
0.58962297 0.16195244 0.42106897 0.00022911 -0.00003391 -0.00115845
0.35552120 0.59966904 0.47053528 -0.00141856 -0.00021983 -0.00034432
0.40522027 0.55194819 0.44133350 -0.00051873 0.00018977 -0.00086729
0.36813009 0.76782954 0.50985020 -0.00138073 0.00056528 0.00009655
0.58630961 0.64171934 0.42366087 0.00039808 0.00028351 -0.00125527
0.40838328 0.79708028 0.43755129 -0.00053154 0.00050940 -0.00132641
0.54345304 0.31074670 0.42197737 0.00002385 -0.00000759 -0.00089768
0.62375087 0.43288416 0.47348103 0.00113481 0.00010616 -0.00005810
0.58490109 0.35452589 0.57730895 0.00004908 0.00014154 0.00108925
0.38715988 0.05936100 0.48262277 0.00083037 -0.00054773 0.00039144
0.41049391 0.11713098 0.57887787 -0.00011038 -0.00021505 0.00122070
0.58618265 0.31684902 0.42281523 -0.00009001 -0.00005553 -0.00114106
0.37002352 0.14782318 0.54014587 -0.00120514 0.00043321 0.00032578
0.55090523 0.06277838 0.49656823 0.00021073 -0.00083037 -0.00002292
0.40622357 0.38134792 0.55915326 -0.00066169 0.00003083 0.00102945
0.55388761 0.53566426 0.57824582 -0.00007662 0.00011300 0.00088548
0.35396788 0.07762720 0.48417747 -0.00118467 0.00011508 -0.00010189
0.39877284 0.84940249 0.48695531 -0.00119921 0.00125779 -0.00030811
0.60939431 0.46592501 0.43197194 0.00092514 0.00015350 -0.00081850
0.57107121 0.17061228 0.58095646 -0.00005199 -0.00000294 0.00107252
0.40841213 0.04733372 0.44318014 0.00010859 -0.00113970 0.00028598
0.52161342 0.75842214 0.49269214 0.00048551 0.00053575 -0.00010156
0.63090003 0.55610669 0.48879668 0.00072987 -0.00057142 0.00011846
0.45048630 0.69647396 0.42087463 -0.00008678 0.00021058 -0.00101238
0.37306735 0.16042294 0.49158853 -0.00089226 0.00039241 0.00000875
0.62227637 0.13790888 0.56780028 0.00089366 -0.00002916 0.00116033
0.59494883 0.61807138 0.57687402 0.00014901 -0.00001398 0.00137057
0.44643825 0.77916706 0.57368398 -0.00000828 0.00017040 0.00122906
0.61906391 0.49768952 0.49313870 0.00088004 0.00035031 0.00002384
0.62433201 0.34061256 0.46353251 0.00116176 0.00004694 -0.00006926
0.49500662 0.52946293 0.42374292 -0.00005887 0.00009636 -0.00082171
0.52641571 0.10546303 0.58354515 0.00006852 -0.00013469 0.00095929
0.41429630 0.51838303 0.43665296 -0.00046830 0.00012413 -0.00096279
0.55678755 0.92841095 0.48443034 0.00182729 0.00088814 -0.00067953
0.42001593 0.68295801 0.57829213 -0.00006612 0.00010348 0.00116094
0.53847909 0.22452030 0.57788146 -0.00004872 -0.00006373 0.00086656
0.61461437 0.52856690 0.47743985 0.00063619 0.00000227 0.00012995
0.41692948 0.82680953 0.44278875 -0.00041039 0.00093203 -0.00125280
0.46213776 0.57312620 0.57364368 -0.00009783 0.00019474 0.00084195
0.55314237 0.14794788 0.41739264 -0.00000406 -0.00007318 -0.00100119
0.63454336 0.10883047 0.55600351 0.00119674 -0.00022904 0.00086572
0.51458663 0.68292773 0.57933211 -0.00007525 0.00026014 0.00104078
0.61827922 0.22754946 0.45839661 0.00101280 -0.00021541 -0.00013422
0.47498623 0.90101600 0.45544398 -0.00046868 0.00090108 -0.00131745
0.36602905 0.68776000 0.45178044 -0.00120790 0.00027963 -0.00067653
0.39131016 0.71157026 0.56922573 -0.00064086 0.00028888 0.00119541
0.39431363 0.82300258 0.46377420 -0.00119848 0.00090317 -0.00063125
0.50828493 0.45142415 0.42308521 -0.00000369 0.00005126 -0.00083492
0.63729066 0.63617021 0.52504134 0.00135617 0.00092034 0.00018830
0.46833587 0.17387383 0.57641566 -0.00012145 0.00005141 0.00081106
0.43645197 0.37509432 0.56973171 -0.00018676 0.00000641 0.00101221
0.53291088 0.94207859 0.50173694 0.00103002 0.00158311 0.00005604
0.45996112 0.23845655 0.57319766 -0.00005378 0.00002819 0.00091540
0.36709884 0.65658832 0.55559748 -0.00117837 0.00032304 0.00078412
0.48262373 0.94462693 0.48985383 -0.00110894 0.00170761 -0.00037437
0.39727357 0.66146690 0.57441139 -0.00020795 0.00018034 0.00128087
0.41110718 0.15222234 0.42656535 -0.00038040 0.00023882 -0.00111183
0.41985044 0.29009899 0.43454826 -0.00033200 -0.00001510 -0.00109943
0.46369287 0.50048906 0.57378894 -0.00010763 0.00008933 0.00087865
0.62779248 0.32717267 0.49251604 0.00111531 0.00003466 0.00001099
0.37287897 0.09962198 0.43529031 -0.00106572 0.00006547 -0.00114860
0.44373819 0.15364733 0.57959974 -0.00011973 0.00010435 0.00100324
0.53711855 0.47674847 0.57786810 -0.00001437 0.00005859 0.00085917
0.47737488 0.06314825 0.45337728 -0.00002976 -0.00053348 0.00054676
0.57521182 0.67003143 0.42504048 0.00058958 0.00067399 -0.00114199
0.36849996 0.71903563 0.45382920 -0.00121633 0.00033507 -0.00074271
0.46572283 0.07684388 0.58320189 -0.00004015 0.00029194 0.00080637
0.57352245 0.68938386 0.45151690 0.00076256 0.00088990 -0.00032470
0.55506831 0.04551366 0.41833863 -0.00003571 -0.00115196 -0.00077376
0.38202146 0.26317710 0.48571602 -0.00122922 -0.00009640 -0.00005000
0.54162771 0.86705214 0.49139279 0.00125480 -0.00012458 -0.00017387
0.43252033 0.12513816 0.41834414 -0.00008276 -0.00015485 -0.00113401
0.40152103 0.53474259 0.55601084 -0.00068355 0.00015039 0.00080078
0.50729400 0.75664788 0.54531658 0.00051746 0.00063121 0.00037196
0.52551109 0.29657856 0.57752532 -0.00000096 0.00000407 0.00085598
0.60876548 0.22196460 0.57179058 0.00086728 -0.00012103 0.00098289
0.57163912 0.53776389 0.42192787 0.00007172 0.00012533 -0.00095969
0.60993236 0.45603347 0.56901532 0.00089820 0.00008058 0.00091661
0.62409782 0.29274455 0.53565878 0.00119673 -0.00010298 0.00005731
0.50816178 0.62984931 0.42310214 -0.00001134 0.00004601 -0.00082851
0.38289228 0.27293786 0.52140409 -0.00122976 0.00000682 0.00017520
0.49658582 0.26562506 0.57630020 -0.00006686 -0.00007923 0.00084990
0.37835106 0.04551503 0.43288174 -0.00088109 -0.00137559 -0.00130424
0.35741550 0.10606255 0.46135625 -0.00148408 0.00002974 -0.00046957
0.40503559 0.75713009 0.43085083 -0.00047583 0.00034114 -0.00127059
0.38582978 0.82231182 0.51347476 -0.00147785 0.00069379 0.00024934
0.58968669 0.14507592 0.57895535 0.00011276 -0.00007682 0.00117836
0.63022631 0.56131893 0.45197704 0.00102243 -0.00049083 -0.00061428
0.39287171 0.21899822 0.45222226 -0.00098454 -0.00015574 -0.00064552
0.64171821 0.16212475 0.50641847 0.00120286 0.00042597 0.00003003
0.42623511 0.66107368 0.42016694 -0.00005868 0.00006406 -0.00112437
0.38190410 0.29588416 0.48651418 -0.00122452 0.00002899 -0.00012235
0.39383650 0.46115384 0.54879570 -0.00093767 0.00007724 0.00084489
0.39566207 0.18319918 0.55144906 -0.00069525 0.00009719 0.00058986
0.49446657 0.21167764 0.57616860 0.00002456 -0.00000122 0.00082488
0.59836352 0.40263218 0.42433187 0.00042443 0.00000269 -0.00110492
0.57099515 0.11975818 0.58130205 0.00009600 -0.00014999 0.00106807
0.35325241 0.10469487 0.49913245 -0.00138306 -0.00011733 0.00008099
0.35743567 0.66440898 0.47072032 -0.00133293 0.00025685 -0.00023970
0.63437057 0.12337723 0.44335386 0.00118318 -0.00025795 -0.00092731
0.54960763 0.60801220 0.57815921 -0.00003820 0.00004918 0.00092119
0.37981820 0.15694278 0.45201233 -0.00099424 0.00046239 -0.00058917
0.60962123 0.65826499 0.45339698 0.00093322 0.00105347 -0.00047752
0.48733762 0.16168153 0.41861409 -0.00000302 0.00014128 -0.00089965
0.56156892 0.45858833 0.57830447 -0.00014719 0.00001291 0.00096540
0.37564135 0.64650124 0.43522570 -0.00084512 0.00018799 -0.00111090
0.38910371 0.12404273 0.42673677 -0.00074013 0.00010308 -0.00130347
0.50594932 0.09982089 0.41614825 0.00005575 -0.00010438 -0.00087019
0.49318397 0.86414039 0.44611260 0.00033035 0.00022213 -0.00129233
0.62549764 0.09133062 0.43452716 0.00093013 0.00011790 -0.00117289
0.43083549 0.09410723 0.41851509 -0.00008222 0.00002029 -0.00109218
0.63778251 0.59540606 0.44900656 0.00133833 -0.00004022 -0.00096322
0.53752732 0.37647808 0.57787138 -0.00006903 0.00004578 0.00086829
0.64095736 0.04545498 0.54309422 0.00148212 -0.00143316 0.00025147
0.54015398 0.23626432 0.42206171 -0.00003022 -0.00004756 -0.00088218
0.64223617 0.08534975 0.45972863 0.00148937 0.00038141 -0.00038362
0.41744831 0.24645275 0.56450391 -0.00028788 -0.00001804 0.00114684
0.60152465 0.13396394 0.42361867 0.00023901 -0.00015688 -0.00129740
0.52614474 0.20774692 0.42244488 -0.00003443 -0.00001896 -0.00083612
0.39682490 0.18256715 0.44751009 -0.00072529 0.00001641 -0.00066673
0.60946995 0.04603983 0.57374448 0.00063373 -0.00123737 0.00116262
0.43521813 0.88014281 0.47408992 -0.00091785 0.00102659 -0.00066468
0.42741445 0.18177468 0.43240002 -0.00021733 0.00005374 -0.00085940
0.46454856 0.12614925 0.41669777 -0.00007930 -0.00017457 -0.00098361
0.46271813 0.27129471 0.42640907 -0.00008463 -0.00001649 -0.00092044
0.46225953 0.43726793 0.57360244 -0.00008729 0.00008134 0.00090048
0.55774450 0.62518436 0.42082420 -0.00007948 -0.00002457 -0.00105484
0.60101867 0.58812940 0.57528126 0.00015199 0.00020078 0.00127810
0.44705978 0.31750584 0.57152700 -0.00008152 0.00002732 0.00098089
0.37195539 0.74165928 0.54414994 -0.00125315 0.00036479 0.00068127
0.42165586 0.71917450 0.57656741 -0.00014462 0.00027548 0.00116131
0.38146457 0.36529320 0.50672680 -0.00120228 -0.00001691 0.00009424
0.43343976 0.54985899 0.56916660 -0.00014737 0.00015667 0.00093792
0.64564526 0.58029044 0.47710857 0.00146280 -0.00025603 -0.00011935
0.43185574 0.75080264 0.57525557 -0.00003387 0.00026547 0.00118819
0.61223835 0.33875859 0.57247949 0.00087409 0.00022453 0.00103183
0.55335414 0.05190107 0.55837590 -0.00014862 -0.00093837 -0.00029578
0.37462983 0.68719119 0.55992281 -0.00100253 0.00031232 0.00096580
0.36047721 0.07378676 0.54696739 -0.00129221 0.00025866 0.00060143
0.52325553 0.91744286 0.54173648 0.00050866 0.00025230 0.00164314
0.38018030 0.13446492 0.56898278 -0.00105242 0.00018157 0.00114558
0.64674753 0.07094415 0.50210774 0.00144417 -0.00025310 0.00006647
0.51604480 0.79036242 0.48988804 0.00068878 0.00024195 -0.00005550
0.43275455 0.07626455 0.58164531 -0.00005852 0.00030002 0.00087880
0.45069945 0.68801486 0.57967490 -0.00008866 0.00014745 0.00101841
0.54718441 0.40725759 0.57810050 -0.00003186 0.00008649 0.00089380
0.49820819 0.06349567 0.54336149 -0.00012358 -0.00052607 -0.00052275
0.38545898 0.79317433 0.45773980 -0.00122601 0.00059361 -0.00070067
0.55016315 0.89300424 0.51095068 0.00142579 -0.00051157 0.00041525
0.50298703 0.68265134 0.42021367 -0.00004791 0.00016808 -0.00103902
0.49135038 0.15316239 0.58381099 0.00000053 0.00000362 0.00096459
0.53584737 0.37198037 0.42215246 -0.00001530 0.00004309 -0.00087119
0.50670916 0.05768532 0.44561392 0.00003656 -0.00054759 0.00073243
0.45610356 0.58419961 0.42706129 -0.00013063 0.00017696 -0.00083465
0.35860673 0.13743541 0.50719291 -0.00130559 0.00035446 0.00007555
0.44439909 0.05824449 0.44802296 0.00024033 -0.00059469 0.00054222
0.49700332 0.73102993 0.57158935 0.00030801 0.00060198 0.00088733
0.37181148 0.04556363 0.56174880 -0.00083620 -0.00132312 0.00109224
0.61329526 0.29577190 0.42788857 0.00084602 -0.00012903 -0.00112345
0.62828428 0.04705184 0.49620122 0.00008284 -0.00131738 0.00033701
0.44122097 0.89995730 0.49905595 -0.00116820 0.00117889 -0.00004985
0.46112952 0.72736144 0.42254484 -0.00001768 0.00032380 -0.00103278
0.37883967 0.62580627 0.56782591 -0.00062545 -0.00004311 0.00128876
0.62502319 0.32774103 0.53408176 0.00121901 -0.00006699 -0.00004190
0.51846915 0.07389082 0.58369273 0.00020086 -0.00017491 0.00108409
0.55600929 0.71573514 0.52867073 0.00061730 0.00084941 0.00026386
0.53963506 0.57647341 0.42204615 -0.00005847 0.00014869 -0.00087208
0.61228645 0.19528192 0.55719161 0.00085168 -0.00001191 0.00037112
0.35506880 0.62653685 0.52356404 -0.00136775 0.00025827 0.00015584
0.57567430 0.43062103 0.57791859 -0.00014275 0.00013258 0.00105879
0.62338006 0.45332402 0.50343901 0.00102788 0.00019313 -0.00002170
0.50033098 0.12344643 0.58387470 -0.00003862 -0.00014118 0.00092472
0.47190747 0.39196858 0.57457036 -0.00006747 0.00005201 0.00088354
0.49998361 0.25318712 0.42348301 -0.00000275 -0.00003208 -0.00085582
0.57398945 0.06148356 0.46918276 -0.00020553 -0.00074061 0.00044881
0.46603471 0.92100877 0.47722787 -0.00105247 0.00117831 -0.00083453
0.51820856 0.81495273 0.51350385 0.00072912 0.00007215 0.00024074
0.49968949 0.60804290 0.57647890 -0.00004536 0.00011423 0.00081079
0.40732452 0.40309438 0.44020325 -0.00055154 -0.00004711 -0.00107074
0.62459147 0.37723979 0.46774900 0.00116890 0.00006889 -0.00007511
0.52570945 0.07618481 0.41641223 -0.00005140 0.00029143 -0.00077245
0.60845196 0.11000703 0.57448745 0.00045549 -0.00019980 0.00125982
0.42150781 0.57676309 0.43404546 -0.00024755 0.00012874 -0.00086811
0.62204587 0.31153688 0.45245421 0.00113367 -0.00005693 -0.00026857
0.50291240 0.64281982 0.57875961 -0.00006438 0.00003571 0.00088271
0.54049563 0.90917444 0.46706223 0.00118041 0.00008164 -0.00119090
0.42333063 0.21249944 0.56641608 -0.00027284 -0.00012872 0.00103098
0.58658558 0.28492117 0.57709539 0.00012316 -0.00007884 0.00105966
0.47344726 0.29648730 0.57469416 -0.00007003 -0.00000374 0.00089099
0.39338642 0.59364092 0.43994156 -0.00026189 -0.00022603 -0.00094780
0.47967094 0.75705856 0.56783831 0.00037790 0.00040437 0.00082062
0.49753222 0.86878192 0.55303764 0.00035558 0.00029926 0.00133573
0.41342181 0.32132152 0.43713465 -0.00046297 0.00001535 -0.00108617
0.62332648 0.25148576 0.47722360 0.00104463 -0.00019455 -0.00008589
0.61949110 0.45572561 0.53770864 0.00106152 0.00013729 0.00016644
0.38286984 0.53699666 0.47920385 -0.00087843 -0.00001651 -0.00017675
0.46189794 0.89411342 0.54129624 -0.00055330 0.00088007 0.00118140
0.35604140 0.04545454 0.53122985 -0.00120916 -0.00128584 0.00018218
0.61697340 0.26126900 0.44455838 0.00104443 -0.00013605 -0.00047095
0.51850367 0.17803876 0.42093009 -0.00001441 0.00008282 -0.00083006
0.53766692 0.66572994 0.42060834 -0.00013396 0.00010370 -0.00112432
0.47921985 0.79383665 0.56447411 0.00064264 0.00034695 0.00085117
0.44854844 0.86380434 0.54797208 -0.00028385 0.00077601 0.00110820
0.42806756 0.85228449 0.46062109 -0.00037381 0.00096869 -0.00089248
0.41455984 0.31518114 0.56332183 -0.00047705 0.00004916 0.00107107
0.39049888 0.28554770 0.45591447 -0.00111579 0.00006394 -0.00067701
0.36730325 0.75535995 0.47787249 -0.00136946 0.00041312 -0.00024594
0.35860536 0.13539533 0.47452959 -0.00139081 0.00036115 -0.00032786
0.58987498 0.68386227 0.47697815 0.00078202 0.00090770 -0.00010354
