0.166739 -0.030411 0.228972 
0.093913 -0.453465 -0.137487 
0.022325 -0.403841 0.228877 
0.044999 -0.333304 0.053184 
0.150667 0.203175 0.032268 
0.099478 0.254668 -0.045947 
0.077379 -0.450600 0.119231 
0.204702 -0.451126 -0.107075 
-0.196275 0.046255 0.127258 
-0.109330 -0.216674 -0.281572 
-0.003796 0.461037 -0.091922 
-0.027735 -0.446770 -0.254054 
-0.118140 0.087561 -0.347051 
-0.042707 -0.364494 -0.011104 
-0.081823 -0.224281 0.170242 
-0.046104 0.111416 0.223258 
-0.275297 0.424668 -0.088898 
0.047412 0.347463 -0.078478 
-0.094424 0.399488 -0.271205 
0.031393 -0.150244 0.099575 
-0.038825 0.401487 0.081978 
0.074449 -0.399709 -0.036431 
-0.295693 0.358152 -0.134110 
0.026320 0.455725 0.005541 
0.259048 -0.102251 0.195432 
0.039911 -0.120454 0.121441 
-0.015582 -0.351742 -0.210718 
-0.064643 0.448384 -0.114988 
-0.140614 -0.289096 0.048691 
-0.129724 0.030279 0.216498 
-0.144656 -0.238942 0.157996 
-0.134977 -0.181232 0.213075 
-0.269653 0.179203 -0.064803 
-0.029227 0.015966 -0.125271 
-0.069512 0.399566 0.088721 
-0.277752 0.159664 -0.087295 
-0.283991 0.095374 -0.168711 
0.196268 -0.404557 0.224749 
0.054005 -0.445510 0.120534 
0.137130 -0.443747 -0.249626 
0.119550 -0.456240 0.000900 
0.052667 0.018033 0.197932 
-0.218999 -0.246411 -0.192439 
0.162357 -0.184209 0.159504 
0.042407 0.190295 0.185975 
0.071184 0.266411 -0.098891 
-0.262060 -0.104971 -0.174568 
-0.269736 0.119849 -0.056965 
0.005397 -0.224571 0.106411 
-0.163663 0.136528 -0.334211 
0.024851 0.326180 0.099772 
-0.066999 -0.250844 0.313498 
-0.252730 0.201171 -0.018878 
-0.069238 0.398994 -0.281102 
-0.061017 -0.153731 -0.210268 
-0.210304 -0.252639 -0.172707 
-0.148093 -0.004518 0.208820 
-0.015407 -0.012669 -0.057985 
-0.268139 -0.000980 -0.092788 
-0.112866 -0.406300 -0.227163 
0.008662 0.173520 -0.226100 
-0.150873 -0.366511 -0.233327 
0.041950 -0.083376 0.218575 
0.065421 -0.424337 0.274611 
-0.145241 -0.160391 0.214532 
0.144576 0.226299 0.052805 
0.011216 -0.404797 0.248431 
-0.019079 -0.317108 0.205627 
-0.209120 -0.031326 0.119213 
0.056357 -0.459263 -0.252707 
-0.044915 -0.227825 -0.165883 
0.094497 -0.067614 0.154984 
-0.029564 -0.168768 0.315384 
-0.012155 0.354643 -0.230165 
-0.124047 0.111491 0.188380 
0.278105 -0.434652 -0.110149 
0.064927 -0.384680 -0.253128 
-0.179325 -0.294161 -0.257388 
-0.218475 0.322717 -0.332690 
-0.247141 -0.134427 -0.237814 
-0.261872 -0.008996 -0.252550 
0.022958 0.387329 -0.173921 
0.050803 0.354058 -0.057059 
0.001742 -0.415949 -0.030508 
0.051881 -0.124738 0.168824 
0.075979 0.279914 -0.077474 
-0.008315 0.141615 0.208233 
0.026516 -0.418904 -0.034082 
0.129012 0.158657 -0.038851 
-0.301451 0.269021 -0.185794 
-0.169676 -0.312940 -0.259001 
0.099757 0.203995 0.168873 
0.017119 -0.382562 -0.149147 
-0.233159 0.427947 -0.129371 
0.029723 0.456066 -0.016827 
-0.189310 0.093944 -0.330160 
-0.193515 -0.102455 0.149102 
-0.038371 0.013947 -0.177203 
0.023461 -0.213331 0.166200 
0.188447 -0.448456 0.107154 
0.043876 0.275252 -0.136346 
-0.254138 -0.168806 -0.134128 
0.100848 0.233412 -0.056982 
0.152233 0.032608 0.217654 
0.130907 0.197876 0.154592 
-0.049556 0.429694 -0.183369 
-0.222168 0.390349 -0.260572 
0.053165 -0.264286 0.320150 
-0.104809 -0.254471 0.166556 
-0.049723 -0.339784 0.235885 
0.113954 -0.388644 -0.147439 
-0.075160 -0.275940 0.295723 
-0.111470 -0.379245 -0.277167 
0.004172 -0.331903 0.353664 
-0.273501 0.040737 -0.234770 
0.073414 -0.449612 0.012190 
-0.250659 0.429922 -0.116958 
0.284747 -0.184924 0.198358 
0.214474 -0.019877 0.085212 
0.207611 0.056297 0.137974 
0.111199 -0.048999 0.076529 
-0.251659 -0.187396 -0.173573 
-0.058692 -0.425251 0.082842 
0.047011 -0.382865 0.204514 
0.217585 -0.156121 0.125719 
-0.173685 0.051457 0.160788 
0.051286 -0.147454 0.209534 
-0.030525 -0.271939 0.344043 
0.119494 -0.117915 0.151714 
0.118921 -0.449899 -0.145950 
0.025856 0.346171 0.084889 
-0.287229 0.242161 -0.115506 
-0.011322 -0.430150 -0.207454 
0.033510 0.257351 0.148644 
-0.276349 0.182546 -0.085182 
-0.295991 0.336037 -0.132484 
0.082149 -0.470575 0.077531 
0.111907 -0.373629 0.088235 
-0.108365 -0.376774 -0.045566 
-0.006004 0.053362 -0.131123 
-0.033353 -0.188373 -0.106918 
-0.238758 0.433909 -0.014163 
-0.136134 0.264341 -0.343656 
-0.072828 -0.050400 0.276916 
-0.176467 -0.250595 -0.273635 
0.027405 0.083630 -0.125886 
-0.187340 -0.125190 0.158962 
-0.063520 0.348638 0.103430 
-0.229291 0.422023 -0.150742 
-0.224552 -0.001621 0.085431 
0.137798 -0.392730 -0.144261 
0.015619 -0.017550 0.247694 
-0.056877 -0.309487 -0.135992 
0.166469 0.046064 0.204622 
-0.046986 0.243190 -0.301520 
-0.161278 -0.220653 0.155975 
-0.045493 -0.284481 0.009159 
-0.297663 0.268409 -0.212512 
0.049145 -0.170536 0.212230 
-0.009407 -0.087756 0.005150 
0.055716 -0.402667 0.301579 
-0.246112 0.026161 -0.283493 
0.225810 -0.249362 0.212104 
0.204800 -0.226078 0.179374 
-0.027023 0.381693 0.085988 
-0.242551 -0.094151 0.021419 
0.033725 -0.365966 -0.135060 
0.001405 -0.366258 -0.207748 
0.064836 -0.260769 0.253444 
-0.310995 0.319059 -0.234464 
0.146374 -0.474706 0.207175 
-0.201476 -0.050187 0.133371 
-0.180599 0.457617 0.047215 
-0.131782 0.370456 -0.355700 
0.158807 -0.210228 0.215711 
-0.261360 -0.098642 -0.092340 
0.223974 -0.482890 0.067275 
0.043633 -0.315250 0.072026 
-0.298809 0.249703 -0.162340 
-0.012196 -0.317043 0.354291 
0.062414 0.105174 -0.102220 
-0.024210 0.493851 0.026146 
-0.217794 0.207523 0.041562 
0.020746 -0.039071 0.017161 
-0.135634 0.150841 -0.341028 
-0.043732 -0.167967 -0.131242 
0.134538 -0.124444 0.137573 
-0.123464 -0.327431 -0.125688 
-0.031155 0.045393 -0.226381 
-0.048810 -0.137281 -0.094601 
0.132608 -0.428315 -0.264999 
-0.296610 0.340299 -0.285142 
-0.091348 -0.271008 0.011588 
-0.098020 -0.169231 -0.285110 
-0.140162 0.241321 -0.339472 
-0.197777 -0.229070 0.088028 
0.062592 0.128199 0.210189 
0.164042 -0.202923 0.179129 
-0.194629 0.238610 -0.330349 
0.195167 -0.175655 0.134415 
0.255979 -0.424139 -0.081315 
-0.088186 -0.259273 -0.170721 
0.159556 -0.374532 0.281795 
0.014469 0.444714 -0.153266 
0.020377 -0.445889 -0.092820 
-0.279054 0.323111 -0.283187 
0.237659 -0.036666 0.149723 
0.228191 -0.373922 -0.109367 
-0.054849 -0.421252 0.060725 
0.027830 0.417967 0.024333 
-0.147757 -0.027812 0.215069 
-0.285259 0.286976 -0.102763 
0.020253 -0.385622 0.215653 
0.075784 0.124875 -0.099289 
0.212540 -0.442207 0.180456 
-0.142470 0.301989 0.106350 
-0.032285 -0.231625 -0.139645 
0.045387 -0.048474 0.039781 
-0.054314 -0.309388 0.014741 
0.167134 -0.051791 0.075452 
-0.073735 -0.292181 -0.133909 
-0.063355 -0.270735 -0.234361 
0.094267 0.279600 -0.033843 
0.198754 -0.408872 0.072870 
0.024305 0.201867 0.181451 
-0.134728 0.127071 -0.341911 
0.021943 0.278863 -0.176854 
0.174501 -0.230612 0.219225 
0.031770 -0.203970 0.146432 
-0.270689 0.114729 -0.247808 
-0.130096 0.308813 -0.349972 
0.038640 0.403713 -0.012696 
0.180075 -0.374282 -0.114830 
0.218653 -0.426111 0.227359 
0.019589 -0.346511 0.161310 
-0.273236 0.390431 -0.243620 
0.070197 -0.446330 -0.142146 
0.154655 -0.055196 0.231724 
0.103457 0.287878 0.059035 
-0.232615 0.228474 -0.302379 
-0.066567 0.472706 -0.031786 
0.122312 0.158884 0.184574 
0.138552 -0.450157 -0.007297 
-0.178603 0.432270 -0.132510 
-0.229910 -0.178193 0.054422 
-0.143654 -0.297355 0.069994 
0.292915 -0.486148 0.015915 
-0.210851 0.313389 0.040664 
-0.078907 0.075820 -0.334072 
-0.193035 -0.264003 -0.165478 
0.006057 -0.226795 0.168706 
0.067829 0.284298 0.119485 
-0.080357 -0.306148 -0.278882 
-0.008856 0.054229 0.239527 
-0.305127 0.300271 -0.225159 
0.002451 -0.152828 0.304936 
-0.017731 0.079254 0.233975 
-0.007967 -0.028424 -0.033212 
-0.021327 0.228701 -0.276387 
0.123813 -0.392589 -0.051409 
-0.087794 -0.128713 0.290725 
-0.247448 -0.078591 -0.265947 
0.122002 0.260700 0.067277 
-0.074068 -0.004260 0.259282 
0.162545 -0.479625 0.226447 
0.052014 -0.001198 -0.017208 
-0.233126 -0.232866 -0.095957 
-0.243476 0.069516 -0.287031 
0.007689 0.474008 -0.051620 
-0.083307 0.187089 -0.337632 
-0.178499 0.193513 -0.331119 
-0.187226 0.071354 0.134357 
-0.182437 -0.309191 -0.199217 
0.003124 0.382399 0.073536 
-0.091852 -0.325534 -0.002875 
-0.014374 0.475391 -0.039730 
-0.237481 -0.048769 0.057474 
-0.050683 -0.099120 -0.083069 
-0.222516 0.114353 -0.307816 
-0.097971 -0.413647 -0.242333 
-0.015216 0.072015 -0.209291 
-0.103189 -0.219224 0.263487 
0.203502 -0.416800 0.201339 
0.305933 -0.450566 -0.024209 
0.084753 -0.433449 -0.292415 
-0.021242 -0.365521 -0.193730 
0.002943 0.464389 0.037812 
0.071350 -0.330405 0.227335 
-0.049967 -0.148802 0.308290 
-0.117640 0.481505 0.014701 
-0.072588 0.213529 0.160782 
0.165912 -0.446883 -0.155264 
-0.113468 0.401078 -0.259591 
0.062422 -0.077353 0.117571 
0.026121 -0.204638 0.120480 
-0.221981 0.145835 -0.307488 
-0.268543 0.170181 -0.251153 
-0.028806 -0.030747 -0.063618 
0.134634 -0.095705 0.111113 
-0.106447 0.185703 -0.341353 
-0.061011 0.343454 -0.306936 
0.158195 -0.414505 -0.162715 
-0.103887 -0.302798 0.159735 
-0.111658 -0.078195 -0.304673 
0.194769 -0.449400 -0.148201 
0.124343 0.225503 0.137029 
0.040681 -0.383855 0.159270 
-0.245254 -0.103512 -0.259762 
-0.008120 -0.255992 0.133103 
0.124631 0.225386 -0.013465 
-0.254316 0.409857 -0.039211 
-0.216669 0.300566 -0.331049 
-0.037415 -0.270892 -0.046868 
-0.088310 -0.089589 -0.284626 
0.068847 -0.043529 0.038818 
-0.031221 0.080480 -0.278683 
-0.053615 -0.290918 0.206002 
-0.047207 -0.386767 0.155022 
0.021378 -0.445848 0.102652 
-0.131528 0.443231 -0.110666 
0.043014 0.212554 0.175146 
-0.263519 -0.087921 -0.111717 
0.158506 -0.432404 0.288058 
-0.031535 -0.293510 0.199863 
-0.120149 -0.196167 0.236013 
0.131924 -0.438131 -0.229426 
-0.023187 -0.257669 -0.029440 
-0.173276 -0.277145 -0.270320 
-0.124311 -0.108933 0.263174 
-0.080532 -0.241325 -0.241452 
0.159971 0.120990 0.006932 
-0.113301 -0.319432 0.143291 
-0.077503 -0.322931 0.024159 
-0.005947 -0.180379 0.021227 
-0.016502 0.048848 -0.149840 
-0.076299 -0.080303 0.286223 
0.184829 0.049567 0.040508 
-0.220288 0.445861 -0.072772 
0.133016 -0.412854 -0.158589 
0.221040 0.013683 0.132764 
0.022180 -0.165762 0.083856 
0.256067 -0.256400 0.253398 
-0.064361 0.419714 0.083481 
-0.093642 0.238159 -0.331895 
-0.147159 0.484539 0.034618 
-0.254005 -0.181147 -0.104533 
-0.022586 0.254457 -0.268191 
0.106921 -0.398577 -0.265257 
0.123571 0.063300 0.219433 
0.071499 -0.346130 0.334717 
0.067405 -0.059594 0.145991 
-0.050205 -0.008852 -0.205496 
0.123367 -0.093122 0.208285 
0.145410 0.144988 0.178780 
-0.109342 -0.114753 0.277196 
-0.099605 -0.037797 0.267314 
-0.253737 -0.196548 -0.084690 
-0.014256 -0.408037 -0.296093 
0.015277 -0.357098 -0.129449 
0.103615 0.125487 -0.065333 
0.213685 -0.399584 -0.062251 
-0.113131 -0.346993 0.086156 
-0.047908 -0.344979 0.167634 
0.079673 -0.399983 0.311296 
-0.129280 -0.301007 0.137267 
-0.276222 0.033961 -0.127231 
0.122746 -0.365238 -0.099874 
0.033354 0.075495 -0.106469 
0.059243 -0.316921 0.239356 
-0.074327 0.150591 0.193272 
0.031656 -0.340575 -0.054525 
-0.191212 0.454648 -0.052419 
0.200988 -0.115178 0.108164 
-0.181017 0.174184 0.104679 
0.022900 0.182476 0.190534 
0.252434 -0.107053 0.129467 
0.012536 0.017016 -0.056707 
-0.269282 -0.028049 -0.132950 
0.109453 -0.469854 0.013887 
-0.095095 -0.009087 0.255598 
0.041645 -0.430482 -0.049811 
-0.210511 0.097576 -0.318594 
0.132893 -0.381533 0.092370 
-0.291393 0.269385 -0.234338 
0.060502 -0.287934 0.324479 
-0.227926 0.403593 -0.213720 
0.000556 -0.129223 0.043706 
-0.077143 -0.107696 0.292904 
0.094862 -0.455320 -0.233185 
-0.122511 -0.288995 -0.161756 
-0.261614 -0.108991 -0.112142 
0.040577 -0.457310 0.088350 
0.187242 -0.103864 0.247008 
-0.273122 0.311325 -0.074795 
-0.048592 -0.070683 -0.098372 
0.010291 0.154310 0.202882 
0.044781 -0.301186 0.218099 
-0.063606 -0.251676 -0.159860 
-0.187122 0.404302 -0.224609 
-0.080434 -0.134055 -0.244554 
-0.043334 -0.341809 -0.008749 
-0.227730 0.435227 -0.106438 
-0.028286 -0.299002 0.348444 
0.285159 -0.192040 0.223290 
-0.209135 -0.096890 0.129061 
-0.061830 -0.393887 0.041786 
-0.003034 -0.074390 0.022350 
-0.257291 0.104446 -0.269982 
0.095002 0.295286 -0.011754 
-0.096710 0.073974 0.223901 
0.027104 0.405468 0.041787 
0.183525 -0.407097 0.015877 
0.025221 -0.194837 0.096356 
-0.050335 -0.052654 -0.112940 
0.048677 -0.249492 0.209506 
0.029623 -0.458305 0.066452 
-0.006834 -0.428062 -0.045833 
0.186609 -0.022038 0.218425 
-0.310332 0.377386 -0.188474 
-0.214461 0.229953 -0.318915 
0.252479 -0.432822 -0.150454 
0.170223 0.023619 0.210977 
0.139298 0.223488 0.108772 
0.043968 0.289777 0.121903 
0.008676 -0.435502 0.117323 
-0.221597 -0.200778 0.058533 
-0.010150 -0.249374 0.010377 
0.057742 -0.026773 0.185043 
0.114262 -0.447717 0.268052 
-0.182567 0.125014 0.122284 
-0.172746 -0.267449 -0.157873 
0.025545 0.225651 -0.193607 
-0.081681 0.265037 -0.323599 
0.146726 -0.373749 0.229724 
0.011878 -0.371929 0.322394 
0.166013 -0.087550 0.239958 
0.159257 0.193361 0.049678 
-0.058519 -0.068093 0.286439 
-0.059654 -0.234553 0.170848 
-0.097192 -0.346099 -0.133813 
0.147701 0.166327 0.161668 
-0.152909 0.389981 0.082542 
-0.166121 -0.238861 0.142804 
0.005828 -0.308275 -0.100418 
-0.039488 -0.001597 -0.135952 
0.102229 -0.477093 0.033372 
-0.236892 0.200523 -0.297188 
-0.107674 -0.212402 0.195483 
-0.015851 -0.252526 -0.060196 
-0.229260 -0.218378 -0.005965 
-0.071397 0.243602 -0.324829 
0.039923 -0.144137 0.121964 
-0.038342 0.226351 0.161507 
0.224139 -0.444337 -0.033168 
0.038702 -0.353118 0.035418 
-0.139700 -0.273956 0.145774 
-0.001977 -0.254400 0.098881 
0.217918 -0.178711 0.250880 
0.004955 -0.097789 0.284572 
-0.000264 0.068026 -0.147487 
-0.250357 -0.038317 -0.010916 
-0.048978 -0.344889 -0.276095 
-0.235143 0.289488 -0.317417 
-0.054154 0.039572 0.250221 
0.062377 -0.366783 0.333269 
-0.247699 0.394514 -0.021044 
-0.261989 -0.099218 -0.198381 
-0.230216 0.199273 0.023797 
0.113504 -0.429157 -0.159687 
-0.208339 0.157166 0.072914 
-0.204791 0.230729 0.057377 
0.126854 0.126714 -0.037803 
-0.072143 -0.334313 -0.139800 
0.038635 0.384701 -0.071960 
-0.296834 0.288027 -0.242868 
0.131596 -0.440593 0.283334 
-0.272249 0.372819 -0.079504 
0.005048 -0.096481 0.040386 
-0.104009 0.418997 0.086458 
-0.026491 0.040491 -0.167066 
-0.285698 0.265922 -0.106774 
-0.251199 -0.162769 -0.210141 
0.171933 0.166611 0.067595 
0.224409 -0.219420 0.162613 
0.074609 0.153636 -0.114807 
-0.249924 0.050385 -0.278915 
0.162615 0.141825 0.015252 
-0.077641 0.160786 -0.338582 
-0.091155 -0.415086 -0.219620 
0.236319 -0.450498 0.224662 
0.011873 0.389330 -0.191944 
0.172372 -0.213389 0.236945 
-0.269504 -0.044098 -0.157712 
-0.095544 -0.111467 -0.281292 
0.029741 -0.297964 0.067502 
0.252337 -0.176992 0.144594 
0.083636 -0.429448 -0.156874 
0.083862 -0.005058 0.197624 
-0.261249 0.209707 -0.272179 
-0.038333 -0.028139 0.272584 
-0.055287 -0.030324 -0.204696 
-0.252616 -0.158393 -0.042274 
0.030359 -0.069176 0.062856 
0.235761 -0.380702 -0.087104 
-0.014359 0.090303 -0.239108 
0.077550 -0.388977 0.196521 
0.072757 -0.454002 -0.273179 
-0.019125 0.168748 -0.284284 
-0.234783 -0.137280 0.077482 
-0.115579 0.439798 -0.127503 
-0.059204 -0.424354 -0.114327 
-0.176252 0.110683 -0.332627 
0.029342 0.300120 -0.156700 
-0.216801 0.261037 0.031265 
-0.095584 -0.299309 0.023226 
-0.045712 -0.417482 -0.037766 
-0.107458 -0.010609 -0.323813 
0.256533 -0.086099 0.179686 
0.141956 -0.439260 -0.065318 
-0.027178 0.045019 -0.203968 
-0.194738 -0.176853 -0.285473 
0.033997 -0.347741 -0.087105 
-0.145286 0.379070 -0.323940 
-0.144836 0.399719 -0.253966 
0.015744 -0.444809 -0.118030 
0.040273 0.389939 0.027844 
-0.115098 0.421570 -0.189550 
-0.126201 -0.087555 0.258286 
-0.072363 -0.388808 -0.031617 
-0.038978 0.139644 -0.312794 
0.005076 -0.274604 0.136474 
-0.145425 0.477167 0.009072 
-0.283035 0.143980 -0.108647 
-0.052689 -0.353675 0.259913 
0.016236 0.269932 0.140414 
0.035329 -0.256024 0.330659 
0.018632 -0.310246 0.354692 
-0.210866 -0.257802 -0.209355 
-0.259682 -0.027171 -0.054050 
-0.026724 0.430717 -0.187351 
-0.257954 -0.138068 -0.165131 
-0.191680 -0.168236 0.157658 
-0.310371 0.350795 -0.192098 
0.080164 0.245471 0.148269 
-0.066841 0.007071 -0.297509 
-0.121712 0.406994 -0.236852 
0.002370 -0.404447 0.021361 
-0.258277 0.174175 -0.269804 
-0.248545 0.415605 -0.166229 
-0.092206 -0.070240 -0.294720 
-0.005741 -0.316048 0.162550 
-0.069200 -0.248634 -0.181420 
-0.110967 -0.101809 -0.297390 
-0.085219 0.290968 -0.329331 
-0.067348 -0.370594 -0.016864 
-0.289042 0.350631 -0.114623 
0.057277 -0.455808 -0.113000 
-0.091642 0.319379 -0.335251 
0.097648 -0.050870 0.058349 
0.236299 -0.191049 0.251256 
-0.135153 -0.183513 -0.292914 
-0.094577 -0.326167 0.156668 
0.081920 0.192009 0.178501 
0.110302 -0.398551 0.135156 
0.062417 -0.005755 0.184017 
0.073250 -0.439525 0.247478 
0.046734 -0.450212 -0.287364 
-0.089368 -0.345369 0.036970 
-0.082872 -0.396007 -0.189997 
-0.006586 -0.420504 0.140139 
-0.039931 0.356927 0.098388 
-0.249466 0.054387 0.008579 
-0.045867 -0.405035 -0.141667 
-0.004905 -0.371837 0.020692 
-0.130684 0.433868 -0.142723 
-0.057254 -0.097892 0.295416 
0.059693 0.303259 -0.090883 
0.131088 -0.416119 -0.243625 
0.288124 -0.214014 0.227613 
-0.245390 0.167237 -0.285329 
-0.199968 0.344720 0.053301 
-0.248335 -0.145831 -0.025056 
0.117672 0.024815 -0.006741 
-0.151421 0.386209 -0.297705 
-0.022050 -0.396051 0.158652 
-0.134331 0.006768 0.220986 
-0.089033 -0.387326 -0.283539 
-0.112862 0.429153 -0.164540 
-0.014143 -0.446009 0.077571 
0.156740 -0.474824 0.094530 
-0.003005 -0.172701 0.313343 
0.080520 -0.447376 -0.074183 
0.232209 -0.419471 0.079028 
-0.275787 0.071937 -0.223720 
-0.257946 0.317797 -0.040731 
-0.241654 0.248211 -0.007779 
0.173229 -0.070656 0.085053 
0.172076 -0.448427 -0.073691 
0.226809 -0.465383 -0.029836 
0.063606 -0.275179 0.304374 
0.132963 -0.051557 0.076072 
0.108790 -0.335807 0.252790 
0.246288 -0.374801 -0.120617 
0.052359 0.367932 -0.033728 
0.208634 -0.408481 0.001938 
-0.195277 -0.123474 -0.297797 
0.071471 0.038705 0.210975 
-0.169110 0.036521 -0.339991 
0.170181 -0.434136 0.112677 
0.075976 0.330529 -0.013687 
-0.244532 0.096518 -0.285640 
-0.054736 0.176119 0.184493 
-0.116570 0.354148 -0.348953 
0.033185 0.306032 0.112051 
0.144450 -0.013317 0.228179 
-0.220038 -0.235090 -0.130335 
0.009863 -0.179166 0.058814 
-0.022913 -0.341709 -0.015470 
0.060824 -0.418681 -0.157780 
0.034092 0.436326 -0.095422 
0.099543 -0.456975 -0.097017 
-0.059149 -0.300476 0.314076 
-0.083592 0.368681 0.097609 
0.221700 -0.469007 0.089219 
0.023342 -0.327141 -0.080949 
-0.230357 0.176958 -0.299881 
0.284919 -0.421981 0.036799 
-0.088455 0.393750 -0.292652 
0.269987 -0.242106 0.213688 
0.259509 -0.382014 -0.093726 
-0.093724 0.268704 0.133893 
0.006471 -0.269976 0.067683 
-0.082997 -0.299506 0.166859 
-0.064847 0.052227 -0.317335 
0.153608 0.208267 0.063862 
0.147029 -0.188500 0.185660 
0.010146 -0.429259 -0.203911 
-0.073323 -0.184081 -0.258968 
0.056999 0.365688 -0.002603 
-0.000855 0.032679 -0.088827 
0.243869 -0.229124 0.172132 
-0.049272 0.470735 -0.044121 
0.163716 -0.460009 -0.133487 
0.157866 -0.393662 -0.151345 
0.036965 -0.374125 0.325502 
-0.191911 -0.296579 -0.218291 
-0.277159 0.396850 -0.220526 
0.188991 0.002670 0.059114 
0.056898 0.119788 -0.119897 
-0.210126 -0.100948 -0.297907 
-0.050525 0.051117 -0.299573 
-0.030860 0.052544 0.245504 
-0.266958 0.351080 -0.299864 
-0.167303 -0.280411 -0.124832 
0.116622 0.166906 -0.057704 
-0.253453 0.041811 -0.008072 
-0.144701 -0.286135 0.127284 
0.099046 0.297296 0.028812 
0.209036 0.020262 0.176081 
0.043621 -0.307218 0.092469 
-0.267383 -0.061368 -0.184124 
-0.006724 -0.363908 0.167771 
-0.122213 -0.355582 -0.279621 
-0.259360 0.128785 -0.265231 
0.201722 -0.209553 0.160298 
-0.258452 -0.108786 -0.073644 
-0.244665 -0.211891 -0.101729 
-0.068058 -0.307588 0.295490 
-0.008765 -0.365359 -0.281835 
0.137745 -0.423920 0.297012 
-0.093011 0.444458 -0.119079 
-0.038166 -0.320482 -0.136482 
0.026023 -0.328523 0.033154 
0.294175 -0.424589 0.007255 
0.170716 0.043591 0.024688 
-0.202728 -0.225547 0.065981 
0.173883 0.093699 0.178522 
-0.243052 -0.069458 0.025691 
0.117258 -0.420789 0.133776 
-0.066689 0.192925 0.170849 
-0.219069 -0.206250 0.080050 
-0.252561 0.181201 -0.009849 
-0.195113 -0.254198 -0.014349 
-0.172721 -0.303580 -0.085987 
0.135268 0.238650 0.084775 
0.114768 -0.369304 -0.124197 
-0.193109 -0.280918 -0.085023 
0.062901 -0.242372 0.278054 
-0.097644 -0.245346 0.263387 
-0.046658 -0.436670 -0.261644 
0.057929 -0.387797 0.317976 
-0.150706 -0.282061 -0.008957 
0.030677 -0.438539 -0.295892 
-0.096784 -0.197964 -0.280273 
0.172483 -0.384786 0.240392 
-0.313346 0.343049 -0.262879 
-0.065777 -0.278048 0.009870 
-0.140602 -0.274037 -0.283251 
0.020347 0.350171 -0.174105 
0.091137 -0.450112 0.225410 
0.082685 -0.446499 -0.218113 
0.202776 -0.442880 0.264299 
-0.012497 -0.349792 -0.242064 
0.001889 0.480825 -0.026605 
0.171590 0.152769 0.043099 
-0.066902 -0.294902 -0.266961 
-0.013811 -0.285113 -0.050303 
-0.087285 -0.215377 -0.269022 
-0.280136 0.376488 -0.099612 
-0.115186 0.415290 -0.210826 
-0.166094 -0.331458 -0.245983 
-0.205249 0.028222 0.115505 
-0.263635 -0.005100 -0.064442 
-0.201130 0.441092 0.035113 
-0.197340 0.086333 0.116931 
-0.070499 0.218934 -0.327198 
-0.037683 0.424235 -0.205755 
-0.068597 -0.054004 -0.265047 
0.093621 0.049552 -0.040183 
-0.013190 -0.431075 0.117396 
0.173841 0.097715 0.028330 
0.119549 -0.423212 -0.049488 
-0.206324 0.178440 0.068751 
-0.249566 0.191115 -0.282683 
-0.079590 -0.254730 0.294760 
0.018162 -0.329722 -0.101588 
0.080090 0.223622 -0.103415 
-0.121279 -0.157125 0.259850 
-0.108050 0.046444 0.229559 
-0.147244 0.045426 -0.344583 
-0.003315 0.093953 -0.208560 
-0.282835 0.180753 -0.208321 
-0.044920 0.203335 -0.313842 
0.087134 -0.331095 0.323903 
0.004559 -0.455305 -0.266860 
-0.050167 -0.115054 -0.069036 
-0.212896 -0.192455 0.130548 
-0.291982 0.224205 -0.175782 
-0.071708 -0.078534 -0.258093 
0.222634 -0.228618 0.283156 
-0.047273 0.305621 -0.285216 
-0.037614 -0.292807 0.166435 
0.219101 -0.374585 -0.129558 
0.037618 -0.380652 0.026704 
0.066843 -0.359047 0.084576 
-0.091158 0.247305 0.144033 
0.181998 -0.422312 -0.165247 
0.037858 0.350567 -0.121934 
0.213242 -0.423214 0.091109 
-0.056906 0.317525 -0.299839 
0.199365 0.010308 0.193834 
0.132606 0.129379 0.195492 
-0.007634 -0.304241 -0.116381 
-0.307475 0.374930 -0.272794 
0.282462 -0.419729 -0.088124 
-0.100485 0.103171 0.209110 
0.171652 0.012676 0.044717 
0.032236 0.020799 0.224200 
-0.033624 0.171977 0.191366 
0.160917 -0.474594 0.180709 
-0.098220 -0.346083 -0.287039 
0.108206 0.152770 -0.071093 
-0.020447 0.055074 -0.181487 
0.221145 -0.177900 0.134085 
0.270474 -0.411347 -0.164555 
0.283909 -0.424386 -0.148214 
0.246831 -0.256217 0.229498 
-0.034503 0.027730 0.253519 
-0.021390 -0.199633 0.325659 
0.026980 -0.171544 0.292470 
0.245816 -0.057230 0.151431 
-0.026983 -0.222200 0.332393 
-0.306582 0.314130 -0.162624 
-0.115463 -0.277775 -0.137350 
0.203456 -0.243443 0.208960 
-0.070229 -0.138710 -0.222757 
0.168061 0.076747 0.190827 
0.240379 -0.398530 -0.165240 
-0.108309 0.167643 0.167420 
0.111834 0.044930 -0.023162 
-0.056937 -0.287545 -0.198871 
-0.245440 0.370276 -0.013699 
0.217597 -0.001942 0.096787 
-0.173687 -0.304251 -0.063645 
-0.175542 0.078089 -0.337283 
0.116160 0.270484 0.048812 
0.005726 0.340980 0.094348 
-0.077685 -0.304991 0.265319 
0.015590 -0.027139 -0.003522 
0.220922 -0.237790 0.189188 
0.230990 -0.097459 0.228715 
-0.207605 0.287490 0.045552 
-0.073958 -0.013282 -0.297135 
-0.064217 -0.216153 0.315752 
-0.016690 -0.197293 -0.036311 
-0.085066 -0.278217 0.273457 
0.088291 -0.389188 -0.261621 
0.051018 -0.356549 -0.048809 
-0.200224 -0.274095 -0.234571 
-0.283451 0.166462 -0.112688 
0.278705 -0.441128 -0.037463 
0.042383 -0.413429 0.277414 
-0.126687 0.148612 0.166287 
-0.087198 -0.268237 0.225892 
0.224408 -0.068704 0.103157 
-0.161036 -0.317238 -0.051550 
-0.237254 -0.219912 -0.121036 
-0.187865 0.324205 -0.342597 
0.036510 0.409214 -0.075521 
-0.213257 0.011019 0.105642 
0.221541 -0.462676 0.177510 
0.034906 0.068393 0.215070 
0.205944 -0.412867 0.244405 
-0.027597 -0.271595 0.018055 
0.098645 -0.380595 0.131125 
0.170346 -0.495191 0.040574 
-0.193266 0.065584 -0.330860 
0.160411 -0.444666 -0.014427 
-0.155037 0.192300 -0.336662 
-0.026002 -0.199947 -0.079439 
0.193879 -0.192510 0.148596 
-0.067103 -0.411176 0.108366 
-0.079504 -0.391106 0.113911 
-0.155849 0.101624 0.165270 
-0.292711 0.264282 -0.127652 
-0.281251 0.111065 -0.214438 
0.048177 -0.138618 0.229034 
-0.066970 -0.106453 -0.168547 
0.234248 -0.259665 0.254553 
0.043214 0.175135 -0.151578 
-0.026628 0.336447 -0.254889 
0.212609 -0.086162 0.101210 
-0.286942 0.134787 -0.166402 
-0.103339 -0.356281 -0.176655 
0.169800 -0.191554 0.240461 
-0.114420 -0.189236 0.258011 
-0.054786 -0.065211 -0.158464 
0.012397 0.114617 -0.181392 
-0.126680 0.057195 -0.347239 
-0.066241 0.499701 0.059999 
0.260017 -0.379808 -0.138510 
-0.233920 -0.157675 0.070614 
0.096877 0.090917 0.218995 
0.073880 -0.420226 -0.042603 
0.103951 -0.087681 0.143286 
-0.046359 0.042845 -0.279599 
-0.220959 0.047405 0.083816 
0.132711 -0.458566 -0.131398 
-0.150779 -0.332683 -0.183001 
-0.244908 0.076397 0.021484 
0.041246 0.051307 -0.073995 
-0.007839 -0.435235 -0.128971 
-0.172675 0.386166 -0.290907 
0.118476 0.145573 -0.053231 
-0.212129 0.453552 -0.049310 
0.032969 -0.418957 0.145897 
-0.310363 0.399990 -0.199043 
0.092363 -0.036372 0.033378 
-0.217255 0.063284 -0.314966 
0.091449 -0.359094 -0.075062 
-0.062125 0.293686 -0.303996 
-0.276730 0.203696 -0.087088 
-0.243664 -0.216392 -0.053932 
0.313505 -0.473448 0.007814 
0.002496 0.089299 -0.183748 
-0.271954 -0.017064 -0.161650 
-0.037029 -0.424261 0.122725 
-0.003347 -0.292498 0.152716 
0.206422 -0.062707 0.223277 
-0.020596 -0.223818 -0.084017 
-0.001109 -0.334207 0.207986 
0.113471 -0.418833 -0.282330 
-0.208693 -0.165863 0.144397 
0.020389 0.246922 -0.183944 
-0.093661 0.349364 0.103255 
-0.314675 0.376697 -0.252016 
0.043373 -0.393394 -0.284789 
0.081209 -0.460296 -0.250235 
0.106413 0.212249 -0.058628 
-0.271472 0.148211 -0.063444 
-0.029607 -0.139609 0.306978 
-0.288574 0.153239 -0.150672 
0.183343 0.124035 0.053093 
0.107740 -0.099142 0.162423 
-0.086743 -0.371478 -0.025808 
0.075069 0.324798 0.066471 
0.268398 -0.438206 -0.131954 
-0.016668 -0.326413 -0.134968 
-0.173627 -0.167985 0.173394 
-0.114351 0.136524 0.182564 
-0.235289 0.045061 0.053183 
-0.258042 0.151349 -0.020491 
-0.219260 -0.152240 0.130513 
-0.049379 -0.263684 -0.118035 
0.097841 -0.411672 -0.158761 
-0.126896 -0.161776 -0.295636 
-0.010083 -0.358273 0.337153 
-0.048432 -0.031420 -0.114721 
0.082457 0.311415 -0.022003 
-0.259143 -0.087104 -0.069613 
0.046778 -0.197507 0.235183 
-0.251834 -0.095058 -0.028296 
-0.150678 0.362005 0.089824 
0.008264 -0.383680 0.303998 
0.290607 -0.460341 -0.038250 
-0.129147 0.453099 -0.077941 
-0.211249 0.085377 0.093600 
0.117395 0.217668 -0.035938 
-0.197601 0.384550 -0.288251 
0.186599 -0.241206 0.233922 
0.199858 -0.474934 0.241873 
0.110853 0.256488 -0.017542 
0.224188 -0.408076 0.059707 
-0.023562 -0.298483 0.012207 
-0.283130 0.203609 -0.210109 
0.204943 -0.152430 0.246202 
0.238888 -0.434152 -0.089726 
0.215395 -0.446310 -0.128117 
0.258328 -0.189120 0.243647 
-0.015770 0.482681 -0.014540 
-0.040297 -0.167683 -0.105590 
0.050311 -0.227916 0.294569 
-0.147849 -0.333906 -0.049192 
-0.137236 -0.217730 0.169278 
0.244041 -0.438138 0.084121 
-0.061018 -0.048770 -0.236360 
-0.232088 -0.161042 0.101497 
0.169376 -0.150985 0.134884 
0.007783 0.220447 -0.233728 
0.216886 0.016063 0.107858 
-0.009922 0.099297 0.223532 
0.122760 -0.070612 0.215841 
-0.027874 -0.225577 -0.118643 
-0.172415 0.374345 -0.331112 
0.007256 -0.200041 0.318939 
-0.068212 -0.323522 0.251440 
0.078479 -0.355560 -0.091621 
-0.157438 -0.275676 0.112388 
0.114387 -0.107647 0.184491 
0.047511 -0.075981 0.081192 
-0.265818 -0.072369 -0.126262 
-0.164949 0.438932 0.062928 
-0.091365 -0.319080 -0.137579 
0.139228 -0.129404 0.219130 
0.034672 -0.018452 0.230564 
-0.264846 0.149222 -0.255746 
0.042472 -0.208070 0.291562 
0.142053 -0.479912 0.079911 
-0.099876 -0.239145 -0.271950 
-0.274837 0.011913 -0.171600 
-0.061754 -0.266102 0.197518 
0.055394 0.147445 0.203529 
0.112313 0.097053 -0.045263 
0.084894 -0.423368 0.288120 
-0.053072 -0.400991 0.135878 
-0.080164 -0.224304 0.298931 
-0.025554 -0.388660 -0.291798 
-0.094270 -0.190531 0.282029 
-0.116206 0.030643 -0.339978 
-0.123019 -0.356708 -0.106535 
-0.046370 -0.401233 -0.192594 
0.195457 -0.455188 -0.126092 
0.063582 0.232763 -0.124877 
0.002298 -0.074656 0.277249 
0.052673 0.086632 -0.098220 
-0.044218 -0.123602 0.301930 
0.134512 -0.381323 0.068283 
-0.093602 0.427088 -0.177827 
-0.258492 -0.127638 -0.085613 
-0.029975 0.157315 -0.301381 
-0.068267 -0.235065 -0.224594 
0.046736 -0.443510 0.018008 
0.173022 -0.443716 0.277137 
-0.021401 0.006913 -0.093638 
-0.106810 0.335813 -0.343848 
0.137433 0.106284 -0.021693 
0.019262 -0.052440 0.036014 
-0.033764 -0.004155 -0.108730 
0.192906 0.075464 0.053507 
-0.066333 -0.323299 -0.178821 
-0.069819 0.368255 -0.319987 
-0.236679 0.073093 0.043922 
0.075466 0.078688 -0.067932 
-0.013163 -0.299410 -0.032912 
0.164411 0.143731 0.159632 
0.087124 -0.347711 0.214780 
-0.049009 0.280483 0.134710 
-0.028641 -0.263371 -0.073252 
-0.146297 0.340614 0.095242 
-0.273857 0.268087 -0.070716 
-0.264872 0.031658 -0.254614 
0.171433 -0.112357 0.107673 
0.002348 -0.344225 0.018369 
-0.166638 0.335794 -0.350601 
-0.261201 -0.061208 -0.068948 
0.184279 -0.403060 0.200000 
-0.026537 -0.135796 -0.008392 
0.083881 -0.474952 0.054938 
-0.092896 -0.300348 0.001977 
0.026897 0.321038 -0.160084 
-0.082835 0.001806 -0.313438 
-0.201331 -0.250398 -0.128708 
-0.000822 0.147884 -0.242454 
-0.268821 0.238502 -0.062376 
-0.077041 -0.410378 -0.106328 
0.178938 0.123878 0.153459 
-0.200556 0.002191 0.127184 
0.100018 -0.070599 0.180948 
-0.228951 0.030730 0.069731 
-0.032143 -0.282355 -0.027744 
0.154712 -0.190623 0.223469 
0.062331 -0.357699 -0.112479 
0.066533 -0.264148 0.280023 
0.015131 -0.110864 0.065313 
-0.072019 -0.427670 -0.240560 
0.180723 -0.485690 0.211793 
0.047347 0.025885 -0.045466 
0.028217 0.163159 -0.165954 
-0.277301 0.048287 -0.205043 
0.033203 0.400279 -0.141228 
-0.207683 -0.261672 -0.058595 
-0.077992 -0.030798 0.268140 
0.184996 -0.419689 -0.012562 
-0.089586 0.405872 -0.251148 
-0.127062 -0.017965 0.235296 
0.039455 -0.185478 0.138157 
-0.189969 -0.008141 0.149131 
-0.034734 -0.367730 0.166276 
0.074235 0.205668 -0.115341 
0.165736 -0.109627 0.243079 
-0.105537 0.445808 0.076568 
-0.010369 -0.241153 -0.039326 
-0.129198 -0.380768 -0.261328 
-0.035329 -0.098686 0.296119 
0.279421 -0.172857 0.177775 
0.049617 -0.102280 0.155157 
-0.206195 0.045351 -0.323783 
-0.256271 -0.013626 -0.034766 
-0.122598 0.268864 0.126779 
-0.090344 0.217220 -0.335458 
0.191598 -0.146990 0.123851 
-0.147998 0.437928 -0.123276 
0.013356 -0.357074 0.338526 
-0.177245 0.355178 -0.348412 
-0.127271 0.457243 0.070014 
0.000722 -0.222823 0.024325 
-0.002796 0.172765 0.193394 
-0.301561 0.368289 -0.153795 
0.018948 -0.289076 0.192704 
-0.154253 0.423674 0.073051 
-0.223083 -0.111580 -0.283432 
-0.071696 0.426445 -0.187154 
-0.032211 -0.112330 -0.025081 
0.111597 -0.075410 0.198222 
0.106574 0.276153 -0.004957 
-0.085695 0.301505 0.121933 
0.038576 0.093626 0.217144 
0.073899 -0.002716 -0.007105 
-0.042423 0.168584 -0.316579 
0.047862 -0.425638 0.252601 
0.048853 -0.034298 0.021203 
0.085045 -0.051256 0.166663 
-0.055958 0.078838 -0.318755 
-0.199039 0.276046 -0.336335 
-0.153843 0.419452 -0.184099 
-0.054714 0.487194 0.013480 
-0.033190 -0.202379 -0.129550 
-0.203429 0.418758 0.038185 
-0.075110 -0.397047 -0.126841 
0.237799 -0.199301 0.148109 
-0.174038 -0.248008 0.035388 
-0.008109 0.267097 0.141589 
-0.149213 -0.091177 0.228174 
-0.157428 -0.261250 -0.280602 
-0.218426 0.273418 -0.325740 
-0.026339 -0.440303 -0.226399 
-0.230215 -0.180917 0.028650 
-0.048314 -0.166275 -0.163702 
-0.112474 -0.289952 0.003531 
-0.179654 0.004421 0.164334 
-0.016806 -0.383291 -0.016633 
-0.090366 0.417870 -0.210190 
-0.279254 0.249074 -0.088538 
-0.068397 0.263776 0.139765 
-0.227885 0.064190 0.066017 
-0.191659 0.191473 0.085469 
-0.043332 0.414148 -0.238145 
0.233782 -0.480475 0.231533 
0.278936 -0.420344 -0.006884 
0.032698 -0.114825 0.102258 
-0.153727 0.364093 -0.355690 
0.069250 -0.073325 0.086947 
-0.242264 0.102456 0.025128 
-0.003584 0.121547 -0.237659 
0.059239 -0.421707 0.142720 
-0.208456 0.395046 0.036296 
-0.044010 0.021819 -0.241657 
-0.031540 0.452829 -0.110708 
-0.002186 0.490527 0.007632 
0.034253 0.419741 -0.123035 
-0.259607 0.032212 -0.033005 
-0.110421 -0.283443 -0.283202 
0.122785 -0.465354 0.226589 
-0.251708 0.421385 -0.145588 
-0.240706 -0.125177 -0.257186 
0.206125 -0.491657 0.001755 
-0.129320 -0.305798 -0.132109 
-0.136087 0.099886 -0.343752 
-0.078796 -0.407926 -0.059123 
-0.113690 0.377620 -0.339173 
0.079198 0.302093 -0.046374 
-0.247141 -0.068149 0.003178 
0.150696 0.048980 0.006748 
0.016983 -0.361438 0.021010 
0.163373 -0.031992 0.063979 
-0.184718 0.439011 -0.107615 
0.030969 0.146665 0.205244 
-0.009608 -0.412768 -0.149446 
0.188557 -0.130279 0.247528 
0.202724 -0.436944 -0.025290 
0.016877 0.141392 -0.187164 
-0.046520 -0.231552 0.329389 
-0.202915 0.460074 -0.030204 
0.046958 -0.163225 0.232844 
0.194624 0.094266 0.143484 
-0.182069 0.473599 0.008930 
0.057863 0.304935 0.105585 
-0.071005 -0.383228 0.133015 
-0.193107 0.022267 0.137417 
0.057286 0.276587 -0.116245 
0.074000 -0.029319 0.170919 
0.049787 -0.050419 0.202212 
-0.095573 0.100945 -0.343950 
-0.082705 -0.410378 -0.270890 
0.152566 0.180166 0.140519 
-0.070771 0.100180 -0.334066 
-0.091188 -0.065008 0.276443 
0.071014 0.211291 0.171988 
-0.071566 -0.376876 -0.182305 
-0.147952 0.455396 -0.064000 
-0.179556 0.449504 -0.073693 
-0.171143 -0.021985 0.182587 
0.123769 -0.346044 0.267254 
-0.001813 0.304620 0.117820 
0.024672 -0.454530 -0.280026 
0.063682 0.173765 -0.130694 
-0.229279 -0.034266 -0.301512 
0.159328 -0.412225 0.012631 
0.138339 -0.174111 0.199092 
-0.260269 0.277659 -0.041023 
-0.169076 -0.026571 -0.332062 
-0.140894 0.064698 0.194382 
0.009470 -0.428289 0.024870 
0.190587 -0.426335 -0.060501 
0.017326 0.100327 0.219302 
-0.024807 0.384300 -0.254147 
-0.088229 -0.319160 -0.171068 
-0.032049 0.436619 -0.165554 
0.048738 -0.126289 0.147041 
-0.004047 -0.040716 -0.011688 
-0.252901 -0.180074 -0.152140 
0.143137 -0.365754 0.249576 
-0.027374 0.499489 0.046303 
0.106031 -0.441905 -0.284695 
0.017608 -0.356328 0.209094 
0.015364 -0.417336 -0.298287 
0.188422 0.121867 0.097000 
-0.162973 0.254254 -0.340907 
0.027525 0.142546 -0.160715 
0.061084 0.239148 0.157860 
0.239210 -0.119220 0.118267 
0.131383 -0.051560 0.223276 
-0.217051 0.350597 -0.333055 
0.125162 -0.456881 -0.098317 
-0.191498 -0.269836 -0.107795 
-0.073849 -0.304574 0.238552 
0.114414 -0.334905 0.288400 
-0.062328 0.263200 -0.309855 
0.038619 0.035588 0.209563 
-0.253022 0.112717 -0.004165 
-0.051911 0.407084 -0.259331 
-0.075128 0.313298 -0.322534 
-0.271890 0.425893 -0.123702 
0.274722 -0.149953 0.198724 
0.053767 -0.218040 0.275971 
0.015816 -0.334602 -0.038361 
0.127141 -0.115392 0.207902 
-0.049170 0.477683 -0.020608 
-0.095854 0.480319 0.003571 
-0.044358 -0.075751 -0.075304 
-0.133692 -0.169086 0.233692 
0.033818 -0.452051 0.032445 
-0.061813 -0.003095 -0.278698 
0.219947 -0.041522 0.097686 
0.098199 -0.432245 -0.056417 
0.025630 -0.341412 0.346567 
-0.038214 0.347393 -0.274755 
-0.126316 -0.335317 -0.172810 
-0.136659 -0.297907 -0.011599 
-0.302387 0.270434 -0.157494 
0.051011 -0.347955 -0.072173 
-0.122167 0.340555 0.103369 
0.045162 -0.278387 0.336590 
-0.217871 0.409178 0.023532 
0.043507 0.387448 -0.038973 
-0.190071 0.301461 0.067508 
0.199314 -0.246458 0.250552 
-0.145586 -0.138778 0.226649 
-0.107878 0.474596 0.066715 
0.037551 0.302916 -0.134646 
0.239535 -0.131902 0.232897 
-0.173526 0.279971 0.087231 
-0.205383 -0.239603 -0.146887 
0.036096 -0.443716 -0.071973 
-0.268541 0.200965 -0.253704 
-0.082466 0.061775 0.234654 
-0.227477 0.382996 -0.283787 
-0.155093 -0.196244 0.171731 
0.228534 -0.426538 -0.072910 
0.063663 0.016136 -0.028863 
0.285387 -0.398361 -0.093241 
-0.054357 0.376629 -0.300239 
-0.117234 0.020345 0.231138 
-0.098850 -0.249757 0.242389 
0.264404 -0.105445 0.173000 
0.121373 -0.352817 0.241072 
0.081099 -0.399315 -0.154999 
0.199680 0.058579 0.161209 
-0.141839 -0.361149 -0.261575 
-0.007644 0.425435 -0.211486 
-0.173890 0.241285 0.094030 
-0.124675 0.000282 -0.334513 
0.203748 -0.483671 0.077411 
-0.123922 -0.382510 -0.195138 
-0.035102 -0.375332 0.265973 
0.059461 0.103274 0.216400 
-0.242269 0.350423 -0.006461 
-0.235465 0.388486 0.001171 
-0.282299 0.412010 -0.106500 
0.024398 -0.351673 -0.109276 
0.093851 0.255602 0.135022 
-0.016444 0.480738 0.050322 
-0.047823 -0.357607 -0.142898 
-0.256990 -0.058909 -0.046446 
-0.230932 0.341705 0.011084 
-0.155427 0.318018 0.094589 
0.044011 0.144067 -0.146210 
-0.044115 -0.410387 0.039368 
-0.281409 0.082633 -0.119420 
0.220208 -0.422982 -0.022599 
-0.048137 -0.429331 -0.068288 
0.004871 -0.449254 0.063356 
-0.052255 0.273589 -0.291188 
-0.137955 -0.078528 0.242006 
-0.211709 -0.214420 0.043672 
-0.125158 0.091412 0.197275 
0.139501 0.015766 0.224045 
0.075546 -0.434705 0.215265 
0.198290 -0.495758 0.199773 
-0.268577 0.291985 -0.280223 
0.086427 -0.465931 0.020703 
0.264225 -0.130113 0.144972 
0.054847 -0.327539 0.085272 
-0.052407 -0.046000 -0.133362 
0.142344 0.130100 -0.021291 
-0.156763 -0.326965 -0.070363 
0.118881 -0.347427 0.307929 
0.003496 -0.441428 -0.080382 
-0.097088 0.198524 0.159504 
0.078369 -0.458138 -0.122575 
0.030451 0.350874 -0.150180 
-0.016334 -0.389512 0.023456 
0.120211 -0.390213 0.197204 
0.162220 0.024283 0.026821 
0.185833 -0.223956 0.188986 
0.230905 -0.455527 0.195869 
0.273645 -0.382610 -0.113542 
-0.218934 -0.013610 -0.312863 
0.031585 -0.290302 0.101300 
-0.219170 0.281923 0.027115 
0.004807 -0.395318 0.279812 
-0.053821 -0.356071 0.285520 
0.274255 -0.487201 0.002875 
-0.021560 0.411745 -0.249867 
0.064663 -0.288666 0.280051 
0.115625 -0.391808 0.020899 
0.163209 -0.458348 0.107119 
0.094240 -0.021809 0.017510 
-0.041250 0.371011 -0.281137 
-0.234460 -0.154758 0.047656 
0.253648 -0.079893 0.153687 
-0.113365 -0.283473 0.159871 
-0.098999 0.437265 -0.141517 
0.043688 -0.160810 0.138530 
0.018140 -0.197286 0.074776 
0.151812 -0.453073 -0.081082 
-0.207904 -0.134894 0.139540 
-0.270454 0.019424 -0.237506 
0.158937 -0.134557 0.238545 
0.010270 0.287040 -0.193727 
-0.150193 0.138100 0.152900 
-0.257073 -0.158650 -0.101577 
0.004188 -0.312910 0.199147 
-0.260132 0.229134 -0.043832 
-0.073155 0.129217 -0.336259 
-0.300569 0.293768 -0.143308 
-0.148449 0.428813 -0.154077 
0.001612 -0.007766 -0.041743 
-0.001309 0.432363 -0.190039 
-0.154859 -0.224628 -0.285108 
-0.257098 0.077591 -0.270452 
0.141507 -0.488019 0.052659 
0.136690 -0.463990 0.106842 
-0.053063 -0.150912 -0.148626 
0.159008 -0.005123 0.048863 
-0.173853 0.394224 -0.263160 
0.242292 -0.462216 0.082952 
-0.137619 -0.348150 -0.092298 
0.001150 0.287057 0.129302 
0.039322 0.009203 -0.032580 
0.074899 0.332194 0.045798 
-0.018497 0.407319 0.075740 
-0.141431 -0.348620 -0.069715 
-0.079231 0.485657 0.016264 
-0.299854 0.390388 -0.152895 
-0.252699 0.255243 -0.026355 
0.204954 0.072527 0.098934 
0.049910 -0.117905 0.211467 
-0.020737 0.447104 -0.133668 
0.167883 -0.154600 0.243267 
-0.274524 0.022611 -0.215236 
-0.137503 -0.043317 0.231809 
0.042077 -0.150317 0.249788 
-0.252986 -0.184074 -0.044079 
-0.025322 -0.088869 -0.027964 
-0.245467 -0.046874 0.014681 
-0.014381 -0.436228 -0.070104 
-0.218085 0.181102 0.050322 
-0.064706 -0.421343 -0.211847 
-0.174341 -0.197182 0.160442 
-0.287821 0.374880 -0.291629 
-0.249062 0.385554 -0.268053 
0.059896 -0.434485 -0.296552 
0.063060 -0.468977 0.066485 
-0.048447 0.004078 -0.228656 
-0.172616 -0.292163 -0.035835 
0.149209 0.201006 0.117325 
-0.122172 -0.312709 -0.166031 
0.196755 -0.452269 0.166242 
-0.040887 0.424653 0.077763 
-0.201984 0.142490 0.087611 
0.014325 0.477722 0.015100 
-0.080961 -0.148991 -0.264690 
0.057765 0.320899 -0.077195 
-0.090687 -0.233412 0.282733 
-0.201948 0.469859 0.002683 
-0.080316 0.332478 0.110971 
-0.112503 -0.003957 0.243761 
-0.005625 -0.276376 0.038453 
0.079857 -0.381447 0.143121 
-0.106031 0.323729 0.111786 
-0.053498 0.004600 -0.253319 
0.117148 -0.020474 0.220329 
-0.152285 0.407884 -0.223846 
-0.126130 0.177060 -0.341805 
0.215319 0.029081 0.146239 
0.090694 -0.385441 -0.044315 
0.157889 -0.382482 -0.131424 
-0.238405 0.117137 -0.291478 
0.192842 0.046487 0.179404 
-0.089486 -0.274476 0.246120 
-0.209540 -0.215863 0.101473 
-0.028326 -0.342159 -0.229402 
-0.261225 0.310240 -0.294435 
0.138026 0.208772 0.001727 
0.172865 0.148791 0.135384 
-0.067046 -0.263651 -0.139776 
-0.185822 0.217966 0.085963 
0.043928 -0.393343 -0.207835 
0.019457 0.054601 0.227022 
-0.222874 0.387593 0.019456 
0.020852 -0.281277 0.079778 
-0.131141 -0.315359 -0.283012 
0.061501 -0.427621 0.008500 
0.193628 -0.428404 0.178187 
-0.176187 0.424072 -0.161110 
0.143259 0.089722 0.205584 
0.081343 0.107290 0.214515 
0.034991 -0.093488 0.109552 
-0.159183 0.175904 0.127485 
-0.060680 0.494461 0.040102 
-0.151277 0.318330 -0.351626 
-0.060630 0.068808 0.237804 
-0.169745 0.207794 0.107164 
0.184577 -0.376012 -0.089451 
0.055009 0.326069 0.088875 
-0.053817 0.021649 -0.277955 
0.029814 0.183749 -0.173263 
0.024083 -0.398986 -0.201501 
0.141538 -0.006911 0.036971 
-0.225134 -0.202870 -0.244165 
-0.065754 -0.028373 -0.270205 
0.027930 0.409616 -0.164501 
-0.083666 -0.246307 0.169485 
0.037719 0.239522 0.160091 
0.143344 -0.422704 0.125051 
-0.086592 -0.373255 -0.130764 
-0.232901 0.287916 0.004983 
0.097526 -0.419679 -0.000163 
0.059087 -0.267061 0.230116 
0.041967 0.106672 -0.129755 
-0.016855 -0.117554 0.007290 
0.205087 -0.397101 -0.163660 
-0.025948 -0.157433 -0.032183 
-0.261301 0.112731 -0.028228 
-0.041678 -0.358517 0.242238 
0.084165 0.020340 0.210836 
-0.054860 -0.054606 -0.179182 
-0.271746 0.088852 -0.242970 
0.011598 -0.259525 0.182404 
-0.260419 -0.120251 -0.151292 
-0.254953 0.449586 -0.048819 
0.042109 -0.126939 0.247320 
-0.017683 -0.234382 0.161759 
0.121772 -0.371688 0.222148 
-0.252036 -0.057882 -0.021279 
-0.204164 0.130896 -0.320011 
-0.171218 -0.128140 0.180194 
-0.237042 -0.133603 0.051982 
-0.254350 0.443430 -0.069890 
-0.042182 0.246343 0.150902 
0.271816 -0.130794 0.188312 
-0.069569 -0.344999 -0.178803 
-0.095037 0.220301 0.153468 
0.107888 0.184126 -0.068619 
0.142514 -0.026019 0.059191 
-0.250607 0.353739 -0.027375 
0.261116 -0.472446 0.059078 
-0.079921 0.476994 -0.012906 
-0.094110 -0.349781 0.138340 
-0.238133 -0.137989 0.029799 
-0.190639 -0.054216 -0.320036 
0.179813 0.142321 0.104721 
0.220840 -0.464027 0.248219 
0.263799 -0.399082 -0.077113 
-0.106419 -0.398560 -0.198992 
-0.014169 -0.163494 0.004692 
0.221749 -0.446230 0.096223 
0.107584 -0.445531 -0.216309 
0.191250 -0.003949 0.207950 
-0.082590 -0.252538 0.204238 
0.099705 0.048002 0.220526 
-0.146967 -0.310433 -0.169614 
0.268434 -0.414739 0.013911 
-0.039937 -0.329312 0.016442 
-0.085879 0.362333 -0.334489 
0.098342 -0.446504 0.203910 
-0.228948 0.170247 0.035408 
-0.266621 -0.067783 -0.153213 
0.034473 -0.418036 -0.199449 
-0.262366 -0.038904 -0.074318 
0.020242 -0.279594 0.118680 
-0.053905 -0.162596 -0.187142 
-0.026675 -0.043860 -0.044987 
-0.115004 -0.329572 -0.284939 
-0.125558 -0.328524 0.101825 
0.031516 0.467671 -0.059302 
0.262020 -0.150166 0.221054 
0.032981 0.433815 -0.012387 
-0.058319 -0.280304 0.320975 
0.081838 0.171920 0.188256 
-0.040871 0.282231 -0.275282 
0.017796 0.467856 -0.075783 
0.035530 -0.174981 0.115108 
0.121896 -0.483914 0.038073 
-0.255149 -0.102253 -0.049598 
-0.200594 -0.276173 -0.200539 
-0.053596 -0.030996 -0.180311 
0.008788 -0.363400 -0.243998 
-0.036264 -0.425295 -0.207533 
-0.000359 0.192277 0.184236 
0.025147 -0.459085 -0.256670 
-0.287255 0.193744 -0.180581 
0.130445 0.202040 -0.020655 
-0.267411 -0.053436 -0.204833 
-0.022851 0.277919 -0.251672 
-0.186385 0.380010 -0.307328 
0.162334 0.099231 0.010261 
-0.127908 -0.068819 -0.314788 
0.017743 0.304061 -0.180374 
-0.146220 0.214856 -0.338784 
-0.253748 -0.087947 -0.244296 
0.211131 0.041819 0.101375 
0.117873 -0.097576 0.130466 
-0.025415 0.459979 -0.088467 
0.080182 0.293462 0.103189 
0.270554 -0.124441 0.165645 
-0.149094 -0.291541 0.100024 
-0.123578 -0.057064 0.249498 
-0.222479 0.415523 -0.175015 
-0.251663 0.436442 -0.094502 
0.113391 0.274086 0.026458 
-0.288535 0.172377 -0.164593 
0.082151 0.145151 0.201050 
0.283428 -0.436268 0.057831 
0.029231 -0.246790 0.187229 
0.058576 -0.244810 0.229511 
-0.007441 -0.241670 -0.012362 
-0.023774 -0.288502 -0.113213 
-0.041772 -0.316221 -0.011989 
0.042661 -0.106346 0.236095 
0.099541 -0.409376 0.188732 
-0.128494 0.385783 -0.306632 
-0.176837 0.025485 0.163819 
-0.172757 0.410403 -0.208594 
-0.014278 0.287242 -0.232524 
0.107043 -0.454757 0.249087 
0.031159 0.450225 -0.140026 
0.240517 -0.485696 0.043051 
0.036765 -0.438477 -0.208647 
-0.150573 -0.305560 -0.117796 
0.022842 0.105937 -0.153037 
-0.039185 -0.155105 -0.078878 
-0.102911 -0.373367 -0.115576 
0.035974 0.122930 -0.144902 
-0.124470 0.434777 0.078949 
-0.042437 0.091491 -0.307215 
-0.241430 -0.161845 -0.237167 
0.164283 0.184834 0.076037 
0.152260 -0.460600 -0.103839 
0.189347 0.116099 0.075181 
-0.255206 -0.113094 -0.226288 
0.067123 0.318894 -0.056378 
-0.062397 -0.167153 0.306895 
0.217901 -0.128964 0.118383 
0.250768 -0.487528 0.023696 
-0.108942 -0.060607 0.264727 
-0.000951 -0.392060 0.163066 
-0.026164 0.319384 0.113925 
0.036308 0.433976 -0.057566 
-0.060602 -0.101208 -0.131463 
-0.241521 0.146309 -0.286925 
0.019014 -0.320906 -0.056167 
0.059657 0.348642 0.057892 
-0.284992 0.246071 -0.234301 
0.087847 0.276003 0.117100 
0.037889 0.199999 -0.156204 
0.204555 -0.042034 0.214100 
-0.283723 0.092807 -0.138404 
-0.231643 -0.182028 0.081329 
-0.140844 -0.244282 -0.284820 
0.136167 0.023324 0.004343 
-0.017218 -0.387159 -0.193255 
-0.265625 0.378957 -0.285017 
-0.037517 -0.259969 0.158664 
0.249245 -0.147461 0.130012 
-0.161719 0.023749 0.184791 
0.054319 -0.060125 0.060273 
0.063867 -0.385999 -0.149282 
-0.060427 -0.305906 0.221808 
0.086116 0.111582 -0.079513 
0.181395 0.070390 0.036157 
-0.182665 0.467247 -0.012478 
-0.185198 -0.142326 -0.295876 
-0.280774 0.100491 -0.103701 
-0.046238 0.443365 -0.138052 
-0.143880 -0.283951 -0.160100 
-0.161612 -0.272529 0.079159 
-0.058379 -0.365552 0.157211 
0.032801 0.451660 -0.074240 
-0.270711 -0.022532 -0.209527 
-0.214642 0.130323 0.072400 
0.284247 -0.221876 0.206860 
0.098543 -0.002398 0.001506 
-0.113861 -0.379849 -0.066918 
-0.021792 -0.410010 -0.197055 
-0.206646 0.407370 -0.207830 
0.141043 -0.377097 -0.084166 
0.087601 -0.368087 0.073516 
-0.037550 0.022531 -0.204887 
-0.239230 0.208450 0.005811 
0.060379 -0.388549 0.153040 
0.131743 0.179337 0.167163 
0.205527 -0.055368 0.089649 
0.062180 -0.440427 -0.063893 
-0.174622 0.395756 0.069862 
-0.147367 0.172008 -0.337987 
-0.070267 -0.356872 -0.139758 
0.003478 -0.401747 -0.197031 
0.084887 -0.372882 0.051434 
0.061312 0.202022 -0.131717 
-0.004864 -0.236204 0.086434 
0.175727 -0.409097 0.053854 
-0.074330 -0.262281 -0.254527 
-0.031242 -0.277472 -0.096670 
0.051086 -0.088626 0.171621 
-0.281179 0.071770 -0.178421 
0.098873 -0.367086 0.208328 
0.277435 -0.204105 0.244925 
-0.115004 0.209110 0.148526 
-0.177967 -0.251973 0.092391 
0.042905 -0.191228 0.212184 
0.241218 -0.381480 -0.150259 
-0.053660 -0.087645 -0.113917 
0.142031 0.154307 -0.018207 
-0.080100 -0.270069 0.169694 
-0.225836 0.220341 0.023662 
-0.001675 -0.384804 -0.290515 
-0.195679 -0.197407 0.147343 
-0.007012 0.260443 -0.238397 
-0.246891 -0.197998 -0.124947 
-0.011594 0.405743 -0.232066 
0.035356 0.385101 -0.121852 
-0.019105 -0.047752 0.275123 
0.007583 -0.226074 0.062109 
0.087587 0.012873 -0.014514 
-0.264190 -0.089642 -0.159464 
0.040979 -0.355988 0.340000 
