0.204188 0.981237 -0.0938497 -1 3.3123815e-14 -1.3586916e-14
-0.204188 -0.661902 -0.244413 1 1.0695641e-14 -3.8154355e-14
-0.816751 0.584098 -0.0869659 -1 2.9720613e-14 -1.8399677e-14
-0.816751 0.42586 -0.201729 1 1.0571353e-14 -3.0064235e-14
0.204188 0.470789 -0.0362993 -1 4.4628659e-14 7.0640187e-15
0.816751 -4.09978e-05 -0.250017 1 3.2861001e-16 1.031669e-13
-0.561516 0.343477 -0.231487 1 -0 0
-0.561516 0.20142 0.191076 1 -4.4586488e-15 1.6719532e-14
0.561516 -0.506916 0.254825 1 7.0817707e-15 3.2857032e-13
-0.816751 -0.342966 -0.225096 1 -9.6332292e-15 -4.6276815e-14
-0.204188 0.884754 -0.210676 1 -2.2503266e-14 3.4244149e-14
-0.816751 -0.47561 0.180478 1 2.5114743e-14 -5.1120342e-14
-0.816751 0.0889649 -0.248493 1 -1.1019367e-14 4.0360669e-13
0.561516 -0.0430554 -0.15548 1 -1.3719575e-15 9.9616143e-15
0.561516 -0.246993 0.205198 1 -6.6663901e-17 2.6192179e-16
-0.561516 -0.0367703 -0.155064 1 2.6291042e-15 -3.246907e-14
-0.561516 0.810995 0.126325 -1 1.2578146e-14 8.3747007e-15
0.816751 -0.59894 0.0578923 -1 -5.8372614e-14 2.3119473e-14
0.561516 0.463758 0.252245 1 0 -0
0.816751 0.0283684 0.249601 1 1.6583026e-16 7.3557121e-14
-0.204188 -0.988944 -0.0728202 -1 9.7439602e-15 2.9454919e-15
-0.561516 0.578196 0.251307 1 1.0559688e-15 1.1689843e-14
-0.816751 -0.483781 -0.175839 1 -1.6292117e-14 -3.0989389e-14
0.561516 0.68509 0.225171 1 -4.0922632e-15 -8.1077826e-15
-0.204188 -0.959058 0.136489 -1 -2.5190843e-14 1.637772e-14
0.204188 0.820948 -0.241371 1 1.2678144e-15 -4.0733494e-15
0.816751 0.247717 -0.23934 1 -3.8987628e-16 5.6898255e-15
0.204188 0.537278 0.169382 -1 1.5816456e-15 -1.6542931e-15
-0.561516 0.699068 -0.218446 1 6.0034238e-14 -1.2667489e-13
0.204188 0.477984 -0.0682932 -1 -2.9701941e-14 -8.8354995e-15
0.204188 0.90142 0.198642 1 1.4985784e-14 1.9367811e-14
0.561516 0.733582 0.198978 1 -1.7429144e-14 -2.7818859e-14
0.561516 0.300096 -0.219888 1 -1.6380071e-15 -5.2730705e-15
0.561516 -0.844831 0.0558676 -1 -1.4224274e-14 4.054634e-15
0.204188 -0.735645 0.254698 1 -9.0222934e-18 -1.8420922e-14
-0.561516 0.548435 -0.254215 1 3.1603779e-15 -6.7102816e-14
-0.561516 0.773361 -0.168424 -1 1.7845593e-14 -1.8881179e-14
-0.561516 -0.317062 0.225097 1 -8.2775319e-15 -3.2032522e-14
-0.561516 -0.706739 -0.214795 1 -9.2989742e-15 -1.9319512e-14
0.816751 0.562508 -0.117092 -1 -1.9639127e-14 1.7951576e-14
-0.816751 -0.055496 -0.248939 1 2.3952952e-15 1.3518122e-13
-0.561516 0.0917499 0.162869 1 1.6245968e-15 -6.5353884e-15
0.204188 -0.769122 0.25293 1 -5.823966e-15 4.7574316e-14
0.204188 0.998728 -0.0232382 -1 -9.0015299e-15 8.3312848e-16
-0.816751 0.162421 0.246008 1 -9.7143639e-15 -1.671241e-13
-0.561516 -0.402536 -0.244244 1 2.3690445e-14 -1.3244659e-13
0.561516 -0.522419 -0.255132 1 1.3096567e-16 -1.1804374e-14
-0.561516 -0.590396 -0.25033 1 1.5337814e-14 1.0702429e-13
-0.816751 0.0546601 0.249343 1 -2.0820463e-15 -1.1538168e-13
0.816751 -0.478334 -0.178932 1 3.7026652e-14 7.2996584e-14
0.816751 0.328566 -0.227458 1 -5.738974e-15 3.2758619e-14
0.204188 0.926626 0.176648 -1 -1.613185e-14 -1.612509e-14
0.561516 0.198308 -0.190157 1 1.8022071e-15 7.5697304e-15
-0.204188 -0.801895 0.24709 1 5.5591199e-15 -2.2358634e-14
-0.816751 0.244437 0.239596 1 -0 0
0.816751 0.538695 0.140513 -1 -1.7014906e-14 -1.9424947e-14
-0.204188 -0.979709 0.0980212 -1 -1.9350183e-14 8.3339796e-15
-0.561516 0.832504 0.089256 -1 1.5092643e-13 6.9378449e-14
-0.561516 0.0552632 0.156294 1 6.7378168e-15 -5.3743135e-14
0.204188 -0.957652 -0.138827 -1 -3.1632678e-14 -2.1462423e-14
0.561516 0.078482 -0.160479 1 3.6555679e-15 2.2331127e-14
-0.561516 -0.68425 0.225521 1 -8.5866295e-15 2.1001714e-14
0.204188 -0.545364 0.177211 1 1.9917309e-14 2.0460672e-14
-0.561516 -0.118264 0.168209 1 -8.9366486e-15 -3.569503e-14
0.204188 -0.630983 0.233734 1 -6.2848331e-15 -1.5248976e-14
0.204188 -0.878304 0.214905 1 1.1084541e-14 -1.8184836e-14
0.816751 -0.361787 0.220268 1 7.3560135e-16 -4.0477235e-15
0.561516 0.0651817 0.158259 1 -1.675416e-15 7.4007661e-15
-0.561516 0.846833 -0.047586 -1 1.1532823e-13 -2.6593932e-14
0.561516 0.804835 -0.134161 -1 -1.2996978e-13 1.0024996e-13
0.816751 -0.277078 -0.235806 1 9.4402848e-15 6.9419508e-14
0.561516 0.663263 -0.232419 1 -1.2488185e-14 3.5294678e-14
0.204188 -0.512223 -0.138817 -1 1.7210804e-14 -1.2003584e-14
0.816751 0.609514 -0.011751 -1 -6.3081186e-17 2.0194051e-16
-0.816751 0.393605 -0.211586 1 -1.5683072e-14 5.5581001e-14
0.816751 -0.577989 -0.0976742 -1 4.8118002e-14 3.3877749e-14
-0.204188 -0.898192 -0.2015 1 -1.7757085e-14 -2.357314e-14
0.204188 -0.880266 -0.213523 1 -7.5438483e-15 -1.1951764e-14
0.204188 -0.761657 -0.253648 1 -1.6932543e-15 -1.837759e-14
-0.561516 0.697307 0.219057 1 7.0129546e-15 1.4741172e-14
0.204188 0.467933 -0.00356714 -1 -2.139344e-14 -1.8955609e-16
-0.561516 -0.848223 0.0405022 -1 5.3861239e-14 -1.0432149e-14
-0.204188 0.639181 -0.237031 1 -7.0745461e-15 -1.876127e-14
0.204188 -0.671683 -0.246885 1 -3.7416688e-15 1.5797329e-14
0.204188 0.738399 -0.254768 1 2.5259063e-17 -1.9058287e-14
-0.561516 0.824102 -0.105633 -1 1.1229519e-13 -6.2975019e-14
-0.561516 -0.506916 0.254825 1 4.30109e-15 1.7302734e-13
-0.816751 -0.0907362 0.248649 1 -1.0864433e-14 3.9549047e-13
-0.816751 -0.584277 -0.0871925 -1 3.8071081e-14 2.3439494e-14
-0.561516 0.0337732 -0.155244 1 -7.4747107e-15 -9.4377097e-14
0.816751 -0.381345 -0.215249 1 -2.0807521e-14 -7.635012e-14
-0.204188 -0.960489 -0.13387 -1 4.6782906e-14 3.0014125e-14
0.204188 0.851714 -0.229411 1 -5.5713982e-15 1.1856743e-14
0.204188 -0.510521 0.135674 -1 7.1231518e-14 4.8065295e-14
-0.816751 -0.433368 -0.199289 1 1.0846516e-14 2.7795295e-14
0.204188 -0.810386 0.244492 1 -3.6763164e-14 1.3064717e-13
0.561516 0.699021 -0.218195 1 6.2383338e-14 -1.313263e-13
-0.816751 -0.407637 0.207621 1 1.9321477e-14 -6.0442173e-14
-0.561516 -0.843938 -0.0589053 -1 -4.2884244e-14 -1.2785953e-14
-0.816751 0.498571 -0.167108 1 -3.4239821e-14 5.7161265e-14
-0.561516 -0.208922 0.193673 1 9.9851706e-17 1.9062754e-15
0.816751 -0.045089 -0.249462 1 -2.9566313e-15 -2.228025e-13
-0.204188 -0.658627 0.243458 1 9.1196588e-16 3.4916459e-15
-0.561516 -0.623148 -0.244244 1 3.7493151e-14 1.7098704e-13
0.561516 -0.559913 0.253638 1 4.162434e-15 -5.8037339e-14
0.561516 -0.117172 0.169652 1 -4.3599226e-15 -1.7811809e-14
0.204188 -0.703216 0.252579 1 3.0297211e-15 2.4491917e-14
-0.561516 0.544492 0.25415 1 1.3524023e-15 2.882589e-14
-0.561516 0.804778 -0.134731 -1 4.620546e-14 -3.505426e-14
0.561516 0.247899 -0.204722 1 2.392304e-16 9.7101827e-16
0.816751 -0.547621 0.132035 -1 0 0
0.816751 -0.510926 0.16009 1 2.3179509e-14 -3.5802662e-14
-0.561516 -0.828979 0.0976742 -1 3.2485899e-14 -1.6318273e-14
0.204188 0.992947 -0.0574643 -1 6.1739318e-14 -1.4785133e-14
0.204188 0.587274 -0.21051 1 -3.1569291e-14 -4.8974152e-14
-0.816751 -0.172153 0.24542 1 -1.8191923e-14 3.1418066e-13
-0.561516 -0.546379 -0.254341 1 -4.2065387e-15 -8.0740771e-14
0.204188 0.472159 0.0443288 -1 2.5062688e-14 -4.870966e-15
0.204188 -0.999413 -0.0125737 -1 -1.316467e-14 -6.1423506e-16
0.204188 -0.569329 -0.198017 1 -6.7435155e-15 8.9741534e-15
0.816751 -0.47561 0.180478 1 3.8657464e-15 -7.1139174e-15
0.561516 -0.402536 0.244244 1 -4.0311341e-14 -2.2254421e-13
0.816751 0.449623 -0.192274 1 -1.8167503e-14 4.3426341e-14
-0.204188 0.578879 0.205326 1 -2.3971753e-15 3.3607322e-15
-0.816751 0.602633 0.0453969 -1 -5.194835e-15 -1.1902825e-15
0.561516 0.496704 0.254399 1 6.2574437e-15 -1.4989723e-13
-0.561516 0.167428 -0.181257 1 2.9466013e-15 9.3713388e-15
-0.204188 -0.509835 -0.134629 -1 -1.776298e-14 1.2050032e-14
-0.204188 -0.477638 0.0664131 -1 9.2772161e-16 3.4680877e-16
-0.816751 -0.560033 -0.120317 -1 -2.5737956e-14 -2.4455079e-14
-0.816751 -0.610564 2.0232e-08 -1 -4.4077363e-15 -5.2336036e-17
0.561516 -0.331725 -0.228666 1 -3.1762776e-15 1.1582466e-14
0.561516 -0.476041 -0.2534 1 -4.7019067e-15 6.8153356e-14
-0.561516 0.729015 -0.202071 1 -5.0286457e-14 8.3140838e-14
-0.204188 0.526155 -0.157201 -1 1.4079981e-14 1.1765915e-14
-0.816751 -0.5886 0.0799865 -1 -1.8543832e-14 1.1087758e-14
0.204188 -0.93216 -0.170598 -1 -2.0344876e-14 -1.8810926e-14
0.561516 0.507545 -0.254368 1 -1.9168431e-16 -1.0367998e-14
0.561516 0.60923 0.246815 1 -9.4261501e-15 -4.8140143e-14
0.561516 -0.799648 0.1418 -1 9.9496213e-15 -7.9430381e-15
-0.204188 -0.926708 0.176648 -1 0 0
-0.204188 0.475121 0.0572605 -1 1.2172336e-14 -3.0348262e-15
-0.561516 -0.317062 -0.225096 1 2.1462539e-15 -1.0807799e-14
-0.561516 -0.513118 -0.25503 1 1.0380485e-16 -9.9986964e-15
-0.561516 -0.797587 -0.144036 -1 9.5771758e-14 8.1204146e-14
0.561516 0.76889 0.172674 1 -3.040915e-15 -2.4585488e-15
0.561516 0.594916 -0.249111 1 1.8106047e-14 -1.1951174e-13
0.816751 -0.0833429 0.248379 1 -2.5291612e-15 9.2171071e-14
-0.561516 -0.852329 2.0232e-08 -1 3.9154719e-15 -2.8171267e-16
0.816751 -0.0804838 -0.249026 1 -7.3962246e-16 -3.8606246e-14
-0.561516 0.851362 -0.0140389 -1 1.117919e-13 -7.5293968e-15
0.561516 -0.208158 0.193561 1 2.4254456e-16 2.1955662e-15
0.204188 0.673239 0.247278 1 2.1948122e-15 -9.4786126e-15
0.204188 0.925561 -0.17726 1 -4.4718727e-14 4.4659399e-14
0.561516 -0.685366 0.225097 1 -7.5101931e-15 1.7025394e-14
0.561516 0.85156 0.0109404 -1 -1.7404524e-14 -6.1952879e-16
-0.204188 0.998552 0.0263729 -1 -1.0356887e-14 -1.1060344e-15
-0.561516 -0.282764 -0.215654 1 4.3710013e-15 -2.0023948e-14
-0.816751 0.0940717 0.248523 1 -1.0340417e-14 -3.6657744e-13
0.816751 0.263869 0.237391 1 3.7735325e-15 3.0983559e-14
-0.204188 0.731232 -0.254949 1 4.5533888e-16 2.2346316e-14
0.816751 0.585389 -0.0845164 -1 -1.7303179e-14 1.0027764e-14
0.204188 0.707798 0.253478 1 -3.5610209e-15 3.4389044e-14
-0.816751 0.393857 0.210646 1 7.1253498e-15 2.417621e-14
-0.561516 0.290446 0.217084 1 4.8527239e-15 -2.0137134e-14
-0.561516 -0.828979 -0.0976742 -1 8.9495072e-14 4.5505231e-14
-0.204188 -0.70788 0.253478 1 2.3664007e-15 2.2293252e-14
0.561516 -0.840409 -0.0710808 -1 -2.0301076e-14 -7.0036226e-15
-0.561516 -0.737099 -0.197299 1 4.7746718e-14 7.4153049e-14
-0.816751 0.51868 0.153917 1 6.7161688e-15 9.4770318e-15
-0.816751 -0.208025 0.242802 1 -8.0090044e-15 1.0776152e-13
0.204188 -0.90876 -0.193131 -1 -1.790139e-14 -2.1242905e-14
0.561516 -0.00925837 -0.153241 1 -5.7308204e-17 -1.1669511e-14
-0.561516 -0.0837426 0.161919 1 -4.4838529e-16 -5.0413915e-15
0.561516 0.843962 -0.0584156 -1 3.527868e-16 -8.0589982e-17
0.561516 -0.626327 0.2434 1 -5.6035575e-15 2.5562411e-14
-0.561516 0.746925 0.190078 1 -4.6590589e-14 -6.5533546e-14
-0.204188 -0.541809 0.174255 1 -1.9434338e-14 -1.9397539e-14
-0.204188 -0.469551 0.0294173 -1 5.5980526e-14 6.8805131e-15
0.816751 -0.237558 0.239701 1 9.8998593e-15 -1.0049499e-13
-0.816751 -0.226337 -0.240806 1 -9.180076e-15 -1.0294818e-13
0.561516 0.472265 -0.252738 1 -4.994422e-15 -5.977388e-14
0.204188 -0.983588 0.087864 -1 -2.219793e-15 9.1339679e-16
0.204188 -0.495329 -0.110217 -1 -3.6658262e-14 1.908005e-14
0.561516 -0.826019 -0.102706 -1 7.3078352e-14 3.9860474e-14
-0.816751 -0.439555 0.197298 1 -3.2561504e-14 8.3629451e-14
-0.561516 0.486618 0.253803 1 -1.1138761e-15 1.2623427e-14
-0.204188 0.484157 -0.0857027 -1 2.1969864e-16 2.3208222e-16
-0.816751 -0.128328 0.247266 1 9.0253962e-15 -2.1936315e-13
-0.816751 -0.191453 -0.244244 1 -2.4510218e-15 -2.4396457e-14
-0.816751 -0.602342 -0.0497942 -1 2.8628241e-14 9.3579122e-15
-0.561516 -0.772728 -0.169343 -1 3.6091432e-14 3.9660259e-14
0.816751 -0.191453 0.244244 1 -9.0419304e-16 5.3216632e-16
-0.816751 -0.261222 -0.237369 1 2.9802515e-15 2.6252832e-14
0.561516 0.823423 0.106807 -1 4.404266e-14 2.591118e-14
0.816751 -0.244485 -0.239628 1 -5.4339384e-16 -3.2565695e-15
-0.816751 -0.508291 0.161919 1 2.7476243e-14 -4.3934355e-14
0.816751 0.214911 -0.241905 1 3.8775556e-15 -4.2924369e-14
-0.816751 -0.125781 -0.247269 1 7.7128044e-16 2.6289878e-14
0.204188 0.999331 0.0125733 -1 1.1196603e-17 -3.3827669e-17
0.204188 -0.474742 0.055481 -1 1.6782389e-15 3.5146814e-16
0.816751 -0.342966 -0.225096 1 1.015608e-14 4.8190557e-14
-0.816751 0.472584 0.18079 1 1.5342687e-16 3.3209899e-16
0.204188 0.703134 -0.252579 1 -5.0752874e-16 -3.4672244e-15
-0.561516 -0.623148 0.244244 1 -4.5583031e-14 2.0528511e-13
-0.816751 0.263869 -0.237391 1 4.6163557e-15 -3.8131916e-14
0.816751 -0.0377213 0.249297 1 1.1930141e-15 -9.617111e-14
-0.561516 -0.361052 -0.235806 1 -1.3825554e-14 6.0167043e-14
0.204188 0.495817 0.111336 -1 0 0
0.561516 -0.0837426 0.161919 1 -1.2484462e-15 -5.5342594e-15
-0.204188 -0.489257 0.0982847 -1 -5.0192733e-15 -2.3081548e-15
-0.816751 0.0518203 -0.249354 1 9.567066e-16 -1.0877303e-13
-0.204188 0.961788 -0.131813 -1 2.5065096e-14 -1.5498879e-14
-0.561516 -0.170375 0.181889 1 -7.1866951e-15 -2.3047622e-14
0.561516 -0.771798 0.170168 -1 7.00732e-14 -7.7527061e-14
-0.816751 -0.0185642 -0.249683 1 -1.2200919e-15 -1.9573687e-13
-0.204188 -0.999103 -0.0180134 -1 -4.1130334e-14 -3.0400162e-15
0.204188 0.509753 -0.134629 -1 -5.5667977e-14 -3.7243106e-14
0.561516 -0.590396 -0.25033 1 4.2057229e-14 2.9406405e-13
-0.561516 -0.280254 0.214776 1 8.6291526e-16 3.9688107e-15
0.204188 0.561046 0.191684 1 -2.0905424e-14 2.5261014e-14
0.561516 0.75623 -0.18258 1 1.5209711e-14 -2.034553e-14
0.204188 0.965845 -0.125338 -1 1.3117404e-14 -7.6294737e-15
-0.816751 -0.0201517 0.249769 1 1.0431303e-15 -2.2361518e-13
0.816751 -0.416327 -0.204863 1 1.1187356e-14 3.3684681e-14
-0.561516 0.232546 0.200262 1 -2.6153201e-15 9.5480352e-15
-0.561516 0.420522 -0.246944 1 3.6898777e-14 2.3504432e-13
0.816751 -0.545776 -0.134502 -1 -1.1983994e-14 -1.336218e-14
0.561516 -0.440141 0.249862 1 -1.7891161e-14 -1.3973634e-13
0.561516 0.727565 -0.202499 1 -1.3574985e-14 2.1668449e-14
0.204188 -0.925644 0.17726 -1 2.4451678e-14 -2.4635998e-14
0.561516 -0.170286 0.182347 1 8.3244579e-15 3.3045655e-14
-0.561516 0.323771 0.226279 1 8.2257645e-15 -3.2234394e-14
-0.204188 0.910921 -0.191071 1 0 -0
0.816751 -0.607819 -0.0277701 -1 -2.7971826e-14 -4.8024117e-15
0.816751 0.563669 0.115254 -1 -1.2553046e-14 -1.0785522e-14
-0.816751 0.220837 -0.24168 1 9.6394686e-18 2.2821685e-15
0.204188 0.834392 0.236537 1 -0 0
-0.204188 0.995207 -0.0482812 -1 1.247616e-14 -2.6514807e-15
0.816751 0.605353 0.0373582 -1 -6.7677029e-15 -1.9753347e-15
0.204188 0.620169 0.228899 1 -6.2904076e-15 1.3411319e-14
-0.204188 0.55875 -0.189911 1 5.3598005e-17 -1.1337457e-18
-0.204188 0.978967 0.0998355 -1 0 0
-0.204188 -0.475572 -0.058684 -1 1.0815363e-15 -2.8711641e-16
-0.816751 -0.308454 -0.230706 1 -2.8296656e-15 -1.5662894e-14
0.816751 0.534281 -0.143824 1 1.3512456e-14 -1.6665391e-14
0.561516 -0.0461647 0.156435 1 -1.9015373e-15 -1.7267657e-14
0.561516 -0.706145 -0.215081 1 2.7507479e-13 5.4901357e-13
-0.561516 0.431216 0.248434 1 2.3311382e-14 -1.6523982e-13
-0.204188 -0.617535 0.227738 1 1.315632e-14 2.7465704e-14
-0.561516 -0.475638 -0.253393 1 7.2298558e-15 -9.848229e-14
-0.204188 0.820948 0.241371 1 -1.0218933e-14 -3.1009302e-14
-0.816751 0.195227 0.243443 1 -4.6771136e-15 -6.2114065e-14
-0.204188 0.999205 -0.0153474 -1 7.2482727e-15 -5.4748249e-16
0.816751 -0.609019 0.0187628 -1 4.3080838e-14 -5.6079071e-15
0.816751 0.132894 -0.247095 1 6.2206187e-16 -1.3272702e-14
-0.561516 0.375158 -0.238596 1 -9.4768159e-15 -4.5826031e-14
0.561516 -0.473148 0.253157 1 -0 0
0.204188 0.995207 0.0482812 -1 2.1832715e-14 4.2792149e-15
0.816751 0.145873 0.24648 1 1.091022e-14 2.1673422e-13
-0.204188 0.980802 -0.0955506 -1 3.1718117e-15 -1.342723e-15
-0.204188 0.992403 0.0595119 -1 1.6053603e-14 3.9394172e-15
0.204188 -0.846141 0.231722 1 -1.3054717e-15 2.6617415e-15
0.816751 0.398545 -0.209303 1 2.4408005e-15 -7.8562759e-15
-0.816751 0.590097 0.0756427 -1 -1.9602011e-16 -2.2603281e-16
0.816751 0.584098 0.0869659 -1 -1.1772328e-14 -7.366138e-15
-0.816751 0.609514 0.011751 -1 -3.5391205e-14 -3.4611558e-15
0.561516 -0.676256 -0.228326 1 -1.1731868e-13 -3.0542336e-13
-0.816751 0.57238 0.103763 -1 6.7751839e-15 4.8219566e-15
0.816751 -0.11593 0.247723 1 -8.7343283e-16 2.4764016e-14
0.204188 -0.849662 -0.230287 1 -2.6850261e-15 -5.6832419e-15
-0.561516 0.394944 0.24203 1 1.2253632e-15 -8.5083434e-15
0.561516 0.135213 0.172781 1 -1.1386771e-14 4.6502236e-14
0.204188 0.480393 0.0762662 -1 0 0
-0.561516 0.628426 -0.242546 1 9.2095276e-15 -3.9139143e-14
-0.204188 0.763682 -0.253414 1 -1.3313661e-15 1.4011606e-14
0.816751 0.438648 0.197614 1 8.2458281e-15 2.2524416e-14
-0.816751 -0.374334 0.217048 1 3.4860183e-15 -1.5303101e-14
0.561516 -0.851076 0.02189 -1 -1.0865841e-13 1.133311e-14
0.561516 -0.300177 -0.219888 1 8.244761e-16 -4.6039191e-15
-0.561516 0.6602 -0.233931 1 -4.0554659e-14 1.2133629e-13
-0.204188 0.528779 0.159768 -1 -4.2489165e-15 3.7514686e-15
-0.204188 0.621955 0.229448 1 4.1132841e-15 -9.0079106e-15
-0.204188 0.942982 -0.1585 -1 -1.5599024e-14 1.2749479e-14
0.816751 0.59995 -0.0532879 -1 3.3666071e-14 -1.2003758e-14
0.816751 -0.00513446 0.249953 1 -2.6568421e-16 5.6117334e-14
-0.561516 0.111195 -0.167066 1 4.5562538e-15 1.9554865e-14
0.204188 0.670731 -0.246618 1 2.7726321e-15 1.1186657e-14
0.204188 -0.543937 -0.176212 1 -9.7072437e-15 9.9006104e-15
0.561516 0.244952 0.204341 1 2.9441794e-15 -1.0710437e-14
0.561516 0.629723 -0.241867 1 5.9399395e-16 -4.2110213e-15
-0.561516 -0.242443 -0.203827 1 -1.0037283e-15 4.1421334e-15
0.204188 0.801813 0.24709 1 -6.2897004e-15 -2.5339647e-14
-0.561516 -0.248322 0.205244 1 5.6651052e-15 2.1379338e-14
-0.204188 0.659006 0.243717 1 -9.2548095e-16 3.0296201e-15
0.561516 0.341528 -0.231073 1 -1.5039513e-15 -6.6522946e-15
0.561516 0.147488 -0.175887 1 2.3282535e-15 9.2178644e-15
0.816751 -0.150258 0.246141 1 4.149922e-15 -8.5337777e-14
-0.561516 -0.0215482 0.154055 1 -2.9420185e-15 -5.1926372e-14
-0.204188 -0.510681 0.136361 -1 0 0
-0.204188 -0.976479 -0.104961 -1 -3.048607e-14 -1.4047314e-14
0.816751 -0.447875 -0.193418 1 -2.1972196e-14 -5.3471166e-14
0.816751 -0.204711 -0.24309 1 -2.9480801e-15 -4.0549649e-14
0.816751 0.172263 -0.245239 1 3.022572e-15 -5.1021678e-14
-0.204188 0.508037 0.132017 -1 -4.0668903e-14 2.652347e-14
0.816751 0.302523 0.231734 1 8.346558e-15 5.0836571e-14
-0.204188 -0.799742 -0.247613 1 -7.4454183e-15 -3.0858804e-14
0.816751 -0.168936 -0.245616 1 3.3192641e-15 5.4863416e-14
0.204188 0.516145 0.14407 -1 -4.1058578e-14 3.0039466e-14
0.816751 0.0968056 -0.248423 1 1.8514899e-15 -7.1439565e-14
-0.204188 -0.534942 -0.167113 -1 1.9675338e-14 -1.8223958e-14
-0.561516 -0.799648 0.1418 -1 6.9257486e-14 -5.7337322e-14
0.816751 -0.396248 0.211225 1 -1.3329125e-15 6.9434722e-15
0.816751 0.360875 0.220444 1 -5.4895131e-15 -2.2802488e-14
0.816751 0.113274 0.247755 1 9.1239511e-15 2.5370535e-13
0.561516 0.529941 0.254881 1 4.3207357e-15 2.2709168e-13
-0.816751 0.0149672 -0.249742 1 5.9702252e-16 -3.755162e-13
0.204188 -0.468138 -0.0102875 -1 1.9328098e-14 -9.4487659e-16
-0.816751 -0.33835 0.226032 1 -5.9818738e-15 3.1631646e-14
-0.816751 -0.532447 -0.145154 -1 2.5426362e-14 3.2180004e-14
-0.204188 0.84958 -0.230287 1 -4.38336e-16 8.0802368e-16
-0.561516 -0.714862 0.210562 1 -3.4338223e-15 6.148839e-15
-0.204188 0.684705 -0.250027 1 -0 0
-0.204188 -0.76288 -0.253425 1 -6.5619707e-15 -6.7645887e-14
-0.816751 -0.283206 0.234829 1 2.7088176e-15 -2.1460185e-14
-0.816751 0.564775 -0.113902 -1 -1.7234119e-14 1.5109662e-14
-0.561516 -0.437007 0.249394 1 -9.3523123e-15 -6.6866656e-14
-0.561516 0.50265 -0.254686 1 1.8439863e-15 6.3477085e-14
0.561516 0.823482 -0.106608 -1 -3.2691344e-15 1.3205951e-15
-0.561516 -0.676238 -0.228309 1 2.3825178e-14 6.1144286e-14
-0.561516 0.016225 0.153708 1 7.3115496e-16 -2.2444733e-14
-0.561516 0.645344 0.238331 1 3.2479321e-15 1.1248922e-14
0.204188 -0.596806 -0.216732 1 -2.8407939e-15 4.7670537e-15
-0.561516 0.583578 -0.251071 1 -1.6360498e-14 1.264087e-13
-0.561516 -0.351626 0.233511 1 -1.7073869e-14 -7.2491816e-14
0.561516 0.643283 0.238726 1 -3.4483716e-15 -1.3111406e-14
0.204188 0.886923 -0.20904 1 -4.0439221e-14 5.9738523e-14
0.561516 0.276236 0.21355 1 -6.8807678e-15 2.7577152e-14
-0.204188 0.473772 -0.0532756 -1 -6.947651e-15 -1.4626149e-15
0.816751 0.360569 -0.220181 1 -5.5764003e-15 2.3823081e-14
0.204188 -0.993847 0.0543929 -1 -5.4810443e-14 1.2051954e-14
-0.561516 0.843962 0.0584165 -1 -3.3204509e-14 -9.8321147e-15
-0.816751 -0.545776 0.134503 -1 -2.3684495e-14 2.6841447e-14
0.204188 0.545282 -0.17721 1 5.2396638e-14 5.4081888e-14
-0.816751 0.280057 0.234587 1 -3.3348598e-15 -2.5006557e-14
-0.561516 -0.443274 -0.25033 1 -4.9615141e-15 4.009079e-14
-0.816751 0.122884 -0.247463 1 7.6704822e-15 -2.0069385e-13
-0.816751 0.302523 -0.231734 1 8.8590541e-15 -5.5941978e-14
0.204188 -0.472898 -0.0479738 -1 3.8733982e-14 -7.9368314e-15
-0.204188 0.468258 -0.0130203 -1 4.0088883e-14 2.2017135e-15
-0.816751 0.128246 0.247266 1 1.1885109e-15 4.1330705e-14
-0.204188 0.586922 -0.210413 1 2.0604201e-14 3.173881e-14
0.561516 0.428942 0.248103 1 -4.3794437e-14 3.0353436e-13
-0.561516 -0.163974 -0.180478 1 5.7793672e-16 -1.7299082e-15
-0.204188 -0.582802 0.207706 1 -1.6833773e-15 -2.6671448e-15
0.204188 -0.967481 0.122901 -1 0 0
0.561516 0.205497 0.192558 1 2.2059645e-15 -6.524017e-15
0.204188 -0.639263 -0.237031 1 2.2319428e-17 2.1875511e-16
-0.816751 0.545694 0.134504 1 7.3760754e-15 8.2693887e-15
0.561516 -0.848995 -0.0360291 -1 1.1693924e-14 1.9473566e-15
-0.561516 0.248058 -0.20528 1 -2.7295476e-15 -1.1411741e-14
-0.561516 0.0786384 -0.160682 1 1.0889944e-15 4.3349413e-15
0.204188 0.591123 0.213122 1 1.2445374e-14 -1.9997377e-14
-0.204188 -0.901502 0.198642 1 1.6420839e-14 -2.1263023e-14
-0.204188 0.925562 0.17726 -1 -3.2321807e-14 -3.2278138e-14
0.816751 -0.439554 0.197298 1 1.5221846e-14 -3.9284919e-14
-0.204188 0.960407 0.13387 -1 -1.4243707e-14 -9.0260952e-15
0.561516 -0.556526 -0.254005 1 9.9250964e-17 -1.9940859e-15
0.204188 -0.670812 0.246618 1 5.0998556e-16 2.5886769e-15
0.204188 0.772161 -0.252683 1 1.2672891e-14 -9.7854665e-14
-0.561516 -0.556526 0.254005 1 -3.9192986e-15 5.4015317e-14
-0.816751 0.361039 0.220047 1 1.6790606e-15 9.4215644e-15
0.561516 0.375152 -0.238418 1 -7.455448e-15 -3.3991802e-14
0.561516 -0.43309 -0.248809 1 0 -0
-0.816751 -0.0570213 0.249315 1 3.4144239e-15 -2.122661e-13
0.561516 -0.170374 -0.181889 1 -4.7320518e-15 1.7999398e-14
-0.561516 -0.131882 -0.173055 1 -1.5635258e-15 6.8726821e-15
-0.816751 0.465422 -0.185193 1 -1.5020938e-14 3.1326792e-14
0.561516 0.804778 0.134731 -1 0 0
0.204188 -0.987158 -0.0781232 -1 6.1128807e-14 2.0240064e-14
-0.816751 -0.393154 -0.212219 1 -6.6854674e-15 -2.17298e-14
0.561516 -0.313944 0.224238 1 6.3189145e-15 2.396459e-14
0.816751 -0.277078 0.235806 1 -8.219351e-15 6.1636413e-14
0.561516 0.167428 0.181257 1 1.1323615e-15 -7.1415795e-15
0.561516 0.307823 0.222363 1 -1.8751436e-14 6.9795277e-14
0.816751 -0.309327 -0.230662 1 1.1718683e-14 7.1680657e-14
-0.204188 -0.838871 0.234803 1 -1.4746089e-14 3.5601117e-14
0.561516 -0.623148 -0.244244 1 1.8137228e-14 8.3409308e-14
0.816751 -0.327278 0.227646 1 1.8994272e-14 -1.0276146e-13
0.561516 0.577104 0.251774 1 -4.0133494e-15 -3.6020516e-14
0.561516 -0.714584 0.210727 1 -1.0136991e-14 1.9008413e-14
-0.204188 -0.468015 -0.00356714 -1 -2.6230593e-14 4.3342046e-16
0.561516 -0.137854 -0.173467 1 -4.7703217e-15 1.3401024e-14
0.561516 0.433904 -0.248748 1 1.5506334e-15 8.2988267e-15
0.816751 0.0652215 0.249213 1 2.3340809e-16 2.1995902e-14
0.204188 0.492912 -0.105434 -1 1.7713971e-14 8.8413463e-15
0.816751 -0.129695 -0.247216 1 1.746844e-15 2.9503204e-14
0.561516 0.0259845 -0.154355 1 7.958433e-16 1.570514e-14
-0.561516 0.790159 0.151667 -1 -8.1000931e-14 -7.4070913e-14
0.204188 -0.995741 -0.0452046 -1 -7.7841112e-14 -1.4454127e-14
-0.204188 0.738399 0.254768 1 8.2978342e-19 -1.5692254e-14
0.561516 -0.830144 0.0950538 -1 -9.8074624e-15 4.4400222e-15
0.816751 0.393605 0.211586 1 1.4030965e-14 4.8241197e-14
-0.204188 -0.87048 -0.219431 1 5.9844728e-15 1.0553289e-14
-0.204188 -0.768398 0.252901 1 -1.0215544e-15 8.0715922e-15
-0.561516 0.210094 -0.193915 1 7.0164605e-17 8.6292205e-16
0.816751 0.214783 0.242151 1 5.0715803e-15 6.0408542e-14
0.816751 0.283291 -0.234111 1 -2.4045291e-15 1.6923296e-14
0.204188 -0.998986 0.0201033 -1 3.3383349e-14 -2.8245108e-15
-0.816751 0.359086 -0.220898 1 8.7064264e-15 -3.6737981e-14
-0.816751 0.188403 -0.244206 1 1.8028169e-14 -2.751943e-13
-0.816751 0.155725 -0.246059 1 2.5845682e-14 -5.1034341e-13
0.204188 -0.469035 0.0235361 -1 1.9215511e-14 1.894312e-15
0.204188 0.960734 0.133566 -1 -5.2536687e-14 -3.3206306e-14
-0.204188 -0.999035 0.0208948 -1 5.9328566e-14 -5.0782151e-15
-0.204188 0.488553 0.0969044 -1 1.3894697e-14 -6.3259788e-15
-0.561516 0.167036 0.181032 1 2.841691e-15 -1.3448699e-14
-0.816751 -0.602342 0.0497932 -1 -4.3701419e-15 1.2628688e-15
-0.816751 0.436521 0.198426 1 2.5052521e-14 6.6147124e-14
-0.204188 -0.630983 -0.233734 1 5.6476968e-15 -1.3445355e-14
-0.561516 -0.590396 0.25033 1 -3.0061379e-14 2.1667212e-13
0.816751 -0.579561 0.0950538 -1 2.8818463e-14 -1.9990795e-14
0.561516 0.0212098 0.154038 1 0 -0
-0.816751 -0.569011 0.108995 -1 8.1138322e-15 -6.2193412e-15
-0.561516 -0.074349 -0.160548 1 -2.3171385e-15 1.2315005e-14
0.561516 0.393328 0.242296 1 -1.0862057e-14 5.8337306e-14
-0.816751 0.605352 -0.0373582 -1 -4.4251277e-15 1.0239089e-15
-0.561516 -0.402536 0.244244 1 8.9648817e-15 4.9394969e-14
0.204188 -0.811747 -0.244189 1 1.3010482e-14 4.570116e-14
0.816751 0.0482247 -0.249422 1 1.1735482e-15 -8.8679056e-14
-0.561516 0.610352 0.246252 1 -2.5476181e-14 -1.3249896e-13
-0.204188 -0.568661 -0.197318 1 1.52476e-14 -1.9805265e-14
0.204188 -0.48173 -0.0794116 -1 -5.8641349e-14 2.0856617e-14
-0.204188 -0.86884 0.220642 1 1.3703326e-14 -2.4538806e-14
0.561516 -0.267153 -0.211224 1 -4.4278484e-15 1.9021085e-14
0.561516 0.357599 0.234774 1 -5.4256381e-15 2.5951988e-14
0.204188 -0.711228 -0.253688 1 -3.0384217e-15 3.0723255e-14
-0.561516 -0.205002 -0.192627 1 -3.1036961e-15 1.155484e-14
0.816751 0.178457 0.244979 1 1.3160811e-15 2.2955189e-14
0.561516 0.8509 -0.0235489 -1 7.3504306e-14 -8.7022451e-15
-0.204188 0.772161 0.252683 1 -1.3477384e-15 -1.0091798e-14
0.561516 -0.279646 0.214795 1 -2.743642e-16 5.6940876e-16
-0.816751 -0.158617 -0.245757 1 -5.1751657e-15 -9.7814454e-14
-0.561516 -0.76715 0.174292 1 -2.2425052e-14 2.5454371e-14
-0.204188 -0.992604 0.058963 -1 -4.3320608e-14 1.0548475e-14
-0.561516 -0.00133799 -0.154437 1 3.4164765e-16 6.2029339e-15
-0.204188 0.553388 0.185064 1 1.8042967e-14 -2.0147988e-14
-0.561516 0.462241 -0.252101 1 -1.2013151e-14 -1.2300002e-13
0.816751 -0.598515 -0.0589053 -1 -2.260623e-14 -8.5092913e-15
-0.204188 -0.727137 -0.254488 1 1.3743553e-15 -4.0804869e-14
0.561516 -0.0128961 0.154642 1 -4.1049184e-16 -7.4278938e-15
0.561516 -0.375234 -0.238418 1 0 -0
-0.816751 -0.2478 0.23934 1 1.1138049e-15 -1.4604138e-14
0.561516 0.78254 -0.15935 -1 5.8027304e-14 -5.7512275e-14
-0.561516 -0.474144 0.253211 1 -2.828877e-15 -3.0153308e-14
0.561516 -0.217817 -0.196393 1 2.1802299e-15 -8.1025627e-15
-0.816751 -0.0924277 -0.248196 1 4.5277627e-15 1.749263e-13
0.204188 -0.973834 -0.110374 -1 6.3122011e-14 3.1089214e-14
-0.561516 0.310636 -0.223139 1 -2.8310341e-15 -7.9462491e-15
-0.204188 0.851714 0.229411 1 -5.8487527e-15 -1.2422523e-14
0.204188 0.863964 0.223053 1 1.2771341e-14 2.3699059e-14
-0.561516 0.8509 0.023549 -1 -2.479547e-15 -4.3744304e-16
0.816751 0.473158 0.181106 1 -1.2563342e-14 -2.5104383e-14
0.561516 -0.804986 -0.13464 -1 2.6809685e-14 2.101879e-14
-0.204188 -0.601627 -0.219323 1 6.6681465e-16 -1.2065539e-15
0.204188 0.947302 -0.152552 -1 2.0363686e-14 -1.5890364e-14
-0.204188 0.696846 0.251764 1 -1.0159241e-16 7.3834575e-16
0.561516 0.102188 0.164922 1 1.5438573e-14 -6.9318506e-14
0.204188 0.620166 -0.228591 1 6.7409181e-15 1.4420166e-14
0.561516 -0.781095 -0.161919 1 -1.4875801e-14 -1.5198982e-14
0.561516 0.844581 0.0564482 -1 7.8510647e-14 2.1874489e-14
-0.816751 0.538696 -0.140514 -1 5.3311071e-15 -6.0639395e-15
0.816751 -0.508291 -0.161919 1 -2.5025565e-14 -4.0257705e-14
-0.816751 0.0160476 0.249819 1 -8.6687123e-16 -1.955254e-13
-0.561516 0.131199 0.1716 1 -2.1316216e-15 6.0094114e-15
0.561516 0.561475 -0.253504 1 1.5353453e-15 -2.6252992e-14
-0.816751 0.318865 0.228883 1 -3.2161988e-15 -1.4909166e-14
0.204188 -0.591553 0.213103 1 2.2872465e-14 3.6754372e-14
-0.204188 -0.693784 -0.251356 1 -2.680419e-16 1.4347613e-15
0.204188 0.741348 0.254711 1 4.5687664e-17 3.2384347e-15
-0.561516 0.356812 0.234412 1 4.5785732e-15 -1.9034446e-14
-0.204188 -0.489724 -0.0990371 -1 -6.5916646e-16 3.7590472e-16
-0.204188 0.813306 -0.243705 1 -4.5848507e-15 1.6159067e-14
0.561516 -0.734598 -0.198791 1 -4.1145188e-14 -6.4771781e-14
0.204188 -0.949422 0.149981 -1 -2.8181816e-15 2.0365298e-15
0.204188 -0.492994 0.105434 -1 1.3973491e-13 6.8845498e-14
0.816751 0.481194 -0.176483 1 2.9247171e-15 -5.4999827e-15
0.204188 0.979627 0.0980212 -1 0 0
0.561516 -0.742228 0.193561 1 -5.9227897e-14 8.5515017e-14
-0.204188 0.90039 0.199596 1 2.5015061e-14 3.2535506e-14
0.561516 -0.105513 -0.165448 1 -3.9077565e-15 1.9123247e-14
-0.204188 -0.937197 -0.165408 -1 3.5136859e-14 3.0688895e-14
0.561516 -0.361052 0.235806 1 2.4428366e-14 1.0555752e-13
0.816751 0.508382 0.161155 1 -9.4333861e-15 -1.5399829e-14
0.561516 0.111652 -0.166456 1 9.4782158e-16 1.5830653e-15
0.561516 -0.593671 0.249721 1 -7.3985525e-15 4.7456095e-14
-0.204188 0.468494 0.0203453 -1 5.2636752e-14 -4.5083019e-15
-0.204188 0.499801 -0.119167 -1 -4.0078258e-15 -2.4038011e-15
-0.204188 -0.839074 -0.234611 1 1.2867353e-14 3.1590882e-14
