0.929131 0 -0.17418 0.868444 0.000200344 -0.495787
-0.985102 0 0.0841211 -0.725578 0.0236935 0.687732
-0.505831 0.861282 1.19209e-07 -0.304287 0.952578 0.00227346
0 -0.588805 0.190898 -0.000263775 0.581145 0.8138
0.887643 0.4593 1.19209e-07 0.997559 0.0697861 0.00233231
-0.431073 0.900993 1.19209e-07 -0.384538 0.923094 0.00534903
0.436374 0.24335 1.19209e-07 0.991416 0.128792 -0.0225278
0.442708 0.232002 1.19209e-07 0.994814 0.0985899 -0.0250112
-0.277303 -0.960192 1.19209e-07 0.192066 -0.981382 0.000487875
0 0.943252 -0.158598 0.0048226 0.93783 -0.347062
-0.273729 0.961087 1.19209e-07 0.0042245 0.999949 0.00919377
0 -0.501032 0.0210035 -0.00144854 0.674506 0.738268
-0.417837 0.274278 1.19209e-07 -0.955943 0.289723 -0.0472568
-0.0931326 -0.491047 1.19209e-07 0.96531 -0.256794 -0.0472554
-0.795306 0 0.24571 -0.0653123 -0.000587438 0.997865
-0.0311875 0.498468 1.19209e-07 0.979829 -0.199358 0.0138578
0 0.888893 0.207867 0.00609807 0.523697 0.851883
0.232341 -0.971454 1.19209e-07 0.0526604 -0.998602 0.00447575
-0.334475 -0.941129 1.19209e-07 0.0019821 -0.999996 0.00182083
0.361791 0.344464 1.19209e-07 0.871929 0.489211 -0.0202997
-0.87534 -0.482376 1.19209e-07 -0.853425 -0.52114 0.00890181
0.456695 0.202431 1.19209e-07 0.99941 0.0207895 -0.0273514
0.870953 -0.489695 1.19209e-07 0.974322 -0.224847 0.011807
-0.191342 0.46194 1.19209e-07 0.21833 0.973784 -0.0638552
-0.223601 -0.446683 1.19209e-07 -0.0365265 -0.996868 -0.0701396
0 0.608293 0.205779 0.00604441 -0.469072 0.883139
-0.208071 -0.977533 1.19209e-07 -0.11447 -0.993426 0.0013731
0 0.991222 -0.0646383 0.00254407 0.696951 -0.717115
0.946878 0.318406 1.19209e-07 0.989356 -0.145511 -0.000732759
0.77042 0 -0.248997 0.0963122 0.00222622 -0.995349
-0.510765 0 0.0725712 0.76724 -0.0151531 0.641181
0.966271 0.253035 1.19209e-07 0.993198 0.116437 -0.000706811
0 0.500803 -0.0163358 -0.00842122 -0.8285 -0.559926
0.754084 0 -0.249799 0.0216122 0.00214938 -0.999764
0.290922 -0.405992 1.19209e-07 0.259728 -0.964707 -0.0433798
0.247176 -0.434081 1.19209e-07 0.216303 -0.974882 -0.0530827
0 -0.742999 0.249656 0.00056666 0.0721553 0.997393
-0.427201 -0.258655 1.19209e-07 -0.911421 -0.406018 -0.0667953
-0.987672 0.148664 1.19209e-07 -0.930703 0.365408 -0.0164008
0.737748 0 -0.249398 -0.0644382 0.00194536 -0.99792
-0.997253 0 -0.034905 -0.736223 -0.0325972 -0.675954
0 -0.667529 -0.235693 -0.00420404 0.34512 -0.938549
-0.290922 0.405992 1.19209e-07 -0.269066 0.961547 -0.0550525
-0.67736 -0.734068 1.19209e-07 -0.641211 -0.767327 -0.00762633
-0.713362 0 -0.246996 0.16246 -0.00243809 -0.986712
0.390749 -0.920065 1.19209e-07 0.229508 -0.973261 -0.00938448
-0.853064 0 0.227473 -0.378158 0.00313541 0.925736
-0.098017 0.995185 1.19209e-07 -0.188613 0.981661 -0.0277024
0 0.54944 0.148745 -0.00131305 -0.714529 0.699604
-0.503775 0 -0.0418389 0.531126 -0.00844713 -0.847251
0 -0.746499 -0.249828 -0.00392077 0.0899804 -0.995936
0.982151 0 -0.0923709 0.832453 0.00626233 -0.554061
-0.892867 0.448254 1.19209e-07 -0.992616 0.121296 -0.00122116
0 -0.926777 -0.176777 0.0231624 -0.779275 -0.626254
0.510765 0 0.0725712 -0.7961 0.00499185 0.605144
0.718568 0.694461 1.19209e-07 0.819097 0.573642 -0.00389655
0 -0.95056 0.148745 0.0160804 -0.969782 0.243442
-0.983915 0.173987 1.19209e-07 -0.973716 0.227621 -0.00810975
0.994531 -0.102429 1.19209e-07 0.950879 -0.30641 -0.0440787
-0.734068 0.67736 1.19209e-07 -0.442701 0.896624 -0.00900841
-0.247177 0.434081 1.19209e-07 -0.417116 0.906938 -0.0589677
0.449702 0.217216 1.19209e-07 0.977819 0.207893 -0.0255
-0.203439 0.456218 1.19209e-07 0.130858 0.989497 -0.0614231
0.865868 0.498179 1.19209e-07 0.920504 0.390728 0.00187297
0.414943 -0.908622 1.19209e-07 0.355458 -0.934649 -0.00902232
0.54944 0 0.148745 -0.759033 0.000853073 0.651052
0.935379 -0.350544 1.19209e-07 0.996346 -0.0850444 0.00792964
0.382683 0.92388 1.19209e-07 -0.0479211 0.998821 -0.00771161
0 0.514897 -0.0841209 0.0108404 -0.707565 -0.706565
0 -0.98097 0.0956711 -0.00527522 -0.818418 0.574599
0.991912 -0.120079 1.19209e-07 0.94987 -0.309709 -0.0427428
-0.634393 0.77301 1.19209e-07 -0.636979 0.770866 -0.00489605
-0.244757 0.968344 1.19209e-07 -0.153225 0.988131 0.0108888
0.991912 0.120079 1.19209e-07 0.895078 0.444392 -0.0367686
-0.697191 -0.716094 1.19209e-07 -0.747085 -0.664696 -0.00653306
-0.47847 0.145142 1.19209e-07 -0.560559 -0.826128 -0.0573185
-0.406878 -0.912437 1.19209e-07 -0.0860819 -0.996279 0.00419795
0.286146 -0.957977 1.19209e-07 -0.237424 -0.971404 -0.00199079
0.11918 -0.484973 1.19209e-07 -0.922773 -0.382564 -0.046204
-0.294301 -0.955503 1.19209e-07 0.141991 -0.989868 0.000229939
0 0.677429 0.239235 0.00515941 -0.29896 0.954252
-0.820841 0.569901 1.19209e-07 -0.837552 0.546303 -0.00769923
0.191342 0.46194 1.19209e-07 -0.188494 0.981055 -0.0447402
0.0490085 0.997592 1.19209e-07 0.0490813 0.996248 -0.0712737
-0.302337 0.952628 1.19209e-07 0.151147 0.988478 0.00810009
-0.490393 0.097545 1.19209e-07 -0.320384 -0.945676 -0.0552385
0 0.741832 0.249599 0.00400507 -0.0927517 0.995681
0 0.95578 0.141707 0.00336241 0.998241 0.0591855
0.67075 0.740059 1.19209e-07 0.564999 0.825066 -0.0065578
-0.914758 -0.401969 1.19209e-07 -0.997767 0.0661651 0.00907993
0 0.501204 0.0245041 0.013826 -0.636801 0.770904
-0.770015 0.637698 1.19209e-07 -0.778916 0.627088 -0.00711656
0 0.632151 -0.22048 0.00102466 -0.395176 -0.918605
-0.687276 -0.725081 1.19209e-07 -0.698201 -0.71587 -0.00674167
-0.96005 0.277868 1.19209e-07 -0.982158 -0.188037 -0.00283932
0.277304 0.960192 1.19209e-07 -0.104935 0.994467 0.00479591
-0.997592 -0.0490085 1.19209e-07 -0.968611 -0.246714 -0.0304187
0 -0.818605 -0.240228 0.00506179 -0.288142 -0.957574
0.317197 0.386505 1.19209e-07 0.5933 0.804722 -0.0204261
0.504804 0 0.0487721 -0.662561 -7.96094e-05 0.749008
-0.97048 0 -0.117849 -0.805173 0.0484101 -0.591061
-0.644824 0 0.226474 0.399844 -0.00289747 0.916579
0.258655 -0.427201 1.19209e-07 0.261779 -0.964078 -0.0450049
-0.0639241 -0.99686 1.19209e-07 -0.298061 -0.951343 -0.0781437
-0.145142 -0.47847 1.19209e-07 0.837227 -0.544117 -0.0546554
-0.738626 -0.672331 1.19209e-07 -0.765268 -0.643676 -0.00682547
0.497015 -0.866566 1.19209e-07 0.354154 -0.935108 -0.0121743
-0.44859 -0.219569 1.19209e-07 -0.987474 -0.13803 -0.076436
0.842371 0 -0.232151 0.269773 0.00247575 -0.962921
0.262481 0.424908 1.19209e-07 0.165286 0.985819 -0.0290128
0 -0.621629 0.214174 0.000674324 0.488831 0.872378
0 -0.992641 -0.0589721 -0.0249182 -0.697901 -0.715761
0 0.952995 -0.145461 0.00484713 0.917037 -0.398774
0 -0.504804 0.0487721 0.027877 0.724542 0.688667
-0.0122522 -0.499398 1.19209e-07 0.56699 0.81848 0.0928026
0.564985 0 0.167688 -0.678219 0.000907546 0.734859
0.315485 -0.947923 1.19209e-07 -0.261339 -0.965229 -0.00590672
-0.707107 0.707107 1.19209e-07 -0.722011 0.69184 -0.00759125
0.997593 0.0490085 1.19209e-07 0.997271 0.0649254 -0.0351528
0.517849 0 -0.0923709 -0.805858 0.00206272 -0.592106
-0.475223 -0.879628 1.19209e-07 -0.101857 -0.994793 0.00344725
-0.514897 0 0.0841211 0.676726 -0.0127975 0.736124
0.985367 -0.164203 1.19209e-07 0.974711 -0.222248 -0.0233395
0 0.997767 0.0314376 -0.0194316 0.761737 0.647595
-0.952432 0.302885 1.19209e-07 -0.970833 -0.239741 -0.0026865
-0.902968 0 -0.197428 -0.721332 0.0222296 -0.692233
0.494974 -0.0666585 1.19209e-07 0.102115 0.994374 -0.0281532
0.491048 0.0931325 1.19209e-07 0.25871 -0.965236 -0.037258
-0.887394 0.459826 1.19209e-07 -0.995834 0.0911735 -0.00167045
-0.707107 -0.707107 1.19209e-07 -0.775557 -0.63125 -0.00595163
0.131783 -0.990176 1.19209e-07 0.231983 -0.972544 -0.0185178
-0.624112 0.780635 1.19209e-07 -0.694479 0.719491 -0.00554368
-0.235698 -0.440961 1.19209e-07 -0.0388516 -0.996755 -0.0704937
0.431788 -0.251002 1.19209e-07 0.996679 -0.0757392 -0.0299184
0 0.5 1.19209e-07 0.0948412 -0.985194 0.142822
0 -0.632151 0.22048 -0.000816144 0.455524 0.890223
0.4593 -0.887643 1.19209e-07 -0.00494603 -0.999904 -0.0129409
0.976474 0 -0.105176 0.842052 0.00474884 -0.539375
-0.657529 -0.752042 1.19209e-07 -0.522384 -0.852682 -0.00691229
-0.991428 0.12334 1.19209e-07 -0.952988 0.301979 -0.0249485
0.989949 0.133316 1.19209e-07 0.900528 0.433761 -0.0300087
-0.887394 -0.459826 1.19209e-07 -0.957578 -0.28794 0.0116068
-0.967779 -0.247015 1.19209e-07 -0.9904 0.138184 -0.00358264
0 -0.878371 0.214174 0.00433883 -0.470381 0.882453
0.013366 0.999343 1.19209e-07 0.304126 0.950255 -0.0672535
-0.822571 0 -0.239235 -0.247366 0.00183064 -0.96892
0.150966 0.98733 1.19209e-07 0.234116 0.972208 0.000847193
0.808972 0 -0.242641 0.218003 0.0024203 -0.975945
0.591399 0.804898 1.19209e-07 0.292546 0.95621 -0.00894633
0 -0.774504 0.248796 0.000688467 -0.0728108 0.997345
0.391377 0.310628 1.19209e-07 0.722176 0.691361 -0.0219653
0.518974 -0.853405 1.19209e-07 0.656687 -0.753999 -0.0157233
0.480638 -0.136488 1.19209e-07 0.561697 0.826644 -0.0340019
0.0801958 0.99606 1.19209e-07 0.0712475 0.996664 -0.0398012
-0.486701 0.872748 1.19209e-07 -0.28943 0.957193 0.0034217
-0.544092 0.838349 1.19209e-07 -0.376513 0.926411 -0.000655706
-0.75 0 0.25 0.0586309 -0.00171601 0.998278
-0.632151 0 -0.22048 0.423604 -0.00388896 -0.905839
0.0843077 0.492356 1.19209e-07 -0.985585 0.166956 -0.0273433
-0.190678 0.98144 1.19209e-07 -0.192318 0.981274 0.0106973
0 -0.715095 -0.247253 -0.00149428 0.224911 -0.974378
-0.812869 0.58065 1.19209e-07 -0.86688 0.49842 -0.00982538
0 0.525024 0.108344 -0.000795239 -0.784034 0.620717
0.405992 0.290922 1.19209e-07 0.935082 0.353635 -0.0237437
0.235698 0.440961 1.19209e-07 -0.10208 0.994235 -0.0327929
-0.381013 0.323256 1.19209e-07 -0.806951 0.588147 -0.0539674
0 0.547004 -0.145461 -0.00417891 -0.753978 -0.656887
-0.582312 0 -0.185015 0.64722 -0.00607623 -0.762279
0.542132 0 0.138892 -0.780238 0.000975664 0.625482
-0.999124 -0.0178213 1.19209e-07 -0.885053 -0.463723 0.0405203
0.998997 0 0.0204201 0.768215 0.0203783 0.639868
0.974976 0 0.108344 0.829099 0.00745564 0.559051
-0.697191 0.716094 1.19209e-07 -0.740118 0.672432 -0.00772979
0.637698 0.770015 1.19209e-07 0.610322 0.792134 -0.00559445
0.999343 -0.013366 1.19209e-07 0.971663 -0.236103 0.0112042
-0.133316 0.989949 1.19209e-07 -0.168395 0.985669 -0.00993808
-0.307344 0.393812 1.19209e-07 -0.356229 0.932915 -0.0526399
0.893364 -0.447202 1.19209e-07 0.999322 -0.0337606 0.014716
-0.049009 -0.497592 1.19209e-07 0.995495 0.094302 -0.00982937
-0.99453 -0.102429 1.19209e-07 -0.977145 -0.210292 -0.0310781
-0.4593 0.887643 1.19209e-07 -0.228693 0.97348 0.00598845
0.454311 -0.207471 1.19209e-07 0.981432 0.189389 -0.0303636
0.500675 0.864373 1.19209e-07 0.293514 0.955885 -0.0115298
0 -0.701228 -0.245196 0.00389618 0.259704 -0.96568
0 0.510765 -0.0725709 -0.00762982 -0.787274 -0.616557
-0.605478 0 -0.203692 0.489154 -0.00486927 -0.872184
-0.556748 0 0.158598 0.718635 -0.00615863 0.69536
0.940506 0 0.161628 0.977719 -0.00179591 0.209908
0 -0.538529 0.13288 0.00291995 0.693871 0.720093
-0.187492 -0.463318 1.19209e-07 0.537995 -0.840561 -0.0633921
0.447202 0.893364 1.19209e-07 0.110399 0.993807 -0.0126311
0.841821 0 0.232348 0.291173 0.00134171 0.95667
-0.211504 -0.452404 1.19209e-07 0.205486 -0.976673 -0.0623349
0.794269 -0.60573 1.19209e-07 0.870034 -0.492979 0.00365182
-0.435105 -0.899086 1.19209e-07 -0.312928 -0.949769 0.00387851
0 -0.892177 -0.205431 0.00997668 -0.546227 -0.837578
0.822571 0 -0.239235 0.251408 0.00240061 -0.967878
0.998249 -0.0356425 1.19209e-07 0.940413 -0.339378 -0.0211033
0.987985 0.146553 1.19209e-07 0.910079 0.413674 -0.0251016
0 -0.849367 -0.229222 0.00284171 -0.280047 -0.959982
-0.492793 0.0813663 1.19209e-07 -0.079032 -0.995859 -0.0449296
-0.993307 0.110679 1.19209e-07 -0.988603 0.147972 -0.027726
-0.999312 0 0.0140024 -0.838655 -0.0502778 0.542337
0.0666579 0.494974 1.19209e-07 -0.990979 0.132743 -0.0184105
0.778093 0.627539 1.19209e-07 0.677015 0.735967 -0.00162155
0.164203 0.985367 1.19209e-07 0.255201 0.966866 0.00647846
0 -0.966876 0.123861 0.00614078 -0.872964 0.487745
-0.46194 -0.191342 1.19209e-07 -0.968279 0.236848 -0.0796189
-0.867849 0 0.22048 -0.463104 0.00510068 0.886289
0 0.995196 0.0487721 -0.00500731 0.732756 0.680474
0.693294 0 -0.243209 -0.29873 0.00140851 -0.954337
0.495629 0.0622454 1.19209e-07 -0.0130466 -0.999259 -0.0362113
0.488225 -0.106199 1.19209e-07 0.391511 0.919673 -0.0303468
-0.111254 -0.993221 1.19209e-07 -0.406032 -0.913231 -0.0338591
-0.972114 -0.229707 1.19209e-07 -0.995501 0.0945962 -0.00534289
-0.576132 -0.81622 1.19209e-07 -0.373528 -0.927608 -0.00447317
0.647614 0.761028 1.19209e-07 0.63049 0.776173 -0.0061521
-0.857792 0.511654 1.19209e-07 -0.951546 0.30746 -0.00530685
-0.977473 0 -0.103064 -0.781494 0.0354961 -0.622903
0 -0.579283 -0.182269 -0.00286478 0.638904 -0.769281
0 0.926777 0.176777 0.00594084 0.919338 0.393424
-0.766336 0 -0.249197 -0.0553565 -0.00104969 -0.998466
0 -0.879874 -0.213273 0.00793868 -0.499462 -0.8663
0 -0.835771 -0.234512 0.00219418 -0.259563 -0.965724
0.19509 0.980785 1.19209e-07 0.136114 0.990634 0.0108287
-0.393812 -0.307344 1.19209e-07 -0.903972 -0.421742 -0.0704863
-0.998968 0 -0.0210034 -0.823634 -0.0443743 -0.565383
0 -0.713362 0.246996 0.000655431 0.18526 0.982689
-0.95967 0 -0.135887 -0.895398 0.065334 -0.440447
0 -0.940506 0.161628 0.0303594 -0.977265 0.209837
-0.95694 -0.290285 1.19209e-07 -0.975751 0.218883 0.00100607
-0.980785 -0.195091 1.19209e-07 -0.955294 -0.295578 -0.00687449
-0.442868 -0.231666 1.19209e-07 -0.990778 -0.113289 -0.0743291
-0.0311872 0.998468 1.19209e-07 -0.328824 0.940866 -0.0815287
0 0.502404 -0.0325933 0.00941169 -0.381302 -0.924402
0 -0.680829 -0.240087 -0.00223599 0.317363 -0.948301
-0.761028 0.647614 1.19209e-07 -0.695584 0.718397 -0.00831574
0.489696 0.870953 1.19209e-07 0.0832745 0.996476 -0.0100598
-0.67075 0.740058 1.19209e-07 -0.778674 0.627363 -0.00903577
0.572706 -0.818761 1.19209e-07 0.494194 -0.869248 -0.0133933
-0.164203 -0.985367 1.19209e-07 -0.0287257 -0.99957 -0.00583522
-0.913792 0 -0.188546 -0.812152 0.031222 -0.58261
0.995196 0 0.0487721 0.752231 0.010718 0.658812
0.75 0 0.25 -0.00999634 0.00241365 0.999947
0.544592 -0.83805 1.19209e-07 0.720312 -0.693582 -0.0097304
0 -0.758168 0.249599 0.000776933 0.00346925 0.999994
0.0530537 -0.496992 1.19209e-07 -0.988342 0.150836 -0.0207186
0.403556 -0.294207 1.19209e-07 0.853842 -0.519131 -0.0381704
0.137729 0.989294 1.19209e-07 0.226378 0.974022 -0.00585114
-0.920231 -0.390398 1.19209e-07 -0.997956 0.0633057 0.00867074
-0.0666584 -0.494974 1.19209e-07 0.99281 -0.116282 -0.0284062
0 -0.511946 0.075871 0.0184673 0.815456 0.578524
0 0.905783 0.19534 0.0186962 0.668638 0.743353
-0.697828 0 -0.244344 0.222506 -0.00271393 -0.974927
0.498249 -0.0356429 1.19209e-07 -0.167973 0.98475 -0.0453111
0.136488 0.480638 1.19209e-07 -0.83687 0.545472 -0.0459275
0.586414 -0.808594 1.19209e-07 0.404027 -0.91465 -0.0133221
0 -0.693294 0.243209 -0.000598326 0.271405 0.962465
0.350248 0.356549 1.19209e-07 0.851685 0.523672 -0.0199782
-0.778325 0.627227 1.19209e-07 -0.81118 0.584744 -0.00784045
-0.306353 -0.95119 1.19209e-07 0.240711 -0.970597 0.000473434
0.0468782 -0.997697 1.19209e-07 -0.215299 -0.97281 -0.0853682
-0.98733 -0.150966 1.19209e-07 -0.974911 -0.221731 -0.0195959
0.952628 -0.302336 1.19209e-07 0.997635 0.0685656 0.00480712
0.123507 0.48389 1.19209e-07 -0.904971 0.423314 -0.0428152
-0.998196 0 0.0285487 -0.745988 -0.0417561 0.664649
-0.936816 -0.346528 1.19209e-07 -0.994568 -0.103855 0.00699574
0.44317 -0.895271 1.19209e-07 0.189414 -0.98183 -0.0114763
0.979748 -0.199229 1.19209e-07 0.993268 -0.115648 -0.00663368
0.968678 0 0.120855 0.81964 0.00683274 0.572838
-0.929891 0.365883 1.19209e-07 -0.999626 0.0273417 -0.000510757
0 -0.523526 -0.105176 0.00294607 0.779652 -0.626206
0.982151 0 0.0923711 0.814783 0.008842 0.579698
-0.424144 0.263756 1.19209e-07 -0.937638 0.343463 -0.0535496
0.178742 0.466448 1.19209e-07 -0.656953 0.751734 -0.0575213
0.261313 -0.964197 1.19209e-07 -0.0882793 -0.996095 0.00111864
0 0.523526 -0.105176 -0.00627246 -0.758587 -0.651542
0.997253 0 -0.034905 0.765035 0.0154995 -0.643802
-0.761549 -0.64704 1.19209e-07 -0.743867 -0.668312 -0.00459018
0 0.665879 -0.235102 -0.00161596 -0.30669 -0.951808
0 -0.654329 -0.23097 -0.00141511 0.377572 -0.925979
0 -0.732497 -0.24914 -0.00121554 0.166811 -0.985988
0.480457 0.137209 1.19209e-07 0.469489 -0.882645 -0.0227578
-0.166142 0.470956 1.19209e-07 0.81453 0.57676 -0.062362
-0.501204 0 0.0245041 0.701341 0.00226536 0.712823
-0.752041 0.657529 1.19209e-07 -0.567405 0.823386 -0.00934877
-0.190678 -0.98144 1.19209e-07 -0.200854 -0.97962 0.00117257
0.722029 0 -0.248282 -0.155745 0.00175658 -0.987796
-0.0623744 0.996936 1.19209e-07 -0.25861 0.964219 -0.0583254
0.709972 0.703946 1.19209e-07 0.718315 0.695705 -0.00424899
0.463318 0.187492 1.19209e-07 0.950865 -0.3081 -0.0304996
0 0.998196 -0.0285488 0.00236716 0.793229 -0.608919
-0.916389 0 0.186191 -0.883048 0.0310937 0.468251
0.435105 0.899086 1.19209e-07 0.356161 0.934365 -0.0105603
0 -0.664229 0.234512 0.00496781 0.301993 0.953297
-0.605478 0 0.203691 0.530974 -0.00383841 0.847379
-0.405992 -0.290922 1.19209e-07 -0.969715 -0.23517 -0.0659321
-0.900164 0.432826 1.19209e-07 -0.963064 0.269269 -0.000887497
0.664229 0 0.234512 -0.363501 0.00202878 0.931592
0.980785 0.19509 1.19209e-07 0.994403 0.105483 -0.00593731
0.0311873 0.998468 1.19209e-07 0.137398 0.987728 -0.0742603
0 -0.632151 -0.22048 -0.00449024 0.406827 -0.913494
0 -0.548396 0.147337 0.0022116 0.676579 0.736366
-0.221052 -0.974282 1.19209e-07 -0.116555 -0.993183 0.00172634
0.244757 -0.968344 1.19209e-07 0.0864402 -0.996252 0.00315315
0 0.936192 0.166389 0.00725579 0.988001 0.154275
0.690581 0.722085 1.19209e-07 0.61316 0.789942 -0.0051534
-0.0809705 -0.996022 1.19209e-07 -0.405977 -0.911998 -0.0586647
0 0.52952 -0.117849 -0.00469 -0.720174 -0.693777
-0.463332 -0.885735 1.19209e-07 -0.042586 -0.999084 0.00428141
0.733664 0 0.249197 -0.0594917 0.00239391 0.998226
-0.150966 -0.98733 1.19209e-07 -0.0482971 -0.998742 -0.01351
-0.558997 -0.828928 1.19209e-07 -0.586142 -0.810206 -0.00202368
0.95694 -0.290284 1.19209e-07 0.99594 -0.0899802 0.00276811
0 -0.510765 -0.0725709 0.0161436 0.837357 -0.546418
0 -0.5 1.19209e-07 0.0131603 0.910854 0.41252
-0.828813 0.559153 1.19209e-07 -0.857676 0.514166 -0.00499816
-0.835771 0 0.234512 -0.291582 0.00155204 0.956545
0.347494 -0.359045 1.19209e-07 0.620979 -0.783188 -0.0316443
-0.318406 0.946878 1.19209e-07 0.177959 0.984005 0.00810772
-0.985367 -0.164204 1.19209e-07 -0.955993 -0.29301 -0.0149157
-0.654329 0 -0.23097 0.361444 -0.0034781 -0.932387
0.446683 -0.223601 1.19209e-07 0.997914 0.0572032 -0.029924
-0.909286 -0.413541 1.19209e-07 -0.999774 0.0195472 0.00840073
0.906714 -0.418975 1.19209e-07 0.97162 -0.236266 0.0115023
0 -0.989235 -0.0725709 -0.023705 -0.747954 -0.663327
-0.828927 -0.558997 1.19209e-07 -0.931434 -0.363909 0.00100062
-0.786638 0 -0.246996 -0.10738 -0.000267774 -0.994218
0 0.531622 0.121356 -0.00219891 -0.749984 0.661452
-0.261313 0.964197 1.19209e-07 -0.0405658 0.999127 0.00997213
0.591402 0 -0.193253 -0.561943 -0.000326052 -0.827176
0.577067 0.815527 1.19209e-07 0.404819 0.914334 -0.0107413
0 -0.992641 0.0589716 -0.0106345 -0.696748 0.717237
0 0.812371 -0.24179 0.00291374 0.186405 -0.982469
0.418028 0.273959 1.19209e-07 0.948109 0.317317 -0.0199885
-0.804898 0.591399 1.19209e-07 -0.762524 0.646906 -0.00839315
0.973528 -0.224062 1.19209e-07 0.999995 0.00101507 -0.00292088
0.931066 -0.362596 1.19209e-07 0.95933 -0.282166 0.00828608
0.864373 -0.500674 1.19209e-07 0.907488 -0.419886 0.0126777
-0.374649 0.926754 1.19209e-07 0.00472703 0.999973 0.00564969
0.938253 0.342511 1.19209e-07 0.999996 0.00287643 9.75286e-05
0 0.51903 0.0956711 -0.00364045 -0.808228 0.588859
-0.127834 0.482806 1.19209e-07 0.864269 0.500514 -0.0502522
0 -0.505798 -0.0527393 0.0237295 0.713895 -0.699851
0.340685 -0.938907 1.19209e-07 -0.023866 -0.999693 -0.00664232
-0.996441 0.0724472 1.19209e-07 -0.983135 -0.178716 -0.0387985
-0.968678 0 0.120855 -0.605428 0.0518573 0.794209
0.677429 0 -0.239235 -0.310724 0.00115234 -0.950499
-0.971454 0.23234 1.19209e-07 -0.995272 0.097044 -0.00400108
0.885385 0 -0.209969 0.536492 0.00166058 -0.843903
0.908622 0.414943 1.19209e-07 0.982309 0.187258 0.001589
-0.821302 -0.569279 1.19209e-07 -0.897475 -0.441065 0.000268803
0 0.536727 -0.129874 -0.0038814 -0.726422 -0.687237
0.773011 -0.634393 1.19209e-07 0.874893 -0.484315 0.000733695
0 -0.760502 -0.249484 -0.000757634 -0.00882774 -0.999961
-0.650919 0.758032 1.19209e-07 -0.655732 0.754963 -0.00679046
0.097545 0.490393 1.19209e-07 -0.935651 0.35135 -0.0333231
0.871356 0 -0.218378 0.46453 0.00189316 -0.885555
-0.39478 -0.918158 1.19209e-07 0.0561872 -0.998412 0.00405521
-0.95056 0 -0.148745 -0.959793 0.063389 -0.273458
-0.667529 0 -0.235693 0.323395 -0.00330151 -0.946258
0.877534 -0.478715 1.19209e-07 0.997837 -0.0642122 0.0140506
-0.960192 -0.277304 1.19209e-07 -0.954168 0.29927 -0.000481552
-0.46745 -0.175942 1.19209e-07 -0.734002 0.673267 -0.0891747
0 -0.832471 0.235693 0.000124368 -0.301983 0.953313
0.891707 0 0.205779 0.625072 -0.000813399 0.780566
0 -0.99571 -0.0453058 -0.0106919 -0.813048 -0.582098
-0.168242 -0.470205 1.19209e-07 0.843531 -0.533413 -0.062656
0.501718 0 0.0279709 -0.763069 -0.0233487 0.645895
-0.415735 -0.277785 1.19209e-07 -0.940092 -0.335931 -0.058114
-0.405106 0.292117 1.19209e-07 -0.986837 0.151752 -0.0558952
-0.920231 0.390397 1.19209e-07 -0.999459 0.0328835 -2.99025e-05
-0.942566 -0.330458 1.19209e-07 -0.999171 0.0403363 0.00558317
0 -0.601255 -0.20056 -0.00397012 0.453803 -0.891093
0.378484 -0.925382 1.19209e-07 0.149729 -0.988694 -0.00808867
0 -0.998282 0.0279709 -0.0385443 -0.768557 0.638619
0.148665 -0.987672 1.19209e-07 0.0590586 -0.998218 -0.00854816
0 -0.50821 0.0623715 0.0346602 0.795998 0.604306
-0.61383 0.78826 1.19209e-07 -0.643073 0.765783 -0.0057987
0 -0.500688 -0.0140022 -0.0192902 0.882562 -0.469801
-0.386716 0.921972 1.19209e-07 -0.255854 0.966697 0.00592818
0.895271 0.44317 1.19209e-07 0.986541 0.1635 0.00217189
0 -0.588372 -0.190507 -0.00275578 0.570291 -0.821438
0 0.830271 -0.23648 0.00973311 0.227401 -0.973753
0.476967 -0.149342 1.19209e-07 0.572366 0.819285 -0.0341796
-0.479554 -0.140815 1.19209e-07 -0.502669 0.862378 -0.0602297
-0.098017 -0.995185 1.19209e-07 -0.368681 -0.928608 -0.0419777
-0.905637 0.421254 1.19209e-07 -0.983867 0.178899 -0.000571018
0 0.504804 -0.0487719 0.0204301 -0.6394 -0.768602
-0.892867 -0.448254 1.19209e-07 -0.986457 -0.163618 0.01153
-0.928192 -0.370632 1.19209e-07 -0.996426 -0.0841006 0.00787304
-0.733664 0 0.249197 0.0708676 -0.00193131 0.997484
-0.3563 0.350524 1.19209e-07 -0.643128 0.764617 -0.0418074
-0.996717 -0.0668298 1.19209e-07 -0.962478 -0.268058 -0.0421934
0.175942 -0.46745 1.19209e-07 -0.705618 -0.704931 -0.0719363
0 0.845671 0.23097 0.0038132 0.315406 0.948949
-0.994344 0 -0.0521725 -0.716477 -0.0153954 -0.697441
-0.491593 -0.0894557 1.19209e-07 -0.196591 0.978589 -0.0609483
-0.689328 0 0.242216 0.215014 -0.00248475 0.976608
-0.864373 0.500675 1.19209e-07 -0.930663 0.365856 -0.00387965
-0.0245045 -0.498796 1.19209e-07 0.91257 0.406132 0.0476679
-0.173028 0.984058 1.19209e-07 -0.122518 0.992438 0.00747918
0.478716 0.877534 1.19209e-07 -0.0966275 0.995256 -0.0113339
-0.0490085 0.997592 1.19209e-07 -0.272423 0.959696 -0.0690648
0.798772 0 0.245196 0.159789 0.0020565 0.987149
-0.120079 0.991912 1.19209e-07 -0.256924 0.96626 -0.0181918
0.264323 0.963443 1.19209e-07 0.00631547 0.999953 0.00730286
0.365883 0.929891 1.19209e-07 0.0437899 0.99902 -0.00648687
-0.470205 0.168242 1.19209e-07 -0.541955 -0.838098 -0.0622595
0 -0.913792 0.188545 0.0111114 -0.817515 0.5758
0.616479 0.786297 1.19209e-07 0.393402 0.919328 -0.00839231
0 0.798773 0.245196 0.00162607 0.240907 0.970547
0 -0.999312 0.0140024 -0.0480904 -0.851404 0.522301
0.78364 -0.620062 1.19209e-07 0.869814 -0.493376 0.00204409
0.986874 0 -0.0791709 0.790521 0.00704927 -0.612394
-0.974565 0.219923 1.19209e-07 -0.985905 0.167256 -0.0040897
0.989294 -0.137729 1.19209e-07 0.973481 -0.226196 -0.0342211
0 -0.98097 -0.0956709 -0.00293016 -0.74882 -0.662767
0.914343 0.402846 1.19209e-07 0.990779 0.135481 0.00134269
-0.985794 0.161325 1.19209e-07 -0.933087 0.359434 -0.0124809
0.842437 -0.537271 1.19209e-07 0.65592 -0.754779 0.00875367
-0.487141 0.110526 1.19209e-07 -0.376916 -0.92444 -0.0578397
0 0.982347 -0.091821 -0.00216614 0.790915 -0.611922
-0.835771 0 -0.234512 -0.252464 0.00294341 -0.967602
0 -0.516669 0.0890712 0.0080068 0.791448 0.611184
0.994344 0 -0.0521725 0.7703 0.0106919 -0.637592
0.424908 0.262481 1.19209e-07 0.949737 0.31233 -0.0212163
-0.517309 0.854402 1.19209e-07 -0.00172361 0.999997 0.00153412
0 0.995196 -0.0487729 0.00366001 0.789097 -0.614258
0.784905 0 -0.247253 0.113024 0.00235737 -0.993589
-0.997488 0.0511394 1.19209e-07 -0.98599 -0.164185 -0.0294496
0.18665 -0.982037 1.19209e-07 0.212694 -0.977102 0.0058402
0 -0.957867 0.138892 0.0111596 -0.930734 0.365527
0.402846 -0.914343 1.19209e-07 0.411779 -0.911231 -0.00983557
-0.502005 -0.863575 1.19209e-07 -0.230113 -0.973163 0.00103835
0.851211 -0.522632 1.19209e-07 0.726668 -0.686849 0.0138763
0.722085 -0.69058 1.19209e-07 0.720046 -0.693917 -0.00354866
-0.98097 0 0.0956711 -0.776917 0.0332532 0.628724
-0.322423 -0.945441 1.19209e-07 -0.00515427 -0.999986 0.00138969
0.336484 0.94041 1.19209e-07 0.00413359 0.999979 -0.00495697
0 -0.818605 0.240229 0.00166727 -0.268712 0.963219
0 -0.547005 -0.145461 -0.00158874 0.754005 -0.656867
-0.121343 -0.484432 1.19209e-07 0.920752 -0.38597 -0.0569417
0.940898 0 -0.161195 0.931269 0.000598235 -0.364331
-0.844631 0.533612 1.19209e-07 -0.847234 0.531183 -0.00624849
-0.418975 -0.906715 1.19209e-07 -0.244398 -0.969667 0.00391577
-0.215785 0.975601 1.19209e-07 -0.168878 0.985573 0.0112636
0 -0.864153 0.222228 -0.000519002 -0.380495 0.924783
0.99179 0 0.0623715 0.712427 0.00786098 0.701702
0.770145 0.637554 1.19209e-07 0.711792 0.702388 -0.00175904
-0.350544 -0.935379 1.19209e-07 -0.0565296 -0.998398 0.00240013
0.986021 0.159791 1.19209e-07 0.910686 0.412572 -0.0208723
0.386505 -0.317197 1.19209e-07 0.563037 -0.826006 -0.0265139
0 0.689328 -0.242215 0.00209291 -0.307166 -0.951654
0 0.507784 -0.0606714 -0.00861824 -0.701992 -0.712133
0.582313 0 -0.185015 -0.626361 -0.000501977 -0.779533
-0.370029 0.335375 1.19209e-07 -0.613235 0.78733 -0.0636731
0.511654 0.857792 1.19209e-07 0.39228 0.919741 -0.0138529
0 -0.97048 -0.117849 0.00697686 -0.804208 -0.594307
0.964174 0 -0.128371 0.853964 0.00361882 -0.52032
0.221052 0.974282 1.19209e-07 0.123619 0.992264 0.0114638
0.393813 -0.307344 1.19209e-07 0.63984 -0.767661 -0.03608
-0.982749 -0.181854 1.19209e-07 -0.940742 -0.338983 -0.00974917
0.967307 -0.248895 1.19209e-07 0.993326 -0.11534 0.000218328
0.486036 -0.873147 1.19209e-07 0.213359 -0.976909 -0.0112366
-0.994344 0 0.0521719 -0.830257 -0.0219003 0.556951
-0.389162 0.313614 1.19209e-07 -0.865803 0.498107 -0.0477041
-0.600122 0.798427 1.19209e-07 -0.580395 0.814323 -0.00450014
-0.51903 0 -0.0956709 0.761402 -0.0127118 -0.648155
0.475715 0.152842 1.19209e-07 0.509146 -0.860437 -0.0204534
0.949516 0 0.150153 0.979124 0.000276868 0.203263
0 -0.996225 0.0418384 -0.031464 -0.735819 0.676447
0.313913 -0.388941 1.19209e-07 0.688467 -0.724219 -0.0389888
0.524275 0 -0.10676 -0.780705 0.000893876 -0.624899
0.307344 0.393812 1.19209e-07 0.443408 0.895849 -0.0290419
-0.975366 -0.216726 1.19209e-07 -0.997691 -0.0676204 -0.0062677
0.602147 0.796926 1.19209e-07 0.272513 0.962121 -0.00778825
0.996279 0.0757405 1.19209e-07 0.988201 0.146566 -0.0444627
-0.277785 -0.415735 1.19209e-07 -0.243403 -0.96861 -0.0504831
0.340333 0.365536 1.19209e-07 0.860135 0.509424 -0.0256094
0.251002 0.431788 1.19209e-07 0.079684 0.996314 -0.0317736
0.995623 0.0891064 1.19209e-07 0.976037 0.213543 -0.0418532
0.098017 0.995185 1.19209e-07 0.0768379 0.996727 -0.0251268
0.223601 0.446683 1.19209e-07 0.076992 0.996316 -0.0377593
-0.0178214 0.499124 1.19209e-07 0.802063 -0.596115 0.0366249
-0.53644 -0.842936 1.19209e-07 -0.652471 -0.757813 -0.00121624
0.997374 -0.0534638 1.19209e-07 0.958282 -0.282019 -0.0464891
0.493011 -0.0798955 1.19209e-07 0.0463271 0.998554 -0.0272624
0.664229 0 -0.234512 -0.337809 0.000972051 -0.941214
0.885735 -0.463331 1.19209e-07 0.99662 0.080851 0.0145614
-0.52952 0 0.117849 0.722536 -0.00915522 0.691273
0.857792 -0.511653 1.19209e-07 0.874474 -0.484856 0.0144869
-0.105478 -0.488406 1.19209e-07 0.912921 -0.404473 -0.0545513
0.406878 0.912437 1.19209e-07 0.214593 0.97665 -0.01018
-0.566162 0 0.168986 0.684042 -0.00569656 0.729421
0.319684 0.946421 1.19209e-07 -0.022341 0.999747 -0.00254043
0 -0.573223 0.176777 0.00129684 0.624321 0.781167
0 0.733664 -0.249197 0.00340136 -0.0768865 -0.997034
0.972491 0.228201 1.19209e-07 0.999665 0.0257762 -0.00216411
0.526023 0 0.110456 -0.810211 0.00226791 0.586134
0 0.929523 -0.173747 0.0158682 0.888399 -0.458797
-0.835856 -0.548251 1.19209e-07 -0.921653 -0.388011 0.0016959
0 -0.867849 -0.22048 0.000188766 -0.421565 -0.906798
0 -0.911628 -0.190507 0.0178296 -0.682796 -0.730391
0 0.556748 0.158598 0.00276833 -0.723828 0.689975
0 0.540031 0.135385 0.000721303 -0.746763 0.665089
-0.977675 0.207507 1.19209e-07 -0.998584 0.0530674 -0.00366638
0 0.987857 0.0764211 -0.0011007 0.683595 0.72986
-0.727164 -0.684977 1.19209e-07 -0.803391 -0.595418 -0.00641111
0 0.586208 0.188545 0.00385879 -0.569715 0.821833
-0.397134 0.302865 1.19209e-07 -0.988324 0.141008 -0.0577172
-0.346528 0.936816 1.19209e-07 0.0398942 0.999183 0.00639553
0.900993 0.431073 1.19209e-07 0.936507 0.350642 0.00193547
0 0.611107 -0.207868 0.00196105 -0.500502 -0.865733
-0.258655 0.427201 1.19209e-07 -0.502512 0.862983 -0.0523698
-0.542133 0 -0.138893 0.688864 -0.00828365 -0.724843
0.957867 0 0.138892 0.950783 0.00300612 0.309842
0.969381 0.240618 1.19209e-07 0.990809 0.135266 -0.00115765
0.544591 0.838051 1.19209e-07 0.790556 0.612339 -0.00788216
0.558998 -0.828927 1.19209e-07 0.622688 -0.782416 -0.00927621
0.999343 0.013366 1.19209e-07 0.976613 0.214491 0.0148408
0 0.503261 0.0383722 -0.0103897 -0.525319 0.850842
-0.995623 -0.0891064 1.19209e-07 -0.959453 -0.279621 -0.0355358
0.0668298 0.996717 1.19209e-07 0.0892751 0.994747 -0.0500932
0.511946 0 -0.0758709 -0.815375 0.0029472 -0.578925
0.559153 0.828813 1.19209e-07 0.677187 0.735771 -0.007638
0.497592 0.049008 1.19209e-07 -0.150578 -0.987859 -0.038216
-0.947924 0.315484 1.19209e-07 -0.98687 0.161496 -0.00275871
0 -0.52952 -0.117849 0.000421888 0.736648 -0.676276
0.771003 0 0.248968 0.0357322 0.00229192 0.999359
0.881921 0.471397 1.19209e-07 0.992228 0.124417 0.00198698
-0.0754831 0.493665 1.19209e-07 0.999091 -0.0299126 -0.03037
-0.822571 0 0.239235 -0.231457 0.000694723 0.972845
-0.589841 0.806052 1.19209e-07 -0.585041 0.810993 -0.00425808
0.999312 0 -0.0140022 0.870357 0.0248731 -0.491792
-0.504804 0 0.0487721 0.66899 -0.0127525 0.743162
0.398684 0.300775 1.19209e-07 0.910617 0.412368 -0.0270009
-0.835857 0.548251 1.19209e-07 -0.854224 0.519882 -0.00482111
0.097545 -0.490393 1.19209e-07 -0.943741 -0.32803 -0.0418342
0.208071 0.977533 1.19209e-07 0.0844994 0.996373 0.0100793
0.986874 0 0.0791711 0.725873 0.0091642 0.687768
-0.474337 0.156692 1.19209e-07 -0.543192 -0.837749 -0.0558437
0 0.85676 -0.225725 0.00787414 0.381305 -0.924416
0 0.644824 0.226474 0.0048671 -0.42542 0.904983
-0.634393 -0.773011 1.19209e-07 -0.617016 -0.786936 -0.00474158
-0.361791 -0.344464 1.19209e-07 -0.753923 -0.654572 -0.0559907
-0.499599 0.0081681 1.19209e-07 0.780899 -0.621402 0.0636889
0.507994 -0.859985 1.19209e-07 0.52438 -0.85134 -0.0156957
0.926754 0.374649 1.19209e-07 0.995886 -0.0906122 0.000518756
-0.323256 -0.381013 1.19209e-07 -0.617437 -0.78403 -0.0637887
0.855176 0 0.226474 0.33745 0.000867051 0.941343
0 0.566162 -0.168986 -0.00069799 -0.7158 -0.698305
-0.998744 0.0255696 1.19209e-07 -0.98971 0.139271 0.0328287
0.697623 -0.715702 1.19209e-07 0.768452 -0.639887 -0.00508229
-0.0178212 0.999125 1.19209e-07 -0.439263 0.895873 -0.0667824
-0.600122 -0.798428 1.19209e-07 -0.415204 -0.909715 -0.00495968
0 0.98648 -0.0802709 -7.99249e-06 0.759026 -0.651061
0.613831 -0.78826 1.19209e-07 0.42461 -0.905314 -0.0106786
-0.498194 0.0367568 1.19209e-07 0.13297 -0.991083 -0.00856072
0 -1 1.19209e-07 -0.0387004 -0.997257 -0.0630911
-0.35858 0.932504 1.19209e-07 -0.0927153 0.995678 0.00541327
0 -0.611108 -0.207868 -0.00256702 0.421981 -0.906601
-0.84463 -0.533612 1.19209e-07 -0.908668 -0.417501 0.00394835
0.713098 -0.700496 1.19209e-07 0.719175 -0.694818 -0.0038788
0.727164 0.684977 1.19209e-07 0.863004 0.505183 -0.00381085
0 0.556747 -0.158598 -0.00171072 -0.734982 -0.678085
0.952628 0.302337 1.19209e-07 0.930262 -0.366893 -0.00119921
0.855176 0 -0.226474 0.34361 0.00223193 -0.93911
0.232002 -0.442709 1.19209e-07 0.0250398 -0.998318 -0.0522956
0 -0.561454 0.163792 0.000352843 0.659292 0.751887
-0.990938 0 0.0657715 -0.760094 -0.00165537 0.64981
-0.366614 -0.92963 1.19209e-07 0.00783679 -0.999965 0.00279786
0.124492 0.991258 1.19209e-07 0.262036 0.964966 -0.0133051
-0.589841 -0.806053 1.19209e-07 -0.362659 -0.93191 -0.00478453
0.548396 0 -0.147338 -0.735826 -0.000726578 -0.67717
0.929523 0 0.173747 0.907485 -0.00277503 0.420074
0.931066 0.362597 1.19209e-07 0.978574 0.205895 0.000338493
0.945441 -0.322423 1.19209e-07 0.996195 0.0869068 0.00649912
-0.500688 0 -0.0140022 0.792729 0.0163063 -0.609355
-0.0511394 -0.997488 1.19209e-07 -0.0502237 -0.994298 -0.0940681
0 0.597032 0.197428 0.0041564 -0.499101 0.866534
-0.798427 -0.600123 1.19209e-07 -0.70131 -0.712853 -0.00226491
-0.974976 0 0.108344 -0.698292 0.0392426 0.714736
-0.178742 0.466448 1.19209e-07 0.611206 0.788178 -0.0721293
0.900153 0 -0.199516 0.666878 0.00114966 -0.745166
0.680666 0.731072 1.19209e-07 0.578326 0.815785 -0.00587365
-0.0127848 -0.999372 1.19209e-07 -0.199438 -0.977818 -0.0639962
-0.718568 -0.694461 1.19209e-07 -0.796083 -0.605157 -0.00610711
0 0.913792 -0.188546 0.0154825 0.79934 -0.600679
0 0.725496 0.248796 0.00554869 -0.150108 0.988654
0.203369 -0.978712 1.19209e-07 0.155213 -0.987868 0.0051341
-0.133316 -0.989949 1.19209e-07 -0.288789 -0.957164 -0.0209384
-0.952628 -0.302337 1.19209e-07 -0.950875 0.309562 0.00265785
0.634393 -0.77301 1.19209e-07 0.583979 -0.811738 -0.00698345
0 -0.677429 0.239235 0.00171362 0.273267 0.961937
0.556747 0 0.158598 -0.713479 0.000810449 0.700676
0.591402 0 0.193252 -0.541223 0.00125518 0.840879
0 -0.985103 0.0841211 -0.00989679 -0.786194 0.617901
0.330417 0.374522 1.19209e-07 0.744611 0.66679 -0.0307432
0.994531 0.102429 1.19209e-07 0.964843 0.260151 -0.0374007
-0.0367568 -0.498194 1.19209e-07 0.991563 0.129052 0.0122095
0.96316 -0.265451 1.19209e-07 0.995174 -0.0981041 0.00179365
-0.219569 0.44859 1.19209e-07 -0.082817 0.994684 -0.0611983
0.646936 0 0.227473 -0.418104 0.00179986 0.908397
-0.925383 0.378483 1.19209e-07 -0.998498 -0.0547902 -0.000144523
-0.95694 0.290285 1.19209e-07 -0.990864 -0.134845 -0.00229034
-0.497592 0.049009 1.19209e-07 0.112725 -0.99328 -0.0262452
0.743055 -0.667444 1.19209e-07 0.771503 -0.636222 -0.00220315
-0.660834 0.749045 1.19209e-07 -0.682719 0.730626 -0.00899745
0.440961 -0.235698 1.19209e-07 0.990143 0.136759 -0.03024
-0.937404 0.344884 1.19209e-07 -0.990918 0.134463 -0.00142336
-0.446682 0.223601 1.19209e-07 -0.997677 0.0245357 -0.0635514
0 0.774504 0.248796 0.00632168 0.0745696 0.997196
0.39478 0.918158 1.19209e-07 -0.00757612 0.999923 -0.00987997
-0.95578 0 0.141707 -0.917641 0.0722586 0.390787
-0.719089 0.693886 1.19209e-07 -0.641066 0.767441 -0.00828736
-0.878371 0 0.214174 -0.516852 0.00779502 0.85604
-0.386505 -0.317197 1.19209e-07 -0.831743 -0.55199 -0.0592464
-0.447202 -0.893364 1.19209e-07 -0.183973 -0.982921 0.004559
0.815526 -0.577067 1.19209e-07 0.780518 -0.62509 0.00735158
0 -0.556748 -0.158598 -0.00441869 0.743148 -0.669113
0 0.644824 -0.226474 0.00135831 -0.345582 -0.938388
0.867849 0 0.22048 0.432824 0.000432237 0.901478
0.0326726 -0.498395 1.19209e-07 -0.934118 0.355845 0.0282467
0.920065 0.390749 1.19209e-07 0.999998 0.00204611 0.000873793
0 0.902029 -0.198124 0.020619 0.646609 -0.762543
-0.490527 -0.870455 1.19209e-07 -0.185118 -0.982715 0.00178935
0.498906 -0.0222768 1.19209e-07 -0.515637 0.853965 -0.0697314
0.632151 0 0.22048 -0.458493 0.00163667 0.888696
-0.292117 -0.405106 1.19209e-07 -0.12582 -0.990005 -0.0637141
-0.870953 0.489695 1.19209e-07 -0.946665 0.322206 -0.00287003
0 0.704694 -0.24571 0.00587435 -0.24417 -0.969715
0.627227 0.778325 1.19209e-07 0.555768 0.831312 -0.00644916
0.302885 -0.952432 1.19209e-07 -0.331245 -0.943535 -0.00425388
-0.851212 0.522633 1.19209e-07 -0.923747 0.382952 -0.00621755
0.202431 -0.456695 1.19209e-07 -0.186405 -0.98086 -0.0562712
0 0.98097 0.0956711 0.00384734 0.828902 0.55938
-0.475715 -0.152842 1.19209e-07 -0.54087 0.838286 -0.0688233
-0.968344 0.244757 1.19209e-07 -0.995358 0.0961774 -0.00344182
0.0340933 -0.998325 1.19209e-07 -0.0727234 -0.994473 -0.0757291
-0.526023 0 -0.110456 0.697291 -0.0112492 -0.7167
0.691028 0 0.242641 -0.295779 0.00228443 0.955254
-0.497811 -0.0445536 1.19209e-07 0.174726 0.984359 -0.0225504
0.0980179 -0.995185 1.19209e-07 0.285488 -0.957584 -0.0390977
0.961087 0.273729 1.19209e-07 0.999141 -0.0414363 -0.000657306
-0.743055 0.667445 1.19209e-07 -0.453303 0.891303 -0.00975072
-0.062246 0.495629 1.19209e-07 0.997813 0.0613189 -0.024682
-0.565851 0.823844 1.19209e-07 -0.516469 0.856303 -0.00222012
0.353284 -0.934398 1.19209e-07 0.0852256 -0.996338 -0.00690533
-0.591402 0 0.193252 0.581017 -0.004546 0.813878
0 -0.788371 0.246739 -4.96983e-05 -0.13342 0.99106
0.804897 -0.591399 1.19209e-07 0.816232 -0.577702 0.00512514
-0.228201 0.972491 1.19209e-07 -0.14537 0.989314 0.0111799
0.359544 -0.346943 1.19209e-07 0.58618 -0.809599 -0.0307065
-0.54944 0 0.148745 0.711125 -0.00669857 0.703034
1 0 1.19209e-07 0.999436 0.0290004 0.0169125
0.529953 -0.846824 1.19209e-07 0.764608 -0.644346 -0.0138926
-0.375521 -0.329316 1.19209e-07 -0.799766 -0.595511 -0.0757696
0.110526 0.487141 1.19209e-07 -0.917501 0.395742 -0.0397501
0 0.999197 0.0163361 -0.00449661 0.818038 0.575146
-0.0383544 -0.998116 1.19209e-07 -0.127304 -0.988047 -0.0869302
-0.774504 0 0.248796 0.0380573 -0.00115007 0.999275
0.273959 0.418028 1.19209e-07 0.213295 0.976683 -0.0244122
0 0.621629 -0.214174 -0.00143467 -0.440647 -0.897679
-0.905783 0 0.19534 -0.776764 0.0207758 0.629449
-0.556748 0 -0.158598 0.729138 -0.0073756 -0.684327
0.842935 0.53644 1.19209e-07 0.89899 0.437968 0.00108724
0.976638 -0.211645 1.19209e-07 0.999433 0.033347 -0.00460679
0.160542 -0.47296 1.19209e-07 -0.855048 -0.515132 -0.0594245
-0.98955 0.136002 1.19209e-07 -0.950147 0.311241 -0.0187005
-0.573223 0 -0.176777 0.688591 -0.00641141 -0.725122
0 -0.892176 0.205431 0.00645911 -0.555303 0.831623
0.484974 -0.11918 1.19209e-07 0.343408 0.938773 -0.0278703
0.914658 0 -0.187761 0.789389 0.000398501 -0.613894
-0.983725 0 -0.0879709 -0.764195 0.027066 -0.644418
0.50821 0 -0.0623719 -0.733378 0.00163825 -0.679819
0.328085 -0.943415 1.19209e-07 -0.146938 -0.989129 -0.00581828
0.326286 -0.378267 1.19209e-07 0.686368 -0.725601 -0.0490144
0 -0.806705 0.243209 0.00110632 -0.226236 0.974072
0.431073 -0.900993 1.19209e-07 0.394207 -0.918966 -0.0100974
0.460033 -0.195374 1.19209e-07 0.970547 0.238914 -0.0309614
-0.528788 0.847522 1.19209e-07 -0.139119 0.990276 0.000560654
0.251342 0.966695 1.19209e-07 0.0491933 0.998753 0.00855153
-0.335375 -0.370029 1.19209e-07 -0.78287 -0.617678 -0.0747571
0 0.814638 0.241222 0.00602775 0.303305 0.952874
0.632151 0 -0.22048 -0.454589 0.000440085 -0.890701
-0.946878 -0.318406 1.19209e-07 -0.975292 0.22087 0.00480143
-0.581014 0 0.183838 0.645854 -0.00484631 0.763445
0.669169 -0.741491 1.19209e-07 0.727176 -0.686408 -0.00771638
0.0133659 0.499343 1.19209e-07 -0.658333 -0.751619 0.0408296
0 -0.517653 -0.091821 0.00608949 0.794464 -0.607281
-0.591402 0 -0.193253 0.562464 -0.00573207 -0.826802
0.471583 0.164392 1.19209e-07 0.508384 -0.860815 -0.0233094
-0.999656 0 -0.00700104 -0.970014 -0.0559298 -0.236526
-0.995185 0.098017 1.19209e-07 -0.999533 0.00921785 -0.029121
0.605477 0 0.203691 -0.505026 0.00139049 0.863103
0.996936 0.0623745 1.19209e-07 0.993976 0.100963 -0.042638
-0.964527 -0.259996 1.19209e-07 -0.954625 0.297803 -0.00221187
0 -0.943253 -0.158598 0.0397512 -0.956991 -0.287382
-0.524962 -0.849816 1.19209e-07 -0.46909 -0.88315 -0.000449975
0.487412 0.109444 1.19209e-07 0.401477 -0.915257 -0.0334976
-0.251002 -0.431788 1.19209e-07 -0.302673 -0.950623 -0.0685947
0.97048 0 -0.117849 0.839452 0.00444316 -0.543415
0.496938 -0.0534214 1.19209e-07 -0.144253 0.98903 -0.0317947
-0.796926 0.602147 1.19209e-07 -0.820797 0.571169 -0.00767558
0.836056 0.547918 1.19209e-07 0.912276 0.409575 0.000610079
0 0.99179 0.0623715 -0.00193494 0.690854 0.722992
-0.262481 -0.424908 1.19209e-07 -0.348978 -0.935122 -0.0613307
0.217216 -0.449702 1.19209e-07 0.0701147 -0.996178 -0.0520892
0 -0.52952 0.117849 0.00464925 0.726084 0.68759
0.761029 -0.647614 1.19209e-07 0.874027 -0.485877 -0.000203341
0.975601 0.215785 1.19209e-07 0.999286 0.0376404 -0.00312533
0.517849 0 0.0923711 -0.787001 0.00353896 0.616941
-0.231666 0.442868 1.19209e-07 -0.120397 0.991009 -0.0583602
0.717406 0 0.247596 -0.153292 0.00236497 0.988178
0.500688 0 0.0140024 -0.892381 -0.0521304 0.448263
-0.097545 0.490393 1.19209e-07 0.945951 0.321375 -0.043534
0.996061 -0.0801957 1.19209e-07 0.910307 -0.41121 -0.0473994
-0.533724 0 -0.124864 0.659749 -0.00925826 -0.751429
0.499781 -0.00445533 1.19209e-07 -0.946357 0.287843 -0.146817
0 0.573223 0.176777 0.00321859 -0.628687 0.777652
0.187492 -0.463318 1.19209e-07 -0.338872 -0.938779 -0.062129
0.761549 0.647039 1.19209e-07 0.754311 0.656513 -0.0023181
-0.658179 0 0.232348 0.322657 -0.00282947 0.946512
0.27373 -0.961087 1.19209e-07 -0.131302 -0.991342 -0.000543394
0.424908 -0.262481 1.19209e-07 0.970197 -0.240573 -0.0290368
0 0.507784 0.060672 -0.00790253 -0.712547 0.70158
0.828927 0.558997 1.19209e-07 0.911692 0.410875 0.00035654
0.798427 0.600122 1.19209e-07 0.689484 0.724301 -0.000848791
-0.620685 -0.783178 1.19209e-07 -0.623084 -0.782133 -0.00591726
0 -0.985103 -0.0841209 -0.00511873 -0.700489 -0.713644
0.656523 -0.752952 1.19209e-07 0.667743 -0.744342 -0.00856702
0 1 1.19209e-07 0.0167555 0.997909 -0.0624313
0.287638 0.408427 1.19209e-07 0.219548 0.975147 -0.0297809
0 -0.503004 -0.0366384 0.0220942 0.552555 -0.833183
0.533123 0 0.123861 -0.825021 0.0013958 0.5651
-0.538529 0 0.13288 0.71889 -0.00754776 0.695083
0 0.962071 -0.131878 0.0122169 0.806379 -0.591272
0.996717 -0.0668298 1.19209e-07 0.910892 -0.409904 -0.0474792
-0.790802 -0.610404 1.19209e-07 -0.648986 -0.760793 -0.00337751
-0.903813 -0.425112 1.19209e-07 -0.996814 -0.0793032 0.00858679
0.173988 -0.983915 1.19209e-07 0.146502 -0.989205 0.00320479
0.731072 -0.680665 1.19209e-07 0.704435 -0.709763 -0.00300175
-0.493992 -0.073277 1.19209e-07 -0.0363391 0.998031 -0.0511179
0.926754 -0.374648 1.19209e-07 0.981001 -0.193774 0.00942596
0.949516 0 -0.150153 0.942532 0.00160062 -0.334112
-0.879874 0 -0.213273 -0.474016 0.0106519 -0.880452
0.145142 -0.47847 1.19209e-07 -0.829794 -0.55584 -0.0498396
-0.999372 0.0127848 1.19209e-07 -0.97398 0.220471 0.0524978
0.418028 -0.273959 1.19209e-07 0.954153 -0.298234 -0.0254748
-0.44317 0.895271 1.19209e-07 -0.206047 0.978526 0.00562761
-0.75 0 -0.25 0.0192199 -0.00154997 -0.999814
-0.0255696 -0.998744 1.19209e-07 -0.107672 -0.991596 -0.0717155
0 0.632151 0.22048 0.00288051 -0.429886 0.902879
-0.891708 0 -0.205779 -0.54922 0.015127 -0.835541
0.561454 0 -0.163792 -0.735887 -0.000850805 -0.677104
-0.926777 0 -0.176777 -0.899096 0.0378213 -0.436114
-0.513483 -0.856696 1.19209e-07 -0.243524 -0.969895 0.000437096
0 -0.646936 0.227473 0.00238514 0.38869 0.921366
-0.747222 -0.662847 1.19209e-07 -0.779134 -0.626823 -0.0065933
0.835856 -0.548251 1.19209e-07 0.699184 -0.714913 0.00648124
-0.302865 -0.397134 1.19209e-07 -0.149989 -0.986189 -0.0702465
-0.159791 0.986021 1.19209e-07 -0.0987784 0.995103 0.0036083
0.790802 0.610403 1.19209e-07 0.639769 0.768566 -0.00137783
0.0852331 -0.995813 1.19209e-07 0.327209 -0.943449 -0.0532773
-0.153542 0.475465 1.19209e-07 0.824953 0.562471 -0.0554788
0.576253 0 0.179523 -0.630157 0.00099406 0.776467
0 0.916389 0.186191 0.0070817 0.794157 0.607672
-0.507784 0 -0.0606719 0.648633 -0.0140111 -0.760972
-0.991912 -0.120079 1.19209e-07 -0.970722 -0.238562 -0.028062
0.46745 0.175942 1.19209e-07 0.635352 -0.77169 -0.0286889
-0.770145 -0.637555 1.19209e-07 -0.717092 -0.696969 -0.00359085
0.349084 0.935902 1.19209e-07 0.0621357 0.998051 -0.00584337
-0.140815 0.479554 1.19209e-07 0.878546 0.474949 -0.0508056
0.297491 0.40112 1.19209e-07 0.234989 0.971514 -0.0306791
0.472459 -0.161942 1.19209e-07 0.613312 0.788841 -0.0397175
0 -0.989235 0.0725712 -0.0137733 -0.789773 0.613245
0.501204 0 -0.0245039 -0.755878 -0.0319348 -0.653933
-0.848839 0 -0.229471 -0.285121 0.00426067 -0.958482
0.410863 -0.284354 1.19209e-07 0.916127 -0.399534 -0.032923
-0.980785 0.19509 1.19209e-07 -0.996792 0.0799234 -0.00425391
0.96005 -0.277867 1.19209e-07 0.998031 -0.0626646 0.00260077
0 0.711629 0.246739 0.0055089 -0.205582 0.978624
-0.507784 0 0.0606716 0.75698 -0.015509 0.653254
0.166142 0.470956 1.19209e-07 -0.807036 0.588138 -0.0527885
-0.881921 0.471397 1.19209e-07 -0.985696 0.16852 -0.00183019
0 -0.725496 0.248796 0.000478481 0.1382 0.990404
0.234033 0.97103 1.19209e-07 0.118957 0.992838 0.0110031
0 0.758168 0.249599 0.00848377 -0.011315 0.9999
0 -0.786639 -0.246996 0.000900992 -0.186832 -0.982392
0.0204206 -0.498997 1.19209e-07 -0.78314 0.618956 0.0598709
-0.941913 0.332284 1.19209e-07 -0.971434 0.237301 -0.00202876
-0.632151 0 0.22048 0.464572 -0.00310724 0.88553
-0.55557 0.831469 1.19209e-07 -0.457522 0.889198 -0.00110784
0.784905 0 0.247253 0.0943328 0.00219814 0.995538
-0.859985 -0.507994 1.19209e-07 -0.833799 -0.552027 0.0067305
-0.940507 0 0.161628 -0.988533 0.0531433 0.141342
0.471397 -0.881921 1.19209e-07 0.0451739 -0.998912 -0.0116079
0.647039 -0.761548 1.19209e-07 0.623231 -0.782001 -0.00751906
0.61712 0 0.211471 -0.489815 0.00149294 0.871825
0.30406 -0.396248 1.19209e-07 0.550647 -0.833346 -0.0481917
-0.932504 -0.35858 1.19209e-07 -0.982275 -0.187321 0.00688275
0 0.51352 0.0802711 -0.00964662 -0.768693 0.639545
-0.802173 0 -0.244344 -0.179486 0.000461673 -0.98376
0.830271 0 0.23648 0.2576 0.00164336 0.96625
-0.156692 -0.474338 1.19209e-07 0.815766 -0.575473 -0.0579367
0.624112 -0.780635 1.19209e-07 0.562361 -0.826844 -0.00887079
-0.867849 0 -0.22048 -0.400425 0.00703281 -0.916303
0.998468 0.0311872 1.19209e-07 0.987403 0.158049 -0.00747734
-0.998468 -0.0311872 1.19209e-07 -0.942526 -0.333836 0.0140555
0 0.586208 -0.188546 -5.00601e-05 -0.648468 -0.761242
0.467951 -0.174542 1.19209e-07 0.648551 0.759798 -0.0456949
0.735761 0.675492 1.19209e-07 0.868988 0.494818 -0.00382399
-0.251341 -0.966695 1.19209e-07 0.00326324 -0.999994 0.00123451
0 -0.774504 -0.248796 -0.000300611 -0.121368 -0.992608
0 -0.567731 -0.170717 0.00048516 0.716007 -0.698093
0.899086 -0.435104 1.19209e-07 0.976993 -0.212898 0.0125895
0.161327 -0.985794 1.19209e-07 0.0364549 -0.999334 -0.00139168
0.0267316 0.498687 1.19209e-07 -0.962239 -0.271385 0.0211233
-0.483889 0.123507 1.19209e-07 -0.416337 -0.907443 -0.0566589
-0.51903 0 0.0956711 0.742861 -0.0119582 0.669338
0.810672 0 0.242216 0.214861 0.00194355 0.976643
-0.495192 0.0651877 1.19209e-07 -0.0996048 -0.99418 -0.0410535
0.149342 0.476967 1.19209e-07 -0.826726 0.560737 -0.0458103
-0.806052 -0.589841 1.19209e-07 -0.739706 -0.672928 -0.00174878
0.650633 0 -0.229222 -0.376881 0.000738375 -0.926261
0 -0.798773 -0.245196 0.000331749 -0.251581 -0.967836
-0.432552 0.249727 1.19209e-07 -0.965028 0.254982 -0.0608762
-0.313614 -0.389162 1.19209e-07 -0.533898 -0.843614 -0.0571625
-0.866566 -0.497015 1.19209e-07 -0.825979 -0.563661 0.00668589
-0.667445 -0.743055 1.19209e-07 -0.57624 -0.817242 -0.00795898
-0.471397 0.881921 1.19209e-07 -0.28819 0.957561 0.0049134
-0.853405 -0.518973 1.19209e-07 -0.912383 -0.409286 0.00648202
0 0.665879 0.235103 0.00490645 -0.333643 0.942687
0.54003 0 -0.135386 -0.735021 -0.000525024 -0.678044
0.957867 0 -0.138893 0.923893 0.00262895 -0.382643
0.0534205 0.496938 1.19209e-07 -0.998035 -0.0617732 -0.0104619
0.852109 0.521136 1.19209e-07 0.953219 0.302274 0.00203425
