ply
format ascii 1.0
element vertex 819
property float x
property float y
property float z
property float nx
property float ny
property float nz
end_header
0.264836 0.262893 0.0553555 0.677551 0.514715 0.52535 
0.663207 0.507168 0.550397 -0.662894 -0.508602 -0.54945 
-0.0355566 -0.0885457 0.0918445 -0.498161 -0.799837 0.334808 
-0.514103 -0.797319 0.316198 0.515476 0.796551 -0.315897 
0.116013 -0.0635155 -0.10752 0.301764 -0.854823 -0.422156 
0.30832 -0.850514 -0.426103 -0.308579 0.851324 0.424296 
-0.116222 -0.47339 -0.226245 -0.0167424 -0.533771 -0.845464 
-0.0163659 -0.560874 -0.827739 0.0160734 0.561102 0.82759 
-0.17857 0.0460918 -0.198347 0.00666705 0.160399 -0.98703 
0.104079 0.0853965 -0.990896 -0.103519 -0.0859404 0.990908 
0.168916 0.376509 0.0486374 0.64105 0.610405 0.465253 
0.637637 0.614122 0.465052 -0.636671 -0.615611 -0.464406 
-0.140267 -0.166421 -0.223953 0.104496 0.888415 -0.44699 
0.0973515 0.892236 -0.44095 -0.097297 -0.892202 0.441031 
0.103159 -0.0734548 -0.0961175 0.261211 -0.842444 -0.471229 
0.267202 -0.843138 -0.466606 -0.264053 0.845127 0.464798 
-0.15912 0.244976 -0.176697 -0.407268 0.370383 -0.834835 
-0.40234 0.365174 -0.839506 0.402019 -0.366518 0.839074 
0.261511 0.280937 0.0404047 0.482852 0.595474 0.642079 
0.465808 0.591457 0.658181 -0.466619 -0.592028 -0.657092 
0.180454 0.0575732 -0.193912 0.590039 -0.319201 -0.741596 
0.596718 -0.314534 -0.738238 -0.596399 0.313701 0.738851 
0.285535 0.156035 0.0298516 0.996037 0.0632648 0.0625146 
0.996329 0.0578798 0.0630828 -0.996352 -0.0578408 -0.0627437 
-0.213724 0.109911 0.0324045 -0.790542 -0.0842493 0.606585 
-0.825179 -0.146179 0.54563 0.825228 0.145637 -0.5457 
0.26824 0.0387442 0.0173914 0.915111 -0.403161 0.00579192 
0.913121 -0.407665 0.00431391 -0.913009 0.407906 -0.0051898 
0.268503 0.0416643 0.0378048 0.916942 -0.395408 0.0535782 
0.916065 -0.397468 0.0533322 -0.915737 0.398255 -0.0530983 
0.31929 0.320229 -0.0378763 0.967733 -0.18859 -0.16711 
0.965886 -0.184818 -0.181401 -0.96615 0.183631 0.181199 
0.237428 -0.00964724 0.0256757 0.765973 -0.642696 0.0150924 
0.766807 -0.641567 0.0199638 -0.76418 0.644719 -0.0191064 
-0.133532 -0.0299337 0.0514774 -0.706665 -0.705922 0.0479493 
-0.706725 -0.705471 0.0533869 0.705354 0.706871 -0.0530072 
-0.076963 -0.169102 -0.197802 0.333062 0.893779 -0.30038 
0.335639 0.890783 -0.306354 -0.336587 -0.892187 0.301185 
-0.193878 -0.153735 -0.216904 0.406388 0.899133 -0.162505 
0.383074 0.903169 -0.19375 -0.382078 -0.903841 0.19258 
0.284471 0.177119 0.0250551 0.998303 0.0257567 0.0522249 
0.997897 0.0291815 0.0578738 -0.997879 -0.0290213 -0.0582668 
-0.0152857 -0.0549261 -0.132637 -0.227577 -0.841733 -0.489586 
-0.232115 -0.843123 -0.485043 0.232602 0.841783 0.487131 
0.13569 0.165871 0.20205 0.364953 0.173345 0.914746 
0.370507 0.198274 0.90742 -0.370586 -0.198543 -0.907329 
-0.206011 -0.463642 -0.175952 -0.745915 -0.472223 -0.469698 
-0.738219 -0.484763 -0.469081 0.738271 0.48632 0.467385 
0.175942 -0.213921 0.0501633 0.987314 0.140735 0.0735139 
0.987957 0.135992 0.0738098 -0.987675 -0.137557 -0.0746772 
0.13683 -0.254368 -0.0583531 0.684523 -0.0110815 -0.728907 
0.709294 -0.00783031 -0.704869 -0.708992 0.00728407 0.705179 
-0.102633 -0.231712 0.0491472 -0.456989 0.468056 0.756362 
-0.462256 0.458961 0.758732 0.461752 -0.461166 -0.757701 
-0.258985 -0.224627 -0.270575 -0.573128 -0.361847 -0.735249 
-0.569961 -0.354006 -0.741501 0.570433 0.354307 0.740995 
-0.293712 -0.0998587 -0.240375 -0.876707 0.380618 -0.294134 
-0.884929 0.375307 -0.275762 0.881546 -0.382707 0.276427 
0.206151 -0.0175784 0.121967 0.651937 -0.692827 0.308171 
0.653933 -0.690509 0.309143 -0.653812 0.690664 -0.309052 
-0.149006 -0.250678 0.0455367 -0.0234288 0.44131 0.897049 
-0.0245522 0.447017 0.894188 0.0249559 -0.447869 -0.893751 
0.289294 0.462905 -0.0560717 0.514205 0.553745 -0.65495 
0.515662 0.559878 -0.64856 -0.515728 -0.561143 0.647412 
-0.218992 -0.291793 0.0451517 -0.462566 0.188425 0.866331 
-0.460293 0.190893 0.867 0.459411 -0.190709 -0.867509 
0.154368 -0.306062 0.0331469 0.855681 -0.513951 0.0605264 
0.853281 -0.517774 0.0618242 -0.852552 0.518947 -0.0620391 
-0.0313713 -0.496934 -0.173031 -0.00839881 -0.999768 -0.0198214 
-0.0161888 -0.995935 -0.0886107 0.0159282 0.995926 0.0887555 
0.114741 -0.303852 -0.074414 0.712585 -0.181726 -0.677642 
0.713025 -0.167103 -0.680935 -0.713066 0.166962 0.680927 
-0.201177 -0.43564 0.0391518 -0.764116 -0.178695 0.619835 
-0.777633 -0.20496 0.594373 0.777406 0.204776 -0.594732 
0.081282 -0.446674 0.043543 0.780357 -0.149174 0.607281 
0.77489 -0.156056 0.612529 -0.77469 0.155791 -0.612849 
0.0706326 -0.482948 0.045212 0.73909 -0.469811 0.482725 
0.711273 -0.521766 0.47101 -0.710325 0.522668 -0.47144 
-0.0891941 -0.0504143 0.127283 -0.547386 -0.785393 0.28901 
-0.545372 -0.783999 0.296504 0.542562 0.786665 -0.294591 
0.249768 0.0929692 0.151216 0.870029 -0.0811325 0.486279 
0.870372 -0.0756088 0.486556 -0.870878 0.0757856 -0.485622 
-0.141484 0.294131 0.123049 -0.719933 0.539921 0.436099 
-0.723951 0.536662 0.433461 0.723599 -0.537168 -0.433422 
0.070442 0.412221 0.0351312 0.0370594 0.993191 0.110444 
0.0344094 0.992975 0.113207 -0.0339565 -0.993033 -0.112841 
0.153704 0.411838 0.034081 -0.0958257 0.555776 0.825791 
-0.0894173 0.626908 0.773945 0.088988 -0.627504 -0.773512 
0.0684615 0.385587 0.121303 0.0649871 0.881577 0.467545 
0.0666775 0.879154 0.47185 -0.0657297 -0.879995 -0.470412 
-0.127196 -0.494929 -0.199065 -0.0723216 -0.960348 -0.26926 
-0.0705094 -0.95238 -0.296649 0.0750178 0.95448 0.288688 
-0.149112 0.00211449 -0.0872195 -0.603246 -0.784861 -0.14173 
-0.625238 -0.770931 -0.121419 0.624629 0.771433 0.121369 
0.191997 0.352862 0.0455047 0.716701 0.62845 0.302309 
0.72323 0.619785 0.30464 -0.723331 -0.62018 -0.303593 
0.202303 0.339651 0.04949 0.726258 0.632792 0.268556 
0.725533 0.637324 0.259655 -0.725136 -0.637825 -0.259533 
-0.0161251 0.125213 0.277874 -0.570153 0.0494467 0.820049 
-0.583951 0.0877318 0.807034 0.583911 -0.087938 -0.807041 
-0.0448203 -0.0575321 -0.109348 -0.341029 -0.842269 -0.417471 
-0.334279 -0.845214 -0.416979 0.333863 0.845272 0.417193 
0.083216 -0.0756643 -0.102436 0.17993 -0.866547 -0.465533 
0.183541 -0.862767 -0.471112 -0.182917 0.863326 0.47033 
0.279169 0.0718781 0.031978 0.970437 -0.238341 0.0380316 
0.969778 -0.240753 0.0395962 -0.9699 0.240412 -0.038692 
0.0416162 -0.347855 -0.156575 0.99765 -0.00356955 -0.0684246 
0.995899 -0.00824192 -0.0900922 -0.995912 0.00830348 0.0899493 
0.171781 -0.194653 0.0538926 0.969235 0.23303 0.0792505 
0.969212 0.226366 0.0968862 -0.969362 -0.226587 -0.0948423 
0.089633 -0.30036 0.146274 0.355485 -0.552241 0.754096 
0.358659 -0.548756 0.755136 -0.358094 0.549618 -0.754777 
-0.122376 -0.236229 0.0411327 -0.30241 0.425429 0.85297 
-0.296523 0.448326 0.843254 0.296637 -0.448684 -0.843024 
-0.114654 -0.220851 0.0355847 -0.344446 0.536532 0.770384 
-0.341528 0.549196 0.76272 0.341293 -0.548887 -0.763048 
-0.177338 -0.233114 0.0339817 -0.114479 0.520533 0.846132 
-0.109728 0.523997 0.844622 0.109842 -0.523971 -0.844623 
0.0442267 -0.137328 -0.0585726 -0.199103 0.0692778 -0.977527 
-0.203727 0.0586302 -0.977271 0.204547 -0.0581722 0.977127 
-0.204324 -0.248032 0.0362825 -0.316292 0.445663 0.837463 
-0.317254 0.445622 0.837121 0.316779 -0.447171 -0.836474 
-0.210969 -0.0234806 -0.14628 0.016756 -0.4133 0.910441 
0.0164869 -0.413205 0.910489 -0.0167336 0.413565 -0.910321 
-0.232227 -0.336601 0.0412834 -0.609754 -0.0305274 0.792003 
-0.608461 -0.0356948 0.792781 0.608411 0.0357826 -0.792815 
0.168651 -0.0220978 -0.135671 0.514027 -0.706074 -0.487069 
0.507398 -0.708425 -0.490593 -0.506769 0.70992 0.489079 
0.122617 -0.346784 0.0449563 0.794355 -0.54808 0.261932 
0.791956 -0.550505 0.264101 -0.791589 0.550952 -0.264268 
-0.241559 -0.35085 0.0318267 -0.68711 -0.119777 0.716612 
-0.68899 -0.130609 0.712905 0.689275 0.129736 -0.712789 
-0.0644554 -0.0708743 0.107334 -0.446132 -0.868602 0.215632 
-0.436523 -0.872857 0.218101 0.436132 0.873076 -0.218007 
0.11768 0.322387 -0.185193 0.360356 0.601175 -0.713255 
0.358523 0.599078 -0.715938 -0.359147 -0.598868 0.715801 
-0.195574 -0.466561 0.0324266 -0.816244 -0.449172 0.363304 
-0.809896 -0.461851 0.36161 0.809489 0.463197 -0.360799 
-0.0203445 0.345067 -0.182119 -0.233415 0.734034 -0.637739 
-0.238112 0.737007 -0.632553 0.23756 -0.738282 0.631273 
0.0712808 -0.492437 0.0312361 0.474438 -0.810891 0.342585 
0.470372 -0.807453 0.356049 -0.469621 0.807578 -0.356755 
-0.0760281 0.305589 0.17783 -0.445511 0.535808 0.717238 
-0.442958 0.540489 0.715304 0.442786 -0.542003 -0.714264 
0.0849413 0.344465 -0.179436 0.250082 0.693316 -0.675849 
0.251907 0.691787 -0.676738 -0.251971 -0.693189 0.675277 
0.13836 0.404486 0.0402776 0.100115 0.798862 0.593124 
0.0858422 0.816249 0.571287 -0.085848 -0.818049 -0.568705 
-0.0281952 -0.241921 0.135636 -0.720216 0.137821 0.679923 
-0.717231 0.140318 0.682561 0.717366 -0.140056 -0.682473 
-0.210609 0.00523563 -0.135441 -0.337023 -0.26415 0.903681 
-0.355875 -0.271935 0.894094 0.354839 0.271685 -0.894582 
0.252473 0.112438 0.147502 0.863265 0.0278811 0.50398 
0.863974 0.0203682 0.503124 -0.863741 -0.0208533 -0.503505 
0.171227 0.406417 0.0340188 0.310632 0.13021 0.941569 
0.279338 0.207594 0.937483 -0.279297 -0.207596 -0.937495 
0.0939795 -0.0553695 0.183851 0.286835 -0.854434 0.433206 
0.283721 -0.858991 0.426189 -0.284687 0.859273 -0.424974 
-0.129839 0.347171 0.0402719 -0.61139 0.767402 0.193123 
-0.609188 0.768546 0.195516 0.610204 -0.768556 -0.192283 
0.102373 -0.455136 0.0191046 0.676564 -0.127092 0.725334 
0.684465 -0.129683 0.717419 -0.684815 0.130056 -0.717017 
0.0868131 0.0139458 -0.218121 0.205354 -0.531971 -0.821485 
0.208872 -0.532569 -0.820209 -0.208812 0.532272 0.820417 
-0.0845612 0.272466 -0.212102 -0.456593 0.429251 -0.779273 
-0.454114 0.426206 -0.782387 0.452585 -0.428401 0.782073 
0.0981987 -0.285133 0.152474 0.379466 -0.474955 0.793992 
0.382912 -0.471947 0.794131 -0.381935 0.472544 -0.794247 
-0.201018 -0.375061 -0.245125 -0.559118 -0.378575 -0.73761 
-0.561541 -0.383039 -0.733453 0.56175 0.383233 0.733191 
0.292653 0.271721 0.0342615 0.514265 0.182153 0.838064 
0.541178 0.189625 0.819249 -0.541209 -0.190091 -0.81912 
-0.181836 -0.37874 -0.256427 -0.483902 -0.349641 -0.802241 
-0.483918 -0.361669 -0.796881 0.48369 0.361845 0.796939 
0.287328 0.223535 0.0365723 0.940736 -0.190204 0.28078 
0.940155 -0.185313 0.285951 -0.940246 0.185139 -0.285764 
-0.211512 0.160913 0.0254296 -0.967167 0.0968521 0.234963 
-0.955862 0.13636 0.260257 0.955802 -0.136797 -0.260248 
-0.0955608 0.282458 -0.198957 -0.48197 0.491714 -0.725205 
-0.484454 0.486799 -0.726864 0.484837 -0.487648 0.726039 
-0.0892555 -0.0276035 0.168627 -0.58344 -0.649391 0.487739 
-0.586651 -0.641643 0.494099 0.583356 0.64393 -0.495026 
-0.150029 -0.0133023 0.024168 -0.751515 -0.659704 -0.00397764 
-0.749083 -0.662458 -0.00495592 0.749312 0.662198 0.00498165 
0.0112609 -0.0771021 -0.100871 -0.136401 -0.881573 -0.451911 
-0.137507 -0.881783 -0.451166 0.137305 0.881632 0.451522 
-0.166685 0.258595 -0.16717 -0.286678 0.447623 -0.847024 
-0.288137 0.459001 -0.840414 0.288613 -0.459955 0.839728 
0.185094 -0.059872 0.0319396 0.653049 -0.756445 0.036306 
0.662606 -0.747953 0.0389759 -0.667467 0.743667 -0.0380386 
-0.0645096 -0.0809324 0.0288447 -0.525953 -0.850174 -0.0240517 
-0.526176 -0.849991 -0.0255729 0.526597 0.84974 0.0252472 
0.159459 -0.0890395 0.0356881 0.895953 -0.443935 0.0138026 
0.897375 -0.441077 0.0130047 -0.896914 0.442016 -0.0129572 
-0.300915 -0.115515 -0.233142 -0.95394 0.237393 -0.183423 
-0.955188 0.239196 -0.17436 0.953992 -0.24493 0.17294 
-0.0854707 -0.208344 0.0409152 -0.45845 0.675631 0.577361 
-0.453048 0.673083 0.584557 0.451655 -0.673378 -0.585294 
0.0413163 -0.366163 -0.149564 0.98732 -0.0629173 -0.14574 
0.980247 -0.0870525 -0.177591 -0.980257 0.0865401 0.177782 
0.176925 -0.23813 0.0299273 0.996191 -0.0504877 -0.0710974 
0.996372 -0.0478034 -0.0704075 -0.996449 0.0469987 0.069857 
0.17552 -0.253109 0.0426004 0.984658 -0.173176 0.0214394 
0.985158 -0.16991 0.0243819 -0.985293 0.169095 -0.0245686 
-0.000791848 -0.494518 0.00317354 -0.0174182 -0.985784 -0.167112 
-0.0671673 -0.985686 -0.154636 0.0679444 0.985065 0.158208 
-0.0522422 0.351234 0.145895 -0.349101 0.751629 0.559627 
-0.351443 0.751318 0.558577 0.350493 -0.751856 -0.558451 
0.105058 0.025903 -0.219747 0.287655 -0.478068 -0.829883 
0.282523 -0.477734 -0.831836 -0.283091 0.478037 0.831468 
-0.0838496 0.347573 0.124591 -0.500919 0.735212 0.456665 
-0.496953 0.736081 0.45959 0.4961 -0.737144 -0.458807 
0.0968716 -0.19636 0.165907 0.378384 0.179182 0.908141 
0.363871 0.184426 0.913009 -0.364103 -0.184428 -0.912916 
-0.113431 0.33798 0.101242 -0.608422 0.702456 0.369296 
-0.607398 0.704349 0.36737 0.6075 -0.704472 -0.366964 
-0.010929 -0.497395 -0.168036 -0.0212891 -0.998942 -0.0407745 
-0.0122569 -0.998929 -0.0446054 0.0118751 0.998932 0.0446418 
-0.0304269 -0.174229 -0.0962542 0.310356 0.944412 -0.108465 
0.306815 0.945417 -0.10978 -0.308266 -0.94507 0.108698 
0.184398 0.423559 0.0292399 0.21192 0.0816502 0.97387 
0.154689 0.160264 0.974878 -0.15377 -0.161482 -0.974822 
0.114566 0.370097 0.1313 0.309129 0.802791 0.509869 
0.307078 0.806947 0.504519 -0.308286 -0.807348 -0.503139 
-0.111081 0.10938 -0.220446 -0.4918 -0.190087 -0.849706 
-0.499848 -0.191089 -0.84477 0.499868 0.192904 0.844346 
0.164698 0.428046 0.026711 -0.333144 0.578211 0.744773 
-0.283489 0.588127 0.757457 0.282429 -0.589361 -0.756894 
0.283433 0.110278 -0.0267514 0.990861 -0.0846961 -0.104983 
0.990555 -0.0857623 -0.106988 -0.990584 0.0850311 0.107295 
-0.29291 0.286757 -0.107751 -0.684387 0.192966 -0.703121 
-0.686311 0.189258 -0.702252 0.687773 -0.188838 0.700934 
0.00449469 0.408217 0.0329803 -0.165425 0.981096 0.100424 
-0.160024 0.981775 0.102517 0.159771 -0.981798 -0.10269 
-0.117136 0.357063 0.0393478 -0.575464 0.802118 0.159526 
-0.570096 0.806019 0.159134 0.570153 -0.806654 -0.155677 
-0.16156 0.321573 0.028348 -0.715039 0.585905 0.38136 
-0.711913 0.596949 0.369908 0.712081 -0.596756 -0.369895 
-0.0307002 -0.49809 0.133035 -0.139541 -0.947609 0.287342 
-0.152223 -0.92476 0.34878 0.151531 0.924802 -0.348969 
-0.171942 0.308838 0.024578 -0.809453 0.389008 0.43984 
-0.797128 0.428208 0.425706 0.795635 -0.430465 -0.426222 
-0.00400711 -0.163296 0.13173 -0.726259 0.306273 0.615422 
-0.733761 0.321774 0.598378 0.733663 -0.322596 -0.598055 
0.248446 0.293362 0.039619 0.613222 0.651105 0.447236 
0.601755 0.642433 0.474522 -0.602744 -0.642055 -0.473777 
0.137983 -0.0266679 0.197813 0.460005 -0.718672 0.521446 
0.45051 -0.724488 0.521687 -0.448872 0.72536 -0.521889 
0.0888763 -0.0851359 0.137753 0.315126 -0.524485 0.790955 
0.326737 -0.529268 0.783019 -0.327323 0.529469 -0.782638 
-0.0325068 -0.475503 -0.201365 -0.0657403 -0.251211 -0.965697 
0.00711507 -0.361107 -0.932497 -0.0059378 0.36177 0.932249 
0.286595 0.142313 0.0172792 0.999599 0.0216682 0.018227 
0.999496 0.0266773 0.017194 -0.999483 -0.026921 -0.0176 
-0.210686 0.14247 0.0369573 -0.962504 0.0933268 0.254707 
-0.956908 0.0919413 0.27545 0.957005 -0.0926842 -0.274864 
-0.121603 0.0945276 -0.210053 -0.511541 -0.25388 -0.820896 
-0.504959 -0.249868 -0.826186 0.506673 0.250621 0.824907 
0.191916 0.280818 0.164087 0.604793 0.408561 0.683596 
0.605598 0.417045 0.677735 -0.606536 -0.418464 -0.676019 
-0.202624 0.0756407 0.02941 -0.833252 -0.459085 0.30811 
-0.835338 -0.457705 0.304494 0.835066 0.458999 -0.303289 
-0.139325 -0.0241225 0.0151226 -0.699345 -0.712932 -0.0514216 
-0.698136 -0.714203 -0.0501902 0.697662 0.714596 0.0511931 
0.0513552 0.337204 -0.1958 0.131006 0.677502 -0.72376 
0.129837 0.677181 -0.724271 -0.129337 -0.677974 0.723618 
-0.108815 0.158259 -0.226503 -0.502676 0.0170473 -0.864307 
-0.501242 0.0178018 -0.865124 0.501036 -0.0176068 0.865248 
-0.0274866 -0.114606 0.0500433 -0.928142 -0.363523 0.0800175 
-0.925682 -0.371396 0.0719585 0.925451 0.371938 -0.0721315 
-0.0535407 0.12275 0.226474 -0.870066 0.317922 0.37671 
-0.851696 0.30457 0.42644 0.852129 -0.304734 -0.425455 
-0.13873 0.0161522 0.138658 -0.802386 -0.306883 0.511859 
-0.804946 -0.305765 0.508498 0.804703 0.306044 -0.508714 
-0.2739 -0.0766493 -0.252835 -0.67486 0.540513 -0.502404 
-0.668439 0.536939 -0.51467 0.669209 -0.539693 0.510774 
0.241494 0.224681 0.13753 0.787844 0.225884 0.572956 
0.792909 0.239404 0.560339 -0.793112 -0.240158 -0.55973 
-0.0486348 -0.176992 0.0353646 -0.62232 0.763315 0.173402 
-0.630236 0.750965 0.197111 0.629854 -0.751819 -0.195071 
-0.0742119 -0.195965 0.034308 -0.513723 0.736849 0.439479 
-0.500458 0.743878 0.442931 0.500014 -0.743988 -0.443247 
-0.20471 -0.465191 0.0105851 -0.816862 -0.488881 0.306157 
-0.812236 -0.49143 0.314276 0.812067 0.492062 -0.313723 
0.175182 -0.223302 0.0160606 0.98299 0.0677632 -0.170702 
0.981406 0.0815759 -0.173744 -0.981485 -0.0817828 0.173202 
-0.235087 -0.288738 0.0344974 -0.582737 0.186571 0.790955 
-0.584239 0.187588 0.789605 0.584143 -0.187454 -0.789707 
-0.229086 -0.305224 0.0417801 -0.54581 0.125921 0.828393 
-0.54764 0.122145 0.82775 0.546798 -0.122663 -0.82823 
0.0690307 0.340876 -0.188146 0.1964 0.686103 -0.700493 
0.197716 0.684547 -0.701643 -0.198316 -0.684364 0.701653 
0.230884 0.230621 0.14852 0.730302 0.226737 0.644398 
0.728946 0.237633 0.642004 -0.730098 -0.236172 -0.641233 
-0.105164 -0.156518 -0.181791 0.207958 0.958924 -0.19292 
0.218981 0.953959 -0.204962 -0.219284 -0.9539 0.204913 
-0.132507 0.293017 0.137779 -0.681339 0.5313 0.503485 
-0.682055 0.524435 0.509675 0.681282 -0.525191 -0.509932 
0.137955 -0.0160569 0.211036 0.458101 -0.650862 0.605411 
0.450138 -0.651054 0.611151 -0.450108 0.650928 -0.611306 
0.0133711 -0.498336 0.0144034 -0.0859469 -0.994865 -0.0534503 
-0.0555589 -0.997089 -0.0522255 0.0561268 0.997005 0.053212 
0.00296378 0.0317147 -0.230756 -0.164565 -0.517997 -0.839403 
-0.170638 -0.520941 -0.836363 0.171707 0.521173 0.835999 
0.197024 0.440878 0.0256069 0.104139 0.187165 0.976793 
0.049798 0.225121 0.973057 -0.0497083 -0.225302 -0.97302 
0.0926889 -0.0176267 0.233887 0.257912 -0.446894 0.856602 
0.266706 -0.490144 0.829835 -0.266769 0.490359 -0.829688 
0.0867875 -0.428707 0.0421997 0.750104 -0.225112 0.621827 
0.754132 -0.213902 0.620911 -0.754047 0.214177 -0.620919 
0.120468 0.411383 0.0255196 -0.0772811 0.961109 0.265137 
-0.0546458 0.960368 0.273327 0.0550898 -0.960833 -0.271596 
-0.0340192 0.357805 0.146989 -0.275417 0.770923 0.574303 
-0.2737 0.774092 0.57085 0.273829 -0.774304 -0.570501 
0.0121789 0.339988 -0.195202 -0.066619 0.704793 -0.706278 
-0.0633249 0.706464 -0.704911 0.0622081 -0.706372 0.705102 
0.145688 -0.304458 -0.0287185 0.857352 -0.362149 -0.36578 
0.860055 -0.357983 -0.363531 -0.860184 0.358011 0.363198 
0.162489 -0.0419846 -0.107267 0.465643 -0.796756 -0.385172 
0.466752 -0.796215 -0.384947 -0.465377 0.797109 0.384761 
0.215517 0.328879 0.0385864 0.713885 0.626722 0.312389 
0.714152 0.631143 0.302731 -0.714399 -0.631158 -0.302116 
0.23795 0.322119 0.0164532 0.421152 0.566198 0.708556 
0.39606 0.560618 0.727217 -0.396252 -0.561464 -0.726459 
0.281207 0.302467 0.0251084 -0.0311953 0.376501 0.925891 
0.0295861 0.377727 0.925444 -0.0292263 -0.377854 -0.925404 
0.133818 -0.111991 -0.0309563 0.782343 -0.216263 -0.584098 
0.795912 -0.197612 -0.572253 -0.795924 0.197476 0.572284 
-0.292179 0.190132 -0.0890547 -0.853752 -0.390612 -0.344282 
-0.852329 -0.387955 -0.350751 0.851708 0.388509 0.351647 
0.292282 0.227656 0.0180558 0.939443 -0.317179 0.129784 
0.943885 -0.301963 0.133786 -0.944164 0.301342 -0.133222 
0.148239 -0.221814 0.127911 0.820339 0.0650439 0.568166 
0.812516 0.0713707 0.578554 -0.812807 -0.0714682 -0.578133 
0.0202619 0.351953 -0.18306 -0.0346007 0.755069 -0.654731 
-0.0315396 0.757699 -0.651841 0.0318363 -0.758146 0.651308 
0.0813615 -0.217705 -0.0911776 0.441321 0.374352 -0.815534 
0.444344 0.377261 -0.812547 -0.44397 -0.377728 0.812535 
-0.0221534 -0.0944315 -0.0457067 -0.442305 -0.782005 -0.43913 
-0.452332 -0.778429 -0.435252 0.452474 0.778155 0.435594 
0.154104 0.0483736 -0.208239 0.485678 -0.370569 -0.791704 
0.483079 -0.372012 -0.792617 -0.480725 0.372906 0.793627 
-0.00563516 -0.197504 0.145335 -0.656946 0.238111 0.715349 
-0.669765 0.254098 0.697745 0.66997 -0.254271 -0.697486 
-0.186815 0.0419848 0.0214317 -0.875066 -0.461507 0.145848 
-0.87192 -0.467925 0.144226 0.87165 0.468511 -0.14396 
-0.181446 0.0291749 0.00477181 -0.846811 -0.529338 0.0520847 
-0.84528 -0.531156 0.0580861 0.845101 0.531643 -0.056211 
0.153981 -0.124718 0.0318642 0.994622 0.0959894 -0.0388871 
0.995821 0.0843752 -0.0349538 -0.995745 -0.085381 0.0346788 
0.0532495 0.350647 -0.18194 0.124087 0.730652 -0.67138 
0.122567 0.732757 -0.669361 -0.12305 -0.733563 0.668389 
0.170942 -0.222041 0.0808179 0.957068 0.0607714 0.283421 
0.956361 0.0628486 0.285349 -0.956448 -0.0629555 -0.285032 
-0.00927577 -0.0732213 0.154297 -0.192353 -0.903923 0.382 
-0.189154 -0.900948 0.390529 0.185698 0.902172 -0.38936 
-0.0723318 -0.41484 0.0884432 0.0850187 0.666677 0.740482 
-0.106794 0.641471 0.759678 0.10553 -0.641549 -0.759788 
0.2189 0.0869353 0.192801 0.713596 0.0349802 0.699683 
0.707469 0.0523236 0.704805 -0.70826 -0.0505592 -0.704139 
-0.0630878 -0.183862 0.0253649 -0.51988 0.799834 0.299984 
-0.511652 0.805494 0.298984 0.512531 -0.805066 -0.298631 
-0.195899 -0.478964 -0.174787 -0.654116 -0.609678 -0.447688 
-0.64702 -0.615247 -0.450373 0.647517 0.614831 0.450228 
0.226693 0.0230864 0.147768 0.773101 -0.483292 0.410783 
0.773722 -0.488918 0.402882 -0.773157 0.48945 -0.403321 
-0.140708 -0.236291 0.0380549 -0.0562659 0.493689 0.867816 
-0.072416 0.488523 0.869541 0.0716373 -0.489088 -0.869288 
-0.222598 -0.255292 0.0316203 -0.465699 0.369952 0.803903 
-0.463689 0.381033 0.799879 0.463699 -0.382801 -0.799029 
-0.245942 -0.300665 0.0276276 -0.677347 0.111141 0.72722 
-0.681168 0.112973 0.723359 0.68103 -0.113245 -0.723445 
-0.236708 -0.31833 0.0376019 -0.626321 0.043017 0.778378 
-0.626257 0.0435084 0.778402 0.626009 -0.0437612 -0.778587 
-0.249028 -0.317633 0.026459 -0.69956 0.0395917 0.713476 
-0.706288 0.033424 0.707135 0.706396 -0.0336119 -0.707018 
-0.255548 -0.34901 0.0169997 -0.7754 -0.159266 0.611056 
-0.77558 -0.148138 0.613621 0.775568 0.147204 -0.613862 
-0.0197614 0.0303455 0.267963 -0.25223 -0.413141 0.87504 
-0.241878 -0.40945 0.879685 0.239249 0.409228 -0.880507 
-0.186528 0.125096 0.109253 -0.827582 -0.145488 0.542163 
-0.823541 -0.144849 0.548451 0.823629 0.14434 -0.548453 
-0.0987861 0.144429 -0.23209 -0.474693 -0.037403 -0.879356 
-0.474091 -0.0308108 -0.879936 0.474142 0.0309117 0.879905 
-0.131227 0.0636624 0.15158 -0.553927 0.0439719 0.831404 
-0.611134 0.0442546 0.790289 0.610859 -0.0444993 -0.790488 
-0.131763 0.0438137 0.151838 -0.71398 0.0648857 0.697153 
-0.726229 0.0449511 0.685982 0.725791 -0.0450402 -0.686439 
-0.296929 -0.202313 -0.232721 -0.906637 -0.285963 -0.310216 
-0.907805 -0.281414 -0.310961 0.907282 0.282183 0.311789 
0.233233 0.212797 0.150953 0.705909 0.160491 0.689881 
0.693924 0.157691 0.702569 -0.694324 -0.157393 -0.70224 
-0.0324432 0.270315 -0.235844 -0.263369 0.413157 -0.871744 
-0.261704 0.404329 -0.876373 0.261362 -0.4023 0.877408 
-0.154443 0.217339 0.154381 -0.713747 0.123937 0.689351 
-0.711787 0.124476 0.691278 0.712713 -0.124842 -0.690257 
0.126505 0.35792 0.141534 0.364455 0.757593 0.541504 
0.363819 0.755898 0.544292 -0.361954 -0.760397 -0.539246 
0.0372008 -0.308314 0.155396 0.0546198 -0.473793 0.878941 
0.0471595 -0.4699 0.881459 -0.0472085 0.469651 -0.881589 
-0.235539 0.123419 -0.163057 -0.708131 0.656547 -0.259802 
-0.738411 0.595642 -0.316165 0.738256 -0.59602 0.315813 
-0.0159222 -0.496973 -0.122923 -0.0316783 -0.999487 0.00474324 
-0.0316775 -0.999479 0.00612031 0.0318672 0.999473 -0.00621967 
-0.28701 -0.101419 -0.189925 -0.713765 0.156002 0.68279 
-0.716694 0.154382 0.680086 0.716791 -0.154298 -0.680002 
0.124904 -0.234166 0.153954 0.629733 -0.0462369 0.775435 
0.62699 -0.0417873 0.777906 -0.627641 0.0418664 -0.777376 
0.229999 0.316751 0.0313785 0.6648 0.63024 0.401047 
0.65585 0.633106 0.411142 -0.655915 -0.634068 -0.409552 
0.0634142 -0.125806 0.147153 0.0222796 0.416187 0.909006 
0.0161488 0.408884 0.912444 -0.0163001 -0.408627 -0.912556 
0.0692497 -0.144088 0.155257 0.0887503 0.412277 0.906726 
0.0830726 0.412187 0.907304 -0.0843998 -0.412353 -0.907106 
0.0470979 0.309597 -0.218885 0.132733 0.569027 -0.811536 
0.127365 0.569378 -0.81215 -0.128045 -0.569229 0.812147 
-0.0234278 -0.0572384 0.180336 -0.274713 -0.830343 0.484834 
-0.269389 -0.834595 0.480501 0.270479 0.835087 -0.47903 
-0.0990289 -0.00537382 -0.154584 -0.405833 -0.728486 -0.551912 
-0.408174 -0.731032 -0.546797 0.4053 0.732135 0.547458 
-0.209405 -0.158763 -0.0804877 -0.314316 0.928932 0.195682 
-0.323911 0.922063 0.211854 0.32313 -0.922283 -0.212085 
0.137574 0.111494 0.244267 0.536727 0.600856 0.592365 
0.539317 0.577844 0.612563 -0.53931 -0.57919 -0.611296 
-0.031617 -0.370288 -0.263226 0.451824 -0.334268 -0.827115 
0.454594 -0.335013 -0.825294 -0.454506 0.335559 0.825121 
-0.00506031 -0.091051 0.12311 -0.403222 -0.691826 0.598989 
-0.428137 -0.669999 0.606465 0.429344 0.672401 -0.602943 
0.244064 0.125999 0.158228 0.778314 0.124504 0.615407 
0.773959 0.11912 0.621931 -0.77394 -0.119691 -0.621845 
0.245416 0.179415 0.145945 0.766259 0.13159 0.628913 
0.7637 0.135628 0.631164 -0.763668 -0.135567 -0.631216 
0.069183 -0.422017 0.0679759 0.789107 -0.21547 0.575224 
0.78947 -0.207955 0.577487 -0.789588 0.208515 -0.577124 
-0.235393 0.121497 0.0167888 -0.515602 6.3143e-17 0.856828 
-0.544494 -0.0505982 0.837237 0.544324 0.0499118 -0.837389 
-0.0356744 0.146136 0.240569 -0.769814 0.487409 0.412091 
-0.772626 0.438147 0.45943 0.773191 -0.438525 -0.458116 
-0.230688 -0.0789284 -0.263277 0.552299 0.198902 -0.80957 
0.532438 0.216278 -0.818373 -0.532247 -0.216134 0.818535 
0.271231 0.0498125 -0.0172383 0.924501 -0.371077 -0.0871815 
0.927802 -0.363462 -0.0841423 -0.927756 0.363712 0.0835621 
0.0745687 0.103603 -0.258441 0.212238 -0.201901 -0.956134 
0.209405 -0.20079 -0.956992 -0.208646 0.202902 0.956712 
0.0489977 -0.474638 -0.172161 0.752374 -0.0900536 -0.652551 
0.757975 -0.132197 -0.638747 -0.758022 0.131894 0.638754 
0.156937 -0.144477 0.0229679 0.964053 0.237552 -0.119045 
0.965976 0.228983 -0.120236 -0.965745 -0.229983 0.120188 
-0.0228534 -0.139202 0.00159545 -0.961068 0.0990304 -0.257957 
-0.970575 0.0856048 -0.225067 0.969466 -0.0925326 0.227099 
-0.182528 -0.47772 -0.192372 -0.582686 -0.592112 -0.556669 
-0.573847 -0.604418 -0.55261 0.569949 0.61312 0.54703 
-0.0909076 -0.19785 0.023078 -0.294204 0.789645 0.538428 
-0.30719 0.780917 0.543877 0.306734 -0.780742 -0.544386 
-0.187075 -0.219596 0.0236994 -0.173996 0.574938 0.799482 
-0.179686 0.58509 0.790812 0.179622 -0.585217 -0.790732 
0.0486422 -0.453011 -0.167615 0.77626 0.320675 -0.542759 
0.776898 0.289048 -0.559357 -0.776959 -0.289888 0.558838 
-0.206201 -0.221477 0.0183767 -0.346036 0.561564 0.751602 
-0.3359 0.566243 0.752689 0.335951 -0.566993 -0.752101 
-0.236572 -0.271276 0.0281458 -0.589539 0.258897 0.765125 
-0.592425 0.264142 0.761093 0.592585 -0.264497 -0.760844 
0.174345 -0.257548 0.0248695 0.979817 -0.18508 -0.0755289 
0.979404 -0.185046 -0.0807841 -0.979403 0.185149 0.0805601 
-0.0469772 0.008258 -0.19762 -0.308801 -0.634259 -0.708772 
-0.306771 -0.632319 -0.711382 0.30677 0.633016 0.710762 
0.115337 -0.371688 0.0271932 0.891304 -0.318603 0.322598 
0.89184 -0.311533 0.327977 -0.891986 0.310918 -0.328162 
-0.247822 -0.377833 0.0154037 -0.765006 -0.301634 0.569019 
-0.761156 -0.298892 0.575592 0.76122 0.298709 -0.575602 
0.111885 -0.390199 0.0236157 0.88225 -0.195578 0.428233 
0.881179 -0.205296 0.425884 -0.881357 0.205381 -0.425474 
0.152945 0.154397 -0.231367 0.482376 -0.000958205 -0.875964 
0.484251 0.000740773 -0.874929 -0.48435 -0.000624069 0.874874 
0.0930185 -0.469418 0.0254919 0.681708 -0.230885 0.694238 
0.692074 -0.24187 0.680098 -0.692539 0.24108 -0.679904 
0.0994655 -0.468137 -0.123441 0.147307 -0.0110871 -0.989029 
0.189274 -0.0123898 -0.981846 -0.188968 0.0130201 0.981897 
0.0362969 -0.37499 -0.167465 0.945784 -0.202017 -0.254326 
0.945547 -0.209567 -0.249043 -0.945649 0.209108 0.249042 
-0.219043 -0.157555 -0.107423 -0.391604 0.904227 0.170349 
-0.396492 0.905023 0.154039 0.397162 -0.904749 -0.15392 
0.203673 0.302523 -0.146719 0.474789 0.27439 -0.836233 
0.470944 0.260824 -0.842723 -0.470557 -0.260865 0.842927 
0.139349 -0.0419292 -0.130581 0.382875 -0.800156 -0.461689 
0.381207 -0.804571 -0.455354 -0.381469 0.805111 0.454179 
-0.186337 -0.490199 -0.00878823 -0.453175 -0.874527 0.172727 
-0.433221 -0.885662 0.1671 0.430111 0.887064 -0.167699 
-0.0453985 -0.0644137 -0.0942964 -0.35991 -0.850388 -0.383804 
-0.35414 -0.854003 -0.381136 0.354341 0.854032 0.380882 
0.200618 0.290621 0.148026 0.665905 0.497456 0.555975 
0.656954 0.495384 0.568337 -0.656457 -0.495597 -0.568725 
-0.124692 -0.496369 0.0182181 -0.0319887 -0.999486 -0.00220974 
-0.0192641 -0.999741 -0.0121098 0.0192437 0.999741 0.012114 
0.0252219 0.357038 0.162767 -0.0559329 0.765651 0.640819 
-0.0580003 0.765367 0.640975 0.0578414 -0.765955 -0.640287 
-0.0940768 -0.1883 -0.243407 0.275659 0.732867 -0.622027 
0.274374 0.725974 -0.630619 -0.273856 -0.725827 0.631013 
0.305863 0.47144 -0.025072 0.830303 0.537463 -0.147413 
0.8286 0.549785 -0.105637 -0.825719 -0.554299 0.104597 
-0.0527936 -0.449304 -0.225084 0.406286 -0.559942 -0.722078 
0.405687 -0.537494 -0.739268 -0.4059 0.537358 0.739251 
0.225038 0.446383 0.0164372 0.362588 -0.179503 0.914499 
0.323855 -0.134709 0.936467 -0.323918 0.134583 -0.936464 
0.127962 0.288922 0.198372 0.360524 0.348861 0.865054 
0.360062 0.342524 0.867775 -0.360815 -0.342733 -0.867379 
0.21797 0.415213 0.0121421 0.424332 -0.189484 0.885459 
0.407037 -0.187786 0.8939 -0.40753 0.187601 -0.893715 
-0.0600439 0.391144 0.0115149 -0.399441 0.916441 0.0241414 
-0.392247 0.919363 0.0302212 0.394215 -0.918604 -0.0275783 
-0.290718 0.167546 -0.0159025 -0.83639 -0.360223 0.413147 
-0.80206 -0.303758 0.514228 0.802007 0.304514 -0.513863 
0.192186 0.380715 0.0208386 0.593534 0.0617517 0.802437 
0.602283 0.0958123 0.792512 -0.602057 -0.0959974 -0.792661 
-0.14251 0.343484 -0.0641094 -0.294805 0.924194 -0.242805 
-0.280721 0.929699 -0.238445 0.28055 -0.929798 0.238259 
0.19534 0.360839 0.026233 0.706504 0.471621 0.527661 
0.712038 0.450307 0.538726 -0.712353 -0.451875 -0.536994 
0.211641 0.34819 0.0168995 0.627585 0.483541 0.610185 
0.609804 0.457639 0.647075 -0.610293 -0.459003 -0.645646 
-0.259314 -0.331159 0.0155576 -0.798032 -0.0376135 0.601439 
-0.791262 -0.0437165 0.609912 0.791416 0.0438444 -0.609704 
0.0170081 -0.133428 0.136172 -0.545835 0.40157 0.735395 
-0.544062 0.378261 0.748942 0.543789 -0.379838 -0.748342 
0.0092533 -0.254834 -0.218992 0.804037 0.411653 -0.429029 
0.807577 0.40963 -0.42429 -0.807395 -0.411533 0.422794 
0.243086 0.306582 0.0276503 0.535267 0.636856 0.554891 
0.499522 0.641691 0.581988 -0.5002 -0.641993 -0.581073 
0.301938 0.308717 0.0202569 0.431299 0.223474 0.874094 
0.456112 0.219125 0.862523 -0.456107 -0.219135 -0.862523 
-0.244864 -0.0672825 -0.264046 -0.00645573 0.500613 -0.865647 
-0.0122099 0.511962 -0.858921 0.0124672 -0.51267 0.858496 
0.261391 0.155505 0.124494 0.901484 0.100683 0.420938 
0.900387 0.095856 0.424398 -0.900789 -0.0951615 -0.423702 
0.295658 0.289584 0.0281053 0.388117 0.238785 0.890139 
0.449276 0.205917 0.869339 -0.449167 -0.205977 -0.86938 
0.308692 0.292942 0.0158153 0.848392 -0.0655387 0.525296 
0.826222 -0.021202 0.562946 -0.826277 0.0208525 -0.562878 
0.183128 -0.0423505 -0.0755284 0.558591 -0.76991 -0.308569 
0.551854 -0.775051 -0.30782 -0.552144 0.774934 0.307595 
0.219718 0.0442194 0.178987 0.766532 -0.34573 0.541201 
0.766253 -0.337777 0.546592 -0.766901 0.33775 -0.545699 
0.155681 0.223135 -0.21924 0.496116 0.278324 -0.822439 
0.498509 0.271552 -0.823255 -0.498331 -0.271707 0.823311 
0.00625335 -0.384425 -0.22483 0.709897 -0.400465 -0.579374 
0.714716 -0.396072 -0.576461 -0.715917 0.394326 0.576168 
-0.226633 0.107544 0.0208984 -0.606921 -0.234624 0.759341 
-0.646248 -0.264728 0.715739 0.64556 0.264758 -0.716348 
-0.0220342 -0.203937 -0.203195 0.605782 0.689708 -0.396651 
0.605389 0.692277 -0.392754 -0.605487 -0.692609 0.392018 
-0.21649 0.0912581 0.021669 -0.707463 -0.471055 0.526881 
-0.741096 -0.460702 0.488396 0.741088 0.461198 -0.487939 
-0.208488 0.0747315 0.0126435 -0.755443 -0.584574 0.295938 
-0.775324 -0.56819 0.275741 0.775288 0.56907 -0.274023 
0.274212 0.0544489 0.0264121 0.944517 -0.327739 0.021797 
0.944593 -0.327415 0.0233277 -0.944864 0.326654 -0.0229858 
0.248155 0.00414768 0.0166673 0.816205 -0.577744 0.00465122 
0.815031 -0.579416 0.00118845 -0.814581 0.58005 -0.000836125 
-0.278295 -0.355529 -0.122639 -0.937258 -0.311721 -0.156133 
-0.936394 -0.312721 -0.159287 0.935633 0.313985 0.161257 
0.157548 -0.0909801 0.0150017 0.901445 -0.420607 -0.102408 
0.889202 -0.444965 -0.106427 -0.889194 0.445029 0.106228 
0.274312 0.096467 0.0904809 0.960498 -0.110087 0.255587 
0.960451 -0.106123 0.257433 -0.96033 0.1054 -0.258182 
-0.110172 -0.197086 0.0149366 -0.173183 0.757252 0.629743 
-0.177534 0.756132 0.629878 0.176498 -0.756877 -0.629274 
-0.122386 -0.207726 0.0222768 -0.211907 0.637154 0.741033 
-0.208211 0.642705 0.737278 0.208502 -0.642663 -0.737232 
-0.129629 -0.194725 0.00878059 -0.0875922 0.71784 0.690676 
-0.0974972 0.723009 0.683924 0.0975407 -0.723504 -0.683395 
-0.167986 -0.219299 0.0257166 -0.0628055 0.580019 0.812178 
-0.0673935 0.584985 0.808239 0.0671883 -0.585682 -0.807751 
0.174568 -0.241424 0.0115664 0.981766 -0.0485677 -0.183784 
0.981273 -0.055333 -0.184505 -0.981308 0.0553158 0.18432 
-0.26132 -0.291091 0.00899631 -0.796222 0.119862 0.593012 
-0.789059 0.120953 0.602293 0.789273 -0.120763 -0.602051 
0.124176 -0.445322 -0.117349 0.249209 0.41256 -0.876179 
0.270431 0.406563 -0.872682 -0.270092 -0.407056 0.872557 
-0.241041 -0.394654 0.0148141 -0.753491 -0.368983 0.544154 
-0.753959 -0.368388 0.543909 0.753893 0.369971 -0.542925 
-0.249344 0.325426 -0.0199902 -0.259729 -0.0931609 0.961177 
-0.221848 -0.0079822 0.975049 0.221328 0.00850225 -0.975162 
-0.195407 -0.476708 0.0132636 -0.720446 -0.645583 0.253338 
-0.717047 -0.64817 0.256356 0.716914 0.648277 -0.25646 
-0.183595 -0.482343 0.0289655 -0.686302 -0.705922 0.175111 
-0.674828 -0.705704 0.215845 0.675321 0.706073 -0.21308 
-0.0596048 -0.0491406 0.167104 -0.426292 -0.776851 0.46344 
-0.427134 -0.779227 0.458652 0.425561 0.780879 -0.457304 
-0.00751695 -0.0947243 -0.0573171 -0.348159 -0.783112 -0.515286 
-0.363896 -0.779611 -0.509692 0.363552 0.780131 0.509141 
-0.0278693 -0.497355 0.0297093 -0.10194 -0.988874 -0.108334 
-0.106133 -0.987539 -0.116199 0.110575 0.987085 0.115918 
0.231378 0.0526339 -0.13614 0.777117 -0.343006 -0.52767 
0.779257 -0.342981 -0.524522 -0.779036 0.342074 0.525441 
0.249003 0.489867 0.00568434 -0.055136 0.659544 0.749641 
-0.0704576 0.705358 0.705341 0.070727 -0.70567 -0.705002 
0.219025 0.476303 0.0114124 -0.30471 0.68738 0.659288 
-0.276954 0.678714 0.680179 0.276366 -0.679327 -0.679806 
-0.275187 -0.237823 -0.0426463 -0.860629 0.394602 0.32188 
-0.865292 0.378571 0.328563 0.865382 -0.378484 -0.328425 
0.120671 0.118542 0.252226 0.538567 0.593584 0.598 
0.531936 0.580452 0.616539 -0.531727 -0.581784 -0.615463 
-0.185099 0.212707 0.109426 -0.907143 0.18819 0.376398 
-0.903739 0.187924 0.384629 0.904003 -0.188977 -0.383491 
0.17558 -0.0259245 0.157103 0.560627 -0.723884 0.402106 
0.559301 -0.725213 0.401558 -0.558739 0.725777 -0.40132 
0.204861 0.344306 0.0321327 0.712492 0.599585 0.36449 
0.713841 0.597876 0.364658 -0.714917 -0.597084 -0.363846 
-0.138154 0.278593 -0.16945 -0.511214 0.524204 -0.68108 
-0.501922 0.525779 -0.686754 0.501961 -0.52565 0.686824 
-0.0935111 0.374755 0.0127668 -0.477558 0.877352 0.0468058 
-0.478744 0.876575 0.049202 0.478754 -0.876582 -0.048973 
-0.180234 -0.162978 -0.228392 0.271597 0.893515 -0.357584 
0.274722 0.894538 -0.352604 -0.275696 -0.894928 0.35085 
-0.24614 0.238394 -0.15214 -0.450763 0.132254 -0.882792 
-0.45906 0.13306 -0.878384 0.459282 -0.133082 0.878265 
-0.111565 0.363842 0.0182376 -0.52008 0.848884 0.0944071 
-0.523732 0.847518 0.0861334 0.523699 -0.847551 -0.086001 
-0.138216 0.348539 0.00300733 -0.508712 0.85038 0.134408 
-0.498713 0.857117 0.128979 0.498545 -0.857221 -0.128936 
0.0250959 -0.494472 -0.178055 0.303913 -0.884564 -0.353813 
0.287543 -0.882448 -0.372297 -0.290385 0.882151 0.370791 
0.28982 0.337719 0.0125078 -0.0799118 0.287269 0.954511 
-0.0434176 0.277741 0.959674 0.0424709 -0.277865 -0.959681 
-0.0838937 -0.1746 -0.217613 0.305124 0.839906 -0.44884 
0.310939 0.844349 -0.43634 -0.313299 -0.844673 0.434017 
0.306108 0.324886 0.0146231 0.43002 0.179907 0.884712 
0.465024 0.167832 0.869244 -0.464575 -0.167743 -0.869501 
-0.107724 0.246016 -0.209894 -0.509279 0.313433 -0.801495 
-0.50947 0.310774 -0.802409 0.510633 -0.3106 0.801737 
0.250426 0.335175 0.00763794 -0.0125719 0.350371 0.936527 
0.00937449 0.353544 0.935371 -0.00934953 -0.353442 -0.93541 
0.151608 0.327984 0.159468 0.466837 0.630125 0.620489 
0.466631 0.630362 0.620403 -0.466026 -0.630536 -0.620681 
0.220908 0.058094 -0.153651 0.74308 -0.315532 -0.590145 
0.741877 -0.318078 -0.590293 -0.741866 0.317832 0.590439 
0.211011 0.141668 -0.18742 0.708024 -0.0371542 -0.70521 
0.715928 -0.0410232 -0.696968 -0.716387 0.0408306 0.696508 
-0.207996 0.346548 -0.0659309 0.210012 0.959029 -0.190154 
0.207643 0.959872 -0.188494 -0.207388 -0.960025 0.187998 
0.286671 0.128353 0.00322254 0.999602 -0.0190876 -0.0207853 
0.999405 -0.0210276 -0.0273293 -0.9994 0.0209461 0.0275752 
-0.246295 0.137781 0.00990077 -0.328809 0.170369 0.928902 
-0.389225 0.15643 0.907763 0.388923 -0.157132 -0.907771 
0.142325 0.0567661 -0.219015 0.44969 -0.353061 -0.820443 
0.446373 -0.349666 -0.823702 -0.445976 0.350207 0.823687 
-0.22899 0.0931957 0.0055214 -0.674807 -0.632496 0.380242 
-0.686737 -0.626553 0.368542 0.686814 0.627501 -0.366782 
0.0147234 -0.498188 -0.0961245 -0.00704979 -0.999587 -0.0278476 
-0.0218087 -0.999712 -0.0100084 0.0217954 0.999713 0.00991839 
0.0185731 0.41234 -0.000880496 -0.113877 0.993169 0.025424 
-0.117553 0.992797 0.0231298 0.118509 -0.992697 -0.0225469 
0.143622 0.295404 -0.191213 0.441205 0.501509 -0.744196 
0.444752 0.50062 -0.742681 -0.445403 -0.501058 0.741995 
0.142747 0.317388 0.175366 0.42899 0.562036 0.707165 
0.423855 0.561685 0.710533 -0.423743 -0.560953 -0.711177 
-0.291561 -0.259726 -0.176946 -0.97418 -0.193571 -0.116202 
-0.975711 -0.181603 -0.122511 0.97565 0.181732 0.122807 
0.152048 -0.140673 0.00423734 0.936269 0.186003 -0.297999 
0.933199 0.181957 -0.309891 -0.932819 -0.182627 0.310639 
-0.036782 -0.165621 0.0236996 -0.70244 0.710619 0.0399701 
-0.711684 0.699734 0.0622779 0.711217 -0.700782 -0.0554521 
-0.0785329 -0.188429 0.0152187 -0.354145 0.84622 0.398112 
-0.344799 0.848973 0.400448 0.343445 -0.849354 -0.400804 
-0.248808 -0.21984 -0.0161688 -0.649225 0.542018 0.533595 
-0.652037 0.541552 0.53063 0.651782 -0.542121 -0.530362 
0.0915803 0.196309 0.219463 0.478895 -0.0467947 0.876624 
0.462381 -0.0248853 0.886332 -0.463263 0.0238547 -0.8859 
-0.250384 -0.282474 0.0195764 -0.694986 0.19057 0.69331 
-0.696898 0.189157 0.691775 0.69667 -0.189354 -0.691951 
-0.265728 -0.344136 0.00260972 -0.860376 -0.129416 0.492955 
-0.858304 -0.131499 0.496006 0.85836 0.129949 -0.496319 
-0.259647 -0.36485 0.00514208 -0.817831 -0.261825 0.512444 
-0.822161 -0.254158 0.509367 0.82212 0.254119 -0.509454 
0.118194 -0.384514 0.00927765 0.95231 -0.121205 0.280025 
0.945585 -0.136231 0.295482 -0.94582 0.13459 -0.295482 
0.121988 -0.415913 -0.000240009 0.859883 0.111363 0.498196 
0.862325 0.095173 0.49733 -0.862617 -0.0948768 -0.496881 
0.214129 0.203834 -0.177134 0.723095 0.187457 -0.664826 
0.722038 0.185199 -0.666605 -0.72209 -0.184937 0.666622 
0.135721 0.145876 0.206693 0.433059 0.367708 0.822953 
0.435505 0.418313 0.797088 -0.435716 -0.418399 -0.796928 
0.0930314 -0.0715785 0.151154 0.272835 -0.815756 0.510003 
0.277328 -0.806203 0.522614 -0.276111 0.807605 -0.521092 
-0.0431381 0.372224 0.118803 -0.318651 0.841202 0.436852 
-0.323534 0.838936 0.437621 0.321933 -0.840798 -0.435222 
0.121567 -0.0996562 -0.0503931 0.581348 -0.473596 -0.66162 
0.573925 -0.467852 -0.672105 -0.573835 0.468767 0.671543 
-0.255933 -0.211951 -0.0352055 -0.695234 0.577909 0.4274 
-0.696869 0.575688 0.427734 0.696928 -0.576783 -0.42616 
0.0803541 -0.494413 0.0144683 0.303715 -0.909943 0.282419 
0.355224 -0.880122 0.314964 -0.350585 0.881454 -0.316432 
-0.121169 0.174845 0.174449 -0.4606 -0.358746 0.81188 
-0.475501 -0.320405 0.819292 0.475071 0.320087 -0.819666 
-0.0787503 -0.494943 0.0195037 0.29896 -0.860428 -0.412657 
0.200173 -0.922025 -0.331361 -0.200761 0.922008 0.331052 
0.0934772 -0.348293 0.0933267 0.545352 -0.650026 0.529204 
0.55259 -0.651417 0.519904 -0.552703 0.651835 -0.51926 
-0.0985222 -0.490179 -0.0141786 0.471482 -0.88124 -0.0334794 
0.397188 -0.917292 -0.0285757 -0.389391 0.920338 0.0367707 
-0.116029 -0.0147061 0.147769 -0.717042 -0.531084 0.451443 
-0.716007 -0.531089 0.453077 0.716152 0.531513 -0.452349 
0.0752021 0.137814 0.272392 0.559629 0.426553 0.710541 
0.544401 0.447734 0.709339 -0.543768 -0.451612 -0.707363 
0.276506 0.286783 0.0318741 0.0908766 0.438701 0.894026 
0.168079 0.436406 0.883911 -0.167732 -0.433976 -0.885173 
-0.198457 -0.061996 -0.212326 0.906545 -0.365837 -0.210567 
0.905721 -0.364821 -0.215815 -0.905419 0.365137 0.216545 
0.0215077 -0.117486 -0.0540812 -0.406977 -0.396714 -0.822792 
-0.385914 -0.38219 -0.839643 0.386567 0.382261 0.839311 
-0.192848 -0.00639585 -0.217305 0.473264 0.275806 -0.836631 
0.487554 0.261543 -0.832998 -0.487421 -0.262186 0.832874 
0.176444 0.44268 0.0191379 -0.455059 0.668837 0.587859 
-0.406304 0.644588 0.647629 0.405251 -0.64539 -0.64749 
0.252646 0.426868 0.00334563 0.174061 -0.160246 0.971609 
0.177389 -0.160035 0.971042 -0.177476 0.159517 -0.971111 
0.172861 0.447348 0.000297222 -0.6331 0.7637 0.126281 
-0.61859 0.77135 0.149549 0.619667 -0.770981 -0.146973 
0.238885 0.412824 0.003849 0.242845 -0.142671 0.959516 
0.248061 -0.144192 0.957953 -0.248978 0.142114 -0.958026 
0.0357888 0.412177 0.0291748 -0.054642 0.99424 0.0922021 
-0.0589828 0.993976 0.0923718 0.059118 -0.993991 -0.0921221 
-0.247814 -0.286551 -0.248685 -0.669355 -0.342442 -0.659315 
-0.670141 -0.339528 -0.660024 0.670703 0.339793 0.659316 
-0.171444 0.325705 0.00991104 -0.525917 0.627907 0.57371 
-0.569128 0.632945 0.524856 0.56929 -0.632397 -0.52534 
0.227989 0.369083 0.00344096 0.244441 0.0197651 0.969463 
0.256461 0.036999 0.965846 -0.255405 -0.0365431 -0.966143 
-0.148376 0.20085 0.161291 -0.646425 7.91642e-17 0.762977 
-0.645936 -0.00664617 0.763363 0.645804 0.00662215 -0.763475 
0.0402396 0.199164 0.235104 0.122906 0.227142 0.966075 
0.124296 0.225191 0.966354 -0.124131 -0.224795 -0.966467 
0.176479 0.277197 0.177791 0.520842 0.330983 0.786876 
0.524698 0.339787 0.780536 -0.524328 -0.339436 -0.780937 
0.223488 0.354111 0.00656229 0.354121 0.237529 0.904532 
0.367823 0.236691 0.899269 -0.367703 -0.23685 -0.899276 
0.241775 0.3533 0.00287999 0.0985934 0.169642 0.980562 
0.108157 0.182753 0.977192 -0.108813 -0.181783 -0.9773 
0.122853 -0.0671403 0.1382 0.38339 -0.802953 0.456375 
0.400266 -0.793781 0.457929 -0.399482 0.793942 -0.458334 
-0.129357 0.344421 -0.0784377 -0.407149 0.872364 -0.270575 
-0.404342 0.869647 -0.283234 0.404226 -0.869818 0.282874 
0.0221111 -0.429622 -0.182384 0.621692 0.391856 -0.678195 
0.659451 0.306284 -0.686523 -0.65965 -0.3063 0.686325 
-0.21056 0.17821 0.017959 -0.966413 0.19671 0.16538 
-0.95553 0.202374 0.214495 0.955594 -0.202311 -0.214267 
0.119964 -0.0284805 -0.165048 0.332806 -0.750802 -0.570558 
0.332128 -0.752533 -0.56867 -0.331405 0.751793 0.570068 
0.00463469 -0.0789336 0.146698 -0.150631 -0.888594 0.433255 
-0.169991 -0.866073 0.470127 0.169299 0.866509 -0.469574 
-0.123073 -0.0345198 -0.0166166 -0.620538 -0.773002 -0.131908 
-0.624363 -0.769878 -0.132135 0.623401 0.770669 0.132063 
-0.0615938 -0.423844 0.102718 -0.44332 0.708632 0.548916 
-0.425442 0.6519 0.627714 0.424633 -0.653183 -0.626928 
-0.0101599 -0.216557 -0.206102 0.668915 0.627209 -0.398951 
0.670611 0.624258 -0.400728 -0.669864 -0.626991 0.397698 
0.158092 -0.15797 0.00922978 0.927389 0.271785 -0.257067 
0.925933 0.267353 -0.266779 -0.925944 -0.267243 0.266849 
-0.14033 -0.206332 0.0177235 -0.090026 0.622285 0.777597 
-0.0989388 0.631209 0.769276 0.0985713 -0.631917 -0.768742 
-0.238198 -0.25392 0.0200578 -0.587798 0.362931 0.723031 
-0.593111 0.366827 0.716699 0.593198 -0.366534 -0.716777 
0.0313554 -0.37481 -0.184842 0.916627 -0.264592 -0.299643 
0.914725 -0.264487 -0.30549 -0.914642 0.264161 0.306022 
0.133665 -0.337054 0.0261123 0.829526 -0.544679 0.123338 
0.832018 -0.540448 0.125149 -0.831665 0.540903 -0.125529 
0.0943408 -0.254695 0.166687 0.327728 -0.232313 0.915765 
0.324134 -0.232179 0.917077 -0.324522 0.231154 -0.917199 
-0.211828 -0.450098 0.0115866 -0.837886 -0.391132 0.380739 
-0.829674 -0.398827 0.390614 0.829602 0.399856 -0.389713 
0.05691 -0.252822 -0.124532 0.650052 0.2146 -0.728958 
0.644537 0.218886 -0.732572 -0.644049 -0.219472 0.732825 
-0.278584 -0.347543 -0.135529 -0.933509 -0.302902 -0.19186 
-0.934039 -0.302582 -0.189776 0.933566 0.303551 0.190556 
0.135398 -0.222809 0.143541 0.718535 0.0542225 0.693374 
0.725094 0.0600135 0.68603 -0.725727 -0.0582282 -0.685515 
0.157013 -0.0484189 0.139034 0.498493 -0.786058 0.365536 
0.49792 -0.786538 0.365284 -0.495951 0.787839 -0.365161 
0.13371 0.404978 -0.0818529 -0.265339 0.880369 -0.393122 
-0.259177 0.875884 -0.407008 0.259414 -0.876029 0.406543 
0.28325 0.487718 -0.00237521 0.436412 0.52188 0.732929 
0.443743 0.621777 0.645357 -0.443955 -0.622399 -0.644611 
0.221982 0.331302 0.0221894 0.642628 0.600491 0.475858 
0.624798 0.591 0.510241 -0.623761 -0.591781 -0.510605 
-0.156897 -0.497476 -0.123267 0.00244554 -0.999915 0.0128033 
0.00263947 -0.99989 0.0145988 -0.00271223 0.999891 -0.0145293 
-0.0332489 -0.170501 -0.0566752 0.187998 0.979028 -0.0784885 
0.186093 0.980413 -0.0645006 -0.187592 -0.980172 0.0638074 
0.283256 0.436127 0.00187856 0.043646 -0.0907168 0.99492 
0.0836025 -0.0743058 0.993725 -0.0837282 0.0743702 -0.99371 
-0.0251951 -0.164605 -0.0257196 -0.25137 0.893199 -0.372839 
-0.309592 0.873065 -0.376709 0.309407 -0.873677 0.375441 
0.0128986 -0.217633 0.163745 -0.457348 0.124759 0.880493 
-0.454388 0.128018 0.881557 0.454047 -0.128558 -0.881654 
-0.00209686 -0.166492 -0.0514709 -0.400853 0.824265 -0.399881 
-0.381496 0.809493 -0.446297 0.381738 -0.809697 0.44572 
0.291526 0.417172 0.000991615 0.00764306 -0.000496218 0.999971 
0.0450759 0.00238643 0.998981 -0.0456596 -0.00334128 -0.998951 
-0.0746029 -0.157272 -0.0911624 0.276199 0.957062 -0.0880176 
0.274091 0.961041 -0.0356886 -0.275306 -0.960665 0.0364545 
-0.050296 -0.166658 -0.0528907 0.181508 0.980101 0.0803543 
0.169896 0.982321 0.0786129 -0.171602 -0.982031 -0.0785324 
-0.147753 -0.015513 0.0422658 -0.759336 -0.648546 0.0528882 
-0.761264 -0.646329 0.0523046 0.760848 0.646886 -0.0514702 
0.258962 0.409183 0.000411388 0.0677008 -0.0642887 0.995632 
0.0739349 -0.0683559 0.994918 -0.0737119 0.0682175 -0.994944 
-0.138835 -0.143464 -0.147021 0.281574 0.954275 -0.100372 
0.24147 0.965653 -0.095949 -0.243332 -0.965243 0.0953722 
-0.0139995 -0.173792 -0.0638015 -0.0197437 0.978712 -0.204289 
-0.0103969 0.979 -0.203595 0.010867 -0.979048 0.203342 
0.31553 0.384969 0.000665313 0.528639 0.105871 0.842219 
0.57377 0.117595 0.81053 -0.573809 -0.117577 -0.810506 
0.30088 0.399545 0.00182497 0.0535626 0.095611 0.993977 
0.130263 0.0962847 0.986793 -0.129979 -0.0960549 -0.986853 
-0.210441 -0.00637382 -0.223494 0.0602194 0.545833 -0.835727 
0.0394875 0.54999 -0.834237 -0.0391676 -0.551511 0.833248 
0.232469 0.383515 0.00287331 0.217414 -0.0391832 0.975293 
0.230244 -0.0378587 0.972396 -0.231147 0.0354756 -0.972272 
-0.0409224 -0.176478 -0.157747 0.427588 0.894941 -0.127468 
