0.028391 -0.041882 0.124103 
-0.077142 0.172594 0.024562 
0.031673 0.550968 -0.009050 
0.028925 0.553023 -0.005453 
0.075341 0.231206 0.116399 
0.073599 0.234845 0.120351 
0.085857 -0.312182 0.005674 
-0.000000 -0.060088 -0.125259 
-0.000000 -0.054360 -0.125271 
-0.057652 0.437199 0.034592 
-0.005728 -0.358132 0.002690 
-0.000000 -0.357968 0.002667 
-0.057334 0.395908 0.008766 
-0.060456 0.398265 0.012838 
0.021895 0.383063 -0.013522 
-0.082497 0.222344 -0.058108 
-0.082160 0.220118 -0.063416 
-0.079669 -0.178778 -0.071880 
-0.079751 -0.185897 -0.070927 
0.000000 0.389665 0.133465 
0.011511 0.243428 -0.119707 
0.017295 0.243733 -0.119001 
-0.080977 -0.366435 -0.085360 
-0.080917 -0.372158 -0.085364 
-0.000000 -0.297743 0.155732 
-0.000000 -0.303468 0.155732 
-0.080116 0.212638 -0.049309 
-0.080172 0.210699 -0.054683 
-0.028144 0.335119 -0.026107 
0.077736 -0.036595 0.015229 
0.077737 -0.042436 0.015210 
0.016976 0.219291 -0.142703 
0.028382 -0.144665 0.124072 
0.028378 -0.150396 0.124061 
0.077617 0.009099 0.017219 
0.083841 0.241073 -0.009531 
0.083798 0.239164 -0.014774 
0.075008 -0.377868 0.118603 
0.076903 -0.377869 0.113001 
-0.082668 0.268494 0.026849 
-0.083058 0.262900 0.027482 
0.000000 0.447529 0.109589 
-0.000000 -0.235924 -0.119705 
0.080781 -0.377875 -0.085399 
0.079749 -0.377872 -0.091082 
-0.078379 0.275428 -0.048775 
-0.078150 0.272377 -0.053593 
0.028388 -0.030394 0.124122 
-0.028271 0.348165 -0.013811 
0.000000 0.548206 0.019246 
0.016128 0.558318 0.003707 
0.011363 0.559321 0.005400 
-0.034435 0.176573 -0.141958 
-0.028802 0.176084 -0.142842 
-0.085857 -0.294803 0.006738 
-0.039158 0.440238 0.085554 
-0.034925 0.441942 0.088521 
-0.035488 0.053396 -0.116292 
0.084273 -0.260734 0.011931 
0.085818 -0.266485 0.010937 
0.076139 0.257553 -0.077768 
-0.019192 0.465121 -0.035144 
-0.018708 0.470852 -0.037329 
0.070820 -0.287006 0.128085 
0.073335 -0.286147 0.122998 
0.034841 -0.185914 -0.117590 
0.034749 -0.180252 -0.118006 
-0.028278 0.291047 -0.069591 
-0.080004 0.095659 -0.065745 
-0.079988 0.089371 -0.066144 
0.083465 0.253989 0.046160 
0.083586 0.253483 0.040459 
0.083306 0.254167 0.051858 
-0.023227 0.175750 -0.143663 
-0.077614 -0.156297 0.016856 
-0.082269 0.274143 0.026251 
0.079825 -0.228643 -0.069937 
0.080576 -0.234343 -0.070831 
-0.083045 0.226674 -0.047409 
-0.082836 0.224523 -0.052781 
-0.039425 0.183503 -0.140518 
0.064900 -0.243314 0.092836 
0.066783 -0.242869 0.087535 
-0.085460 -0.377879 -0.023155 
-0.063034 -0.376030 -0.052518 
0.079756 -0.248080 -0.091469 
0.078657 -0.246686 -0.096690 
-0.079563 -0.087664 -0.076569 
-0.079561 -0.093404 -0.076583 
-0.077729 -0.024979 0.015378 
-0.077734 -0.030771 0.015278 
0.068817 -0.150847 0.081300 
0.068780 -0.156565 0.081433 
0.079611 -0.166682 -0.073456 
0.045414 -0.362448 0.098601 
0.046588 -0.362163 0.093080 
-0.079709 -0.377873 0.101647 
-0.080769 -0.377876 0.095934 
0.083030 -0.337669 0.079819 
0.083032 -0.343447 0.079716 
0.072716 0.148449 -0.112240 
0.074395 0.144634 -0.107907 
0.078551 0.225721 -0.000287 
0.078796 0.225271 -0.005794 
-0.075947 -0.238386 0.037518 
-0.076482 -0.237883 0.031928 
-0.085861 -0.349209 0.005956 
-0.085862 -0.354970 0.005792 
-0.072722 0.189374 -0.112942 
-0.070461 0.187349 -0.117781 
-0.048165 0.505093 -0.001250 
-0.049419 0.500271 0.001662 
-0.083029 -0.366433 0.079488 
-0.083012 -0.372157 0.079506 
0.051534 -0.359702 0.019738 
-0.000000 -0.111635 -0.125142 
-0.000000 -0.105908 -0.125155 
0.000000 0.266182 0.153749 
0.000000 0.260489 0.154076 
-0.022803 0.311754 0.147713 
-0.022792 0.306046 0.148299 
0.081648 -0.279631 -0.080696 
-0.022596 -0.246237 0.125273 
0.022861 0.238040 0.153592 
0.022869 0.232324 0.153743 
-0.028878 0.354752 -0.009281 
-0.082988 -0.319472 0.080447 
-0.083008 -0.325478 0.080196 
0.034941 -0.191540 -0.117176 
-0.084773 -0.377880 0.051003 
-0.084929 -0.377880 0.045298 
-0.033746 0.082092 -0.113654 
-0.081449 0.247104 0.085017 
-0.085203 -0.377881 0.033904 
-0.085336 -0.377881 0.028213 
-0.079378 0.160016 -0.077345 
-0.079541 0.152620 -0.074953 
0.076954 -0.237374 0.026294 
-0.075942 -0.214007 -0.103687 
-0.076000 -0.219699 -0.103397 
0.000000 0.403660 -0.012048 
0.000000 0.408786 -0.014595 
0.018274 0.526327 -0.051709 
0.023139 0.528031 -0.048772 
-0.041493 0.445731 0.095102 
-0.036707 0.447317 0.097850 
0.083110 0.253975 0.057618 
0.065230 0.192260 0.112865 
0.064120 0.188483 0.108078 
-0.027910 -0.217956 0.124178 
0.083027 -0.360711 0.079524 
-0.052290 -0.360577 -0.042661 
-0.052185 -0.360710 -0.048297 
-0.079798 0.137500 -0.069906 
0.079586 -0.160881 -0.074058 
-0.029431 0.542632 -0.023268 
-0.005694 0.218812 -0.143426 
-0.085612 -0.261490 -0.017503 
-0.085542 -0.260485 -0.023181 
-0.081123 -0.314933 -0.084034 
0.080917 -0.372158 -0.085364 
-0.068781 -0.156565 0.081433 
-0.068727 -0.162265 0.081603 
-0.028166 0.326858 -0.034103 
-0.028151 0.330969 -0.030097 
0.000000 0.540424 -0.027096 
0.081876 0.279815 0.025307 
0.082269 0.274143 0.026251 
0.041313 0.396876 0.010466 
0.045626 0.399025 0.014200 
0.082988 -0.319472 0.080447 
0.000000 0.095083 0.127111 
0.017137 -0.225148 -0.117131 
0.057333 0.395908 0.008766 
0.060455 0.398265 0.012838 
0.028397 0.003766 0.124130 
0.028392 -0.001877 0.124131 
0.080877 -0.332046 -0.085314 
0.080868 -0.337803 -0.085390 
-0.022816 -0.240639 -0.121418 
0.049979 0.249084 0.145686 
-0.000000 -0.025722 -0.125322 
-0.000000 -0.019995 -0.125315 
0.032799 -0.363016 0.117070 
0.037807 -0.362804 0.113193 
0.022893 -0.224945 -0.116622 
-0.022036 -0.375649 -0.119211 
-0.017201 -0.375672 -0.120384 
0.034068 -0.360685 -0.141803 
0.034042 -0.354913 -0.141598 
-0.000000 -0.246495 0.127111 
-0.000000 -0.251553 0.130291 
-0.000000 -0.240802 0.127111 
-0.076139 0.257553 -0.077768 
0.073920 0.391037 0.055244 
0.074406 0.385303 0.056103 
-0.063048 0.184949 0.103555 
-0.062096 0.181414 0.099145 
-0.022602 0.335689 -0.027597 
-0.085797 -0.264487 -0.000439 
-0.085742 -0.263488 -0.006131 
0.005754 -0.360713 0.070683 
-0.000000 -0.360662 0.070612 
-0.035031 -0.235255 -0.116782 
0.022785 0.328843 0.145159 
0.022791 0.323156 0.146099 
-0.000000 -0.359437 0.042302 
0.017779 0.451458 0.105049 
0.011500 -0.377876 0.155223 
0.017278 -0.377875 0.154822 
0.040446 -0.319804 0.151247 
0.040345 -0.325618 0.151273 
-0.082981 -0.377877 0.079636 
-0.022159 0.435282 0.111501 
-0.022201 0.430078 0.114193 
-0.085468 -0.377881 0.022524 
-0.078834 0.290979 -0.024953 
-0.021751 0.445677 0.106507 
-0.022031 0.440444 0.108926 
-0.000000 -0.362371 -0.099251 
0.055962 0.462508 0.021240 
0.039477 -0.377865 0.151189 
-0.022561 0.196209 0.154241 
-0.025054 0.189034 0.154029 
0.079888 0.130049 -0.068036 
0.079640 0.129360 -0.073496 
-0.070602 -0.225139 -0.105596 
-0.064849 -0.224948 -0.107694 
-0.075443 -0.285258 0.117796 
-0.077319 -0.284310 0.112490 
0.075098 0.033057 -0.106018 
0.078719 0.199528 -0.086875 
0.078095 0.197550 -0.092341 
-0.081816 -0.280452 0.090214 
0.029529 -0.363078 0.118395 
-0.034719 -0.292223 -0.141685 
0.021299 0.436682 -0.023780 
0.021076 0.441935 -0.026245 
0.075298 0.127375 0.045188 
0.075799 0.128777 0.040143 
0.078521 0.327853 0.025368 
0.078688 0.324127 0.021107 
0.075946 -0.238386 0.037518 
0.076481 -0.237883 0.031928 
-0.084900 -0.273490 0.050634 
-0.085119 -0.272491 0.044970 
-0.022611 0.176904 0.154505 
0.005733 0.160379 -0.144465 
0.011344 0.160040 -0.144150 
0.038014 -0.377335 0.145476 
-0.079528 -0.030438 -0.076432 
0.000000 0.458132 -0.036085 
0.000000 0.463730 -0.038161 
0.033948 -0.291370 0.152537 
0.039575 -0.291068 0.151293 
-0.043094 0.196328 -0.138830 
0.034824 0.006893 -0.120755 
-0.028234 0.314506 -0.045862 
0.058809 0.414610 0.041167 
-0.079745 0.130484 -0.034023 
-0.056360 0.457440 0.023942 
-0.056712 0.452350 0.026575 
0.062204 -0.375876 0.038380 
0.062335 -0.375876 0.032688 
-0.082301 -0.257054 -0.075704 
0.053799 0.226174 -0.131322 
0.034925 0.441942 0.088521 
-0.074117 -0.139195 -0.109888 
-0.074216 -0.144942 -0.109495 
-0.034673 0.158410 -0.141542 
-0.040439 0.157903 -0.140159 
0.073943 -0.087468 -0.110378 
0.073939 -0.093214 -0.110388 
-0.000000 -0.366433 -0.144785 
0.033017 -0.375442 -0.114774 
0.027432 -0.375513 -0.117384 
0.024023 -0.367495 -0.109650 
0.025788 -0.371300 -0.113476 
0.000000 0.325089 -0.042299 
0.000000 0.329182 -0.038401 
0.022889 0.226648 0.153847 
-0.034623 -0.163192 -0.119231 
-0.034593 -0.157513 -0.119636 
-0.084273 -0.260734 0.011931 
-0.039709 0.250077 0.149584 
0.079835 -0.222893 -0.069396 
-0.077628 -0.139004 0.016672 
0.000000 0.294616 0.151696 
0.035630 0.059113 -0.115684 
0.035858 0.065771 -0.114960 
0.021224 0.556787 0.001046 
-0.076907 -0.225765 -0.098055 
-0.033590 0.179350 0.152796 
-0.076351 0.078765 -0.101228 
-0.038877 -0.245807 0.120678 
-0.000000 -0.292018 -0.144785 
-0.021300 0.436682 -0.023780 
0.079221 -0.242062 0.014540 
-0.017229 -0.360305 0.058953 
-0.017111 -0.360064 0.053427 
0.073994 -0.024245 -0.110250 
-0.035591 0.545543 -0.018418 
-0.058790 0.422329 0.043105 
-0.047480 0.164978 -0.138050 
-0.056041 -0.263326 -0.133559 
-0.051612 -0.263887 -0.136077 
0.076971 0.213164 0.026836 
0.077037 0.207419 0.025976 
-0.017428 -0.361098 -0.065378 
-0.077755 0.231078 0.108456 
-0.078795 0.234820 0.104092 
-0.035755 0.125345 -0.108724 
-0.036488 0.128827 -0.111605 
0.019192 0.465121 -0.035144 
0.000000 0.049539 0.127111 
0.062932 -0.375869 0.004260 
0.062971 -0.375893 -0.001423 
0.078150 0.272377 -0.053593 
0.033939 0.183083 -0.141664 
0.028568 0.182880 -0.142798 
0.078469 -0.377874 -0.096753 
0.077164 -0.377869 -0.101540 
0.068936 -0.088562 0.081000 
0.068934 -0.094273 0.080995 
0.079536 -0.116139 -0.076581 
0.079543 -0.121726 -0.076529 
0.083222 0.228770 -0.042070 
0.083045 0.226674 -0.047409 
-0.085861 -0.360711 0.005666 
-0.085860 -0.366433 0.005576 
-0.084382 -0.377878 -0.051462 
-0.084046 -0.377877 -0.057323 
0.082835 0.224523 -0.052781 
0.035404 0.047590 -0.116905 
-0.000000 -0.002826 -0.124712 
-0.000000 0.002883 -0.124262 
0.083095 -0.377877 -0.068213 
0.082424 -0.377878 -0.073888 
-0.077866 0.125409 -0.093891 
0.079076 -0.233797 -0.013175 
0.074840 0.379483 0.056325 
0.075334 0.373808 0.055855 
0.017245 -0.358631 -0.003035 
0.016405 0.497799 -0.046748 
0.015845 0.503230 -0.048262 
-0.043671 -0.375499 0.124109 
0.022778 0.266688 0.151693 
-0.033527 0.220890 -0.140010 
-0.035143 0.024418 -0.119308 
-0.035239 0.030198 -0.118718 
0.079579 -0.149410 -0.075098 
0.079551 -0.155128 -0.074591 
-0.079121 0.177388 -0.081185 
0.011442 0.249182 0.154185 
0.078379 0.275428 -0.048775 
0.067172 -0.377856 0.133637 
0.070405 -0.377861 0.128554 
0.060230 0.181866 -0.130395 
-0.073995 -0.024245 -0.110250 
-0.073982 -0.029975 -0.110276 
-0.084585 -0.377878 0.056714 
-0.059938 -0.289281 0.141230 
0.051793 -0.359778 -0.002998 
0.051868 -0.359888 -0.008673 
0.076197 -0.263561 0.084718 
0.078280 -0.268823 0.085044 
0.035152 0.114885 -0.110008 
-0.000000 -0.372156 -0.144785 
0.000000 0.243401 0.154865 
0.000000 0.237700 0.154976 
-0.073933 -0.104730 -0.110408 
0.000000 0.161828 0.145323 
0.023094 0.244293 -0.117842 
-0.033697 0.087700 -0.113083 
-0.071459 0.208120 0.070832 
0.077521 0.025950 0.018808 
-0.000000 -0.361393 -0.076603 
-0.000000 -0.361638 -0.082265 
-0.002848 0.523802 -0.055972 
0.075232 -0.185092 -0.106100 
0.075382 -0.190889 -0.105602 
0.068971 0.031939 0.081009 
0.068963 0.026190 0.081000 
-0.000000 -0.361395 0.087598 
0.036062 0.539914 -0.028159 
0.029831 0.113819 0.123695 
0.029178 0.107678 0.123882 
-0.024023 -0.367495 -0.109650 
-0.025789 -0.371300 -0.113476 
-0.072037 0.411835 0.047594 
0.075260 -0.242797 -0.107792 
0.074263 -0.247487 -0.110591 
-0.029275 0.140882 0.123836 
-0.030536 0.135618 0.123488 
-0.058911 -0.224720 -0.109324 
0.068928 -0.031728 0.081016 
0.033786 0.093191 -0.112499 
0.034066 0.098528 -0.111899 
0.073368 0.245904 -0.097240 
-0.022807 0.317480 0.147011 
-0.045626 0.399025 0.014200 
-0.049219 0.401522 0.018514 
-0.074396 0.144634 -0.107907 
-0.078688 0.324127 0.021107 
-0.078805 0.320510 0.016721 
-0.040956 0.210295 -0.138756 
-0.040008 0.216122 -0.138710 
0.034556 -0.123507 -0.121992 
-0.000000 -0.371574 0.129078 
-0.072504 -0.253231 0.083343 
-0.074326 -0.258289 0.084088 
0.067301 0.199853 0.122299 
0.066295 0.196129 0.117683 
-0.020239 0.452623 -0.030373 
-0.019806 0.457805 -0.032351 
0.000000 0.134934 0.127111 
0.022293 0.405907 -0.008228 
0.022139 0.411011 -0.010818 
-0.043201 -0.361258 0.075465 
-0.037424 -0.361163 0.074658 
-0.018137 -0.360834 0.071017 
-0.017536 -0.360541 0.064367 
-0.075825 -0.208254 -0.104123 
0.000000 0.254794 0.154370 
0.000000 0.249099 0.154662 
0.064219 -0.260792 -0.126610 
-0.058201 0.423433 0.056459 
-0.051286 -0.359913 0.031120 
-0.051868 -0.359888 -0.008673 
0.050762 -0.360336 0.048128 
0.050945 -0.360196 0.042468 
0.034530 -0.082174 -0.122424 
0.022795 0.261003 0.152179 
0.077135 0.091308 0.024401 
0.077149 0.085111 0.024227 
0.034619 -0.303365 -0.141601 
0.076068 0.193505 -0.102846 
0.074584 0.191442 -0.107951 
0.077028 0.203332 -0.099766 
0.075687 0.200752 -0.104763 
-0.034113 -0.331811 -0.141757 
0.000000 0.536164 -0.034474 
0.028448 0.173365 0.150123 
0.035217 -0.362406 -0.095130 
0.085851 -0.331833 0.006754 
0.085854 -0.337702 0.006433 
-0.077588 0.014665 0.017717 
-0.077618 0.009099 0.017219 
-0.083710 -0.277468 0.073286 
-0.084060 -0.276484 0.067639 
0.028354 0.298783 -0.061675 
-0.059804 0.324941 -0.011844 
-0.064033 0.322650 -0.008752 
-0.034790 -0.230107 -0.115190 
-0.000000 -0.314915 0.155732 
-0.000000 -0.320640 0.155732 
0.073989 0.124089 0.055306 
0.074646 0.125823 0.050231 
-0.077102 0.155048 0.025047 
-0.077097 0.149253 0.025097 
0.077899 0.339724 0.037487 
0.078134 0.335704 0.033600 
0.022816 -0.240639 -0.121418 
0.029106 -0.361503 -0.071822 
0.060948 0.230068 -0.124376 
0.057344 0.227836 -0.128181 
0.000000 0.197787 0.155518 
0.000000 0.192084 0.155589 
0.078833 0.290979 -0.024953 
0.017536 -0.360541 0.064367 
0.017228 -0.360305 0.058953 
-0.051434 -0.359781 0.025420 
0.076975 0.101665 -0.098834 
0.076819 0.095923 -0.099431 
0.051781 0.156870 -0.135737 
-0.005831 -0.263460 -0.144639 
-0.000000 -0.362374 0.110247 
-0.028753 0.101438 0.123994 
-0.028533 0.095379 0.124049 
-0.028376 -0.024658 0.124099 
-0.028389 -0.030394 0.124122 
0.034673 -0.105801 -0.122615 
-0.053271 0.188630 0.146125 
0.000000 0.556277 0.011313 
0.041964 -0.375331 -0.108828 
0.038031 -0.375354 -0.111776 
0.000000 0.288246 -0.077387 
0.000000 0.292339 -0.073489 
-0.017852 -0.361099 0.077214 
-0.067172 -0.377856 0.133637 
-0.070406 -0.377861 0.128554 
0.042259 0.153837 0.119206 
0.076900 0.218912 0.027752 
0.039405 -0.366433 0.151496 
-0.035404 0.047590 -0.116905 
-0.037984 0.133112 -0.114902 
-0.039346 0.137327 -0.118411 
-0.074783 -0.167819 -0.107583 
0.077865 0.125409 -0.093891 
0.056360 0.457440 0.023942 
0.034941 -0.219085 -0.115218 
-0.077577 -0.196379 0.017198 
0.017291 -0.360860 -0.059915 
0.017428 -0.361098 -0.065378 
-0.080782 -0.377875 -0.085399 
-0.051862 -0.360908 -0.053875 
-0.034553 -0.359096 0.002384 
-0.028783 -0.358920 0.002481 
-0.063034 -0.375978 -0.029844 
-0.063044 -0.375993 -0.035535 
0.075213 0.220727 0.045342 
0.075774 0.222347 0.039965 
-0.084327 -0.377877 0.062423 
0.056379 -0.239881 -0.114730 
0.050426 -0.239306 -0.116415 
0.020868 -0.362125 0.099213 
0.018963 -0.361835 0.093688 
0.077747 0.132838 0.015263 
0.038627 -0.375687 0.126932 
0.043671 -0.375499 0.124109 
-0.032600 0.233687 -0.127305 
-0.080175 0.208857 -0.060088 
-0.082558 -0.279463 0.084598 
-0.077726 -0.077499 0.015283 
-0.077084 0.137696 0.025193 
-0.079838 0.048099 -0.070285 
-0.079814 0.042421 -0.070911 
0.069359 0.122153 0.079745 
0.069341 0.116347 0.079793 
-0.000000 0.059911 -0.118941 
-0.000000 0.065614 -0.118409 
0.017746 0.159653 -0.143757 
-0.000000 -0.052934 0.127111 
-0.000000 -0.058627 0.127111 
0.066903 0.193638 0.087980 
0.034068 -0.337593 -0.141671 
0.033150 -0.375671 0.129058 
0.031809 -0.371331 0.125752 
0.052031 -0.360124 -0.020031 
-0.075298 0.127375 0.045188 
0.022922 -0.363109 0.119784 
0.040636 -0.264198 -0.140252 
0.034843 -0.264094 -0.141682 
-0.075881 0.061636 -0.103023 
-0.028437 0.089433 0.124089 
-0.028406 0.083595 0.124115 
-0.068154 0.203496 0.126817 
-0.067301 0.199853 0.122299 
0.016489 0.382290 -0.014841 
-0.023139 0.528031 -0.048772 
-0.026835 0.529765 -0.045755 
-0.077354 0.048834 0.021328 
-0.077400 0.042992 0.020674 
-0.040969 -0.224445 -0.113652 
0.017110 -0.360064 0.053427 
0.070846 0.211234 0.127929 
0.072716 0.215318 0.124311 
0.051948 -0.360005 -0.014342 
0.028403 0.271552 -0.089219 
0.028358 0.275413 -0.085189 
-0.033082 0.148057 0.122852 
-0.051668 -0.359650 0.008365 
-0.033017 -0.375442 -0.114774 
-0.068937 -0.088562 0.081000 
-0.068935 -0.094273 0.080995 
-0.043240 0.124503 -0.107234 
0.043990 -0.245531 0.118390 
0.048634 -0.245282 0.115237 
-0.083466 0.253989 0.046160 
-0.083587 0.253483 0.040459 
0.000000 0.066618 0.127111 
0.030528 -0.367249 0.122231 
0.066494 0.168350 0.088936 
0.067650 0.162730 0.085528 
0.028244 0.287159 -0.073462 
-0.005723 0.249117 0.154440 
0.076101 0.226494 -0.095463 
0.077336 0.219744 -0.093086 
0.079042 0.310226 0.003205 
0.085696 -0.268489 0.022290 
0.085765 -0.267487 0.016611 
0.081664 -0.377877 -0.079569 
-0.084113 -0.254471 -0.057292 
-0.083641 -0.253481 -0.062987 
0.069939 -0.241905 0.076733 
-0.029529 -0.363078 0.118395 
-0.046578 0.436305 0.078757 
-0.042983 0.438364 0.082312 
0.077602 0.225885 0.017154 
-0.079697 0.020227 -0.073393 
-0.079667 0.014657 -0.073993 
-0.027805 0.153989 0.132653 
-0.027870 0.149699 0.128472 
0.068891 0.207122 0.131462 
0.017131 -0.359336 0.036549 
-0.028239 0.164352 0.142233 
-0.027936 0.158765 0.137205 
-0.000000 -0.092785 0.127111 
0.038942 0.181081 0.151656 
0.044024 0.183257 0.150035 
0.053019 -0.244904 0.111852 
-0.079215 0.223437 -0.017025 
0.054914 0.186184 -0.134209 
0.049943 0.185026 -0.136536 
0.017023 0.336233 -0.028808 
0.000000 0.305952 0.150441 
0.000000 0.300285 0.151084 
-0.074934 0.232577 -0.097684 
-0.076102 0.226494 -0.095463 
0.079872 -0.205096 -0.069256 
-0.067960 0.153173 -0.121308 
-0.000000 -0.360414 -0.053954 
-0.000000 -0.360659 -0.059616 
0.022808 0.255303 0.152617 
-0.078801 0.131130 -0.005095 
-0.079026 0.130520 -0.010586 
0.025130 0.555168 -0.001768 
0.058053 0.173062 0.105824 
-0.058636 -0.375842 0.089562 
-0.059476 -0.375840 0.083747 
-0.058021 0.411958 0.036583 
-0.058809 0.414610 0.041167 
-0.085352 -0.259483 -0.028875 
-0.075646 0.254616 -0.082622 
-0.011448 -0.358355 0.002702 
0.029054 -0.250839 0.126935 
0.030023 -0.255703 0.129907 
0.000000 0.220594 0.155231 
-0.000000 0.008586 -0.123730 
-0.000000 0.014288 -0.123198 
-0.017209 -0.358605 0.014038 
-0.066486 0.191229 -0.123067 
-0.073787 0.237933 -0.099816 
0.080147 -0.230201 -0.052886 
0.080090 -0.229695 -0.058563 
0.028381 -0.007550 0.124119 
0.028371 -0.013261 0.124106 
-0.017296 -0.359872 -0.037045 
-0.017266 -0.360115 -0.042671 
0.079891 -0.231226 -0.041542 
0.080023 -0.230716 -0.047207 
0.053024 -0.224511 -0.110674 
0.047062 -0.224401 -0.112176 
-0.054160 0.393878 0.005239 
-0.083152 -0.278475 0.078951 
-0.080967 0.244530 0.090083 
-0.012291 0.527927 -0.048737 
0.000000 0.504357 0.059367 
-0.011402 -0.225387 -0.117577 
-0.005682 -0.225648 -0.117900 
-0.039476 -0.377863 -0.140255 
-0.033942 -0.377870 -0.141576 
0.005838 0.381383 -0.016384 
0.078795 0.234820 0.104092 
0.079581 0.238337 0.099612 
0.034653 -0.099853 -0.122668 
-0.076014 -0.231317 -0.104149 
-0.075822 -0.237282 -0.105579 
-0.017163 -0.291813 0.154761 
0.033534 0.334206 -0.024181 
0.039168 0.333211 -0.022321 
-0.076820 0.095923 -0.099431 
-0.034692 -0.297826 -0.141659 
0.028124 0.339360 -0.022012 
-0.052114 -0.360242 -0.025712 
-0.052195 -0.360361 -0.031373 
-0.075687 0.200752 -0.104763 
0.017295 -0.358939 -0.014408 
0.017319 -0.359163 -0.020088 
0.021102 0.450990 0.104242 
0.021751 0.445677 0.106507 
0.047479 0.164978 -0.138050 
0.046345 0.172317 -0.138438 
0.062929 -0.376011 -0.058308 
-0.031231 0.236775 -0.124356 
0.000000 0.214893 0.155303 
0.077651 -0.224961 0.016077 
0.038913 0.221833 -0.138520 
0.073972 -0.127703 -0.110314 
0.074029 -0.133442 -0.110155 
-0.005632 0.388534 -0.003970 
-0.011813 0.388801 -0.003507 
-0.077604 -0.173472 0.016949 
-0.077599 -0.179198 0.017005 
-0.022767 0.334476 0.144075 
-0.022786 0.328843 0.145159 
-0.017079 0.176143 0.155032 
0.037983 0.133112 -0.114902 
0.039346 0.137327 -0.118411 
-0.000000 -0.360904 -0.065278 
-0.046329 -0.264128 -0.138465 
-0.079447 0.203328 -0.076363 
0.028878 0.354752 -0.009281 
0.028062 0.361654 -0.007816 
0.005749 -0.375798 -0.121680 
-0.000000 -0.115557 0.127111 
-0.000000 -0.121250 0.127111 
0.046577 0.436305 0.078757 
0.028667 0.248971 -0.112271 
0.028548 0.252201 -0.108922 
0.082300 -0.257054 -0.075704 
0.082151 -0.262585 -0.077091 
0.079984 0.214683 -0.043962 
0.080115 0.212638 -0.049309 
0.063876 0.199133 0.137991 
-0.081876 0.279815 0.025307 
-0.079545 -0.104794 -0.076600 
-0.073465 0.396562 0.053845 
-0.078470 -0.377874 -0.096753 
-0.077165 -0.377869 -0.101540 
0.028129 0.343665 -0.017861 
-0.077268 0.060580 0.022547 
-0.077311 0.054668 0.021956 
-0.034062 -0.343390 -0.141674 
-0.034068 -0.337593 -0.141671 
0.064062 -0.377846 -0.126595 
0.068154 0.203496 0.126817 
-0.028401 0.077843 0.124136 
0.084113 -0.254471 -0.057292 
-0.079487 -0.064732 -0.076515 
-0.079522 -0.070419 -0.076526 
0.000000 0.393415 -0.006943 
0.000000 0.398539 -0.009493 
-0.055134 -0.377862 0.144537 
-0.059268 -0.377855 0.141720 
-0.000000 -0.292019 0.155732 
-0.085509 -0.270486 0.033644 
-0.085605 -0.269498 0.028011 
0.050256 0.441999 0.088620 
-0.078239 0.225995 0.006006 
-0.078552 0.225721 -0.000287 
-0.062468 -0.375876 0.026991 
-0.062599 -0.375877 0.021306 
-0.071448 0.238061 0.124592 
-0.068688 0.240799 0.129277 
0.070554 0.117312 0.074788 
0.071595 0.118710 0.069842 
0.077311 0.054668 0.021956 
0.077354 0.048834 0.021328 
0.055250 0.327005 -0.014659 
0.000000 0.512628 -0.053408 
0.049503 -0.361083 0.070721 
0.078181 0.205882 -0.094705 
0.005660 0.559973 0.006622 
-0.079642 0.009051 -0.074571 
-0.016490 0.382290 -0.014841 
-0.079619 -0.232266 -0.030097 
0.029275 0.140882 0.123836 
0.028380 -0.076349 0.124097 
0.028379 -0.082035 0.124100 
-0.000000 -0.064320 0.127111 
-0.077136 0.091308 0.024401 
-0.034042 -0.354913 -0.141598 
-0.034050 -0.349151 -0.141609 
-0.028377 -0.093391 0.124087 
-0.028377 -0.099071 0.124095 
-0.064120 0.188483 0.108078 
0.000000 0.284152 -0.081285 
0.068905 -0.099977 0.080982 
-0.028326 -0.201167 0.124084 
-0.017137 -0.225148 -0.117131 
-0.077721 -0.083443 0.015353 
-0.077714 -0.089474 0.015449 
0.078763 0.194021 -0.085452 
0.078845 0.188495 -0.083900 
0.081258 -0.308929 -0.083359 
0.081122 -0.314933 -0.084034 
-0.000000 -0.144022 0.127111 
-0.000000 -0.149715 0.127111 
0.070460 0.187349 -0.117781 
0.083884 0.248041 0.012739 
0.083897 0.246506 0.007171 
0.077941 0.226049 0.011501 
0.078238 0.225995 0.006006 
-0.065811 -0.376373 0.078672 
-0.060154 -0.375853 0.078102 
0.017318 0.487035 -0.043246 
0.016877 0.492387 -0.045044 
-0.080340 0.241596 0.094944 
-0.074140 0.219376 0.120508 
-0.075484 0.223333 0.116638 
0.022036 -0.375649 -0.119211 
0.049219 0.401522 0.018514 
0.052121 0.403810 0.022476 
0.074134 -0.007003 -0.109800 
0.074065 -0.012738 -0.110044 
-0.066783 -0.242869 0.087535 
0.036257 0.542764 -0.023261 
0.038207 0.538117 -0.020652 
-0.085861 -0.372157 0.005500 
-0.085804 -0.377877 0.005388 
-0.023113 0.203433 0.154211 
0.085850 -0.265484 0.005257 
0.085796 -0.264487 -0.000439 
-0.077651 -0.224961 0.016077 
-0.077686 -0.230662 0.015568 
0.079528 -0.030438 -0.076432 
0.079503 -0.036219 -0.076467 
0.005862 -0.377880 -0.144482 
0.017395 0.389709 -0.001946 
-0.075991 -0.225316 -0.103445 
-0.068928 -0.037376 0.081012 
-0.079482 -0.232770 -0.024493 
0.000000 0.432170 0.117123 
0.000000 0.427049 0.119633 
-0.074334 -0.376873 0.004876 
-0.068621 -0.376375 0.004589 
0.080340 0.241596 0.094944 
0.080966 0.244530 0.090083 
0.068888 -0.128823 0.081033 
0.068871 -0.134587 0.081081 
0.000000 0.116935 -0.113576 
0.000000 0.122629 -0.112960 
0.034612 -0.047830 -0.121893 
0.034644 -0.042132 -0.121801 
-0.040345 -0.325618 0.151273 
-0.078658 -0.246686 -0.096690 
0.068849 0.408449 0.030484 
0.070005 0.411192 0.035232 
0.000000 0.226841 -0.135866 
0.000000 0.230934 -0.131967 
-0.077126 0.195960 0.024708 
-0.026700 0.183639 0.153967 
0.063058 -0.376025 -0.046932 
0.063034 -0.376030 -0.052518 
0.023113 0.203433 0.154211 
0.022561 0.196209 0.154241 
-0.011433 0.175601 0.155406 
0.017802 0.481632 -0.041418 
-0.005642 -0.375858 0.132631 
-0.068024 0.320041 -0.005608 
-0.039394 -0.354909 0.151473 
-0.041068 0.528662 -0.015186 
0.079155 0.201403 -0.081671 
0.056759 0.408950 0.031390 
0.058021 0.411958 0.036583 
-0.079504 -0.036219 -0.076467 
-0.079472 -0.041973 -0.076488 
-0.045005 -0.290772 0.149414 
-0.050272 -0.290347 0.147251 
0.079446 0.203328 -0.076363 
-0.034019 -0.372163 -0.141814 
0.034507 -0.076393 -0.122341 
0.034495 -0.070636 -0.122256 
0.069009 0.072272 0.080928 
-0.000000 -0.359925 -0.042630 
-0.000000 -0.360170 -0.048292 
0.055856 -0.375684 -0.091274 
-0.044809 0.153710 -0.133703 
-0.005697 -0.240377 -0.121653 
0.000000 0.148599 -0.132620 
0.000000 0.152654 -0.136675 
0.079886 0.130761 -0.039775 
0.000000 0.312808 -0.053995 
-0.028926 0.553023 -0.005453 
0.079944 0.122762 -0.066723 
0.079980 0.115678 -0.065924 
-0.085850 -0.265484 0.005257 
-0.028568 0.182880 -0.142798 
-0.022930 0.182838 -0.143401 
0.084928 -0.377880 0.045298 
0.085068 -0.377881 0.039610 
0.022791 0.306046 0.148299 
0.022779 0.300343 0.148831 
-0.063861 0.177269 0.095643 
0.000000 0.100776 0.127111 
-0.031660 -0.361071 0.073782 
0.080031 -0.377371 0.005154 
0.085742 -0.263488 -0.006131 
-0.059075 0.187596 -0.130654 
-0.054915 0.186184 -0.134209 
-0.083124 -0.252477 -0.068703 
0.021827 0.421211 -0.016023 
0.021667 0.426348 -0.018675 
-0.034825 0.006893 -0.120755 
0.075942 -0.214007 -0.103687 
0.075999 -0.219699 -0.103397 
-0.069131 0.090773 0.080489 
-0.069080 0.084510 0.080689 
-0.022105 0.423498 0.117502 
-0.022385 0.417272 0.120291 
-0.000000 0.043846 0.127111 
0.079852 0.216738 -0.038632 
-0.075069 0.251690 -0.087520 
-0.074295 0.248765 -0.092377 
0.022756 0.351111 0.140814 
0.065547 0.242779 0.133292 
0.062497 0.244589 0.136885 
0.073242 0.122231 0.060270 
0.017675 0.175508 -0.144050 
0.000000 0.449897 -0.033275 
0.034715 -0.286624 -0.141687 
0.034708 -0.280967 -0.141745 
0.028398 0.066413 0.124141 
-0.083022 -0.331747 0.079976 
-0.083030 -0.337669 0.079819 
0.005723 0.249117 0.154440 
-0.000000 -0.007390 0.127111 
0.079838 0.048099 -0.070285 
0.022413 0.542455 -0.023580 
0.084060 -0.276484 0.067639 
-0.039405 -0.366433 0.151496 
0.065608 0.403417 0.021760 
0.067494 0.406043 0.026317 
-0.079302 0.128535 -0.078882 
0.056988 0.426096 0.061061 
0.055385 0.428618 0.065427 
0.080939 -0.354986 -0.085356 
0.080983 -0.360710 -0.085354 
-0.066727 0.235009 -0.115771 
0.073908 0.216547 0.055974 
0.074578 0.218792 0.050700 
-0.065547 0.242779 0.133292 
0.034682 -0.275363 -0.141688 
0.000000 0.518129 -0.054833 
0.000000 0.523600 -0.056237 
0.028214 0.318635 -0.042024 
0.011489 -0.361272 -0.070901 
-0.018017 -0.361586 0.088315 
-0.017751 -0.361338 0.082772 
0.081403 -0.302972 -0.082801 
0.028372 -0.116053 0.124113 
0.080030 -0.229172 -0.064265 
-0.000000 0.037099 -0.121070 
-0.038943 -0.362258 -0.091034 
0.028041 0.220220 -0.141271 
0.022425 0.219655 -0.142075 
0.077152 0.190202 0.024346 
0.077160 0.184390 0.024201 
-0.034941 -0.219085 -0.115218 
-0.035042 -0.213649 -0.115589 
0.024977 0.387168 -0.006336 
0.000000 0.552238 0.015287 
-0.031210 -0.376706 -0.128654 
-0.032576 -0.377297 -0.135146 
0.005723 0.128067 -0.112085 
-0.080746 -0.249292 -0.085944 
-0.079756 -0.248080 -0.091469 
0.000000 0.271876 0.153423 
0.000000 0.322903 0.148164 
0.059267 -0.377855 0.141720 
0.063920 -0.377855 0.137598 
0.017238 -0.360369 -0.048544 
0.017228 -0.360623 -0.054426 
0.074941 0.027334 -0.106617 
0.074785 0.021629 -0.107214 
0.072373 -0.252425 -0.114737 
-0.077210 0.225458 0.022959 
-0.078764 0.194021 -0.085452 
-0.068905 -0.099977 0.080982 
-0.028042 0.220220 -0.141271 
-0.022425 0.219655 -0.142075 
0.028151 0.330969 -0.030097 
0.077577 -0.196379 0.017198 
0.035295 -0.276243 0.142309 
-0.022795 0.261003 0.152179 
-0.028379 -0.150396 0.124061 
-0.019491 -0.362586 -0.099595 
-0.021675 -0.362702 -0.104551 
0.083818 0.250654 0.023627 
0.083869 0.249293 0.017595 
-0.080577 -0.234343 -0.070831 
-0.081283 -0.240019 -0.071952 
-0.028394 0.032330 0.124131 
-0.058054 0.173062 0.105824 
-0.060171 0.177211 0.102583 
0.028165 0.326858 -0.034103 
-0.028372 -0.013261 0.124106 
-0.028366 -0.018946 0.124083 
0.079080 0.306903 -0.001342 
-0.030447 0.532040 -0.041819 
0.022767 0.334476 0.144075 
0.069383 0.201232 0.079774 
0.070442 0.204790 0.075396 
-0.000000 -0.256611 0.133471 
-0.068528 -0.242382 0.082165 
-0.078308 0.132426 0.005361 
-0.078575 0.131825 0.000245 
-0.081509 -0.291229 -0.081956 
0.022685 0.389823 0.130337 
0.022702 0.384221 0.132080 
0.062468 -0.375876 0.026991 
0.062599 -0.375877 0.021306 
-0.006753 0.538026 -0.031251 
-0.005182 0.540878 -0.026309 
-0.068972 0.049045 0.081013 
-0.068968 0.043367 0.081016 
0.031660 -0.361071 0.073782 
0.077737 -0.048266 0.015204 
-0.022754 0.345621 0.141911 
-0.075681 -0.202461 -0.104609 
-0.028369 -0.110353 0.124102 
-0.028373 -0.116053 0.124113 
-0.081935 -0.268166 -0.078470 
-0.081745 -0.273860 -0.079704 
-0.078845 0.188495 -0.083900 
0.055533 -0.365181 0.003191 
-0.068892 0.207122 0.131462 
0.083151 -0.278475 0.078951 
0.083709 -0.277468 0.073286 
-0.042017 0.203492 -0.138856 
0.073954 -0.070209 -0.110349 
0.073950 -0.075955 -0.110358 
0.039643 0.533380 -0.017928 
0.041068 0.528662 -0.015186 
-0.034795 -0.224588 -0.114836 
-0.028629 -0.224767 -0.115905 
0.073861 -0.239910 0.054337 
0.074587 -0.239406 0.048724 
0.053467 -0.375613 -0.095573 
0.050251 -0.375450 -0.100258 
-0.017411 -0.377878 -0.143752 
0.079667 0.014657 -0.073993 
-0.083634 -0.377874 -0.062755 
0.028190 0.322758 -0.038099 
-0.011511 0.243428 -0.119707 
-0.070274 -0.377854 -0.117897 
-0.031403 0.130274 0.123282 
0.068523 -0.185224 0.082264 
-0.014193 0.519617 -0.052733 
0.068968 0.037645 0.081014 
-0.028394 -0.059117 0.124121 
-0.028389 -0.064872 0.124110 
-0.022985 -0.358750 0.002597 
-0.000000 -0.314915 -0.144785 
-0.028398 0.003767 0.124130 
0.022848 -0.291698 0.154265 
0.028408 -0.291535 0.153622 
-0.025953 -0.360974 0.072727 
-0.005759 -0.361211 -0.070937 
0.079605 0.130234 -0.028433 
-0.000000 -0.376879 -0.133337 
0.078800 0.131130 -0.005095 
0.079025 0.130520 -0.010586 
0.051256 -0.361105 -0.059881 
0.050245 -0.361365 -0.065783 
-0.050287 -0.360652 0.059437 
-0.035090 -0.208169 -0.115970 
-0.035083 -0.202648 -0.116365 
-0.069354 0.127922 0.079777 
-0.075258 -0.377870 -0.107125 
-0.075301 -0.238896 0.043125 
-0.017092 -0.359822 0.047825 
-0.017106 -0.359579 0.042178 
0.085281 -0.377880 -0.028871 
-0.070501 -0.255519 -0.118168 
-0.017791 0.446259 0.095982 
-0.012536 0.446854 0.097023 
0.077733 -0.030771 0.015278 
-0.022522 0.390627 -0.000357 
0.028376 -0.024658 0.124099 
-0.000000 0.019991 -0.122666 
-0.068963 0.026190 0.081000 
-0.070820 -0.287006 0.128085 
0.022448 0.400790 -0.005656 
0.048164 0.505093 -0.001250 
0.049418 0.500271 0.001662 
-0.063003 -0.375930 -0.012782 
-0.063014 -0.375946 -0.018475 
-0.017245 -0.358631 -0.003035 
0.079745 0.130484 -0.034023 
-0.028372 -0.104667 0.124094 
-0.070516 -0.247666 0.082633 
-0.000000 -0.100180 -0.125169 
-0.000000 -0.094453 -0.125181 
-0.079846 -0.217039 -0.069142 
-0.079835 -0.222893 -0.069396 
-0.029928 0.241025 -0.120257 
0.058032 0.432231 0.037410 
-0.077090 0.124436 -0.098142 
-0.071295 0.123625 -0.099945 
0.079563 -0.087664 -0.076569 
0.034049 -0.349151 -0.141609 
0.034062 -0.343390 -0.141674 
-0.043362 0.149920 -0.129615 
-0.081461 -0.297116 -0.082370 
0.077209 0.195553 -0.097619 
0.083539 -0.377876 0.073909 
0.064159 0.232544 -0.120112 
0.022929 0.182838 -0.143401 
-0.056479 -0.371015 0.077543 
0.077166 0.078925 0.023950 
0.079472 -0.041973 -0.076488 
0.079476 -0.047683 -0.076498 
0.080927 -0.326271 -0.085086 
0.017273 0.182955 -0.143969 
0.075825 -0.208254 -0.104123 
0.017790 0.446259 0.095982 
-0.078281 -0.268823 0.085044 
-0.080439 -0.274125 0.084979 
-0.000000 -0.197379 -0.120610 
0.073116 -0.377866 0.123207 
0.077161 -0.244886 -0.102305 
-0.000000 -0.240217 -0.121604 
-0.066510 0.203049 0.134824 
-0.000000 0.094127 -0.115749 
-0.000000 0.099830 -0.115216 
0.063861 0.177269 0.095643 
0.065377 0.172922 0.092193 
-0.056028 0.156383 -0.133188 
-0.060799 0.155580 -0.129553 
0.058636 -0.375842 0.089562 
0.080011 0.102111 -0.065523 
0.080003 0.095659 -0.065745 
0.072987 -0.377866 -0.112564 
0.070274 -0.377854 -0.117897 
0.085508 -0.270486 0.033644 
0.085605 -0.269498 0.028011 
0.049770 -0.377862 0.147399 
0.055133 -0.377862 0.144537 
-0.072988 -0.377866 -0.112564 
0.085202 -0.377881 0.033904 
-0.022702 0.384221 0.132080 
0.083641 -0.253481 -0.062987 
0.045600 0.178083 -0.138753 
-0.000000 -0.362619 0.115908 
0.080798 -0.248001 0.013879 
0.082592 -0.254598 0.012942 
-0.077646 0.003489 0.016760 
0.017266 -0.358798 -0.008728 
-0.085862 -0.300513 0.006217 
-0.000000 -0.183872 0.127111 
-0.000000 -0.189565 0.127111 
0.002847 0.523802 -0.055972 
0.007887 0.524285 -0.055249 
0.077648 -0.127295 0.016364 
0.079978 0.210976 -0.084275 
0.079296 0.208712 -0.088937 
0.050678 0.495406 0.004579 
0.028398 0.043733 0.124136 
0.028393 0.038045 0.124127 
-0.000000 -0.180254 -0.122012 
-0.073961 -0.058732 -0.110329 
-0.073958 -0.064467 -0.110339 
0.081461 -0.297116 -0.082370 
-0.033056 0.393469 0.004568 
0.022855 0.243815 0.153435 
-0.036895 0.386476 -0.007564 
0.000000 0.136434 -0.120455 
-0.010860 -0.362783 -0.108363 
0.000000 0.170305 -0.144785 
0.000000 0.175074 -0.144785 
0.085459 -0.377879 -0.023155 
-0.078985 0.313616 0.007758 
0.071459 0.208120 0.070832 
-0.016128 0.558318 0.003707 
-0.028890 0.158882 -0.142558 
0.000000 0.405972 0.128328 
0.000000 0.442410 0.112102 
0.039425 0.183503 -0.140518 
0.060274 0.123008 -0.103213 
0.055079 0.123236 -0.104823 
0.028168 -0.246145 0.124085 
-0.067494 0.406043 0.026317 
-0.068849 0.408449 0.030484 
-0.000000 -0.070013 0.127111 
0.078574 0.131825 0.000245 
0.063002 -0.375930 -0.012782 
0.028400 0.049418 0.124139 
0.056562 -0.244598 0.107503 
-0.077202 0.113212 -0.097778 
-0.017132 -0.359336 0.036549 
-0.017162 -0.359125 0.030916 
-0.048795 0.185778 0.148187 
0.060560 0.245674 0.139360 
0.077611 -0.162034 0.016867 
0.000000 0.207060 -0.144040 
-0.017318 0.487035 -0.043246 
0.055885 -0.371177 -0.079304 
0.046004 -0.359471 0.002434 
0.040282 -0.359284 0.002354 
0.081449 0.247104 0.085017 
0.005723 0.243272 -0.120070 
0.076301 0.223699 0.034370 
-0.073920 0.391037 0.055244 
0.053833 0.477813 0.013583 
-0.000000 -0.018776 0.127111 
0.028366 -0.018946 0.124083 
-0.000000 -0.048633 -0.125285 
-0.022808 0.255303 0.152617 
-0.000000 -0.361640 0.093260 
0.064972 0.417106 0.045518 
0.077604 -0.173472 0.016949 
0.077599 -0.179198 0.017005 
-0.063876 0.199133 0.137991 
0.000000 0.434485 -0.027152 
-0.085858 -0.318208 0.006069 
-0.085845 -0.323877 0.007212 
-0.065609 0.403417 0.021760 
0.077736 -0.054134 0.015202 
0.085852 -0.289106 0.007379 
-0.017780 0.451458 0.105049 
-0.080765 0.292743 0.017743 
-0.081207 0.288288 0.021436 
-0.078681 -0.283380 0.106923 
-0.056988 0.426096 0.061061 
-0.082751 -0.290808 0.082908 
-0.082829 -0.296483 0.082149 
0.080172 0.210699 -0.054683 
0.080174 0.208857 -0.060088 
-0.065507 0.430500 0.068684 
-0.063085 0.433106 0.073210 
-0.074941 0.027334 -0.106617 
-0.069968 -0.241907 -0.109770 
0.000000 0.296433 -0.069590 
0.000000 0.300527 -0.065691 
-0.017329 -0.359391 -0.025773 
-0.017318 -0.359629 -0.031413 
0.033745 0.082092 -0.113654 
0.033696 0.087700 -0.113083 
0.079477 -0.053363 -0.076502 
-0.033010 0.534310 -0.037947 
-0.035000 0.537064 -0.033111 
0.028610 -0.240784 -0.120919 
-0.000000 -0.195258 0.127111 
0.039457 -0.372161 0.151491 
-0.085315 -0.271491 0.039312 
-0.080029 0.207048 -0.065547 
-0.000000 0.111236 -0.114152 
0.000000 0.275965 -0.089082 
0.000000 0.280058 -0.085184 
-0.034565 -0.053505 -0.121984 
-0.016352 -0.362633 -0.106787 
0.011401 0.381772 -0.015747 
-0.064916 -0.241273 -0.111763 
0.016948 0.142682 0.126052 
0.028486 0.249847 0.152125 
-0.078637 -0.234823 -0.001877 
0.037424 -0.361163 0.074658 
0.028271 0.348165 -0.013811 
-0.036593 -0.376843 0.140101 
-0.034878 -0.376305 0.134227 
-0.081711 0.217839 -0.068737 
0.033527 0.220890 -0.140010 
-0.011345 0.160040 -0.144150 
-0.085858 -0.343471 0.006166 
0.048944 -0.361559 -0.071219 
-0.000000 -0.326363 0.155732 
0.062071 -0.375876 0.044060 
-0.005700 0.337029 -0.030182 
-0.028380 -0.082035 0.124100 
-0.028378 -0.087739 0.124095 
-0.082129 0.245712 0.030020 
-0.062929 -0.376011 -0.058308 
0.080745 -0.249292 -0.085944 
0.078505 0.278508 -0.043983 
-0.000000 -0.357970 0.008328 
-0.000000 -0.178179 0.127111 
0.078804 0.320510 0.016721 
0.078909 0.317032 0.012270 
-0.083419 0.257292 0.028279 
0.029431 0.542632 -0.023268 
-0.000000 -0.013083 0.127111 
-0.061188 -0.375941 -0.074972 
0.036811 -0.281157 0.145241 
0.029273 0.126110 -0.109856 
-0.030528 -0.367249 0.122231 
-0.034654 -0.099853 -0.122668 
-0.081390 0.242773 0.030207 
-0.062932 -0.375869 0.004260 
0.068967 0.043367 0.081016 
0.078985 0.313616 0.007758 
0.040007 0.216122 -0.138710 
0.072545 0.406607 0.050029 
0.073038 0.401337 0.052213 
0.028383 -0.173031 0.124075 
-0.017676 0.175508 -0.144050 
0.005728 -0.358132 0.002690 
-0.000000 -0.098478 0.127111 
-0.000000 -0.104171 0.127111 
-0.044933 -0.239212 -0.117544 
-0.077083 0.126211 0.025180 
-0.028365 -0.195658 0.124069 
-0.068924 -0.082826 0.080998 
-0.052265 -0.360473 -0.037025 
0.028383 -0.070633 0.124097 
0.078501 0.126484 -0.089157 
-0.000000 0.088425 -0.116281 
-0.034500 -0.134919 -0.121245 
-0.034516 -0.129225 -0.121642 
-0.075099 0.033057 -0.106018 
0.076350 0.078765 -0.101228 
0.076193 0.073058 -0.101826 
-0.083660 0.234973 -0.025932 
-0.083527 0.232917 -0.031322 
0.076169 0.363412 0.053114 
0.076587 0.358117 0.050783 
-0.077086 0.120479 0.025124 
-0.077094 0.114734 0.025014 
-0.035030 -0.197128 -0.116762 
-0.011527 -0.360768 0.070812 
0.072344 0.211192 0.066080 
0.073150 0.214027 0.061083 
0.079475 -0.059065 -0.076507 
0.079487 -0.064732 -0.076515 
0.000000 0.362152 0.140925 
0.000000 0.356581 0.142132 
-0.078910 0.317032 0.012270 
-0.034557 -0.123507 -0.121992 
-0.034626 -0.117624 -0.122337 
0.079289 -0.233283 -0.018834 
0.051862 -0.360908 -0.053875 
-0.033800 -0.271235 0.139330 
-0.079918 0.301229 0.010216 
-0.080346 0.296915 0.013942 
0.078307 0.132426 0.005361 
-0.000000 -0.229416 0.127111 
-0.000000 -0.235109 0.127111 
-0.018275 0.526327 -0.051709 
0.054558 0.406156 0.026551 
0.046495 -0.375370 -0.104608 
-0.017395 0.389709 -0.001946 
-0.073123 -0.240405 0.059952 
-0.018963 -0.361835 0.093688 
-0.011459 -0.375774 -0.121220 
-0.005749 -0.375798 -0.121680 
0.000000 0.384668 -0.010666 
0.034018 -0.372163 -0.141814 
0.085144 -0.258481 -0.034548 
-0.033535 0.334206 -0.024181 
-0.039168 0.333211 -0.022321 
-0.048945 -0.361559 -0.071219 
-0.062991 -0.375913 -0.007102 
-0.033939 0.183083 -0.141664 
0.028381 -0.167516 0.124073 
-0.020868 -0.362125 0.099213 
-0.079749 -0.377872 -0.091082 
-0.083033 -0.343447 0.079716 
-0.000000 -0.203088 -0.120143 
0.063229 0.400786 0.017214 
0.045005 -0.290772 0.149414 
0.050272 -0.290347 0.147251 
0.081389 0.242773 0.030207 
0.079727 0.236211 0.029932 
0.076037 0.067347 -0.102424 
-0.068953 0.020434 0.080993 
-0.028668 0.248971 -0.112271 
0.077445 0.037344 0.020035 
0.077485 0.031640 0.019405 
-0.034782 -0.246209 -0.124764 
0.069009 0.425018 0.059190 
0.067468 0.427777 0.063972 
-0.068300 -0.213836 0.082950 
0.068157 0.197540 0.083926 
-0.000000 -0.360416 0.064950 
-0.036063 0.539914 -0.028159 
0.000000 0.222747 -0.139765 
-0.000000 -0.332088 -0.144785 
0.078104 -0.235844 0.009401 
-0.073965 -0.053000 -0.110320 
-0.016948 -0.246345 0.125984 
-0.022941 0.220988 0.153930 
0.000000 0.212856 -0.143852 
-0.076663 0.090194 -0.100030 
0.073123 -0.240405 0.059952 
0.077608 -0.167753 0.016899 
-0.000000 -0.200951 0.127111 
-0.000000 -0.206644 0.127111 
-0.068917 -0.077099 0.080996 
-0.081896 -0.245790 -0.073173 
-0.077231 -0.377378 0.079302 
-0.028382 -0.167516 0.124073 
-0.068872 -0.134587 0.081081 
-0.068863 -0.139466 0.081133 
-0.082151 -0.262585 -0.077091 
0.074631 0.015913 -0.107810 
0.079798 0.137500 -0.069906 
-0.074933 -0.173554 -0.107091 
-0.028389 -0.184284 0.124087 
-0.028388 -0.189980 0.124094 
0.003486 0.447569 0.098265 
0.035037 0.018493 -0.119894 
0.035143 0.024418 -0.119308 
0.005831 -0.263460 -0.144639 
0.064916 -0.241273 -0.111763 
-0.030789 -0.362397 -0.099077 
-0.026504 -0.362600 -0.101957 
0.077646 0.003489 0.016760 
-0.028457 0.259965 -0.100945 
-0.028430 0.263731 -0.097145 
-0.014692 0.514118 -0.051258 
-0.080984 -0.360710 -0.085354 
0.034102 -0.255596 -0.133264 
0.038943 -0.362258 -0.091034 
-0.077576 -0.202103 0.017225 
-0.077578 -0.207825 0.017148 
0.076687 0.227237 0.112626 
-0.069191 0.097165 0.080283 
0.000000 0.531977 0.035089 
0.000000 0.527899 0.039106 
-0.017438 -0.263655 -0.144047 
-0.011648 -0.263526 -0.144454 
-0.062497 0.244589 0.136885 
-0.060560 0.245674 0.139360 
-0.016921 -0.362303 -0.093495 
0.058911 -0.224720 -0.109324 
-0.073369 0.245904 -0.097240 
-0.082662 -0.285147 0.083759 
0.000000 0.350977 0.143187 
0.072721 0.189374 -0.112942 
0.068024 0.320041 -0.005608 
-0.078134 0.335704 0.033600 
-0.078347 0.331746 0.029554 
-0.034558 -0.151855 -0.120038 
-0.073940 -0.093214 -0.110388 
-0.022784 0.367705 0.137059 
0.000000 0.490600 0.069938 
0.034593 -0.157513 -0.119636 
0.034558 -0.151855 -0.120038 
0.000000 0.476308 0.079471 
-0.078521 0.327853 0.025368 
0.042020 -0.362054 -0.086833 
-0.000000 -0.358704 0.025315 
0.063044 -0.375993 -0.035535 
0.063053 -0.376010 -0.041233 
0.072494 0.120386 0.065095 
0.028267 0.283324 -0.077350 
0.000000 0.449965 0.102429 
0.061187 -0.375941 -0.074972 
-0.000000 -0.326363 -0.144785 
-0.000000 -0.320640 -0.144785 
-0.068896 -0.123009 0.081002 
-0.068888 -0.128823 0.081033 
-0.034461 -0.004589 -0.121261 
0.080976 -0.366435 -0.085360 
-0.034647 -0.168875 -0.118826 
0.076965 0.353105 0.047980 
0.077313 0.348366 0.044765 
0.063047 0.184949 0.103555 
0.034723 -0.269778 -0.141767 
0.034878 -0.376305 0.134227 
-0.062336 -0.375876 0.032688 
0.069353 0.127922 0.079777 
0.078346 0.331746 0.029554 
-0.085069 -0.377881 0.039610 
-0.079048 0.300396 -0.010688 
-0.052121 0.403810 0.022476 
0.000000 0.179473 -0.144762 
0.079048 0.300396 -0.010688 
-0.083540 -0.377876 0.073909 
-0.083980 -0.377878 0.068158 
-0.077175 0.118833 -0.097615 
0.044905 -0.361952 -0.081686 
-0.055962 0.462508 0.021240 
-0.077608 -0.167753 0.016899 
0.017852 -0.361099 0.077214 
-0.068381 -0.230986 0.082763 
-0.068510 -0.236705 0.082475 
-0.034844 -0.264094 -0.141682 
-0.068932 -0.060036 0.080999 
-0.050326 0.391785 0.001622 
-0.040636 -0.264198 -0.140252 
-0.062728 -0.375876 0.015620 
-0.062845 -0.375871 0.009936 
-0.034530 -0.082174 -0.122424 
-0.083032 -0.349204 0.079644 
0.000000 0.474575 -0.042115 
0.000000 0.479982 -0.044064 
-0.077594 -0.213544 0.016919 
-0.049504 -0.361083 0.070721 
0.022385 0.417272 0.120291 
-0.079726 0.025737 -0.072784 
0.081898 0.249285 0.079774 
-0.079476 -0.059065 -0.076507 
-0.073968 -0.047235 -0.110310 
0.028406 0.267607 -0.093164 
-0.079966 0.083210 -0.066655 
-0.079942 0.077130 -0.067227 
-0.060735 -0.375844 0.072439 
0.069968 -0.241907 -0.109770 
0.041965 0.145586 -0.125300 
0.043362 0.149920 -0.129615 
-0.063024 -0.375962 -0.024169 
-0.000000 -0.297743 -0.144785 
-0.077621 -0.219256 0.016546 
0.075821 -0.237282 -0.105579 
-0.000000 -0.071543 -0.125233 
-0.000000 -0.065815 -0.125246 
0.068924 -0.054357 0.080999 
-0.000000 0.082722 -0.116813 
-0.077611 -0.162034 0.016867 
-0.029178 0.107678 0.123882 
0.047173 -0.361749 -0.076583 
0.044933 -0.239212 -0.117544 
0.000000 0.316901 -0.050097 
-0.011390 0.183183 -0.144370 
-0.005721 0.183463 -0.144555 
0.049516 0.123776 -0.106060 
0.077729 -0.071659 0.015241 
-0.079562 0.220506 -0.027917 
-0.079717 0.218713 -0.033264 
0.022291 -0.377875 -0.143329 
0.065506 0.430500 0.068684 
0.005621 0.141104 0.126883 
0.011320 0.141709 0.126648 
0.083029 -0.366433 0.079488 
-0.038628 -0.375687 0.126932 
-0.018040 -0.361596 -0.076762 
-0.017273 0.182955 -0.143969 
-0.055250 0.327005 -0.014659 
0.000000 0.437290 0.114613 
-0.068933 -0.014608 0.081006 
0.078051 0.132786 0.010315 
0.077683 -0.108840 0.015868 
-0.021076 0.441935 -0.026245 
-0.020668 0.447332 -0.028324 
0.079184 0.171787 -0.080069 
-0.079886 0.130761 -0.039775 
-0.054559 0.406156 0.026551 
-0.056760 0.408950 0.031390 
0.073947 -0.081718 -0.110368 
0.016352 -0.362633 -0.106787 
0.010859 -0.362783 -0.108363 
-0.000000 -0.367258 -0.114350 
-0.073335 -0.286147 0.122998 
-0.068900 -0.105705 0.080978 
-0.068902 -0.111444 0.080981 
-0.000000 -0.123091 -0.125115 
-0.000000 -0.117363 -0.125129 
0.034651 -0.036422 -0.121713 
-0.000000 -0.337811 0.155732 
-0.000000 -0.343535 0.155732 
0.027995 0.391712 0.001534 
-0.059715 -0.377858 -0.130536 
-0.054836 -0.377862 -0.133925 
0.085315 -0.271491 0.039312 
-0.022791 0.323156 0.146099 
-0.082874 0.253406 0.063280 
-0.027996 0.391712 0.001534 
-0.080023 -0.230716 -0.047207 
-0.068920 -0.026049 0.081013 
-0.068928 -0.031728 0.081016 
0.032575 -0.377297 -0.135146 
0.078151 0.230181 0.029354 
-0.000000 -0.075706 0.127111 
0.034527 -0.146197 -0.120445 
-0.028385 -0.178613 0.124079 
0.036706 0.447317 0.097850 
0.080900 -0.343540 -0.085401 
0.080895 -0.349263 -0.085377 
0.073958 -0.064467 -0.110339 
-0.045055 -0.377867 -0.138483 
-0.069939 -0.241905 0.076733 
0.079566 -0.228089 -0.075612 
0.070841 0.150971 -0.116340 
-0.073936 -0.098970 -0.110398 
-0.082888 -0.302175 0.081538 
-0.082933 -0.307925 0.081075 
-0.022140 0.411011 -0.010818 
-0.005636 -0.246455 0.126872 
-0.011293 -0.246387 0.126591 
0.036593 -0.376843 0.140101 
-0.069224 0.144872 0.080289 
0.076583 0.260487 -0.072940 
-0.085681 -0.262490 -0.011817 
-0.021224 0.556787 0.001046 
-0.011395 0.336749 -0.029720 
-0.028364 0.302693 -0.057686 
-0.059868 -0.244180 0.102980 
-0.000000 -0.151707 -0.124291 
-0.000000 -0.145995 -0.124716 
-0.028400 0.055088 0.124141 
-0.085693 -0.377880 -0.011731 
-0.085595 -0.377880 -0.017437 
-0.000000 -0.140271 -0.124882 
-0.017296 0.243733 -0.119001 
-0.023094 0.244293 -0.117842 
0.017295 -0.359872 -0.037045 
0.017266 -0.360115 -0.042671 
-0.066296 0.196129 0.117683 
-0.065231 0.192260 0.112865 
0.079083 0.303609 -0.005988 
-0.000000 -0.134545 -0.125012 
-0.000000 -0.128818 -0.125101 
0.074236 -0.001263 -0.109442 
-0.052762 -0.366148 0.076901 
0.000000 0.413915 -0.017134 
0.079522 -0.070419 -0.076526 
0.079482 -0.232770 -0.024493 
0.073964 -0.053000 -0.110320 
0.079552 -0.081887 -0.076552 
0.034950 0.012684 -0.120458 
0.042210 -0.362713 0.107996 
0.043822 -0.362649 0.104555 
0.079118 -0.227519 -0.081180 
-0.022756 0.340076 0.142988 
0.040664 0.141333 -0.121702 
-0.035217 -0.362406 -0.095130 
-0.080006 0.130956 -0.045552 
0.074783 -0.167819 -0.107583 
0.077620 -0.144790 0.016779 
-0.027787 -0.234776 0.124215 
-0.027960 -0.240484 0.124186 
-0.000000 -0.366432 0.155732 
-0.082964 -0.313668 0.080727 
-0.073243 0.122231 0.060270 
0.077754 0.231078 0.108456 
0.000000 0.416606 0.124216 
0.000000 0.411320 0.126350 
-0.034517 -0.308984 -0.141592 
0.000000 0.189669 -0.144587 
-0.034620 -0.303365 -0.141601 
0.078382 0.214007 -0.090986 
0.073853 0.198191 -0.109533 
0.005559 -0.362915 -0.109517 
-0.034465 0.103807 -0.111284 
-0.005754 -0.360713 0.070683 
0.059476 -0.375840 0.083747 
0.078495 -0.226933 -0.086653 
0.077773 -0.226314 -0.092462 
0.075258 -0.377870 -0.107125 
-0.062972 -0.375893 -0.001423 
-0.057345 0.227836 -0.128181 
0.082888 -0.302175 0.081538 
0.068944 0.008751 0.080988 
0.068941 0.002841 0.080991 
-0.049943 0.185026 -0.136536 
-0.069360 0.122153 0.079745 
-0.078757 0.287860 -0.029703 
-0.080901 -0.343540 -0.085401 
0.046335 0.157113 0.117178 
0.083682 0.252715 0.034774 
-0.083895 0.244829 0.001567 
-0.077155 0.178569 0.024301 
0.034308 -0.259847 -0.137518 
-0.000000 -0.223723 0.127111 
