-0.0723215324637835 0.05945633039666923 0.4796747334730486
-0.15959242397584375 0.020766334176047396 0.43935935124432546
-0.0 0.045267620857931706 -0.2581236095273022
0.14929188451094413 0.036669604364229724 -0.019421300890465072
0.16000014792363867 -0.08671545977934265 -0.24606029881102254
0.05399695216847016 0.04844802336199286 -0.20152364418800978
0.1767915112995194 0.02812363136503919 -0.2715094478492156
0.1743829575379936 -0.08265319253801946 -0.06405000482425349
-0.1845037103854901 -0.08354188461518289 0.07868889104923905
-0.17285519051269277 -0.08422515760583976 -0.1084201082870404
0.11812783275266758 0.10519830995700868 0.15735553761716098
0.15761764585384183 -0.022860547460632735 0.45416222192945493
0.1404272424274092 0.04439623668630774 -0.20428590206758446
0.18887129147608744 0.018677886833582083 -0.04304928695443732
0.1370023732437213 -0.08498251322332132 0.3995752438600337
0.15391914407358007 -0.05635026667847445 0.4286801938596316
-0.11017679654804145 0.1257814222028569 0.14750835747729185
0.18253090859872279 -0.0836757364106179 0.16329741944449225
-0.15046289308192443 0.04039835006247569 -0.05474308287079121
0.08308770848774677 0.06558937774123924 0.457055397046086
-0.07275602677066542 0.06565136280087022 0.45875977657462524
0.11255474705790403 0.0890111661624004 0.30311469295176474
0.19101693276246348 0.029135694671999543 -0.1863619189354321
-0.06240290481073585 0.0657205944230281 0.46027257136330024
-0.0 0.04841700088770412 -0.23588031579543423
0.16339830663718605 0.02915791347115229 0.3696953907816287
-0.0943053872793989 0.048493479072388906 0.46399113594064056
-0.021259078785031683 -0.03631705473942014 -0.38979173419491536
0.10413070795379432 0.08222610785724827 0.3977488106585205
-0.10950124923148351 0.10208348584936872 0.31275154311151404
-0.17527236828251505 -0.06861654103445398 -0.01890667517316167
-0.04024800716390684 0.11008764354954334 0.24877463700877678
-0.1200243959105361 0.10339421533254134 0.1264797313584051
0.044493534581530325 -0.007993176380119094 -0.3887656568744732
-0.17904261702068786 0.020872696945037378 0.24846788582478654
-0.06562810424678152 0.04627483316022529 -0.032433551964090514
0.0 0.07287780264175214 0.4432702192288881
-0.14234620405127 -0.08657484053295275 -0.31973831591310725
0.030685838520447213 0.12812912879473526 0.09032818802427486
-0.1160559746483837 -0.08612010376215272 -0.3561050402320241
0.0 -0.05508966424352515 0.45517218912328766
0.1925290687727269 0.024420098913271154 -0.10302165876028066
0.05298171474734513 -0.03631705473942014 -0.38272040672547714
0.0 0.059812489961524745 0.48095378170352093
-0.18050091286804473 -0.08315973324754491 -0.006728198012756068
0.0 0.09767200616098443 0.3378945997441284
-0.15225938181018583 0.04438479789752564 -0.11265425680482824
0.10711431537964541 0.09271781283938663 0.35536881688804045
-0.09588280224135101 0.051630701646021154 0.45418659673068185
0.11104794116387938 0.1239065388436226 0.16920929690962536
0.17988986594687092 0.025893846108825946 0.10002085468216532
-0.00016433526920523118 0.046334063328317104 -0.035877286165926954
-0.11732430275743194 -0.08540059795886129 0.4100420350404266
0.16785781726066604 0.0338597946611314 0.29986290282347156
0.06562810424678152 0.04627483316022529 -0.032433551964090514
0.17276020664353842 -0.08432331558915879 -0.11124914234196628
0.17625328933729364 0.03238281346246544 0.1695482084578879
0.16667704679140571 -0.08397320480790012 0.3021175419924837
0.10800139045525324 0.04466759350291449 -0.20287072626170996
0.08268531465619067 0.0592939714626986 0.4791498068569466
0.1793857207952056 -0.08372155145469298 0.20525274069531702
0.10568686233973773 0.087606590700057 0.37658956674731003
-0.0 0.04954524875088098 -0.22473576140746265
-0.16339824674823955 0.02915791347115229 0.3696953907816287
0.1531041752895623 0.04556784414675308 -0.18061431685055773
0.17923438142739162 -0.08305570614746857 -0.021032792662977598
0.10998563103080271 0.10423739181036223 0.30206226449486107
0.15152735921707525 0.04340243950803094 -0.23967068721963208
0.17484512053816006 -0.08379180118894143 0.24695107847669584
-0.08677704725919351 0.044854327238112 -0.02877643344586258
0.15276382640658367 0.045211025803486016 -0.13549057088497252
0.1571288322724814 0.022889337440645155 -0.32748435225385236
-0.1660267127213257 0.03242892795127303 0.3278070253729947
0.1838362480767101 -0.08364447438054315 0.1351934532967516
0.11444861521317991 0.0941469427697964 0.272161689840966
-0.11498294439388293 0.09567351201616717 0.26180132131850953
0.11780401321892389 0.10499366942680669 0.16779531888268093
0.18433296699900903 0.013168103755272595 0.004802340635429635
0.17904261702068786 0.020872696945037378 0.24846788582478654
0.10738908586620285 0.07632219562200016 0.36435892631449995
0.10838282315553317 0.07865451075462715 0.35421918867096186
-0.17701130373318671 -0.06981431996452127 0.17342152607299297
0.11591092361995255 0.09844277690248271 0.2410222524397023
0.06075979167446954 0.12783118128588103 0.09888452181121052
0.011129821707131695 -0.010706864324079537 -0.3910287403849423
0.0 0.11334188912464313 0.1495388323195419
-0.1924522911433096 0.028272275730260518 -0.162692429831533
0.05035330866320549 -0.08574040784132139 -0.3830792014039788
0.15836218523677167 0.016401388199096215 0.4671458460866518
-0.1770554418867597 0.03140913897021372 0.15561911750224244
-0.0303847767863748 -0.08571717093007808 -0.38681297777373097
0.06659045972814408 -0.07586999079020894 0.438363577730814
0.17453741113102575 -0.07464088994112039 -0.04399361586290237
0.1901273423511025 0.028275030621799688 -0.1994502289711168
0.050815950774943976 0.12794281428216334 0.09540000323680525
-0.08825049501001578 0.00047020976184330987 -0.382175716757029
-0.06991573359379687 -0.08579209200215379 -0.37754318696710076
0.07892518714997694 -0.003048685067854856 0.4941251577080058
-0.1778241165151304 0.030274303322921498 0.1417006268901281
0.1805908061767463 -0.08370502210545805 0.191295262379029
-0.09266532847940427 0.04528097609300197 0.47375692700221167
0.1920449864181402 0.023401687377981442 -0.09103494600657883
0.011002378028972535 -0.08402177474351434 0.4399546473725689
0.1780256428201142 -0.08374083569546706 0.21918165198412293
0.010160698774814255 -0.08571100236858824 -0.38870085703435653
-0.09719886184076243 0.043847713825283435 -0.02639536871078183
-0.05298171474734513 -0.03631705473942014 -0.38272040672547714
0.19067999754943554 0.021159205665109482 -0.06704169725788256
0.1778316026334433 -0.06068610662742502 0.24766046304802816
-0.17673365857719714 -0.061024059952543494 0.04463891073685837
-0.040788744461885726 0.12804354749018196 0.09254767238168954
-0.11080149814901805 0.10830954072785845 0.2806436415563444
-0.17368435297703186 0.034345673684113204 0.2113886627093192
0.13374675022285193 0.07508411143093607 0.04052657633625836
-0.09001404481770034 0.1274726860521119 0.11312545451129896
-0.09688109109061559 -0.03631705473942014 -0.37767332564785266
0.15837506136026988 -0.0041072221973018075 0.464007126289357
0.05203097772160423 0.0657953358282643 0.4615876727395676
-0.16667698690245922 -0.08397320480790012 0.3021175419924837
0.05463830289657469 -0.0853953876205155 0.43220328091558496
0.14627096627142144 0.0428712844414926 -0.00011208642568992164
-0.18102799548622084 0.02215144573077721 0.07230880180034266
0.0 0.1029836766042608 0.3058586847026558
0.04319843611339508 0.04926029714341798 -0.2013783536037926
-0.16228904357005075 -0.08664694682454281 -0.23218756335403679
-0.0 0.008358662017373439 -0.36368518419095486
0.1845037103854901 -0.08354188461518289 0.07868889104923905
-0.1878326374768796 0.017360928899973108 -0.031063592312826058
-0.18644872370107984 0.029552282183876927 -0.22543340774528034
0.1411502816785443 0.0272819521108809 -0.3455180519359989
0.0 0.08445182066509932 0.03328049292092333
0.1512419284980402 0.04493397953696146 -0.20487724552535866
0.08825049501001578 0.00047020976184330987 -0.382175716757029
-0.10103594664323298 0.11282618540630265 0.24877254089564915
0.10721966003654483 -0.08554091776051868 0.41467684061032195
0.0 0.09568537002757482 0.34853650620409715
-0.14088539286815996 0.05757797347853774 0.015132285573062398
0.19142435726552584 0.02231296621949677 -0.07904026802299205
-0.11104794116387938 0.1239065388436226 0.16920929690962536
-0.1496739759896356 0.03802507089044038 -0.031243858041801187
0.04411144310283887 0.04695511170355701 -0.034738917070791006
-0.053440404188614406 -0.06771515250063186 -0.38212229581674806
0.17233020400764426 -0.08469342927854957 -0.1225643802274724
-0.11041988578189861 0.10631326247406184 0.2913595707541914
-0.17741453600999388 -0.062210879205400665 0.10893053325347082
-0.11780395332997738 0.10499366942680669 0.16779531888268093
0.1731119943152992 -0.08391666964240094 -0.09993342534488817
-0.0 0.03159257881335353 -0.312613926837067
-0.19145933241028382 0.006472040424624445 -0.20036293651582807
0.0 0.11119349294672795 0.23599942638541163
-0.10407555023406471 0.06882044629404224 0.39459889162822964
0.18031627524597488 -0.019927126971951467 0.24824072705069927
0.09001404481770034 0.1274726860521119 0.11312545451129896
0.16609576467664408 0.02547989371059467 -0.3053389769495174
-0.14858932727951318 -0.08669419920333396 -0.2981560164837969
0.15796685830090293 -0.08674624269784538 -0.25711400166714843
0.1855506290593154 0.014600707244579555 -0.007133706069530347
-0.0 0.05213628413240254 -0.02598590798353833
-0.14616753806081015 0.03720806588224149 -0.30456682876224955
-0.10751095987233719 0.04263364510176726 -0.023621672042425018
0.10960162310582314 0.00663919047431534 -0.3774420345364566
-0.0 0.05123124237284368 -0.11334184179963336
0.0774251487069072 -0.002141547195168403 -0.3841905605842417
-0.18425864481639834 -0.08350163924313263 0.0645049127372753
0.15123905382860803 0.04232467802675641 -0.07804982462571941
0.19145927252133732 0.006472040424624445 -0.20036293651582807
0.06822973997183415 -0.06831350296514696 0.4449842408778144
0.07625150502228076 0.0456608516806728 -0.0307830724874043
-0.15006660792291168 0.039267826419331686 -0.04301772547963006
0.10453711434476615 0.022108325689294786 -0.3539423904848411
-0.1855506290593154 0.014600707244579555 -0.007133706069530347
0.18326562619442605 -0.08339623469728671 0.03607227605112416
-0.03239992005832 0.04997632938781221 -0.20126719971908238
0.15194754006574282 0.04380806734269824 -0.10116641897549944
-0.0 0.05196709785853054 -0.16909150387647096
0.08966022092175847 0.015002981298242665 -0.36595527470816486
0.1299096055314349 -0.03631705473942014 -0.3724394509460841
-0.1851907563797767 -0.03647510166924251 -0.20163809196477772
0.0 0.07871907103895778 0.42240119715243285
-0.03323004074580313 0.047036321115015545 -0.03543021518027934
0.0 0.08877268837742402 0.043513896876792676
-0.08308770848774677 0.06558937774123924 0.457055397046086
-0.13515120590730234 -0.08640505536961572 -0.3410736333270377
0.16878537726411016 0.034347709908294305 0.28588865560216253
0.17812733425127691 0.031025670045752712 0.2484868706208281
0.17880060578786774 -0.050525108407878244 0.24784677756060014
0.08023304196371742 0.005705641576220902 0.4997721463627545
-0.17880060578786774 -0.050525108407878244 0.24784677756060014
-0.15895251058245533 0.018655009256017804 0.45325939606091675
0.18384636930866918 -0.08345348853014392 0.050299134848784316
-0.11386625509738119 0.09252706654477341 0.28250133678793227
-0.17663286548023197 -0.07081602248373654 0.24744282661643494
0.1520559989478604 0.021329709495804552 -0.33842240955428027
-0.11182398213266997 0.087116998562392 0.31338648572234273
0.0 0.09138600244704481 0.3697584538422968
0.16425346090430756 0.030397015774306896 0.35573785257639423
0.1118315281399294 0.11900486812810826 0.2124887627676395
-0.0 -0.08571076281280222 -0.38893885570776093
0.10895877515405603 0.12725594795471623 0.12576968800866123
0.17694201222208236 -0.06063472191132513 0.057455025510685286
-0.0 0.02353506006184443 -0.3335802684515903
-0.09885287476529235 0.05767565235028471 0.4344651067581775
-0.08208929986058919 0.010958860407709978 -0.37143457431270416
-0.18326353008129842 -0.08366088395188508 0.14925837238306666
0.0 0.005352356680797546 0.4764049766608044
-0.08966028081070497 0.015002981298242665 -0.36595527470816486
-0.1520559989478604 0.021329709495804552 -0.33842240955428027
0.17527236828251505 -0.06861654103445398 -0.01890667517316167
-0.033404377469074424 -0.009256713373447079 -0.3897837090760839
-0.11770747223716047 0.04120457506030398 -0.020437197090001642
-0.16785781726066604 0.0338597946611314 0.29986290282347156
-0.1737455594803583 -0.08259923259721993 -0.06883872498666249
0.14479518285168555 -0.08662604558221314 -0.31167247259803416
0.07765344537097801 -0.011671375807516218 0.48836527838909827
-0.10805672784182235 -0.03631705473942014 -0.37661119518161545
-0.14627096627142144 0.0428712844414926 -0.00011202653674341825
0.07442974315859494 0.006573911522626666 -0.376515013533531
-0.1296853813157263 0.08445673155871258 0.058494517955144175
0.1506989753090407 -0.08672378434290662 -0.29000423253049146
-0.12204720496763373 0.10012799196814087 0.10638004268873205
-0.153010029865659 0.0453899739756381 -0.1917827669281841
-0.17711664839008615 -0.06057758785636092 0.07029665297572263
-0.0794975458117096 -0.08583209781841804 -0.3741129876671741
0.1924522312543631 0.028272275730260518 -0.16269248972047953
0.15014805689015626 0.04182586299132987 -0.2614988307743388
-0.12010356909781356 0.010180902992631288 -0.374733437152949
0.08068328706352972 0.1112247549768027 0.2486577936741487
-0.11139667449936848 0.11205709155530647 0.2591735141238349
0.09688109109061559 -0.03631705473942014 -0.37767332564785266
-0.0 0.058012707341205644 -0.016352231937953675
0.1767738440603009 -0.07189707785706877 0.18629555345808863
0.17187540734789775 0.034864671294511346 0.23931487846383787
0.1160559746483837 -0.08612010376215272 -0.3561050402320241
0.19121564428696164 0.017359910787882557 -0.1999339519920245
0.11323526515702176 0.09081484156424222 0.2928193638252109
0.15900808752481044 -0.08421240126023455 0.34314524335091784
0.1754214318703619 0.03319622513387413 0.18348694153392037
-0.15014805689015626 0.04182586299132987 -0.2614988307743388
0.1316454267568884 0.07999698137944655 0.04941433555314362
0.1762258003108486 -0.06287522728896248 0.019100527168375306
-0.11323526515702176 0.09081484156424222 0.2928193638252109
-0.17187540734789775 0.034864671294511346 0.23931487846383787
-0.18887129147608744 0.018677886833582083 -0.04304928695443732
0.0 0.08411644256468045 0.4014203025239093
0.18644872370107984 0.029552282183876927 -0.22543340774528034
0.1764784717761463 -0.0741230901096523 0.1991513147145008
-0.17988986594687092 0.025893846108825946 0.10002085468216532
0.17651165025250914 -0.08376389293987085 0.23308133746703522
-0.1278677517893492 0.08846815308445441 0.0677556248645314
-0.0 0.046995357075607286 -0.2470157071745907
-0.14716139512803347 0.038660073390215544 -0.29391348351349855
-0.1925290687727269 0.024420098913271154 -0.10302159887133414
-0.062193413275867075 0.059580659849610196 0.4800873084255103
0.1770554418867597 0.03140913897021372 0.15561905761329595
-0.09898001899871899 0.003399737469001879 -0.3799245511469141
-0.010407501123354618 0.06611328624525065 0.4647460361113155
-0.14115034156749082 0.0272819521108809 -0.3455180519359989
-0.1500530730210019 -0.08457209427293376 0.3838549344034191
0.02029522608000654 -0.08571261937014382 -0.38799039446198713
-0.10024708943989066 0.060581404145681444 0.42455001255297353
-0.1761227314339163 -0.07647349170412333 0.21198443794913466
0.153010029865659 0.0453899739756381 -0.1917827669281841
-0.1377301437216302 0.037671666217124034 -0.01276272804032804
0.17001549622528928 0.026521482268181185 -0.2941399835091743
0.16870841996785332 -0.08603991246278471 -0.17901749786993854
0.17181342228826674 -0.08502820848950338 -0.1338757253314558
0.06537902611827404 -0.08555079943669174 0.4294228167962733
-1.9164462881076525e-05 0.06618862653995189 0.46497888433532053
0.12204720496763373 0.10012799196814087 0.10638004268873205
-0.07749605721956718 -0.012739914391029242 0.4876373881332964
0.11112801268535438 0.11022460957019653 0.26991489612394576
0.12010350920886706 0.010180902992631288 -0.374733437152949
-0.06364901412063134 -0.03631705473942014 -0.3807007717825442
0.0 0.12825363791451577 0.08747256327710146
0.0 0.10733017678568893 0.2736804735242913
0.06042926457871749 0.11039876662662831 0.2486507267784613
-0.1785523062156648 -0.057354005421870836 -0.2020863607293554
-0.14990652476890817 -0.07687097464206616 0.4049430901351302
-0.0 0.05039279712179662 -0.21360025025041318
-0.010801031390828225 0.05092311374308389 -0.20113520448098895
0.11906233987390606 0.027968518993595468 -0.34076113280418313
0.15693395364055943 -0.031786575714333645 0.44849469136605563
-0.16895749809636082 -0.08599104308243796 -0.17620337616269197
-0.13323793373335935 0.032662315175796625 -0.3266962736068146
0.1364429505944334 0.018939661418748296 -0.3645698637087026
-0.0 0.06376641809862335 -0.006629740584704537
0.07054558564417275 0.11073109039077547 0.24863934787862568
-0.08068328706352972 0.1112247549768027 0.2486577936741487
-0.17967342729420777 0.02869479224784177 -0.26008617030421743
-0.17414735442244936 -0.07836885708306181 -0.05644860028931401
0.0 0.1099674464339111 0.24950857604817547
0.15253373307411777 0.0448522910139309 -0.12409556092272392
0.1851907563797767 -0.03647510166924251 -0.2016381518537242
-0.10158177450166464 0.06340804264274721 0.41460000309195816
0.0 -0.08347043710200437 0.4410921181335073
-0.05035330866320549 -0.08574040784132139 -0.3830792014039788
-0.0 0.052044474377412886 -0.15794694948849947
0.14354464175974882 0.05054359748909207 0.007312106716546115
-0.10246627435257283 0.07658870143394012 0.4188443327306516
0.10839264494275971 0.09754755693015044 0.3340887170827861
-0.10960168299476963 0.00663919047431534 -0.3774420345364566
0.11923931171082351 0.10440346385901605 0.13668630506624094
0.16763011948606027 -0.08621730352232768 -0.1902607492417476
-0.0760224896908519 -0.0856390757438377 0.4262884090031267
-0.18211348264159433 -0.04697794599543049 -0.20187357530242894
-0.12619373595668718 0.030456305831345204 -0.33382132146126636
-0.13887192648671684 -0.08649560745672881 -0.3304384943180238
0.11182398213266997 0.087116998562392 0.31338648572234273
0.1496739759896356 0.03802507089044038 -0.03124391793074769
0.0 0.11206032555841763 0.2252119298964932
0.15607544559243372 -0.0403664458572451 0.4423490673427199
-0.1767738440603009 -0.07189707785706877 0.18629555345808863
0.19303369303596424 0.0270005938402081 -0.13889304160266813
-0.0 0.07476089078665743 0.013109716071750785
-0.18965344111742136 -0.015155594937188946 -0.20107795064813175
0.14657310600653092 0.019586821374663638 -0.3492653632076609
0.17278691711367894 0.03468356712028517 0.2253492552508254
0.1359879742678473 0.06971321081956788 0.03184261920432407
-0.11744581742988727 0.10366605126072012 0.18877836951327862
0.10331076838721676 0.07943875650908869 0.40830465670236404
-0.0 0.02776136312764034 -0.32317456399663075
-0.0 0.05176880555665789 -0.18023030892557815
-0.12918500916769068 0.013521807873321454 -0.37218198836506616
-0.11174906106059428 0.12037045588627796 0.2016848567073791
-0.0863957343368066 0.04592669871420124 -0.20219553827883102
-0.17357649298437927 0.02740095144758309 -0.28286205643733975
-0.1930362083717174 0.02622485231615003 -0.12695471911774103
-0.03068577863150071 0.12812912879473526 0.09032818802427486
0.11159269102127398 0.12164357511104648 0.19087011074780158
0.12465920148043147 -0.08623119775791646 -0.350558545229508
0.1379651479477094 -0.0864739875470411 -0.333103492548477
0.17697075891640396 0.04114546467010516 0.24849537485123158
0.030176542919382602 0.11004368506280987 0.2488930374560139
-0.17971780500356677 0.01069385181943261 0.24843608479419324
0.18449706271242822 -0.0836026718958838 0.10698881382993874
0.11041988578189861 0.10631326247406184 0.2913595707541914
-0.04237652021158291 -0.03631705473942014 -0.38527011873391137
0.11184254770608602 0.11754842883809291 0.22328152948385024
0.04024800716390684 0.11008764354954334 0.24877463700877678
0.09714274589788878 0.018716215759344235 -0.36011268875413616
0.18425864481639834 -0.08350163924313263 0.0645049127372753
-0.06479576766827776 0.047588916424402106 -0.20170624558589856
-0.0774251487069072 -0.002141547195168403 -0.3841905605842417
-0.16047997816302362 -0.08670450010213254 -0.24329049492418842
-0.1316454267568884 0.07999698137944655 0.04941433555314362
-0.041642820727970195 0.0658737304592372 0.4626987923640445
-0.08036653442547341 0.12759192494460012 0.10774784633792239
0.0 0.0996670267469045 0.07471861322974503
-0.0755951820575504 0.04673202537783197 -0.20192921213373058
-0.0 0.06938585783798049 0.0031868961924478925
-0.16027797274646777 0.022734524513933957 0.42544690941580793
0.09588286213029751 0.051630701646021154 0.45418659673068185
-0.13374675022285193 0.07508411143093607 0.04052657633625836
-0.09889449758311218 0.06459222678195825 0.46083510823780627
-0.1764784717761463 -0.0741230901096523 0.1991513147145008
-0.10839258505381322 0.09754755693015044 0.3340887170827861
0.1617702256264921 0.02623784821754127 0.3975892066160891
-0.17456753527111696 -0.06758675059932864 -0.2022818382507424
0.0755951820575504 0.04673202537783197 -0.20192921213373058
-0.17725529130124143 -0.06083385265844882 0.08315936134992918
0.10961240311619373 0.12656950084989466 0.13664360424738403
-0.18259025854470762 0.01266168282364015 0.017104129136685662
-0.14893518594557012 0.035230293312914385 -0.007550712804033272
0.17741453600999388 -0.062210879205400665 0.10893053325347082
0.053440404188614406 -0.06771515250063186 -0.38212229581674806
-0.1754214318703619 0.03319622513387413 0.18348700142286686
-0.1560753857034872 -0.0403664458572451 0.4423490673427199
-0.1296158502488359 0.04420537061380156 -0.20375642389154822
0.14654573675797888 -0.08471277340827016 0.39372636956662216
0.07639949060909058 -0.020162011420137654 0.48249364629601543
0.02227443598404972 0.04695487214777097 -0.03583823857280676
0.0 0.10453929198968567 0.2951469477310641
0.1697156921590934 0.03468266878608761 0.2719144682698001
0.1773221273655392 -0.06615414711002167 0.14763616048913
0.0 0.10598800560560204 0.2844204780786326
-0.0 0.01890097315930711 -0.3438127141843155
0.1007141034447239 0.07070658877521918 0.43987379729478937
-0.14926870748864735 0.04088321097336692 -0.2723492106570858
-0.09816822432886589 -0.08594774337411604 -0.3659555142639509
0.09849396030889768 0.12737147373252122 0.11843437006303617
0.06479570777933126 0.047588916424402106 -0.20170624558589856
0.0 0.10523124887758553 0.09586947268844515
-0.03292496645231499 -0.08486692755656983 0.4367360956095851
-0.18159412569751715 -0.08325046500149752 0.0075579508419424245
-0.1404272424274092 0.04439623668630774 -0.20428590206758446
-0.15294271468978923 0.0454614214888166 -0.146839646025253
-0.1455824829424188 -0.0866414370414645 -0.3089763920043457
0.0 0.09274715842317327 0.05383623591821951
0.09339531484833379 0.06553643591253028 0.4551658408949583
0.14893518594557012 0.035230293312914385 -0.007550712804033272
-0.10711431537964541 0.09271781283938663 0.35536881688804045
-0.18384636930866918 -0.08345348853014392 0.050299194737730826
-0.10961240311619373 0.12656950084989466 0.13664360424738403
0.1795385573866822 -0.04034021449867663 0.24800404593411798
-0.0 0.03812071353800625 -0.2911004996962355
0.15840614372350514 0.00565138219068885 0.46815635228100305
-0.19184777211730464 0.028757675641670283 -0.17454547045663935
0.14409202673078958 0.033198441024894776 -0.3254357909497583
0.12619385573458017 0.09203615685028532 0.07718621749252313
-0.06042926457871749 0.11039876662662831 0.2486507267784613
0.17491321427033438 -0.07139640626430063 -0.031478203489468844
-0.04411144310283887 0.04695511170355701 -0.034738917070791006
-0.021600924891672885 0.050547011159042754 -0.20118712819760737
-0.08268525476724417 0.0592939714626986 0.4791498068569466
-0.14657316589547745 0.019586821374663638 -0.3492653632076609
-0.10634049030187545 0.07390513763007087 0.3744694980410909
-0.050815950774943976 0.12794281428216334 0.09540000323680525
0.15244641499011585 0.0445641652923032 -0.21767048272162132
0.0 0.09359015523415462 0.35915817020014784
0.02051489873578088 0.1281955456364075 0.08874208916507978
0.032925026341261494 -0.08486692755656983 0.4367360956095851
0.0 -0.04510138574569407 0.4595180904152508
-0.1825153374726319 -0.08332891952141692 0.021824995122706345
0.17105900122916387 -0.08386642281628462 0.27459821174050886
0.0 0.07585410361612985 0.43285020131571433
0.040410366097877466 -0.08572591471626757 -0.38517411675266644
-0.05399695216847016 0.04844802336199286 -0.20152364418800978
-0.14278566914071167 0.030510984439502786 -0.3355905008299222
-0.15137524129295668 -0.08673168968384506 -0.287280303576679
0.17967342729420777 0.02869479224784177 -0.26008617030421743
0.18982472350442098 0.019945795720004808 -0.05504336604855906
-0.190127402240049 0.028275030621799688 -0.1994501690821703
-0.1767915112995194 0.02812363136503919 -0.2715094478492156
-0.10523625790624642 0.07140423511303687 0.38454976596075113
0.08655378126662898 -0.0856641692124226 0.4227915533057418
0.15089870494562943 0.042665745577093045 -0.25060610940641387
0.13418148408551986 -0.08638080034628186 -0.34372186265246996
0.18458276379487454 -0.08357518286943875 0.09285041100626404
0.11770747223716047 0.04120457506030398 -0.020437197090001642
0.09739847169945814 0.05469174547970107 0.44434426759547946
0.16693696481923032 0.03321994115668947 0.31383601215479695
-0.1531789166947985 -0.08443704469856868 0.3703215297173214
0.11732436264637845 -0.08540059795886129 0.4100420350404266
-0.18223505720299615 0.02911976421222963 -0.24859635613965403
-0.11112801268535438 0.11022460957019653 0.26991489612394576
0.0 -0.03508148588410923 0.46355059285016187
0.10721936059181232 -0.08602607811614243 -0.36123913994891793
0.1500530730210019 -0.08457209427293376 0.3838549344034191
-0.08568287620657705 -0.03631705473942014 -0.37849033065605153
0.17561247760970766 -0.06628230945553887 -0.006283462696022084
-0.1561643207890447 -0.08431750636134795 0.3567513532180706
-0.15631835515945133 -0.08675612437401845 -0.26537628072675257
0.06219347316481359 0.059580659849610196 0.4800873084255103
0.09084566272884606 0.11191228008266135 0.24870312960665175
0.10896943538653363 0.09985298192579742 0.3234271670483642
0.11498294439388293 0.09567351201616717 0.26180132131850953
0.030384716897428297 -0.08571717093007808 -0.38681297777373097
0.14518182589031128 0.03540918159611994 -0.31508440576927726
0.17048556456639416 -0.08559697381444582 -0.15647386107135622
-0.15761758596489533 -0.022860547460632735 0.45416222192945493
-0.0 0.05200524711745319 -0.14679814298532617
0.09430544716834541 0.048493479072388906 0.46399113594064056
-0.08655372137768248 -0.0856641692124226 0.4227915533057418
0.07232159235273002 0.05945633039666923 0.4796747334730486
-0.17561247760970766 -0.06628230945553887 -0.006283462696022084
-0.031241128832426402 0.06595404153649823 0.4635997017862946
-0.15276382640658367 0.045211025803486016 -0.13549057088497252
-0.12725688453501488 -0.08521308566735926 0.40501100420046504
0.1278677517893492 0.08846815308445441 0.0677556248645314
-0.020828477259672497 0.06603453228059875 0.4642842324448281
0.02227910732187698 -0.010163851246133532 -0.39053980702568886
-0.17697075891640396 0.04114546467010516 0.24849543474017807
0.0 0.11398970785897003 0.1603502843870617
-0.06651589798974739 -0.004427867616880826 -0.3859639321791528
-0.09739841181051165 0.05469174547970107 0.44434426759547946
-0.15391908418463357 -0.05635026667847445 0.4286801938596316
-0.011002318140026031 -0.08402177474351434 0.4399546473725689
-0.07456964373762678 -0.03631705473942014 -0.37939016207726456
-0.0 0.0024249849757131264 -0.3732887360964483
0.18035334650386045 -0.009713186923695716 0.2483248710205365
0.11184356581817657 0.025189132875320833 -0.34748001382344906
-0.17923438142739162 -0.08305570614746857 -0.021032732774031095
0.10159992085245516 0.07367743985546507 0.42936747940970416
0.020828477259672497 0.06603453228059875 0.4642842324448281
-0.153063690361726 0.04560401707044112 -0.15814308578829797
0.15294271468978923 0.0454614214888166 -0.146839646025253
0.11178475487271027 0.1160026352398946 0.23406291730022538
-0.010657956697631688 -0.03631705473942014 -0.39105155807356007
0.1800441997620101 -0.03013849179550758 0.2481345439485488
0.010801031390828225 0.05092311374308389 -0.20113520448098895
-0.1764941027911837 -0.0617646466650041 0.031852620658390125
-0.0 -0.062333052656267526 -0.39071073007900947
-0.030176542919382602 0.11004368506280987 0.2488930374560139
0.07949748592276311 -0.08583209781841804 -0.3741129876671741
-0.16894186708132344 -0.08391523230768486 0.2883742265488917
-0.02051489873578088 0.1281955456364075 0.08874208916507978
-0.11630607088898175 0.0996836159850859 0.23060540864069315
0.18259025854470762 0.01266168282364015 0.017104129136685662
0.1277825298184749 0.0395530774715272 -0.01682361783588166
-0.10721966003654483 -0.08554091776051868 0.41467684061032195
-0.11184356581817657 0.025189132875320833 -0.34748001382344906
-0.07102200221360701 -0.053782767652928734 0.457118100773075
0.11104219182501507 0.08513329698736108 0.3236337839138008
0.06240296469968236 0.0657205944230281 0.46027257136330024
0.18223505720299615 0.02911976421222963 -0.24859635613965403
-0.15266399153276258 -0.063685524735153 0.42118491253789603
-0.09849396030889768 0.12737147373252122 0.11843437006303617
-0.07442974315859494 0.006573911522626666 -0.376515013533531
0.08159509627404343 0.014591304679978531 0.5053051663523073
0.0 0.10945976783440206 0.11723054234937205
-0.17001549622528928 0.026521482268181185 -0.2941399835091743
-0.07498730925054124 -0.029555772346029838 0.47575613981438697
0.17719324635266395 -0.06789374133910489 0.16053360445230852
-0.050331149752999245 0.11019514420851687 0.2486948649320343
0.1778241165151304 0.030274303322921498 0.1417006268901281
0.0 0.08147306424391498 0.4119241649621878
0.15574455916300262 -0.08675702270821599 -0.26812476414863146
-0.05463830289657469 -0.0853953876205155 0.43220328091558496
-0.15194754006574282 0.04380806734269824 -0.10116641897549944
0.15046289308192443 0.04039835006247569 -0.054743142759737705
-0.14409208661973605 0.033198441024894776 -0.3254357909497583
0.11910210613438431 -0.03631705473942014 -0.3749758676083946
0.16894192697026997 -0.08391523230768486 0.2883742265488917
-0.16987547586836438 -0.08577729943236746 -0.16493551043387003
-0.19091853522335844 -0.00437199122979319 -0.2007424527698199
-0.17105900122916387 -0.08386642281628462 0.27459821174050886
0.1064179865986508 0.090196607969488 0.3659867078804614
-0.08892131109979996 -0.08588354242346442 -0.37024859350509803
0.054912773938399606 0.04670375779508237 -0.03374607811565824
-0.0998113973540787 0.06767770530581158 0.45036316660801406
-0.11591092361995255 0.09844277690248271 0.2410222524397023
-0.1531041752895623 0.04556784414675308 -0.18061431685055773
0.09719766406183238 0.04522216514753566 -0.20250839813536461
0.0 0.1134803523689589 0.20361561645370105
-0.07239507609008965 -0.04584047523449209 0.46343800163073556
0.1930362083717174 0.02622485231615003 -0.12695477900668753
-0.0 0.01574069334127111 0.47744315154844025
-0.0 0.04801322961037843 -0.057642007326286555
0.1735764330954328 0.02740095144758309 -0.28286205643733975
-0.10721936059181232 -0.08602607811614243 -0.36123913994891793
-0.031806420598471656 -0.03631705473942014 -0.38779964816737394
-0.18151363495341663 0.020030957801932592 0.05847846771748128
3.15614748072729e-05 -0.010877967044239656 -0.39124547848233804
-0.171951226754171 -0.08494777763434935 -0.131048368167032
0.03180636070952516 -0.03631705473942014 -0.38779964816737394
-0.16392826392479434 -0.0865665758583353 -0.22104899786071555
-0.06537902611827404 -0.08555079943669174 0.4294228167962733
0.10950130912043 0.10208348584936872 0.31275154311151404
0.0 0.11433101496509271 0.18199253265182191
-0.17743034669187077 -0.063293851025021 0.12183025299661643
0.17971786489251326 0.01069385181943261 0.24843608479419324
0.1610052042238581 0.024558681935479942 0.4115231485764013
-0.15712889216142786 0.022889337440645155 -0.32748435225385236
0.10932236094827795 0.08090106491586135 0.3440510636667812
0.0 0.1026173359184997 0.0852640984858434
0.15266399153276258 -0.063685524735153 0.42118491253789603
-0.1299096654203814 -0.03631705473942014 -0.3724394509460841
0.1113598427972689 0.1228228483566442 0.180044884222586
-0.16425346090430756 0.030397015774306896 0.35573785257639423
0.0 0.09955036307911594 0.32723364859917153
-0.17456382215643373 0.03385021242969086 0.19743417884035633
-0.18015433553462978 0.0004962015646257645 0.2483891917490811
-0.07624300079187728 -0.021214080543362254 0.48175198158251775
-0.1762258003108486 -0.06287522728896248 0.01910058705732181
-0.0 0.05185372808279967 -0.13564664147956026
-0.08142117877339766 0.013473417604546734 0.5046197972485228
-0.0 -0.0039672617293234486 -0.38264620432075946
-0.06075979167446954 0.12783118128588103 0.09888452181121052
0.08677704725919351 0.044854327238112 -0.02877643344586258
0.08568281631763056 -0.03631705473942014 -0.37849033065605153
0.11080155803796454 0.10830954072785845 0.2806436415563444
-0.11923925182187702 0.10440346385901605 0.13668630506624094
0.0 0.11402941423050175 0.1928087159461155
-0.10285764861797231 0.06615472939623102 0.4046159767093288
0.0 0.10132080011564837 0.31655461099237064
-0.17812733425127691 0.031025670045752712 0.2484869305097746
0.1804854615198469 0.02410544238834246 0.08615662345558303
-0.1838362480767101 -0.08364447438054315 0.1351934532967516
0.17855530066298997 0.02897740818639115 0.12779399428942143
0.0 -0.01493927606241878 0.47064713356607796
-0.1752055921071638 -0.08090778908112542 0.24719153259690685
0.0 0.1123726464144327 0.138743550267578
-0.1804854615198469 0.02410544238834246 0.08615662345558303
0.010407501123354618 0.06611328624525065 0.4647460361113155
0.1154701409736878 0.09710575617179512 0.2514211894437069
-0.15506332239652684 -0.048565781634074184 0.4357396034287156
0.18326353008129842 -0.08366088395188508 0.14925837238306666
-0.1277825298184749 0.0395530774715272 -0.01682361783588166
-0.10568686233973773 0.087606590700057 0.37658956674731003
0.0969578088310864 -0.0856301522908087 0.4189238652516081
-0.1064179865986508 0.090196607969488 0.3659867078804614
-0.19142435726552584 0.02231296621949677 -0.07904026802299205
0.11139673438831497 0.11205709155530647 0.2591735141238349
-0.10331076838721676 0.07943875650908869 0.40830465670236404
-0.15085600412677252 0.041417120931444396 -0.06642034943791014
0.18151363495341663 0.020030957801932592 0.05847846771748128
-0.18812645264842512 0.02957042853466746 -0.2137683585232481
-0.19101699265140998 0.029135694671999543 -0.1863619189354321
0.12725694442396138 -0.08521308566735926 0.40501100420046504
-0.11910210613438431 -0.03631705473942014 -0.3749758676083946
0.17456382215643373 0.03385021242969086 0.19743417884035633
0.17302713167810393 -0.08382563844371582 0.2607902761236397
0.11665636133707992 0.10082731519646068 0.22017167615877004
-0.02198235759195281 -0.08448597396786192 0.43850545464508045
0.17663286548023197 -0.07081602248373654 0.24744282661643494
0.1296853813157263 0.08445673155871258 0.058494517955144175
-0.15693395364055943 -0.031786575714333645 0.44849469136605563
0.1660267127213257 0.03242892795127303 0.3278070253729947
0.1516051549585831 0.04312150045998367 -0.08963168810105848
-0.1364429505944334 0.018939661418748296 -0.3645698637087026
-0.011129881596078198 -0.010706864324079537 -0.3910287403849423
-0.18035334650386045 -0.009713186923695716 0.2483248710205365
0.10407561012301123 0.06882044629404224 0.39459889162822964
0.08208929986058919 0.010958860407709978 -0.37143457431270416
-0.15840614372350514 0.00565138219068885 0.46815635228100305
0.18424786480602773 -0.08362542969555509 0.12110338085290509
0.09816816443991938 -0.08594774337411604 -0.3659555142639509
0.1825153374726319 -0.08332891952141692 0.021824995122706345
-0.1516051549585831 0.04312150045998367 -0.08963168810105848
0.17617663148576934 -0.08280351379374291 -0.0496943249026646
-0.11696257352055162 0.10187291631346287 0.20972195332813057
-0.12465920148043147 -0.08623119775791646 -0.350558545229508
-0.1359879742678473 0.06971321081956788 0.03184267909327057
-0.17453741113102575 -0.07464088994112039 -0.04399361586290237
-0.07625150502228076 0.0456608516806728 -0.0307830724874043
-0.04381529226237973 -0.08516876784694677 0.4346381858135723
-0.1113598427972689 0.1228228483566442 0.180044884222586
-0.1667314259548308 -0.08633217052172112 -0.19867790111700942
0.11174906106059428 0.12037045588627796 0.2016848567073791
0.11020853768968822 0.08306101966045168 0.333855629302995
0.08892131109979996 -0.08588354242346442 -0.37024859350509803
-0.04319849600234158 0.04926029714341798 -0.2013783536037926
-0.11104213193606856 0.08513329698736108 0.3236337839138008
-0.10932230105933145 0.08090106491586135 0.3440510636667812
-0.06957346826453013 -0.061591208275930356 0.45069243603588954
0.1761227314339163 -0.07647349170412333 0.21198443794913466
0.14616747817186365 0.03720806588224149 -0.30456682876224955
0.18772411870581548 -0.025862121570434854 -0.20137476026700243
-0.15836212534782515 0.016401388199096215 0.4671458460866518
-0.1610052042238581 0.024558681935479942 0.4115231485764013
-0.020295285968953046 -0.08571261937014382 -0.38799039446198713
-0.15394872921315275 -0.08675277059301426 -0.27635266695294264
-0.07876456499545494 -0.0041337530006027995 0.4934112814656857
-0.15204102671123457 0.044035405783625 -0.22869226476926097
0.09897995910977249 0.003399737469001879 -0.3799245511469141
0.18672145796345618 0.01600007236857716 -0.01909041446103399
-0.18229865926418273 0.015286974682561613 0.03087499349566921
0.14785862224322563 -0.0866823411919263 -0.3008664105356997
0.0 0.11282247229161946 0.2144169472892618
0.16426561836044778 -0.08404135842902094 0.31582761907076634
-0.18031621535702838 -0.019927126971951467 0.24824078693964577
-0.15900802763586394 -0.08421240126023455 0.34314524335091784
-0.15089870494562943 0.042665745577093045 -0.25060610940641387
0.10751095987233719 0.04263364510176726 -0.02362173193137153
0.0 0.03315699787391441 0.4819765052429589
0.18050091286804473 -0.08315973324754491 -0.006728198012756068
-0.1706747537483983 -0.08553301241958024 -0.15365147468949217
0.11880733273969475 0.044312272383310064 -0.20328575666097826
-0.19067999754943554 0.021159205665109482 -0.06704169725788256
-0.010055773340540362 0.11001613614741831 0.24925710236180787
0.14825364973436184 0.03983832852372274 -0.28315742872149435
0.14150021279296346 -0.08655615518164371 -0.32241930449227685
0.1764941027911837 -0.0617646466650041 0.031852620658390125
0.10523625790624642 0.07140423511303687 0.38454976596075113
-0.09084566272884606 0.11191228008266135 0.24870312960665175
-0.055534720647837044 -0.006380965940248534 -0.38749068109236307
-0.12466501070824228 0.09516553397192562 0.08677479716139075
0.1561643207890447 -0.08431750636134795 0.3567513532180706
0.09719886184076243 0.043847713825283435 -0.02639536871078183
-0.10998563103080271 0.10423739181036223 0.30206226449486107
-0.040410366097877466 -0.08572591471626757 -0.38517411675266644
0.19091853522335844 -0.00437199122979319 -0.2007424527698199
0.18015433553462978 0.0004962015646257645 0.2483891917490811
0.10805672784182235 -0.03631705473942014 -0.37661119518161545
0.11630607088898175 0.0996836159850859 0.23060540864069315
0.09266538836835078 0.04528097609300197 0.47375692700221167
-0.11159269102127398 0.12164357511104648 0.19087011074780158
-0.18458276379487454 -0.08357518286943875 0.09285047089521056
-0.1154701409736878 0.09710575617179512 0.2514211894437069
0.17711664839008615 -0.06057758785636092 0.07029665297572263
-0.07061260137531002 0.1277127808386439 0.10300068910438673
-0.11065447078535227 0.12489326912621201 0.15836370814259862
0.16641395464941644 -0.08636708577753259 -0.20148052414652737
-0.1778316026334433 -0.06068610662742502 0.24766046304802816
0.1138663149863277 0.09252706654477341 0.28250133678793227
-0.08006691002611709 0.004604164072131031 0.4990725236897022
-0.07371071646687555 -0.03776469035429945 0.46965112049678054
-0.18433296699900903 0.013168103755272595 0.004802340635429635
0.11065447078535227 0.12489326912621201 0.15836370814259862
-0.18982472350442098 0.019945795720004808 -0.05504336604855906
-0.11020853768968822 0.08306101966045168 0.333855629302995
-0.17740034232967258 -0.06461458196225969 0.13473362596549876
0.19286372820578773 0.02536293059807361 -0.1149962739467888
0.12961579035988938 0.04420537061380156 -0.20375642389154822
0.0 -0.06504823782389055 0.45052007564785285
0.15204102671123457 0.044035405783625 -0.22869226476926097
0.16513089385952837 0.03148765337907966 0.34177462492124183
0.0 -0.004813073320790465 0.4736969182778153
0.18229865926418273 0.015286974682561613 0.03087499349566921
0.10246633424151932 0.07658870143394012 0.4188443327306516
0.0 0.06978980878214569 0.4536599333351312
0.05033120964194575 0.11019514420851687 0.2486948649320343
0.11125743269874815 0.11399911042357105 0.24886303309381572
-0.0 0.043221095778018775 -0.26918581661383156
0.19284324618608356 0.027684825054009043 -0.15080692939742188
-0.1617702256264921 0.02623784821754127 0.3975892066160891
-0.0 -0.03631705473942014 -0.39149186160825283
-0.18326562619442605 -0.08339623469728671 0.03607227605112416
-0.13836796100189103 0.06387942854067519 0.023374082612962362
0.1878326374768796 0.017360928899973108 -0.031063592312826058
0.16965742021414562 -0.08583353515313412 -0.16775412381210433
-0.0 0.04084302549026317 -0.2801842419723349
-0.0 0.0515942891665471 -0.12449406197275728
-0.10777339323591495 0.0951686481971438 0.34473601354794015
-0.17855530066298997 0.02897740818639115 0.12779399428942143
0.1706448691640931 0.03486383284926031 0.25794153860531416
0.12619367606774065 0.030456305831345204 -0.33382132146126636
0.0 -0.02502810810142901 0.46726262953233333
-0.054912773938399606 0.04670375779508237 -0.03374607811565824
-0.17278691711367894 0.03468356712028517 0.2253492552508254
-0.12096081947806271 0.1019706550741564 0.11637383096964143
0.17593114669405205 -0.06437484650940672 0.0063870620488551515
0.0 0.10856610497467889 0.26292795218013076
-0.1706448691640931 0.03486383284926031 0.2579415984942607
-0.15311974641565318 0.04563935154887808 -0.16940118961883988
-0.17491321427033438 -0.07139640626430063 -0.031478203489468844
-0.10413070795379432 0.08222610785724827 0.3977488106585205
-0.0 0.048829396173326295 -0.06876865491925355
0.17361494168803443 -0.0829884508605453 -0.07731325047267454
-0.17735536573084856 -0.06138459141049375 0.09603877874021016
-0.1512419883869867 0.04493397953696146 -0.20487724552535866
-0.0 0.047119387083815745 -0.04652524140949258
0.020113582905261836 0.11003068916141862 0.24905288105423137
-0.16693696481923032 0.03321994115668947 0.31383601215479695
0.07256228602872702 -0.044838293603704796 0.4642205106057485
-0.15849256347330948 -0.08674043347003456 -0.2543544986791129
0.07061260137531002 0.1277127808386439 0.10300068910438673
-0.0 0.013846405963369696 -0.35385381473296257
-0.0 0.04956363465745753 -0.07990350729789153
0.17725529130124143 -0.06083385265844882 0.08315936134992918
-0.19284330607503006 0.027684825054009043 -0.15080692939742188
0.15225938181018583 0.04438479789752564 -0.11265425680482824
0.17743034669187077 -0.063293851025021 0.12183025299661643
0.17120141714394888 -0.08532897077884327 -0.1451799436508053
-0.18253090859872279 -0.0836757364106179 0.16329741944449225
0.1200243959105361 0.10339421533254134 0.1264796714694586
0.0601946795752638 -0.0857619678620626 -0.3805337415107463
0.1028577085069188 0.06615472939623102 0.4046159767093288
0.0 0.04371062802673725 0.4815107489060022
-0.11812783275266758 0.10519830995700868 0.15735553761716098
0.04381529226237973 -0.08516876784694677 0.4346381858135723
0.14716139512803347 0.038660073390215544 -0.29391348351349855
-0.17593114669405205 -0.06437484650940672 0.0063870620488551515
0.12328235460031912 0.09786119534298854 0.0965098651934056
-0.0969578088310864 -0.0856301522908087 0.4189238652516081
-0.14354464175974882 0.05054359748909207 0.007312106716546115
0.1176244661573068 0.10441166864468701 0.17828642497535424
0.17779333359662766 -0.08293736558917793 -0.03535505455241762
0.15332474627953419 -0.08674911736727754 -0.27908929236341384
-0.16170883945632614 -0.0841207112831379 0.3295037391163816
-0.11880733273969475 0.044312272383310064 -0.20328575666097826
0.0 0.09637780602704671 0.06424020359373042
0.17673365857719714 -0.061024059952543494 0.04463891073685837
-0.11906239976285259 0.027968518993595468 -0.34076113280418313
0.021259078785031683 -0.03631705473942014 -0.38979173419491536
0.14278566914071167 0.030510984439502786 -0.3355905008299222
0.161804482103892 0.02427097543647777 -0.3164552038657928
0.17740034232967258 -0.06461458196225969 0.13473362596549876
-0.17318871205577 -0.0838091090944809 -0.09710475062364127
-0.11178475487271027 0.1160026352398946 0.23406291730022538
-0.18424786480602773 -0.08362542969555509 0.12110338085290509
-0.1370023732437213 -0.08498251322332132 0.3995752438600337
0.07456958384868029 -0.03631705473942014 -0.37939016207726456
-0.10896943538653363 0.09985298192579742 0.3234271670483642
0.15085600412677252 0.041417120931444396 -0.06642034943791014
0.17456747538217046 -0.06758675059932864 -0.20228189813968886
-0.1702191186434007 -0.07765959228962246 -0.20246545776072167
0.0 0.1143186179531665 0.17117060001866402
-0.0601946795752638 -0.0857619678620626 -0.3805337415107463
0.10634055019082195 0.07390513763007087 0.3744694980410909
-0.10800139045525324 0.04466759350291449 -0.20287072626170996
-0.10159986096350866 0.07367743985546507 0.42936747940970416
-0.1581050819894327 -0.013622617573542328 0.4593377647973292
-0.02227443598404972 0.04695487214777097 -0.03583823857280676
-0.10738908586620285 0.07632219562200016 0.36435892631449995
0.1844892172604363 0.0294038174854951 -0.2370440778038876
0.10492363760549886 0.08494919836580975 0.38717703415490723
0.17924522132670873 0.02751749533747863 0.11390035759010597
-0.11860664487996198 0.10500319176930073 0.14698205341542028
0.15506338228547337 -0.048565781634074184 0.4357396034287156
-0.12619385573458017 0.09203615685028532 0.07718621749252313
0.0863957343368066 0.04592669871420124 -0.20219553827883102
0.10777339323591495 0.0951686481971438 0.34473601354794015
-0.1007140435557774 0.07070658877521918 0.43987379729478937
-0.18672145796345618 0.01600007236857716 -0.019090354572087485
-0.0 0.05021157316967742 -0.09104500734959137
0.09331512354896578 0.05908861226513856 0.47849905356424105
0.06991573359379687 -0.08579209200215379 -0.37754318696710076
0.1881263927594786 0.02957042853466746 -0.2137684184121946
0.041642880616916705 0.0658737304592372 0.4626987923640445
-0.11125743269874815 0.11399911042357105 0.24886303309381572
0.07602254957979841 -0.0856390757438377 0.4262884090031267
0.021600865002726382 0.050547011159042754 -0.20118712819760737
0.1531789166947985 -0.08443704469856868 0.3703215297173214
-0.09331512354896578 0.05908861226513856 0.47849905356424105
0.13907351268064716 0.02344648430996596 -0.3551880206831645
-0.044493534581530325 -0.007993176380119094 -0.3887656568744732
0.15311974641565318 0.04563935154887808 -0.16940118961883988
-0.10895877515405603 0.12725594795471623 0.12576968800866123
0.10158177450166464 0.06340804264274721 0.41460000309195816
-0.09719766406183238 0.04522216514753566 -0.20250839813536461
0.16027797274646777 0.022734524513933957 0.42544690941580793
0.18163958140791323 -0.08369004986883222 0.17730993570261688
-0.16256920406179348 0.02777124480381339 0.3836462813138014
-0.11762440626836031 0.10441166864468701 0.17828642497535424
0.09885293465423885 0.05767565235028471 0.4344651067581775
0.12096081947806271 0.1019706550741564 0.11637377108069494
-0.17719324635266395 -0.06789374133910489 0.16053360445230852
0.18159412569751715 -0.08325046500149752 0.007557890952995921
-0.022279167210823486 -0.010163851246133532 -0.39053980702568886
