0.02135523313089738 0.10666415215194817 0.01726325258407044
-0.15751708275290643 0.06544442904916097 0.012245415906072905
0.11036117175370012 0.0698264330005011 0.20275762380658247
-0.15895113268812314 -0.09217564137006629 0.0580220018694249
0.1311374069549497 0.06482392048171333 0.21208470265180157
-1.5984073084250512e-08 0.048343619565123244 -0.3372482122176155
-0.02135523313089738 0.10666415215194817 0.01726325258407044
0.16152900746012688 -0.07304865424684477 0.11987024222033403
-0.19157233099687135 -0.07208103326486054 -0.1744363207683076
0.12062074315514235 0.10501921977365287 0.09988124088599593
0.11569133721976392 0.05600712631939185 -0.2416094655417968
-0.1952448544630989 -0.018037363680066545 -0.18410757552549384
-0.14550803628488088 0.06377329649164161 -0.004778670027160417
-0.048501281296951596 0.07174562923853199 0.2788407293375232
0.03930649349089475 0.07153275792007395 0.28324715923597504
0.13174479944871217 0.01574796837204169 -0.3816028367718804
-0.1785465627577858 0.05214126178857624 -0.05704013601401159
-0.15620569916141624 -0.09155393628057634 0.07047693318989165
0.19719429256740517 0.0006856100118774605 -0.0421573221799247
-0.18159684909323356 0.07680831722560393 0.25358879154851366
0.1649228257777404 0.06980519701768918 0.33287322833867034
4.932228265997301e-07 0.05556655959640967 -0.15576655120534402
0.14640495286129643 0.0664731206075221 -0.1658610025649479
-0.08097370670374862 -0.06864732555114578 -0.3951824280255061
0.01058408005319867 0.054750495028532284 -0.05845397523053279
0.17845024044994107 0.07677643585011788 0.2741890101369594
-0.11849622008114918 0.07061335175282886 0.2622167384542227
-0.1829754799636282 -0.07451770930211601 -0.03553193530369793
0.18170954822567256 -0.004673342769811073 0.12823734275394222
0.15151795186012054 -0.00032618181435560556 -0.3906169451826709
0.19091062005589055 -0.03706094983450603 0.3575658742767059
0.145490606794902 0.06458329852894203 0.09791960693392635
0.05200350131478346 0.05529037993134296 -0.05123048717388348
-0.16860952940023263 0.023282652631007303 0.10049356332458541
-0.10467815787430151 0.06820707513914061 0.3269880159347559
-0.09090790859692685 -0.06778060060534735 -0.3932271717185972
0.1800767751601164 0.07697451505065596 0.26413962701313604
-0.1792909364744413 0.053861871902608424 -0.06882359469172106
0.09343196956173394 0.07218180490829405 0.23781734545474686
0.19055036644983966 0.03277128021944993 -0.3041815172410581
-0.09120182373280006 -0.0022901060557542624 0.4301922390446174
-0.1503495777705152 -0.09031690603019607 0.09528931125252331
0.1808734327798305 -0.07326060990625896 -0.3522615382918743
0.13637322528791415 0.03986375367934468 0.4058658932591366
0.15620569916141624 -0.09155393628057634 0.07047691492237955
-0.10140421553794188 0.0536797333898134 -0.2608603383651773
2.032260720711851e-07 0.08990936359859929 -0.01246967167057295
0.18403958766106598 0.07521484671232291 0.23289935899786765
-5.4802536288858903e-08 0.12466652957766895 0.0730891326171243
-0.13944596924604533 0.06533789976893244 0.12186396762427876
0.011352776962210397 0.10662864695875003 0.016995980614589675
-0.1759660734481133 0.060428763921663894 -0.24400394819298787
-0.14579818831326224 0.03198810859054092 -0.35337768328095737
0.10717786367860622 -0.09021425174597097 -0.42111647928306906
-0.1453154533220448 0.08698908943017981 0.03289863996430506
0.09967874626569209 -0.007519679183020822 0.4284721335706069
0.13479304895656122 0.062285973924274055 0.1999726433996261
-0.06568445899303148 0.07209055183505607 0.26817036725781573
0.17879526808465968 -0.10219605907002194 -0.1156463473721933
-0.17997238774568117 0.05547091775339054 -0.0806076516304517
-0.1940718975113963 0.040878402087781804 0.23053771676654766
0.18281184187370866 0.005594216101295249 0.13145302771078776
-0.09337015915111714 0.05270196480485968 -0.26988440942037734
0.18575809016089007 -0.08628095954456898 -0.13016133799990443
-0.17641838161449536 -0.030522751510075816 0.1141245821916402
-0.10689578817401044 -0.01961514468389587 -0.4206493104955967
-0.09479143781193956 0.053092202248577566 0.39181244274173327
-0.1486916320732903 0.06773069039181566 -0.15438962834733042
-0.11024185521500422 0.05923315982183995 -0.02743118423020964
0.08083214261875846 0.07226217054432262 0.2546465923874002
5.731431920209826e-07 0.1088556758934325 0.1990587243363269
1.0732163356568201e-07 0.07584549603242301 0.28560855713932076
0.11936175078834431 0.06022834876301654 -0.02221700833220122
-0.12755779205524387 0.05873696852452458 -0.22102767887305616
-0.1936024475683509 -0.06118535740751847 -0.17445060596276687
0.17562489569156894 0.04539163984602164 -0.015845147122602755
-0.13113738868743757 0.06482392048171333 0.21208470265180157
-0.1804687023487032 -0.060859444440769614 0.36666475307737917
-0.17873121077005502 0.062272106599153956 -0.22099487498820927
-0.1372183055153175 0.09573888064157109 0.050033968195887735
0.12669015145040163 0.009560686671542126 -0.3903412701576259
0.1934849577808646 0.02796827405058276 0.20613602206054768
-0.01893022775043241 0.0264087765429228 0.4320026910665782
0.1749071742750619 -0.09733559015841688 -0.03941624773829176
-0.16633910370712646 -0.0940801573786888 0.02048091728253944
0.11823252397716127 0.10068968925080933 0.04685690532649174
-0.15672570444418812 0.0649090744893502 0.02461295088179299
-0.19055040070142487 0.03277128021944993 -0.3041815172410581
0.15245530357456127 0.06418677249418496 0.06149604881672627
0.17803723483583417 -0.10407727943384368 -0.1411449171254538
-0.19091058580430537 -0.03706094983450603 0.3575658742767059
-0.07097017731872599 -0.06947274080177747 -0.39680560151345573
-0.1905492498481628 0.012806179641250817 -0.3316549100901217
0.14910005482530006 0.08152864006784528 0.024640443487497905
-0.1007451100008738 0.08677928477031495 0.19928513188124827
-0.17277300138780388 -0.05150707422505317 0.12134838536287318
1.7582480392675566e-07 0.12450355368506295 0.09623930180189562
0.10295818255631468 -0.023895094895471078 0.4322505606547737
-0.18671998884471014 -0.03392385856501573 -0.3493569627666625
-0.17388212480192497 0.041151218247183804 0.007626996096621657
-0.041804619155403136 0.055030542839285365 -0.05363631395008636
-0.17847391514561786 -0.10045720199484459 -0.09018371666554321
0.037541808437052265 -0.008039442421257453 -0.4513138230646144
0.17997238774568117 0.05547091775339054 -0.0806076698979638
0.11065811701314231 -0.011230441118943904 -0.41430069012826265
0.19463735693114181 0.04745060538597924 0.25738559803328825
0.14023859431246416 0.04539247558470007 0.3983519312092052
-0.09850609529481716 -0.03438252610904631 0.42998461278557004
0.14725852291494654 -0.08969714643074438 0.10764361369916864
-0.1829159689760965 0.0762303833785357 0.2431615609210517
0.15136115952035914 0.058846059823324595 0.3723459995749825
-0.19055254256721813 0.03866496189865999 -0.2827538922431621
-0.09861784223318817 0.03998608435753649 0.4079911470336136
0.18267954626766833 0.039906312415651 -0.0306330178460082
7.350390179743201e-06 -0.07270515423282521 -0.40128105292292443
0.18961456519048817 -0.07516335396620814 0.17680918231636572
0.17722887002430535 -0.10507682289321617 -0.15390378331217855
-0.1859977896043005 0.03879638751443669 0.15155660059755477
0.15266369478567765 0.0755287944586487 0.01656154949223283
0.10973540214276876 0.1000420876794839 0.1501548339230902
-0.1905494416570398 0.020996530578132375 -0.32335214773411664
0.19124641346324447 0.024093004034476576 -0.2188720941781823
0.11814405898295698 0.10491525022855687 0.10987572100221386
0.15518436027667384 -0.10510235630824875 0.18905460125716114
-0.1931585356072161 -0.050752518653842976 0.17231343570095806
-0.11936164803358877 0.06023010929449481 -0.022211560046718506
0.18159688562825774 0.07680831722560393 0.25358879154851366
1.82675120962863e-08 0.0563683047182426 0.3856005455686839
-0.10190907476974695 0.06647522822173023 0.3398514179594516
-0.16992101802991735 0.055624590915461555 -0.2781845229871284
-0.1855621893611695 -0.0896692245385052 -0.15396716244539663
0.12617110292857578 -0.04051598486859319 -0.4084842549073908
0.11496235388204952 -0.02454318283930608 -0.4157924380004355
-0.1577490116533589 0.00375426889761607 -0.38291451949388117
0.18234211335110376 -0.06554372776508402 -0.002840256366404225
0.14380738114437489 0.06495593750819419 -0.1771805349385821
0.1304355394555032 0.03057425110650762 0.41574531316697705
0.09861787876821236 0.03998608435753649 0.4079911470336136
-0.0692898973045244 0.020036255419449853 0.4320226209222752
0.10190911130477115 0.06647522822173023 0.3398514179594516
0.1865105335510141 0.06784088002478043 0.19887914555866437
-0.19282519918023908 -0.024358639865231374 0.35349334253122794
-0.1745617630225893 -0.042704809585165274 0.11465085094762213
0.12147927055488757 0.002997455005222971 -0.3987154607693664
5.503088019006248e-07 0.10571375286699271 0.21019831258205662
0.10467819212588671 0.06820707513914061 0.3269880159347559
0.15240413627317956 0.06951436680792121 -0.13105806961776
-0.13602465375584888 0.0658327141525236 0.1337161007302752
-0.13694824089992502 0.06175725503823225 -0.19944227052286756
0.19556136422799617 -0.039231655462517626 -0.17751141666862114
-0.19388002013121494 0.03133008997044258 0.31959143635067727
-0.18695104547146 0.05616085200056013 0.173077620534482
-0.03922686540566704 0.02470959422057957 0.43212516331798867
-0.14739160402400697 0.05200067273204424 0.16521467365002418
0.11829615428867067 -0.101486514648617 -0.4143983550982464
-0.1905622289155072 0.03405799810273212 -0.2387099067320945
0.19698065629687814 -0.020855095452772546 -0.043494985871004394
0.1952448544630989 -0.018037363680066545 -0.18410757552549384
-1.5984073084250512e-08 -0.000974461567067611 -0.4480560840114841
0.16447927916684746 0.05091985711135534 -0.3006912373258202
2.283439012035788e-08 0.05062881910863733 0.405549139166265
-0.17633528270196933 -0.047528764023528874 0.09122473957544133
-0.10026085880615235 0.003037218812178555 0.4265365970430059
-0.19278336886097763 -0.06362851384469012 0.1741327725841146
0.14348695299813294 -0.10119198526764955 -0.3906380943948004
-0.09699206562476487 0.04711752927104963 0.40050251517264274
0.19419639060633254 0.03848313621700959 0.3087799440393919
0.16848625566172887 -0.09473552264265517 0.007913645329558558
-0.15068575479562313 0.06874016681089047 -0.1427829695020058
-0.10884691602318565 0.05478612352743707 -0.2514217272248543
1.3700634072214726e-08 0.07064134899855544 0.29599960667563696
0.08878081665404516 -0.1018786313626418 -0.432326500205125
0.09231685212020625 0.05730481841056585 0.38305477823262846
2.7401268144429455e-07 0.08562908228836734 0.26453376685412555
0.16633910370712646 -0.0940801573786888 0.02048090358190537
-0.15406840709646777 0.04081410044520285 -0.33306188528897274
0.16898981790017512 0.025485780809550787 0.08900546291620474
-0.1903561713790611 -0.00834940099962922 -0.34463775195922003
2.283439012035788e-08 0.04625578678917548 0.41544664391108077
-0.08627595256101227 0.007884937000340417 0.4293137201363218
-0.14121772839394708 0.09176094720748383 0.04132591824963644
-0.10093714265490798 0.058331486841962335 -0.03232180367052963
-0.18182127004621446 0.06058243708373488 -0.1276912027308056
0.18060010969696783 0.06312550311143915 -0.19783559488177993
-0.12193061282656754 0.057328737434216945 -0.2314644930940516
-0.16172254033359199 0.06770781718323209 0.3430312506403692
0.10689575392242524 -0.01961514468389587 -0.4206493104955967
0.0709701430671408 -0.06947274080177747 -0.39680560151345573
-0.15715958297430407 -0.10110265028318169 -0.3715171835027899
0.015701643646607855 -0.007398410303969649 -0.4543594785857457
-0.19556136422799617 -0.039231655462517626 -0.17751141666862114
-0.16735047766402028 0.05343761350105018 -0.2894775058153697
0.18450977058803428 -0.04665770967736364 -0.34990378019031376
0.1850197264557142 -0.09297897804889059 -0.1778324727605914
-0.06090908243620992 -0.07024031197535627 -0.39812536760955913
0.12755777378773178 0.05873696852452458 -0.22102767887305616
-0.18534752325964798 -0.09130568764150485 -0.16588410411743268
-0.12770415592903733 0.06692156062821779 0.2244090052767068
0.07555562655228244 0.051188302768488306 -0.2865252292491965
-0.1106581535481665 -0.011230441118943904 -0.41430069012826265
4.681049974673365e-07 0.054302089259421746 -0.1897863833102323
0.11849623834866128 0.07061335175282886 0.2622167384542227
-0.03393172332716985 -0.10245858376979668 -0.44947037534892975
0.17220552112453275 0.05751181672388496 -0.26683931334180394
-0.10387090966444959 -0.042116511208421414 0.4243845151435765
4.681049974673365e-07 0.09850797287988174 0.23220876255338457
-0.11612952459929557 -0.003935125204731993 -0.40670777589105117
0.1774668272037496 0.06147942216332079 -0.23251966341119631
0.026722068344055452 -0.007804908116892245 -0.453202044452447
4.110190221664418e-07 0.09447538761648037 0.24307711934638662
0.1759660391965281 0.060428763921663894 -0.24400394819298787
-0.1206267874182072 -0.04862313642163221 0.4139332239192447
0.16788145943812305 0.07168477787230025 0.3225283134041532
-0.15490272775924638 0.062303394280496874 0.36282221615951055
-0.1857217857640377 0.07176749316707225 0.21303569334746117
-0.15386361915211236 0.07006620323052089 -0.11923186724518423
0.12424340544710305 -0.06178363669618395 -0.40946852215977275
-9.13375604814315e-09 0.019873985109498546 -0.413063015948081
0.17470766564170234 -0.09400259352232797 -0.028346708551134286
-0.19562782600388048 0.01110941091394331 -0.040419698161813844
0.1745617630225893 -0.042704809585165274 0.11465083496354904
0.08139369050747632 0.10442146110908217 0.029777742844288115
-0.1800767409085312 0.07697451505065596 0.26413962701313604
-0.15685690399950267 0.07051607268403813 -0.08331554998667876
-0.15042356576138316 0.06420776414902264 0.07369658676374014
-0.1887375099665993 -0.08272764757884281 -0.17553743159493543
-0.17977150219859733 0.06281732104861874 -0.20943254226098634
0.1486916320732903 0.06773069039181566 -0.15438962834733042
0.1503495777705152 -0.09031690603019607 0.09528929298501121
-0.1650075801835501 0.028082959774962238 0.12876867389421381
0.1936024475683509 -0.06118535740751847 -0.17445060596276687
0.1903561348440369 -0.00834940099962922 -0.34463775195922003
0.17890233853993404 -0.08449228239702702 -0.0322001488902854
0.1358545695175984 -0.005777196006692367 -0.4031738389053421
-0.18060010969696783 0.06312550311143915 -0.19783559488177993
-0.17008047514300584 -0.07103707234982591 0.369274143874627
0.11521405508090722 0.06908806929532525 0.19152831695863087
0.19375455200782063 0.0351672950582181 0.2178798151191791
0.17847391514561786 -0.10045720199484459 -0.0901837326496163
-0.05080219318430748 -0.07093350468999601 -0.39917050221224587
-1.8952543799897038e-07 0.12067936191621699 0.05019998334581878
0.08181503980773322 0.056809775683073535 -0.04107266581481758
0.17309545037757149 0.07468724442795795 0.3014431563058434
-0.11423205300002519 -0.08064689118039335 -0.41621037355936946
0.1406976705920779 0.06334130179871057 -0.1883754874465976
-0.18501444714471837 -0.07715372956512223 -0.07080958837117104
0.10923664882688187 0.10183504855861243 0.042062448353285625
0.1859977896043005 0.03879638751443669 0.15155660059755477
0.18122948714153822 0.06320710637141226 -0.18620695793596448
-0.01570168246507106 -0.007398410303969649 -0.4543594785857457
-0.10973538387525666 0.1000420876794839 0.1501548339230902
0.17224839497542274 -0.09609035322822734 -0.01729186786089728
-0.16898981790017512 0.025485780809550787 0.08900548118371683
-0.1867974613635105 -0.06416957015171397 -0.03831720114053079
-0.17545798086666717 -0.0451322696625682 0.10294227765231236
-0.17715169435257655 -0.09884296132031009 -0.06476952455065545
-0.18104746965101082 -0.06123769382967433 0.020730380711165338
0.12062682166979238 -0.04862313642163221 0.4139332239192447
0.17421640428921395 0.05910973080948338 -0.2554448179488436
0.19054977275569657 0.027638543173805777 -0.3141361970152962
0.010077638398158263 0.070850525712692 0.29342944764405493
-0.08181430910724936 0.05682170893535042 -0.04103601433523539
-0.12425049552523541 0.06766907179007585 0.16871795090011862
-0.1556135143714739 0.06452758490048739 0.03694804275603007
-0.19419635635474733 0.03848313621700959 0.3087799440393919
0.15042356576138316 0.06420776414902264 0.07369656849622803
-0.11829618854025584 -0.101486514648617 -0.4143983550982464
-0.17303102771272494 0.038960409222110234 0.01933500766593446
-0.15136112526877393 0.058846059823324595 0.3723459995749825
-0.09527328454538134 -0.016945799911948015 0.43139657044834534
2.283439012035788e-08 0.0060661572763028165 0.4321323401668035
0.0 0.10641394888908239 0.01655910392905094
0.16012576111718252 -0.1010982318286934 -0.36632335076293976
0.17303102771272494 0.038960409222110234 0.01933499396530039
-9.13375604814315e-09 0.015147953669727085 -0.42204374276395457
-0.18234211335110376 -0.06554372776508402 -0.0028402403823311407
-0.1865104970159899 0.06784088002478043 0.19887914555866437
1.4385665775825462e-07 0.09596711722114114 -0.0024962380117289373
5.457419238765533e-07 0.11827015793371533 0.15372481499360421
4.064521441423702e-07 0.05289804142938419 -0.21243328482018994
0.17641838161449536 -0.030522751510075816 0.11412456392412812
-0.11964478533732517 -0.07181938312222741 -0.41251710276627856
-0.18281184187370866 0.005594216101295249 0.13145304369486085
-0.11583744991526608 0.10432073176394423 0.11993832523791688
-0.1817152613900807 -0.06340759568715368 0.008949623341807099
0.07354477763918646 0.0722029541204235 0.2617934025620253
-0.164027651465291 -0.09343653584156134 0.033022432043464556
-0.1927729860637899 0.021181249377011005 -0.03793637831585951
-0.1541876733995054 0.0642900981094796 0.04924448057467143
-0.04521567058724045 -0.1023684313141625 -0.447300975848033
-0.10032252079323338 0.022881842864663673 0.4194850998961821
0.19315524288816074 0.0008918525068835476 0.34444627496173774
0.12205259642202951 -0.03170113391287095 -0.411284200973632
0.16172257458517716 0.06770781718323209 0.3430312506403692
-0.15744901800283567 0.0703070169921692 -0.07125417394681441
-0.18372163247927406 -0.08511612250199324 0.17996800507493355
-0.1834620397151908 -0.06971330110169544 -0.02644735539811798
-0.17475087059124905 0.04329845925590768 -0.0041006964335358834
-0.11011076754820129 0.07042685643839887 0.30110574165679094
-0.08841976156090108 -0.01315442801202206 -0.4308774343749651
-0.011352774678771386 0.10662864695875003 0.016995980614589675
0.19056219466392202 0.03405799810273212 -0.2387099067320945
0.1869141473804645 0.06266777862772051 0.1855131905755657
4.6353811944326493e-07 0.05591907919452678 -0.1330648425922195
0.150671314327311 -0.10113397449954879 -0.38140775344332617
0.1577489774017737 0.00375426889761607 -0.38291451949388117
-0.18961456519048817 -0.07516335396620814 0.17680918231636572
0.06884926436181085 -0.009766724744082786 -0.44032825734712444
0.18663948391890178 0.04823283852145431 0.1617121659188768
0.029095981776626128 0.025704504582196655 0.43206868245402597
-0.18574483251398616 -0.08452984953565304 -0.11827240042391196
0.07959931846303837 0.015519629037716157 0.43085295668962803
0.18049579078570296 -0.015779437532112237 0.12582856577453577
0.16947456460116217 0.027718522908641338 0.07747715571370013
0.13694822263241294 0.06175725503823225 -0.19944227052286756
-0.1742164385407991 0.05910973080948338 -0.2554448179488436
0.15490276201083159 0.062303394280496874 0.36282221615951055
0.15378470121641738 0.06513201577385129 0.001556941588121983
-0.09906518620315809 0.06433267511329803 0.352622349837916
0.03149796324153274 0.05480209846676527 -0.05581060457734684
0.17475087059124905 0.04329845925590768 -0.004100710134169955
-0.13566040869840498 -0.10127271625392009 -0.39921130270051297
0.18566107140414667 -0.08274122719064739 -0.10639280211347873
0.0674201603554942 -0.1021414506260491 -0.4410792530369149
-0.15240413627317956 0.06951436680792121 -0.13105805363368692
-0.17143147640135484 0.03448983523837128 0.042680262462699056
0.1940719340464205 0.040878402087781804 0.23053771676654766
0.19322128907814484 0.009577116015233714 0.18696155995682692
-0.020030594175942336 0.07107538051908517 0.29048501012401007
-0.16947456460116217 0.027718522908641338 0.07747717398121223
1.82675120962863e-08 -0.037118944618533725 0.4283230090190479
-0.19490602864873693 -0.05018682403987926 -0.17550182364698177
-0.17960013010074405 -0.05679799650825612 0.044264651739029215
0.1261655290539474 0.10357607718429022 0.08024857249292501
-0.19477897581866827 0.048118520430755776 0.2709703818272273
-0.14422712975388433 -0.0034383835986147165 -0.3973331878137476
-0.18467628352766993 -0.07521852413617794 -0.05896700917400095
0.15823793933117697 0.06801885582825652 -0.023015453884661752
0.1578219218610132 0.044607038784291106 -0.32250700585386
0.09611678691642736 0.061782411685827834 0.3652703915956306
0.05545863453674813 0.050357167503131475 -0.3010168762798876
0.10789492289779977 0.09793099807719856 0.160115891342489
-0.07354475937167436 0.0722029541204235 0.2617934025620253
-0.09611675038140316 0.061782411685827834 0.3652703915956306
0.19490602864873693 -0.05018682403987926 -0.17550182364698177
0.18550961089447834 -0.08091543045852578 -0.09452247913231242
4.3613685129883545e-07 0.05596634409863689 -0.1217103028150918
0.19054940740545462 0.020996530578132375 -0.32335214773411664
-0.19312149822644087 -0.025086011095003274 0.17297833660623868
0.18194001344171834 0.06273239310144409 -0.16286635907134545
0.10886633210510498 -0.10161165852367163 -0.4210183621921609
0.18501444714471837 -0.07715372956512223 -0.07080960663868313
0.17565320348500119 -0.09344885727847027 0.18328079784264398
0.15508103466137924 0.07040852955688827 -0.10732140825650334
-0.17005134759496832 0.029970413927286846 0.06591158050308012
0.18151538740647916 0.05952416357297281 -0.11593411092336807
-0.17746686145533477 0.06147942216332079 -0.23251966341119631
-0.1536481013278394 -0.08194839433127844 0.11969970586115915
-0.19054980700728172 0.027638543173805777 -0.3141361970152962
-0.14402661869079847 0.05039570510333759 0.39020073211762407
-0.15786636215106542 0.06993989936844815 -0.05917648273520906
0.1927729860637899 0.021181249377011005 -0.03793639429993259
-0.10717790021363043 -0.09021425174597097 -0.42111647928306906
4.818056315395512e-07 0.055787827120114944 -0.14441724735387093
0.18850010994627397 0.0308104477544736 -0.034682461739635434
-0.1933407814416447 0.01229030281621267 0.33757087206464415
0.18695104547146 0.05616085200056013 0.173077620534482
-0.13174483370029735 0.01574796837204169 -0.3816028367718804
-0.1325659675027815 0.06021780840853695 -0.21033996494029625
0.1440719061367242 -0.08907360088941073 0.11996128750062192
0.060909048184624746 -0.07024031197535627 -0.39812536760955913
0.16860952940023263 0.023282652631007303 0.10049354505707331
-0.1852931522933324 -0.07905281555577412 -0.0826613995122668
-0.19055419806050186 0.03950396817829131 -0.27162979256425107
0.18104746965101082 -0.06123769382967433 0.020730364727092252
-0.18049579078570296 -0.015779437532112237 0.1258285840420479
0.09699209987635005 0.04711752927104963 0.40050251517264274
0.1004903147421548 0.013223471270383327 0.42355101195196415
0.1707077792249533 0.032231011698885245 0.05431161441749979
-0.1649227892427162 0.06980519701768918 0.33287322833867034
-0.15378470121641738 0.06513201577385129 0.0015569621390730919
0.18497305524574723 0.07373583357952014 0.2228436005123227
0.1931329451062082 -0.0377851242496611 0.171868149109538
0.1704718611565468 -0.09571155124708172 -0.35982961099607386
0.1699209837783322 0.055624590915461555 -0.2781845229871284
-0.029095942958162917 0.025704504582196655 0.43206868245402597
-0.12682183052790869 -0.05113471610879951 -0.4078769149327256
0.17570466763345444 -0.019316370389805063 0.11416105327954044
0.09527331879696652 -0.016945799911948015 0.43139657044834534
0.1453154533220448 0.08698908943017981 0.03289862626367099
0.15786636215106542 0.06993989936844815 -0.05917650100272115
-0.19375451775623542 0.0351672950582181 0.2178798151191791
-0.19055633992629517 0.03898979936563417 -0.2604648056263905
0.09732268475931753 -0.015703880818642962 -0.4261005964171758
0.19055250831563297 0.03866496189865999 -0.2827538922431621
0.18284234861890944 -0.059641510590847 -0.35062010870902344
0.15812574712219862 0.06942760982609793 -0.04709948340562435
-0.18284238287049465 -0.059641510590847 -0.35062010870902344
-0.19316930202215782 -0.04271533167213275 -0.04214854007348441
0.10026089305773754 0.003037218812178555 0.4265365970430059
0.09895776638171488 0.08340680975714694 0.20895490468651573
-0.056396463489942344 -0.10226140196079035 -0.44450496871408757
-0.12828616571474205 0.06132040118708361 -0.016682931762362636
-0.13263416240887593 0.09963261911240666 0.0613442617752792
-0.17470444370925634 -0.1072048693136049 -0.17943291232973715
0.17719089186665718 -0.04989392503436642 0.07949821388261895
0.17793300269525175 -0.09963561378799708 -0.0774698045426484
-0.10789490691372669 0.09793099807719856 0.160115891342489
0.09900991784531075 -0.1017436824004695 -0.42699340051993073
0.164027651465291 -0.09343653584156134 0.033022418342830484
0.10387094391603477 -0.042116511208421414 0.4243845151435765
-0.145490606794902 0.06458329852894203 0.09791962520143843
-0.18663948391890178 0.04823283852145431 0.1617121659188768
-0.19054918134499244 0.0030284823745184986 -0.33887006131093805
0.1852931522933324 -0.07905281555577412 -0.0826614177797789
0.17470444370925634 -0.1072048693136049 -0.17943291232973715
-0.048127263120536175 -0.008301928302568998 -0.4484585492711115
0.16132563068108088 0.03590546923795594 0.1356846603528683
-0.04265796543203004 0.10625055512713714 0.019402958244054625
-1.5984073084250512e-08 0.039370645024695575 -0.36633791453695846
0.194554484079078 -0.008110904928578133 -0.18892974431455004
-0.05545865965457727 0.050357167503131475 -0.3010168762798876
-0.08878085090563033 -0.1018786313626418 -0.432326500205125
-0.12424343969868823 -0.06178363669618395 -0.40946852215977275
-0.09714994488149602 0.07983742009733703 0.21859408625933893
-0.130435505203918 0.03057425110650762 0.41574531316697705
0.19316076652713082 -0.0012224430437747097 0.180393067247024
-0.19197004213647567 0.017401011525707735 -0.21000640016941807
0.15744901800283567 0.0703070169921692 -0.07125419221432651
0.07886832113211534 -0.011193230196803766 -0.43567880331806064
0.1659579086818962 -0.10012358927174715 0.18641914957046896
-0.17890233853993404 -0.08449228239702702 -0.03220013290621231
-0.07823295879389441 -0.10201253907662462 -0.43702079640950714
0.17873117423503085 0.062272106599153956 -0.22099487498820927
0.18046873660028837 -0.060859444440769614 0.36666475307737917
0.18372163247927406 -0.08511612250199324 0.17996800507493355
0.19475573497640378 0.046912218419160476 0.2842589670462812
0.17802205910016017 -0.052227421596424045 0.0677627051407232
-2.055095110832209e-08 -0.10258815294965663 -0.45224917220304145
0.05933596878172119 0.02186993686648002 0.4321235603438022
0.09531144537815048 0.07608960251312667 0.2282118217729611
0.04180694826319541 0.0549925646816372 -0.053752815008480434
2.283439012035788e-08 -0.015569004926519053 0.4307795098738059
-0.14910005482530006 0.08152864006784528 0.024640454904692966
0.05639642923835716 -0.10226140196079035 -0.44450496871408757
0.1855621893611695 -0.0896692245385052 -0.15396716244539663
-0.11169333235676082 -0.004629187909635346 0.43253379614638754
-0.11263247657082597 -0.04523638763119997 0.4192831182983725
-0.136373191036329 0.03986375367934468 0.4058658932591366
-0.14348698724971812 -0.10119198526764955 -0.3906380943948004
0.19388005438280015 0.03133008997044258 0.31959143635067727
-0.1029581483047295 -0.023895094895471078 0.4322505606547737
-0.10529469554130721 0.07057093230630228 0.21386142599611552
-0.1413161583159999 0.026968294454358957 -0.36310344829423896
0.030498056715357328 -0.07203063319898687 -0.40055152155984713
-0.1678566338891842 -0.06276975581760469 0.12043309851960579
-0.17224839497542274 -0.09609035322822734 -0.017291854160263208
0.18182127004621446 0.06058243708373488 -0.12769122099831764
-0.17220555537611795 0.05751181672388496 -0.26683931334180394
0.17060386219895457 0.07332073633527823 0.31203778813071664
0.1284197765816533 0.06700816233618827 0.15714929533027133
0.16735044341243513 0.05343761350105018 -0.2894775058153697
-0.19564662327382756 -0.028466067125691233 -0.18040090779571935
0.1372183055153175 0.09573888064157109 0.05003395906213169
0.1931585356072161 -0.050752518653842976 0.17231343570095806
-0.09900995209689595 -0.1017436824004695 -0.42699340051993073
0.022598485752585447 -0.10252789527756802 -0.4510161653722004
-0.19331564077812216 0.019378593015837373 0.19561346242121125
0.1816719879373636 0.06307257756201816 -0.17454955879235345
-0.12062072488763026 0.10501921977365287 0.09988125915350803
-0.09080694405757067 0.1036912150295941 0.03349319953081993
0.09906522045474325 0.06433267511329803 0.352622349837916
-0.16156172457429135 -0.09280243624511406 0.04553664829100079
-0.06742019460707936 -0.1021414506260491 -0.4410792530369149
0.1792909364744413 0.053861871902608424 -0.06882361295923316
0.19055895446396393 0.03716145431557512 -0.24943337018602685
-0.1682118707797256 0.019007050087311003 0.12333731782833164
-0.03930646837306562 0.07153275792007395 0.28324715923597504
2.283439012035788e-08 0.060246152736993366 0.3711252936300992
0.19545986764735018 -0.031790617320874626 -0.04314483191570377
-0.17296871037864744 -0.10833780899662152 -0.19220004456568546
0.18057856088301125 0.056957943473686504 -0.09238939544546314
0.13263416240887593 0.09963261911240666 0.06134425264152317
-0.1976020028864432 -0.009999455131628504 -0.043174096470082024
0.1540683705614436 0.04081410044520285 -0.33306188528897274
-0.1272454975187628 -0.10137221482543053 -0.40713034454774044
0.1829160055111207 0.0762303833785357 0.2431615609210517
0.17277300138780388 -0.05150707422505317 0.12134836709536108
-0.18450980483961946 -0.04665770967736364 -0.34990378019031376
0.13256594923526938 0.06021780840853695 -0.21033996494029625
0.13700510309820274 0.06250180457969169 -0.010866247646638454
0.15005468760618387 0.036605576205924154 -0.3433579871477295
-0.010152012290219281 -0.0726318421399048 -0.4011785470622351
-0.17721341799251092 -0.08584425411695615 -0.35520590502530974
0.12724546326717762 -0.10137221482543053 -0.40713034454774044
-0.02672210716251866 -0.007804908116892245 -0.453202044452447
-0.10923664882688187 0.10183504855861243 0.04206245748704167
-0.1156007988629367 0.07096831006381081 0.275219304669507
-0.1816719879373636 0.06307257756201816 -0.17454955879235345
0.1394459875135574 0.06533789976893244 0.12186394935676666
0.05854332773122926 -0.00882135130839283 -0.4446493574131356
0.19334081569322986 0.01229030281621267 0.33757087206464415
-0.040661271557369656 -0.0715357868472496 -0.3999696510639222
0.03313447201331262 0.05032056625920754 -0.31303210858419667
9.590443850550308e-08 0.047071102389056915 -0.2688793080704495
0.1426036776863753 0.06491815115942302 0.10992971748453148
-0.1506713485788962 -0.10113397449954879 -0.38140775344332617
-0.19315520863657556 0.0008918525068835476 0.34444627496173774
2.785795594683661e-07 0.12375376136763187 0.10778214766058984
0.1817152613900807 -0.06340759568715368 0.008949607357734014
-0.13870080089261358 0.05930474335142828 0.18810331371443
0.19477901007025347 0.048118520430755776 0.2709703818272273
-0.05933593453013601 0.02186993686648002 0.4321235603438022
-0.17775169992113513 0.050319572963237316 -0.04526021209989274
-0.17612122627866406 -0.10611861454118936 -0.16666696291519703
0.08475164513196679 0.05186682438747571 -0.27845300289584657
0.09850612954640234 -0.03438252610904631 0.42998461278557004
0.16834608447453606 0.021119587389929986 0.1119384679171754
0.19282523343182428 -0.024358639865231374 0.35349334253122794
0.17005134759496832 0.029970413927286846 0.06591156223556802
-0.06578900853163655 0.050680420263431294 -0.2940601487023803
-0.17845020391491687 0.07677643585011788 0.2741890101369594
-0.0996787097306679 -0.007519679183020822 0.4284721335706069
0.08627598909603644 0.007884937000340417 0.4293137201363218
0.19305057689416605 -0.011433468531821048 0.349717146366976
-0.1931329451062082 -0.0377851242496611 0.171868149109538
-0.15518436027667384 -0.10510235630824875 0.18905460125716114
0.17536167682633455 0.07575842393601605 0.2907857710100413
-0.07555564253635554 0.051188302768488306 -0.2865252292491965
-0.02032441569081604 -0.07240148881237063 -0.40094496266849894
-0.11496238813363471 -0.02454318283930608 -0.4157924380004355
5.023565826478733e-07 0.11999914826892168 0.14227940576099257
0.1536481013278394 -0.08194839433127844 0.11969968987708607
-0.15223407030244115 0.047671891177196626 0.15425631967524073
0.14422709550229917 -0.0034383835986147165 -0.3973331878137476
0.11423201874844 -0.08064689118039335 -0.41621037355936946
0.0656844841108606 0.07209055183505607 0.26817036725781573
0.18467628352766993 -0.07521852413617794 -0.05896702744151304
0.09120185798438522 -0.0022901060557542624 0.4301922390446174
0.19451899715339194 0.04373276935599692 0.29694888935891556
-0.09531142711063838 0.07608960251312667 0.2282118217729611
-0.19055898871554913 0.03716145431557512 -0.24943337018602685
0.09337014316704406 0.05270196480485968 -0.26988440942037734
-0.18034150794541576 -0.05903438069257088 0.03250204999325568
0.14579815177823807 0.03198810859054092 -0.35337768328095737
-1.141719506017894e-08 0.004739894796210203 -0.43955147934744915
-1.5984073084250512e-08 0.042556400946410375 -0.3567068505898231
-0.13585460376918357 -0.005777196006692367 -0.4031738389053421
-0.12138599663812392 0.06980779328784585 0.24957245980399997
2.443279742878293e-07 0.06981920363258896 -0.04109791379997366
-0.10009135912828893 0.10283231314585091 0.03759799398609891
0.09090787434534167 -0.06778060060534735 -0.3932271717185972
0.15223407030244115 0.047671891177196626 0.15425631967524073
0.1785465627577858 0.05214126178857624 -0.05704015428152369
-0.16152900746012688 -0.07304865424684477 0.11987026048784613
0.1323468852302107 0.0663927572549325 0.1454799446668713
0.1014041995538688 0.0536797333898134 -0.2608603383651773
-0.18379722344432853 0.015049096744579007 0.1354342287461013
-0.18057856088301125 0.056957943473686504 -0.09238937717795104
-0.15333523364816629 -0.09093509462360748 0.08289988723043383
0.1073547342976005 -0.013979012090853352 0.43307030155946047
-0.1706038279473694 0.07332073633527823 0.31203778813071664
2.283439012035788e-08 -0.004759446688076915 0.4316004335999009
0.12706871595389 0.09938651005568942 0.05195168248199983
0.15333523364816629 -0.09093509462360748 0.08289987124636075
0.1268217962763235 -0.05113471610879951 -0.4078769149327256
0.021086890228519974 0.05472081032137581 -0.05738420460434514
-1.3700634072214726e-08 0.035968585775687636 -0.3758884918257977
-0.02108324129297874 0.05478007698093319 -0.057202372072377716
0.19055125470761536 0.03643373371963439 -0.29366261338757993
0.10252226948203905 0.08993641778401389 0.1895755336161719
0.15835738145901854 0.06525560006006066 0.3530206683722975
-0.17613981575566107 -0.09807702737250293 -0.05208448879750685
0.19074628551707237 0.029684269334371613 -0.2284762592137559
-0.10740215447556344 0.06952527251264272 0.31406262767463944
6.850317036107363e-09 0.0454601407329437 -0.2801315063944968
-0.1869141473804645 0.06266777862772051 0.1855131905755657
-0.021154502857666353 0.050635228721944106 -0.31800873375490496
-0.19371674967497637 0.0011822123282149988 -0.1949262629531061
-0.1704592839744685 -0.09540484885274111 -0.0046777831247306525
-0.12328779763776114 0.10458776397232873 0.0899928744641063
2.4661141329986507e-07 0.04982930490671915 -0.2463350334434488
0.19371674967497637 0.0011822123282149988 -0.1949262629531061
0.17636038454702865 0.0472095313122836 -0.026510033515559348
0.14121772839394708 0.09176094720748383 0.041325909115880397
-0.12446359290415565 0.06858185826762504 0.23691508106416512
0.19197000560145147 0.017401011525707735 -0.21000640016941807
-0.11808739544387332 0.008344970040900221 0.4293826046409979
0.18200225998918643 0.061476860144749304 -0.13943425367175805
0.09080694405757067 0.1036912150295941 0.03349319039706389
-0.17221001493250845 0.03673646293009404 0.0310204109055891
-0.07186188080387707 0.10503280851921352 0.026481324617733015
-0.16171046779153536 -0.07653637671038922 0.3694985305760228
-0.12841976059758023 0.06700816233618827 0.15714929533027133
0.11011080408322546 0.07042685643839887 0.30110574165679094
-0.1136806709817889 0.10328045631947504 0.1300310343335546
0.09479147206352474 0.053092202248577566 0.39181244274173327
0.17143147640135484 0.03448983523837128 0.04268024647862598
0.04931092940120517 0.023429557679846627 0.43215059854514376
-0.1266901857019868 0.009560686671542126 -0.3903412701576259
0.178556091548783 -0.10311776466035216 -0.12839192166042898
-0.19316076652713082 -0.0012224430437747097 0.180393067247024
0.17715169435257655 -0.09884296132031009 -0.06476954281816755
-0.18292528997414365 -0.06764574754761357 -0.014639226445322461
2.420445352757935e-07 0.08353455903611433 -0.0222388791110585
0.1480996231081519 0.06434323145185065 0.08583982865906398
0.1935886510298402 0.02251776449826763 0.329237169110026
3.6306680291369023e-07 0.05200953932572795 -0.22374398485172556
-0.16447931570187166 0.05091985711135534 -0.3006912373258202
0.02115447545639821 0.050635228721944106 -0.31800873375490496
0.15068575479562313 0.06874016681089047 -0.1427829854860789
-0.09343195357766085 0.07218180490829405 0.23781734545474686
-0.14023855777743996 0.04539247558470007 0.3983519312092052
0.18892184286428487 -0.02091021538708407 -0.3479162931417499
0.18671995459312493 -0.03392385856501573 -0.3493569627666625
0.010151978038634102 -0.07263185355709985 -0.40117847627562575
0.11808742969545849 0.008344970040900221 0.4293826046409979
0.09714996314900812 0.07983742009733703 0.21859408625933893
-0.1723149960410868 0.0025919847398557794 0.11717493017994131
-0.13700507798037362 0.06250211969427534 -0.01086530001944846
-0.17719089186665718 -0.04989392503436642 0.07949822986669204
0.11368068924930098 0.10328045631947504 0.1300310183494815
0.10429944723071637 0.09285970609192927 0.17981690991550714
1.9409231602304197e-07 0.08084663392092552 0.275119513817803
0.15386361915211236 0.07006620323052089 -0.11923188551269633
-0.17562489569156894 0.04539163984602164 -0.015845131138529672
-0.16129803532062045 0.04797782633602919 -0.31171094959029605
5.754266310330185e-07 0.11631460477973478 0.16513843875516834
-0.13662593119993716 0.021552705534854902 -0.37251768600654744
-0.19074631976865752 0.029684269334371613 -0.2284762592137559
0.12425051379274751 0.06766907179007585 0.16871795090011862
-1.7582480392675566e-07 0.11699396442083963 0.039150063466652715
-0.062075880952897004 0.05571624359052664 -0.04819419146926246
-0.08139369050747632 0.10442146110908217 0.029777751978044165
-0.10886636864012918 -0.10161165852367163 -0.4210183621921609
-0.18850010994627397 0.0308104477544736 -0.034682443472123334
0.18572182001562287 0.07176749316707225 0.21303569334746117
-0.13234686924613762 0.0663927572549325 0.1454799446668713
-0.15782195611259836 0.044607038784291106 -0.32250700585386
-0.15266369478567765 0.0755287944586487 0.01656156090942789
3.6763368093776185e-07 0.12274823986492585 0.11930508878141617
0.1258844011765416 -0.007184189473055505 -0.40784952964865423
-0.18505137948729905 -0.09290323409342235 -0.17781043529068621
0.10009135912828893 0.10283231314585091 0.03759798713578187
0.1617105020431205 -0.07653637671038922 0.3694985305760228
0.19316930202215782 -0.04271533167213275 -0.04214855834099651
-0.1749071742750619 -0.09733559015841688 -0.03941622947077966
0.19562782600388048 0.01110941091394331 -0.040419716429325944
-0.15824400186175394 0.06878296987517112 -0.03504012364240763
-0.11283375486941988 0.07090885159537642 0.28814779383980177
-0.18569812705243396 -0.08799420100090931 -0.14205956917267584
0.18504427342509358 0.027764255625174386 0.14275068702212565
1.82675120962863e-08 0.03155958015803019 0.43042129309535376
0.08097367245216344 -0.06864732555114578 -0.3951824280255061
-0.18194001344171834 0.06273239310144409 -0.16286635907134545
-0.1753616425747494 0.07575842393601605 0.2907857710100413
0.12328779763776114 0.10458776397232873 0.0899928561965942
0.19564662327382756 -0.028466067125691233 -0.18040090779571935
0.1867974613635105 -0.06416957015171397 -0.03831721940804289
2.055095110832209e-08 -0.02635725867897891 0.4296826667946915
-0.11823252397716127 0.10068968925080933 0.046856914460247784
0.13602466973992197 0.0658327141525236 0.13371608246276312
-0.178556091548783 -0.10311776466035216 -0.1283919033929169
0.018930266568895616 0.0264087765429228 0.4320026910665782
0.1905492155965776 0.012806179641250817 -0.3316549100901217
-0.194554484079078 -0.008110904928578133 -0.18892974431455004
0.04066123502234546 -0.07153579141412761 -0.39996961681233695
-0.17893995134734028 -0.027611885110385925 0.12407682325301353
0.111693366608346 -0.004629187909635346 0.43253379614638754
0.15895113268812314 -0.09217564137006629 0.0580219836019128
-0.18200225998918643 0.061476860144749304 -0.13943423768768498
-0.011269990880829039 -0.10257240407079062 -0.45194140800956023
-0.15707606390899984 0.04249303779726539 0.1441526980245645
0.15685690399950267 0.07051607268403813 -0.08331556825419086
0.18379722344432853 0.015049096744579007 0.13543421047858922
4.429871683349428e-07 0.12149427563083233 0.130805174961171
-0.09145784519826852 0.05752702671114411 -0.03686341544193303
0.129274221192445 0.10193931495078 0.07068637934983162
-0.19438389520080582 0.04500504448752794 0.2438071736169977
0.19438392945239102 0.04500504448752794 0.2438071736169977
0.10529471380881932 0.07057093230630228 0.21386142599611552
0.17893995134734028 -0.027611885110385925 0.12407680726894044
-0.17570466763345444 -0.019316370389805063 0.11416107154705253
4.429871683349428e-07 0.053660203135943454 -0.20111377071406789
-0.19023862907247754 -0.05353854487586686 -0.040531034081162695
0.1704592839744685 -0.09540484885274111 -0.004677799108803736
0.17775169992113513 0.050319572963237316 -0.04526023036740484
-0.18267954626766833 0.039906312415651 -0.030633001861935114
0.12770417419654942 0.06692156062821779 0.2244090052767068
0.03922689965725222 0.02470959422057957 0.43212516331798867
-0.18566107140414667 -0.08274122719064739 -0.10639278384596663
-0.10608690273838686 0.09553073147498996 0.1700001019053767
0.09971322162789581 0.03185513251967502 0.41430858247436025
-1.141719506017894e-08 0.028450878885776507 -0.394703727871023
0.14773497844888087 0.05487852517049811 0.3815021241916875
-0.0973227212943417 -0.015703880818642962 -0.4261005964171758
0.17008050939459105 -0.07103707234982591 0.369274143874627
0.19278336886097763 -0.06362851384469012 0.1741327725841146
0.1772133837409257 -0.08584425411695615 -0.35520590502530974
0.18715660065132347 -0.04928398650610549 0.36223167087877883
-0.19322128907814484 0.009577116015233714 0.18696155995682692
-0.18170954822567256 -0.004673342769811073 0.12823735873801528
5.936941431293048e-08 0.12498265572481225 0.084678928265345
1.9865919404711353e-07 0.06247135263702715 -0.05015439370507149
-0.1181440407154449 0.10491525022855687 0.10987573698628696
0.19054914480996824 0.0030284823745184986 -0.33887006131093805
-0.10429942896320427 0.09285970609192927 0.17981690991550714
0.1820459878462669 0.06219700429004811 -0.15116028385831484
0.18428137873461145 -0.07324754406823208 -0.04713365507043947
-0.008741810592044244 0.02681686819627581 0.43194858041231
0.12138601490563602 0.06980779328784585 0.24957245980399997
0.08748255826999617 0.0722584074368308 0.24667340563431933
3.4708272982943976e-07 0.09017721556158913 0.25385253332128177
-0.15245530357456127 0.06418677249418496 0.061496067084238354
0.07823292454230923 -0.10201253907662462 -0.43702079640950714
-0.11569135320383701 0.05600712631939185 -0.2416094655417968
0.14388119559387796 -0.10834719393096098 0.19085876468808272
0.050802158932722295 -0.07093350925687404 -0.3991704679606607
0.17612122627866406 -0.10611861454118936 -0.16666696291519703
1.7582480392675566e-07 0.04852547949835882 -0.25761350273332956
-0.17882606939349305 -0.0545288952097769 0.05601820421599807
-0.1820459878462669 0.06219700429004811 -0.15116028385831484
0.15751708275290643 0.06544442904916097 0.012245402205438833
0.1742126411817221 -0.008176277504053697 0.11511861342923764
-0.143807399411887 0.06495593750819419 -0.1771805349385821
0.18569812705243396 -0.08799420100090931 -0.14205958515674894
-0.14773494419729571 0.05487852517049811 0.3815021241916875
0.17633528270196933 -0.047528764023528874 0.09122472359136825
-0.18122948714153822 0.06320710637141226 -0.18620695793596448
-9.13375604814315e-09 0.02430290231534092 -0.4039459495556768
-0.18892187939930907 -0.02091021538708407 -0.3479162931417499
-0.170471895408132 -0.09571155124708172 -0.35982961099607386
-0.17802205910016017 -0.052227421596424045 0.0677627234082353
0.09145834983829017 0.057518820031334836 -0.036888592640479737
-0.14388117732636588 -0.10834719393096098 0.19085876468808272
0.1931291477471312 -0.01283763053380925 0.1757759809659558
-0.17722887002430535 -0.10507682289321617 -0.15390378331217855
-0.037541851822393495 -0.008039442421257453 -0.4513138230646144
-0.008638448441725432 0.051190549672476146 -0.3222435632116024
0.04521563633565528 -0.1023684313141625 -0.447300975848033
0.048501306414780725 0.07174562923853199 0.2788407293375232
0.06578898113036839 0.050680420263431294 -0.2940601487023803
-0.07959928192801417 0.015519629037716157 0.43085295668962803
-1.82675120962863e-08 0.04554200202152521 -0.3470065550552818
0.04265796543203004 0.10625055512713714 0.0194029536771766
0.008741847127068436 0.02681686819627581 0.43194858041231
-0.1946373226795566 0.04745060538597924 0.25738559803328825
-0.15607317521147474 0.07055419013146601 -0.09534362206855257
-0.08083212435124637 0.07226217054432262 0.2546465923874002
-0.10252225121452695 0.08993641778401389 0.1895755336161719
0.1356603744468198 -0.10127271625392009 -0.39921130270051297
-0.18504427342509358 0.027764255625174386 0.14275070300619874
0.19312149822644087 -0.025086011095003274 0.17297833660623868
-0.17793300269525175 -0.09963561378799708 -0.0774697862751363
0.1198462189097719 0.06836566226196551 0.18017969128854436
-0.12588443542812677 -0.007184189473055505 -0.40784952964865423
-0.18151538740647916 0.05952416357297281 -0.11593409265585597
0.17960013010074405 -0.05679799650825612 0.044264635754956136
-0.09895774811420278 0.08340680975714694 0.20895490468651573
0.1682118707797256 0.019007050087311003 0.12333729956081957
0.020324381439230862 -0.07240149794612666 -0.4009449284169137
5.868438260931974e-07 0.11413935282465022 0.17651715101767745
-0.0524837313734047 0.10593763264492777 0.02126425331905733
-0.10735470004601531 -0.013979012090853352 0.43307030155946047
2.58028608360044e-07 0.07683904774782789 -0.0317871843780807
0.18109701571069398 0.05831251603065034 -0.10416585994947875
0.11283377085349297 0.07090885159537642 0.28814779383980177
-0.15812442272757166 0.06714814171450408 -0.011042414966417015
0.18034150794541576 -0.05903438069257088 0.0325020340091826
0.14550804541863693 0.0637732257050322 -0.004778884670427548
-0.19698065629687814 -0.020855095452772546 -0.043494969886931314
2.055095110832209e-08 0.016902518521868234 0.432362195704633
0.19331564077812216 0.019378593015837373 0.19561346242121125
-9.818787751753887e-08 0.11227458007203218 0.028482676707977946
0.11612949034771039 -0.003935125204731993 -0.40670777589105117
-0.18550961089447834 -0.08091543045852578 -0.09452246314823932
-0.1261655290539474 0.10357607718429022 0.08024859076043711
-0.1659579086818962 -0.10012358927174715 0.18641914957046896
5.868438260931974e-07 0.11166941849818444 0.18783124652302394
0.14289043195750675 0.055877303677801596 0.17650716782231682
-0.1220526306736147 -0.03170113391287095 -0.411284200973632
0.0524837313734047 0.10593763264492777 0.021264248752179304
-0.15823793933117697 0.06801885582825652 -0.02301544018402768
-0.12433751510254511 0.02007371980332033 0.42368533068496916
