 0.323925 0.0838321 -0.519761 0.711855 0.632315 -0.30568
0.119102 0.168318 0.231389 0.258637 0.326891 0.908982
-0.046259 -0.177596 -0.637271 0.0567209 -0.993085 -0.102788
0.118397 0.121602 -0.46797 0.0403158  0.765572 -0.642085
-0.0437802  -0.135955   0.835342  0.222623 -0.725408  0.651323
 0.109458 -0.177596 -0.336744 -0.0368586  -0.994742  0.0955544
0.0255001  0.302964  0.222667 0.0681126   0.91935  0.387499
 0.176704 -0.177598  0.186622 -0.0560224   -0.99755 -0.0418908
-0.0563298  -0.062118   0.494253 -0.157427  0.984891 0.0721573
-0.310165 0.0545441  0.443908 -0.882159  0.421109  0.210862
-0.0255031   0.156102   0.231389 0.0999017  0.265644  0.958881
-0.00133438   -0.177598    0.667385 -0.00804989   -0.990437   -0.137732
 0.244538 -0.177596 -0.169059    0.149975    -0.98869 0.000335935
-0.0428831 -0.0681782   -1.07053 -0.259951 -0.348652 -0.900481
 0.267199  0.262115 -0.307231 0.480628  0.80746 -0.34206
-0.156172  0.302964 -0.269272 -0.025223  0.986608 -0.161149
-0.0952322  -0.177598   0.586988  0.00349328   -0.999954 -0.00897741
 0.144561 -0.177598  0.403653   -0.10144  -0.992593 -0.0668573
-0.115077 0.0871564   0.82884 0.171669 0.758656 0.628467
-0.0827373   0.302964  -0.042048 -0.0602632   0.998041 -0.0168037
-0.0654865  -0.177598     0.1729   0.033007  -0.999219 -0.0217071
-0.212143  0.302964 0.0842696  -0.349863   0.935426 -0.0507434
 0.202153  0.302964 -0.230119 0.232572 0.954464 -0.18684
  0.19664 0.0839664  0.831908 0.0182399  0.845394  0.533831
-0.00920273  0.00101881    0.813128 0.284552  0.74165 0.607442
-0.139461 -0.177596 -0.347294  0.0157313  -0.999322 -0.0332912
-0.285424 0.0161857  0.746901 -0.871004  0.380806  0.310385
 0.355937 0.0754037  0.352806  0.941313   0.30718 -0.139891
 0.129123  0.302964 -0.262116 0.0783222  0.968235 -0.237459
  0.190959 -0.0661662   0.690742 -0.242636   0.92324 -0.297919
 0.355079 0.0455874 -0.126219    0.994052   -0.108904 0.000969467
 -0.297269  -0.137228 -0.0967912  -0.667457  -0.744426 -0.0181744
  0.31071 -0.111758 0.0733207   0.656335  -0.750305 -0.0791561
 0.196729  0.303045 -0.304013  0.156993  0.937333 -0.311062
 0.210079  0.242218 -0.382239  0.233672  0.738604 -0.632346
 0.346124 0.0907496 -0.260728   0.990463   0.104272 -0.0900576
-0.179297 -0.106097 -0.821181 -0.476087 -0.783511 -0.399314
 -0.064551 -0.0587395   0.335188   0.982219   0.173402 -0.0719602
 0.350305 0.0137177 -0.276136  0.978608  -0.18526 -0.089475
-0.354906 0.0440928 0.0485157   -0.994865    0.101139 -0.00390879
  0.19082 -0.113934   -0.7876   0.64672 -0.718915 -0.254784
 0.216124 -0.177598  0.421979   0.101585  -0.994744 -0.0128408
  0.13427 -0.177598 0.0889988 -0.0417028  -0.997704 -0.0533593
-0.0445173  0.0109652   0.231387 0.438197 0.214498 0.872911
 0.231527 -0.177598  0.773476 0.0615897 -0.944602  0.322389
  0.113084 0.00843391   -1.00907   0.531244 -0.0441456  -0.846068
 0.0192383 -0.0321699   -1.11807  0.130588 -0.241117  -0.96167
  0.326353 -0.0759605   0.357293  0.969848 -0.164304 -0.179999
  0.195298 -0.0105179   0.835342  0.0383014 -0.0490353   0.998062
-0.0512246  -0.177598  0.0127374 0.0404943 -0.997881 0.0509376
-0.128681 0.0865952 -0.986789 -0.438214   0.61845 -0.652294
0.0821034 -0.177598  0.623939 -0.0566396  -0.993372  -0.100016
0.0855065  0.302964  0.167877 0.0819022  0.972178  0.219458
 0.224409  0.134407 -0.453709 0.303251 0.719766 -0.62448
 -0.34979 0.0225445  -0.31838  -0.987879 -0.0909486  -0.125788
0.0623763 -0.177596 -0.118721 -0.0507101  -0.998218  0.0314512
0.0380997 -0.177596 -0.851677 -0.0378645   -0.99925 0.00811937
  0.11605 -0.177596 -0.248216 0.00587064  -0.999553  0.0293213
-0.00453228   -0.177598    0.506527 0.00364148  -0.999965 -0.0075478
-0.0898274  -0.177598   0.270843  0.0871366  -0.994859 -0.0515964
 -0.285739   0.210058 -0.0838392 -0.865529  0.480218  0.142304
-0.353031 0.0841482  0.588914 -0.877884  0.440138 -0.188674
-0.147958 0.0939056 -0.679689  -0.186781   0.979943 -0.0694538
 0.193301 0.0939056 -0.698649  0.458689  0.881912 -0.108792
-0.102495  0.269215 -0.359652 0.0273069   0.87263 -0.487618
 -0.329833 -0.0666481  -0.164531 -0.898705 -0.438212 0.0172791
-0.312724 -0.107623  0.615166 -0.741222 -0.658214   -0.1317
-0.233431 0.0939056 -0.569031  -0.49761  0.814411 -0.298528
0.355511 0.050505 0.175019   0.89685 -0.118347  0.426209
-0.0788517  -0.177598   0.659476 0.0374768 -0.991171 -0.127186
 -0.332369 -0.0476834  -0.338395  -0.943372  -0.329769 -0.0360837
-0.312353 0.0746046 -0.581634 -0.853776   0.50079 -0.142394
 -0.304902 -0.0831294  -0.459599  -0.88883 -0.443917 -0.113658
-0.343961 0.0312418 -0.397773   -0.994218 -0.00792967    -0.10709
 0.233463 -0.177596 -0.340637  0.218618 -0.970448  0.102158
-0.217909 -0.105545  0.835342 -0.356471 -0.280476  0.891213
-0.273897  -0.17409 0.0595194  -0.447897  -0.892278 -0.0568217
-0.238813 -0.164448 -0.563932  -0.380689  -0.919354 -0.0993163
 -0.031346 -0.0668403   0.751867 0.714882 0.655769 0.242717
   0.10067   0.302964 0.00569162 0.00860704    0.99899  0.0441104
 0.0827896 -0.0596554   0.378106  -0.29121  0.638839 -0.712097
-0.220709 -0.177596 -0.409619  -0.216733  -0.975716 -0.0316982
  0.255682 -0.0310335   0.231387  0.953721  0.296512 0.0499669
0.0326797 0.0394399  0.231387 0.0786506 0.0871922  0.993082
-0.315921 0.0829325   0.73447  -0.955278 -0.0993449   0.278524
-0.0400057  -0.177596  -0.379005 0.0382061 -0.999025 0.0221011
-0.0411463   0.302964  0.0906048  -0.0287263    0.999587 0.000127811
-0.000803484    -0.177598   -0.0677457 0.0202784 -0.998948 0.0411275
0.0228605 -0.103627  -1.07225 -0.0186391  -0.520226  -0.853825
 -0.285739   0.127892 -0.0721847 -0.905562  0.391152  0.164186
   0.26728 -0.0406341   0.665802  0.784735  0.469508 -0.404664
 0.305766 0.0410483  0.409586 0.637491 0.696411 -0.32957
  0.338313 -0.0409628   0.423943  0.989298  0.035022 -0.141642
 0.283423 -0.159773 -0.254768     0.34059   -0.940212 3.21309e-05
-0.0737909  -0.177596  -0.809955 -0.0609037  -0.993858 -0.0923943
 0.179228 -0.177598  0.620403 -0.0504474  -0.977751  -0.203612
-0.0107556  0.0939056  -0.899466 -0.107646  0.979344 -0.171169
 0.351397 0.0167467  0.555551  0.686486 -0.178846  0.704806
  0.319411 -0.0505305  -0.443999  0.906342 -0.396844 -0.145119
-0.228905  0.302724 -0.288608 -0.308055   0.92461  -0.22405
0.0692229 -0.177598  0.520344 -0.0257529  -0.999654  0.0052744
 0.266477 -0.177598  0.634508  0.433774 -0.838778 -0.329076
-0.285709  0.252993  0.228355 -0.739568  0.658552  0.139099
-0.354246 0.0823094  0.301646 -0.938932  0.301721  0.165442
-0.236956 0.0429041 -0.795024 -0.858195  0.397302 -0.325041
 0.270047 -0.113818  0.835245  0.368282 -0.555475  0.745531
 -0.127518 -0.0626081   0.518051  0.521858  0.845514 -0.113002
 0.150248 0.0870702 -0.951545  0.654547  0.642547 -0.398373
-0.294671 0.0939035 -0.226118 -0.916696  0.366331 -0.159595
 0.176433 -0.177598  0.326384  -0.148156  -0.985649 -0.0809099
 0.0792706  -0.177598 -0.0438434 -0.072515 -0.996959 0.0285421
-0.219494 0.0065866  0.231387 0.575954 0.606294 0.548348
 -0.33367 0.0939035  0.376647  -0.8585 0.396003 0.325821
 0.0789295 -0.0419124   0.231387  -0.198979 -0.0757646   0.977071
  0.226979 -0.0956372  -0.723595  0.742097 -0.646662 -0.176412
 -0.134996 -0.0722077  -0.933339 -0.624126 -0.635737 -0.454209
 0.265233  0.299072 0.0918538 0.404313 0.900082 0.162431
 -0.200003 0.00123789   0.835342 -0.322772  0.315538  0.892331
-0.0314422  -0.177596  -0.879436  -0.144163  -0.989546 0.00405513
-0.00496486  -0.0632289      0.5482    0.171854    0.985081 -0.00903539
0.00693821  0.0939056  -0.793729 -0.0200093   0.999772 0.00751426
   0.320017  -0.0914533 -0.00102592    0.707822   -0.706388 -0.00197117
-0.0564652  -0.177598  0.0932377   0.0168956   -0.999842 -0.00559354
  0.246252 -0.0624365   0.509709   0.356791 -0.0519497   0.932739
0.0457303 -0.177596 -0.221022 -0.00439203   -0.999377   0.0350143
-0.11403 0.125413 0.231387 0.248194 0.333585 0.909462
-0.0813419  -0.177596  -0.735412  0.0344276  -0.995883 -0.0838504
-0.00232427   -0.177598    0.395486 0.0441892 -0.990557 -0.129785
 -0.215655   0.302964 -0.0975048 -0.285981  0.957897 0.0254667
  0.122207 -0.0610485   0.443467 -0.0290732   0.984023  -0.175653
-0.298831 -0.134437  0.377562 -0.645107 -0.756669 -0.106253
 0.0435571 -0.0648504   0.835342   0.283132 -0.0752446   0.956125
-0.0798659  -0.177598   0.511284 -0.0223394   -0.99936 -0.0279253
  0.314669 -0.0881861  -0.370944  0.787974 -0.604555 -0.116663
-0.00425819   0.0939056   -0.552131  0.151004   0.97589 -0.157599
-0.153221 -0.177598  0.481293    0.05857  -0.997667 -0.0350749
-0.144054  0.302964 -0.118394 -0.0833495   0.996316  0.0201874
-0.159363 -0.177596 -0.156448 -0.0323006  -0.994979  0.0947285
0.0284261 -0.177596 -0.692089 -0.0470437  -0.997949 -0.0434209
-0.174456  0.187605 -0.432769  -0.17633  0.777478 -0.603686
 0.0749202 -0.0516959    -1.0374  0.349691 -0.293331  -0.88976
  0.251515    0.30272 -0.0704274   0.411027   0.906519 -0.0963294
 0.178369 0.0117417 -0.903679  0.896946  0.109471 -0.428375
 -0.349835 0.00761504  -0.139493 -0.972646  -0.22835 0.0426239
 0.149968 0.0939056 -0.768199   0.343406   0.936588 -0.0698199
0.0738383 0.0939056 -0.761672 0.0712402  0.997457  0.002039
 0.264061 0.0939092 -0.647457  0.542511   0.80313 -0.246302
 0.153326 -0.177598  0.761669 -0.0707861  -0.958055   0.277704
-0.00564523   0.0294397     -1.1529 -0.327653  0.175504 -0.928355
-0.0659389  0.0939056  -0.819397  -0.10466  0.993101 -0.052875
-0.168829 0.0939056 -0.604883 -0.191218  0.965276 -0.177984
 0.161535 0.0939056 -0.543056 0.0917024  0.985802  -0.14066
-0.352344 0.0230276  0.353573  -0.965996 0.00743414   0.258449
 0.261547 -0.101209 -0.613968  0.678978 -0.726001  -0.10914
  0.152198 -0.0608443   0.756308 -0.433073  -0.13403  0.891338
-0.0990434  -0.177598   0.430422 -0.0127585  -0.999855 -0.0112579
  -0.32026 -0.0908881   0.531735  -0.898316  -0.429362 -0.0931514
-0.140327 -0.104264  0.835342 -0.222396 -0.249502  0.942491
 0.242214 0.0226243 -0.776575  0.905294  0.367789 -0.212543
0.00829683  -0.177598   0.593917 0.0107918 -0.999891 0.0100909
 0.130516 0.0939056 -0.857551  0.408546   0.89782 -0.164346
 0.215593 -0.177598  0.260055  0.0487704  -0.994338 -0.0944064
  0.165891 -0.0684869  -0.881878  0.688263 -0.487081  -0.53763
 -0.349528 0.00592634   0.203853 -0.966825 -0.180004 -0.181243
-0.177526 -0.177598  0.632279 0.0148532 -0.992787 -0.118966
 -0.337594 -0.0432926 -0.0859622   -0.929392   -0.369087 -0.00249919
-0.140936 -0.177598  0.181624   0.0945236   -0.995481 -0.00915312
-0.310124 0.0543981  0.531843 -0.809678  0.491469  -0.32075
   0.1249  0.207539 -0.418072 0.0555337  0.668863 -0.741308
-0.0487081  -0.177598   0.332561   0.103574  -0.990601 -0.0893435
  -0.331091  -0.0631076 -0.00548235  -0.931096  -0.364394 -0.0166565
-0.256597  0.301892 0.0161589    -0.584878     0.811121 -0.000911896
 0.129476 0.0517706  0.835342 -0.247131  0.624062  0.741264
   0.28229 -0.0139229   0.561613    0.732437 -0.00739648    0.680794
-0.347924 0.0891827   0.80123 -0.894361 -0.410862 -0.176946
-0.300381 -0.131644 -0.202391 -0.737574 -0.674932 0.0212388
  0.337044 -0.0450547   0.509166  0.804963 -0.164844  0.569966
-0.104652  0.210937  0.231389 0.219789 0.591263 0.775952
-0.106491 0.0253685  -1.02351 -0.428915  0.180795 -0.885068
-0.354957 0.0792726  0.220204  -0.976436   0.201063 -0.0783967
-0.254429  0.302243 -0.204407 -0.412726  0.910746 0.0140958
-0.0230459  -0.177596  -0.181389 0.0681608 -0.996332 0.0517305
-0.356723 0.0690689  0.669393 -0.861684  0.136688  0.488689
   0.217652 -0.00844122    0.756308  0.366305  0.782024 -0.504241
-0.192868 -0.177598 0.0526102   0.019192  -0.998965 -0.0412357
  0.345344 -0.0141593  0.0430814  0.914581 -0.404081 0.0161272
-0.0873222 -0.0993373  -0.987508 -0.514815  -0.64212 -0.568021
0.0512177 -0.177596 -0.608774  -0.045583  -0.995904 -0.0780829
-0.163202 -0.177596 -0.521479 -0.0601889  -0.997034 -0.0479605
-0.0180112  -0.177596  -0.298141  0.066346 -0.997295 0.0316291
0.0717276 -0.177596 -0.532802  -0.023671  -0.996554 -0.0795024
0.104599 0.089262 -1.01813  0.436787  0.604418 -0.666256
 -0.311813 0.00301864  -0.554218 -0.994706 0.0193789 -0.100918
-0.130463 0.0939056 -0.778735   -0.258695    0.965957 -0.00207331
 0.309787 0.0532745  0.695221  0.810124  0.168845 -0.561419
-0.352233 0.0849505   0.11501 -0.953645  0.170558 -0.247935
0.0757311 -0.177598  0.433563 -0.0678714  -0.995016 -0.0730488
 0.131391 -0.177609 -0.822619  0.104236  -0.98214 -0.156639
0.0483375 0.0939056 -0.483162 0.0833246  0.842777 -0.531774
-0.226085 0.0827037  0.231387 0.0975498  0.889535  0.446332
0.0881945 -0.161163  0.835342  0.166791 -0.842333    0.5125
-0.0693799   0.302964  -0.117953 -0.0798193     0.9968 0.00440144
  -0.33641 -0.0465019  -0.256943  -0.919297  -0.393179 -0.0174245
-0.285739  0.129337 0.0892246 -0.924304  0.344532 -0.164196
-0.113681 -0.177024  0.835342  0.101326 -0.860772  0.498803
 0.136537  0.283144 -0.345724 0.0702186  0.873296 -0.482103
  0.267934 0.00617486   0.835342 0.661461  0.16843 0.730822
-0.00839372   -0.177596   -0.756421 -0.0186622  -0.999638 -0.0193561
-0.259676   -0.1776 -0.342451    -0.444207    -0.895924 -0.000200074
  0.20267 0.0673783  0.756308  0.150743  0.917961 -0.366913
   -0.3325 -0.0590019   0.150706  -0.926876  -0.366269 -0.0821514
-0.354705 0.0418848 -0.207736  -0.998338 -0.0526388 -0.0234541
0.0546544 -0.177598 0.0562984 -0.0780717  -0.996524 -0.0290541
-0.263764 -0.177598  0.719315  -0.39786  -0.90981 -0.118119
  0.339666 -0.0361978 -0.0467041  0.877913 -0.477248 0.0387647
 0.072892 -0.177596 -0.770958 -0.0788144  -0.996796 -0.0136483
-0.162822  0.302964  0.221698 -0.0860339   0.962496   0.257293
-0.0514835  -0.177603  -0.954534 -0.304086 -0.937381 -0.169848
 -0.339207 -0.0377372   0.759875 -0.88362 0.426586 0.192979
-0.171795 0.0674174 -0.927698 -0.654168  0.520538 -0.548729
 0.101526 -0.177596 -0.702711  -0.0429132   -0.999078 0.000918431
  -0.16385 -0.0664669   0.705308   0.833116   0.550924 -0.0489993
 0.182972 -0.060029  0.395646  -0.678967   0.734107 0.00951406
-0.0373393   0.203598  -0.421181 0.0954816  0.724655 -0.682465
-0.174822 -0.021081 -0.895902 -0.784676 -0.360016 -0.504651
-0.285739  0.103305 0.0161503 -0.946178  0.313779 0.0793152
-0.282986   0.25916 -0.260998 -0.736699  0.655016 -0.168016
 -0.318951 -0.0939035   0.259033   -0.781819   -0.623504 -0.00157739
-0.267052 -0.177598  0.183496 -0.390306 -0.918837 0.0583044
-0.271431 -0.177598   0.54737  -0.305556  -0.952089 -0.0127419
 0.298884 -0.134341  0.400301  0.614459 -0.781907  -0.10517
 -0.35018 0.0871632 -0.122903 -0.976177  0.186299  0.111226
  0.317628 -0.0969624   0.679018   0.89129 0.0171177  -0.45311
 0.267474 0.0104142 -0.707069  0.907124  0.302494 -0.292613
-0.285739  0.174163  0.154014  -0.891353   0.445112 -0.0858206
-0.230773 -0.177598  0.256562  -0.188649  -0.982031 0.00524957
0.0437274  0.191409 -0.430148 0.0382819   0.66638 -0.744629
-0.127047 -0.177598 0.0095211 0.0777588 -0.995907 0.0460819
0.00558079  -0.177598   0.195758 -0.0148603  -0.999783  0.0146052
-0.306117 -0.120917  0.105693  -0.808532   -0.58767 -0.0303447
-0.0535415  0.0939056  -0.994812 -0.281942  0.742169 -0.608024
 0.232277 0.0571937  0.231387 0.583528 0.384812 0.715133
 0.286168 -0.155705  0.243147  0.549056 -0.823557 -0.142449
-0.210616 -0.177598   0.37633   -0.12648   -0.99105 -0.0427017
 0.270261 -0.177598  0.709958   0.408341  -0.912563 -0.0220645
 0.276975 -0.169682  0.463357  0.306904 -0.947347 0.0913498
-0.00298451    0.302964   0.0200646 -0.0427779   0.998917  0.0182858
-0.167399  0.302964  0.146587  -0.121024   0.992634 0.00548549
 0.285737  0.189704 -0.182605 0.838137 0.543903 0.041185
0.285737 0.235624 0.185905 0.581154 0.579179 0.571675
  0.131407 -0.0429044  -0.958336  0.651733 -0.431457  -0.62377
-0.107757 -0.177598  0.742319  0.135243 -0.977822 -0.159914
 0.113307 0.0939056 -0.695239  0.113769   0.99239 0.0471113
0.00554254  0.0939056  -0.719865 -0.0190651   0.998545  0.0504374
