0.343187 0.811296 0.206817 -0.818163  0.491844 -0.297824
0.324267 0.864015 0.299953 -0.939362  0.246008  0.238914
 0.552445   -0.4773 -0.220977   0.882168 -0.0501314  -0.468259
 0.210152 -0.138371  0.065585  0.173304 0.0537237  0.983402
  0.36711  0.122876 -0.149764 0.593981 0.272003  -0.7571
  0.33459 -0.515835  0.130861  0.0648218 -0.0196983   0.997702
0.131631 0.862715 0.222731  0.907294 -0.379042 -0.182055
-0.175998 -0.745613  -0.48532 -0.196381 -0.370468 -0.907848
0.0359256  0.626249  0.019694  0.288293 0.0246468  0.957225
0.0212635 0.0337019 0.0794493   0.134957 0.00313675   0.990847
-0.263621 -0.283423  0.104386   0.175062 -0.0163436   0.984422
 0.336902 -0.723947  0.042586  0.199537 -0.494762   0.84581
-0.663543  0.327665  0.251844 -0.361048 -0.565489   0.74153
0.00485116   0.420816 -0.0826247  0.773783 0.0672706  0.629869
  0.622589   0.191231 -0.0206038  0.570456  0.625057 -0.532807
0.0127372   0.50663  0.208359 0.326611 0.474427 0.817462
-0.331233  -0.48885  0.108548 -0.0570525 -0.0150029   0.998258
-0.0616228   0.902418    0.30801  -0.915826 -0.0322621   0.400277
 0.231482  0.231526 -0.175669 -0.139514  0.514724 -0.845929
 -0.215927 -0.0697486    0.12529   0.253036 -0.0763703   0.964438
-0.203058 -0.723429 0.0731344 -0.0992448  -0.280411   0.954736
-0.139667 -0.557607 -0.446549 -0.082475  0.466492 -0.880672
-0.413905 -0.637237 -0.357645 -0.609252  0.199151 -0.767562
  0.397468   0.316705 -0.0703504  0.563209  0.369882 -0.738907
-0.384247  0.408039  0.166424 -0.786876  0.178571   0.59071
 0.317621 -0.172674 0.0548824 0.248633 0.284578 0.925849
-0.38156 0.505294  0.13785  -0.984973 0.00254498  -0.172691
0.101163 0.428013 0.132229 -0.746406  0.489276  0.451095
  0.358917 0.00771585  0.0202525    0.29128 -0.0511726   0.955268
 0.356649 -0.270618 0.0667807 0.205073 0.300732   0.9314
  0.291648   0.506166 -0.0172457 -0.459564  0.839373 -0.290264
-0.677644  0.299902  0.168233 -0.921854 -0.318131  0.221307
 -0.564746  0.0415899 -0.0427915 -0.887797 0.0108767 -0.460107
 0.396338 0.0384306 -0.102073  0.758149  0.404754 -0.511258
-0.106981 -0.533078 0.0628754  0.0741008 0.00118007    0.99725
  0.14414 -0.205911 0.0799833 -0.144808  0.078113  0.986372
0.0982055 -0.339258  -0.37881 -0.0262257   0.362292  -0.931695
 0.234322 -0.751803 -0.407329   0.41226 -0.415916  -0.81059
-0.185574  0.257986  0.150092  0.623034 0.0865241  0.777394
 -0.324422  -0.863278 -0.0252893 -0.181305 -0.727004  0.662264
 0.262979 -0.457902 -0.390886   0.19644    0.2652 -0.943971
 -0.294332 -0.0904253  -0.211236 -0.302765  0.389192 -0.869979
-0.609965  0.384494  0.306164    0.334313 -0.00746167    0.942433
0.395354 0.650546 0.292399 -0.177855 -0.529208  0.829642
   0.5035 -0.394182 -0.292953  0.649537  0.273316 -0.709507
-0.371274  0.804152  0.267177 -0.812169  0.549347 -0.196466
 0.502523 -0.131261 -0.162163  0.435499  0.456793 -0.775681
-0.278405 -0.798161 0.0423024 -0.158636 -0.455527  0.875973
 -0.114937   0.351876 -0.0565507   0.81999  0.563105 -0.102613
-0.221253  0.461886  0.245008  0.622569 -0.249999  0.741558
-0.0726394   0.799398   0.245996 -0.577324 -0.809248  0.108699
0.0883326 -0.180569 -0.339074 -0.0875966   0.342281  -0.935506
-0.425022 -0.515406  0.103201 -0.289087 -0.160699  0.943718
 -0.380114   0.143145 -0.0162273 -0.348691  0.669761 -0.655618
-0.623361    0.2064 0.0297412  -0.851791 -0.0686263  -0.519367
-0.0278294 -0.0499073  0.0679139   0.166959 -0.0199786   0.985761
0.0410073 -0.498787  -0.42615 -0.140126 0.0768321 -0.987148
0.0486378  0.260229 -0.114545 0.0373192   0.92897  -0.36827
-0.618958  0.366525   0.10408 -0.359715  0.721458 -0.591695
 0.279515 -0.268579  0.111443 0.171446 0.191115 0.966479
 0.189327 -0.528766  0.128608  -0.0606133 -0.00349317    0.998155
 -0.37545 -0.737928 0.0504806 -0.280568 -0.336825  0.898794
-0.30477 0.676929 0.160777 -0.0457748   0.599996  -0.798693
-0.450372 -0.691705 0.0282436 -0.483658 -0.310661  0.818269
  0.537814  -0.589886 -0.0423199  0.892877 -0.231822  0.386042
 -0.34696 -0.687062 -0.441689  -0.384352 0.00833911  -0.923149
  -0.602845     0.11347 -0.00471953  -0.938873 -0.0717156   -0.33671
 0.417384 -0.209248 0.0379084 0.149826 0.159884 0.975699
 0.173762  0.161603 -0.202154 -0.054559    0.6037 -0.795342
 0.120068 -0.368148 0.0984392 -0.172627 0.0383895  0.984239
-0.0347202   0.933112   0.221772 -0.779549  0.442264 -0.443515
-0.333298 -0.860346 -0.162852 -0.156382 -0.982162  0.104412
-0.11571 0.394275 0.100068   0.960832 -0.0446098   0.273518
0.0698769 -0.846177 -0.255378 0.0515986 -0.955579 -0.290183
-0.0384282  -0.562868  -0.453657 -0.081015 0.0259161 -0.996376
-0.349244 -0.827281 -0.255181 -0.207397 -0.904247 -0.373262
-0.462929 -0.794153 -0.120452 -0.765945 -0.510615  0.390642
-0.277135  0.719525   0.37569   0.341838 -0.0600481   0.937838
-0.395787 -0.180766  0.154287 -0.0849108 -0.0403128   0.995573
-0.0913088   0.223659   0.102605 0.369395 0.530416 0.763024
 0.185818  0.266033 -0.104445 -0.425882  0.737298 -0.524419
 0.058246 -0.798967 0.0298022 0.0245048 -0.558101  0.829411
 0.263159 -0.578801  0.126882   0.0181488 -0.00225388    0.999833
 -0.502879 -0.0398416 -0.0876335 -0.812165   0.25949 -0.522545
-0.393511  0.851281  0.360297 -0.795974  0.279259  0.537066
 0.252842 -0.104358 -0.296666  0.175807  0.425732 -0.887606
-0.365093  0.224969  0.127954   0.034958 -0.0230783   0.999122
 0.638117  0.271213 0.0180178   0.829337   0.558482 -0.0172589
0.0457388  0.774859 0.0966094  0.676862 -0.703891 -0.215394
0.347223 0.686129 0.103132 -0.821998  0.259481 -0.506941
 0.445985 -0.229552 -0.282007  0.535022  0.362212 -0.763252
 0.489017 -0.376415 0.0726761   0.31808 0.0944452  0.943348
-0.252689  0.534846  0.290761  0.450557 -0.362443  0.815864
  0.633889   0.100859 -0.0514638   0.40916  0.432876 -0.803247
-0.368809  0.374822 0.0577821 -0.792745  0.543101 -0.276761
   0.46311  -0.712912 -0.0854556  0.675223 -0.713481  0.187133
0.332276  0.25625 0.130999   0.0251456 -0.00664822    0.999662
 0.442645 -0.488905  0.100772   0.297895 -0.0303056   0.954117
 0.431949 -0.308508  -0.32828  0.513751  0.387519 -0.765434
-0.601587  0.441032  0.159836  0.382256  0.875249 -0.296342
-0.0812425  0.0779773  -0.244386 -0.0779493   0.522402  -0.849129
-0.0997834  -0.363875  0.0620319 0.0991319  0.013195  0.994987
 0.527721 -0.575559 -0.182888  0.917167 -0.291711 -0.271495
-0.575943  0.248772  0.216741 -0.0831074  -0.419489   0.903948
 0.268183 -0.860961 -0.102306   0.30257 -0.863634  0.403221
-0.495593 -0.287477  0.128755  -0.388324 -0.0501281   0.920158
-0.302213 -0.406059 -0.327815 -0.254358  0.454215 -0.853809
-0.211998  0.614834  0.291209  0.872572 -0.152024  0.464226
 0.324062 -0.077307 0.0113162  0.24784 0.139304 0.958733
0.0167211 -0.303487 0.0591227 -0.0860196  0.0144983   0.996188
-0.293057  0.595088  0.113277  0.028809  0.541286 -0.840345
   0.38592 -0.0208787  -0.171284  0.541357  0.555188 -0.631426
-0.445899 -0.180471 -0.170921 -0.557846  0.391272 -0.731925
0.439234 0.659131 0.108629  0.418018 0.0267387 -0.908045
0.324793 0.343992 0.167828   -0.121628 -0.00619563    0.992556
 0.188473 -0.643596  0.111663   0.104466 -0.0630557   0.992528
-0.372992  0.697019  0.226061 -0.922844  0.249546 -0.293402
 0.0500984  -0.868239 -0.0325099 0.0832645 -0.812422  0.577095
-0.0470896   0.333693  -0.114966  0.534261  0.816049 -0.220521
-0.142095 0.0341854  0.131946   0.258837 -0.0146263    0.96581
-0.376844 -0.603429 0.0983112 -0.233681 -0.216476  0.947909
 0.71943 0.111695 0.136818 0.601362  0.26497  0.75376
-0.00614398   -0.545761   0.0663471 -0.0750683 -0.0130231   0.997093
 -0.25082 -0.548323 -0.413391 -0.270429  0.401526 -0.875011
0.220737 0.325694 0.124399  -0.5516 0.213791 0.806245
0.0567515  0.892321  0.388185  0.208364 -0.456344  0.865063
0.0490668  0.781059  0.316411  0.215054 -0.846691  0.486688
 0.538559 -0.165584 0.0895577 -0.075543 0.0603858  0.995312
-0.0219245   0.834568   0.147784 0.0595068  -0.18546 -0.980848
-0.409708 -0.800089 -0.329344 -0.533149 -0.596924 -0.599528
-0.0726804     0.7444   0.146507 -0.136572 -0.953577  0.268402
-0.222234 -0.165236  0.102682   0.238786 -0.0587957   0.969291
-0.00817259     1.07705    0.324109 -0.742622  0.653059  0.148414
-0.179214   0.10224 -0.189559 -0.150655  0.542012 -0.826756
 0.499318  0.107599 0.0904217   -0.353273 -0.00360225    0.935513
-0.452098  0.137111  0.124568    0.0181112 -0.000602826     0.999836
 0.651163 0.0292298  0.161067   0.125621 -0.0594769   0.990294
-0.353463  0.764519   0.38717   -0.424026 -0.00389072    0.905641
  0.108808 -0.0880978  -0.317272 0.0610544  0.278597 -0.958466
0.0307378 -0.271911 -0.356264 -0.0315258   0.345317  -0.937956
-0.0513298   -0.23325   0.052973   0.11608 0.0131082  0.993153
-0.315582  0.626582  0.330975  -0.20725 -0.402008  0.891873
   0.69364 -0.0689311  0.0215584  0.986612 -0.150707 0.0623301
-0.675718  0.450026  0.341211  0.0577564 -0.0301504   0.997875
-0.130182  0.319748 0.0472514 0.838851 0.412813 0.354845
  0.656714   -0.18326 0.00987438  0.902575 -0.283797  0.323756
 0.359618 -0.243434 -0.340053  0.315307  0.432023 -0.844948
 0.105574 0.0665537 0.0952999    0.0192922 -2.05018e-05     0.999814
-0.257941  0.944437  0.344057 0.429358 0.868776 0.246739
   0.274886 0.000797744   0.0620903 0.297135 -0.11305 0.948119
-0.623969  0.512375  0.214183  0.48898 0.856829 0.163528
-0.688271  0.526744  0.275477 0.191081 0.839961 0.507892
 -0.28014 -0.262112  -0.27781 -0.249029  0.307326 -0.918442
  0.588358  -0.482485 -0.0393067 0.896984 -0.17942 0.404014
-0.551599  0.258027 0.0118188 -0.412135  0.424234 -0.806331
 0.425377 -0.581146 -0.288285  0.673539 -0.202941 -0.710746
 0.0938089   0.242922 -0.0349581 -0.223897  0.972706 0.0609389
  0.369802  -0.794014 -0.0543516  0.434262 -0.757641  0.487234
-0.122888 -0.898632 -0.078725 -0.00754586    -0.87861     0.47748
  0.41235 -0.700266 -0.236275  0.734362 -0.542763  -0.40758
0.00379266    1.01684    0.25926 -0.553485  0.715692 -0.425956
 0.0728844 -0.0415739  0.0693429   0.0562652 -0.00185059    0.998414
  0.16208 -0.714725 -0.458039  0.247307 -0.190429  -0.95004
0.0757387  0.849413  0.153766  0.508312 -0.413661 -0.755317
-0.0787063   -0.63676  0.0604871    0.0458161 -0.000853096      0.99895
0.399013 0.723472 0.352466 0.0356066 -0.353845  0.934626
 0.104528 -0.819926 -0.334784 0.0495512 -0.840301  -0.53985
  0.54641  -0.22697 -0.211149  0.560128  0.303605 -0.770767
 -0.48932 -0.789313  -0.24626 -0.867477 -0.424544 -0.259316
0.119933 0.977437 0.246397  0.866867  0.254138 -0.428901
 -0.332844 -0.0029078  -0.152828  -0.34982  0.400535 -0.846875
 -0.158793 0.00108804   -0.25231  -0.16318  0.415739 -0.894725
-0.0663997   0.478016 -0.0396497 0.960184 0.121628 0.251504
  0.4884 0.666973 0.193679  0.932108 -0.360973 0.0295552
-0.225661 -0.338727 -0.313584 -0.252026  0.439998 -0.861908
-0.0876871  -0.134978  0.0627601   0.226698 -0.0340139   0.973371
-0.0108124   0.709693  0.0640688  0.328474 -0.941396 0.0766725
-0.165706 -0.249567 -0.310796 -0.198092  0.347608 -0.916476
0.317309 0.788022  0.34778 -0.836504  0.118518   0.53499
-0.560743 -0.476678 -0.126826  -0.997744 -0.0472094 -0.0477334
  0.660675 -0.0680943    0.10592 0.447273 -0.20708 0.870095
-0.308702 -0.492292 -0.367923 -0.329239  0.410455  -0.85037
  0.658424  -0.159484 -0.0829586  0.923656 0.0487252 -0.380111
-0.263954 -0.647379 -0.465454  -0.36834  0.105663 -0.923667
0.0859012 -0.479412   0.09924   -0.126113 -0.00283935    0.992012
 0.426366 -0.682491 0.0195169  0.372563 -0.527578  0.763451
-0.528533 -0.396608  0.089359   -0.5529 -0.118772  0.824739
 0.603718 -0.141192 -0.151308  0.618693  0.258171 -0.742002
 -0.255555 0.00744759   0.154399   0.211338 -0.0219268   0.977167
0.0454507    1.0542  0.409225 -0.218749  0.402075  0.889092
-0.224455  0.682286  0.200932  0.895978  0.309071 -0.318902
 -0.41074 -0.546939 -0.324628 -0.566044  0.289174 -0.771992
-0.206277  0.578338  0.141273  0.915033  0.327257 -0.235832
 0.179362 0.0546943 -0.268431   0.13194  0.445247 -0.885634
 -0.50089 -0.653702 -0.193787  -0.987328 -0.0806068  -0.136695
 0.222265 -0.651343 -0.418739   0.342993 -0.0570573  -0.937604
 0.259753 -0.464085  0.139379 -0.0291665 0.00112968   0.999574
-0.039174 -0.876466 -0.037206 0.0113953 -0.749931  0.661418
  0.259997   0.365112 -0.0927554 -0.438949   0.62113 -0.649246
 0.189698 -0.798026   0.02613 0.0909814 -0.568103  0.817913
  0.455101  0.0309874 -0.0199211 -0.358692  0.100145  0.928069
0.0653187  0.151645 -0.170412 -0.0520185   0.679648  -0.731692
0.222328 0.425854 0.124693 -0.671776  0.467236   0.57481
-0.434862  0.047403  0.137572   -0.22792 -0.0162261   0.973545
 -0.540791  -0.591113 -0.0455077 -0.893308 -0.193368  0.405721
  0.560227  0.0521428 -0.0910537   0.23118  0.476487 -0.848243
0.613853 0.266591 0.115284 0.664151 0.515728 0.541228
-0.0604881  -0.808875  -0.340308 0.0229165 -0.846572 -0.531781
-0.232951 0.0973839  0.152635   0.195557 0.00840044   0.980656
-0.246583  -0.77948 -0.403237 -0.198297 -0.517244 -0.832548
-0.325444 -0.392173  0.108682     0.048329 -0.000890228     0.998831
-0.528945  -0.49321 0.0488281 -0.680546 -0.205816  0.703205
   0.18617 -0.0374899  0.0686829   0.138774 -0.0314642   0.989824
  -0.208434   -0.862072 -0.00151951 -0.0371502  -0.669119   0.742226
0.0791086  0.251539 0.0572183 -0.232879  0.806196  0.543889
0.426244 0.862379  0.24648 -0.0860323   0.872065  -0.481769
-0.584315 -0.385266 0.0111976 -0.871414  -0.11258  0.477454
 0.701205  0.287253 0.0899749 0.663547 0.601707 0.444584
-0.208215  0.726826  0.276391  0.992189 0.0607131  0.108972
 0.342655 -0.795475 -0.252706  0.630579 -0.708855 -0.316061
 0.171186 -0.890845 -0.115895 0.0626951 -0.896516  0.438553
 -0.356276 -0.0959918   0.164923 -0.0387301 -0.0452659   0.998224
 0.044201 -0.410241 -0.400395  0.140988  0.225166 -0.964066
-0.347276 -0.329708 -0.276445 -0.263252  0.398438 -0.878604
 -0.39746 -0.865946  -0.12368 -0.355053  -0.85191  0.384949
0.396197 0.824264 0.408805 -0.597986 -0.104141  0.794712
  -0.14567   0.245643 -0.0780074  0.220619  0.776475 -0.590266
  0.140014  -0.851181 -0.0302468 0.0712286 -0.797247  0.599437
0.364424 0.935305 0.361507 -0.897894 0.0456346   0.43784
0.336128 -0.03554 -0.24653  0.401397  0.480062 -0.780013
  -0.355264 -0.00431749    0.174805   -0.015635 -0.00566043    0.999862
-0.371508  0.249909 0.0217782 -0.438372  0.705086 -0.557389
   0.39762   0.224789 -0.0720897 0.629362 0.207958 -0.74877
-0.532347  0.373296  0.124735 0.201956 0.970296 -0.13319
 0.302089  0.165332 0.0883385 0.0920232 -0.200724  0.975316
0.0812215  -0.89045 -0.137336   0.02458 -0.954774  0.296316
 -0.49219 -0.579021 0.0512761   -0.5547 -0.248468  0.794085
  0.29468 -0.763129  -0.33346  0.556457  -0.54219 -0.629591
0.341375 0.543303 0.242709 -0.608242 -0.228182  0.760247
-0.0955758  -0.699436  -0.510984 0.00163231 -0.0726236  -0.997358
0.737934  0.20391 0.112674  0.56354 0.703387 0.433208
0.0130064  0.316616  0.145365 -0.328587  0.674657   0.66096
0.00716287   0.967517   0.410741 -0.0310328  -0.129993   0.991029
 0.313497 -0.646911 0.0972537  0.145458 -0.277181  0.949744
 0.514471 -0.642139 -0.112259   0.892811  -0.450044 -0.0186862
  0.550894 -0.0733355   0.109747  -0.357716 -0.0448016   0.932755
 0.167453 -0.442386  0.119386 -0.124676 0.0388543  0.991436
0.00313464  -0.151413  -0.321197 -0.0642223   0.270636  -0.960537
 0.313433 -0.168313 -0.323728  0.202778  0.457284 -0.865894
  -0.56045  -0.163766 -0.0791346 -0.943664  0.294705 -0.150491
