0.152482 0.009673 -0.260380 
0.137483 0.019891 -0.283486 
-0.000001 -0.104804 -0.313224 
-0.000001 -0.104804 -0.316562 
-0.000001 0.096539 -0.200975 
0.080030 0.111103 -0.186413 
0.105411 -0.104811 -0.290795 
0.090595 0.024923 -0.249391 
0.085549 0.019915 -0.251248 
0.136265 0.019890 -0.288582 
-0.000001 0.092848 -0.204666 
0.104070 -0.104811 -0.295862 
0.109595 0.109468 -0.178159 
0.090472 0.029824 -0.247640 
0.080166 0.019891 -0.251345 
0.150418 0.009673 -0.270691 
0.151473 0.009673 -0.265543 
0.135008 0.019891 -0.293657 
-0.000001 0.089201 -0.208313 
0.090555 0.113731 -0.182473 
0.085301 0.111173 -0.186329 
0.102686 -0.104810 -0.300911 
0.105145 0.110097 -0.180967 
0.090448 0.034625 -0.245728 
0.074746 0.019888 -0.251358 
0.149320 0.009673 -0.275829 
0.133702 0.019890 -0.298744 
-0.000001 -0.104804 -0.361036 
-0.000001 -0.104804 -0.354489 
-0.000001 0.085489 -0.212025 
0.095355 0.110951 -0.184950 
0.100293 0.110618 -0.183284 
0.090618 0.111150 -0.185890 
0.090648 0.107471 -0.189591 
0.101257 -0.104812 -0.305953 
0.090454 0.038951 -0.243844 
0.069361 0.019888 -0.251359 
0.148186 0.009673 -0.280967 
0.132355 0.019890 -0.303817 
-0.000001 -0.104804 -0.351285 
-0.000001 -0.104804 -0.336533 
-0.000001 0.081711 -0.215671 
0.090701 0.103773 -0.193281 
0.099783 -0.104809 -0.310983 
0.090479 0.043601 -0.241639 
0.063971 0.019888 -0.251360 
0.130967 0.019891 -0.308874 
-0.000001 -0.104804 -0.338357 
-0.000001 0.077816 -0.219189 
0.090639 0.099977 -0.197087 
0.098266 -0.104813 -0.315999 
0.090457 0.081559 -0.215381 
0.090480 0.077735 -0.218838 
0.090447 0.085281 -0.211822 
0.090454 0.088957 -0.208144 
0.090488 0.092640 -0.204453 
0.090554 0.096316 -0.200764 
0.090510 0.048219 -0.239261 
0.058636 0.019888 -0.251360 
0.146994 0.009673 -0.286096 
0.145783 0.009674 -0.291222 
0.129536 0.019890 -0.313924 
-0.000001 -0.104804 -0.341857 
-0.000001 0.073804 -0.222577 
0.096701 -0.104810 -0.321002 
0.090509 0.073838 -0.222139 
0.090531 0.069820 -0.225323 
0.090531 0.052719 -0.236754 
0.053280 0.019888 -0.251360 
0.144502 0.009673 -0.296324 
0.128067 0.019891 -0.318952 
-0.000001 -0.104804 -0.346828 
-0.000001 0.069684 -0.225829 
0.095097 -0.104812 -0.325983 
0.090539 0.065716 -0.228367 
0.090539 0.057148 -0.234096 
0.047939 0.019888 -0.251360 
0.126556 0.019890 -0.323959 
0.143200 0.009674 -0.301438 
0.093446 -0.104811 -0.330960 
0.090539 0.061489 -0.231295 
0.042599 0.019888 -0.251360 
0.125005 0.019892 -0.328950 
0.141837 0.009673 -0.306518 
-0.000001 -0.104804 -0.378536 
-0.000001 -0.104804 -0.373385 
-0.000001 0.065254 -0.229089 
-0.000001 0.060416 -0.232393 
0.091754 -0.104811 -0.335917 
0.037263 0.019888 -0.251360 
0.123403 0.019890 -0.333953 
0.090017 -0.104812 -0.340866 
0.031922 0.019888 -0.251360 
0.139012 0.009673 -0.316650 
0.140453 0.009673 -0.311585 
0.137536 0.009673 -0.321698 
0.121765 0.019891 -0.338926 
-0.000001 -0.104804 -0.367092 
0.088239 -0.104809 -0.345788 
0.026607 0.019888 -0.251360 
0.136024 0.009674 -0.326723 
0.120076 0.019890 -0.343911 
0.086417 -0.104813 -0.350704 
0.021290 0.019888 -0.251360 
0.134459 0.009673 -0.331741 
0.118351 0.019891 -0.348868 
-0.000001 -0.104804 -0.416012 
-0.000001 -0.104804 -0.410593 
-0.000001 0.054887 -0.235864 
-0.000001 0.049505 -0.238923 
0.084550 -0.104809 -0.355599 
0.015975 0.019888 -0.251360 
0.132865 0.009674 -0.336766 
0.116583 0.019891 -0.353818 
-0.000001 -0.104804 -0.403639 
-0.000001 0.039510 -0.243924 
-0.000001 0.034700 -0.246027 
0.082643 -0.104812 -0.360478 
0.010640 0.019888 -0.251360 
0.114784 0.019890 -0.358721 
0.131208 0.009673 -0.341767 
-0.000001 -0.104804 -0.382617 
-0.000001 0.029823 -0.247969 
0.080688 -0.104810 -0.365344 
0.005309 0.019888 -0.251360 
0.112940 0.019891 -0.363624 
0.129534 0.009674 -0.346769 
-0.000001 -0.104804 -0.388111 
-0.000001 0.024884 -0.249749 
0.078692 -0.104811 -0.370191 
-0.000001 0.019888 -0.251360 
-0.000001 0.019888 -0.256611 
-0.000001 0.019888 -0.261860 
0.111058 0.019890 -0.368505 
0.127793 0.009673 -0.351737 
0.126033 0.009674 -0.356697 
0.076655 -0.104811 -0.375019 
-0.000001 -0.104804 -0.392870 
-0.000001 0.019888 -0.267110 
0.109128 0.019892 -0.373387 
0.124217 0.009673 -0.361639 
0.074580 -0.104810 -0.379821 
-0.000001 -0.104804 -0.398267 
-0.000001 0.019888 -0.272361 
0.107159 0.019890 -0.378243 
0.072461 -0.104812 -0.384613 
-0.000001 0.019888 -0.277611 
0.122380 0.009674 -0.366544 
0.105151 0.019891 -0.383080 
0.070297 -0.104809 -0.389385 
-0.000001 0.019888 -0.282861 
0.103093 0.019890 -0.387920 
0.120491 0.009674 -0.371454 
0.068096 -0.104813 -0.394140 
-0.000001 0.019888 -0.288112 
0.116597 0.009673 -0.381227 
0.118559 0.009673 -0.376349 
0.101006 0.019891 -0.392717 
0.065848 -0.104809 -0.398870 
-0.000001 0.019888 -0.293362 
0.114580 0.009672 -0.386083 
0.098862 0.019891 -0.397538 
0.063564 -0.104812 -0.403576 
-0.000001 0.019888 -0.298611 
0.112540 0.009674 -0.390942 
0.096699 0.019890 -0.402293 
-0.000001 -0.104804 -0.420921 
0.061228 -0.104810 -0.408280 
-0.000001 0.019888 -0.303862 
0.110437 0.009672 -0.395760 
0.094492 0.019891 -0.407042 
-0.000001 -0.104804 -0.422380 
0.058860 -0.104811 -0.412949 
-0.000001 0.019888 -0.309112 
0.108313 0.009674 -0.400585 
0.092248 0.019890 -0.411765 
-0.000001 -0.104804 -0.425822 
0.056444 -0.104811 -0.417611 
-0.000001 0.019888 -0.314362 
0.106138 0.009673 -0.405363 
0.089965 0.019892 -0.416471 
-0.000001 -0.104804 -0.431975 
0.053996 -0.104810 -0.422234 
-0.000001 0.019888 -0.319613 
0.103938 0.009674 -0.410130 
0.087643 0.019890 -0.421154 
0.051507 -0.104812 -0.426842 
-0.000001 0.019888 -0.324863 
0.101691 0.009674 -0.414878 
0.085284 0.019892 -0.425814 
0.048973 -0.104809 -0.431429 
-0.000001 0.019888 -0.330113 
0.099407 0.009673 -0.419607 
0.082872 0.019891 -0.430477 
-0.000001 -0.104804 -0.439005 
0.046401 -0.104813 -0.435996 
-0.000001 0.019888 -0.335364 
0.097093 0.009673 -0.424307 
0.080425 0.019893 -0.435114 
-0.000001 -0.104804 -0.443866 
0.043788 -0.104809 -0.440535 
0.077930 0.019892 -0.439743 
0.094725 0.009673 -0.428998 
-0.000001 -0.104804 -0.448675 
0.041136 -0.104811 -0.445052 
-0.000001 0.019888 -0.346041 
-0.000001 0.019888 -0.351846 
-0.000001 0.019888 -0.340645 
0.092333 0.009674 -0.433678 
0.075414 0.019896 -0.444320 
-0.000001 -0.104804 -0.451431 
0.038439 -0.104810 -0.449554 
-0.000001 0.019888 -0.357636 
0.089880 0.009672 -0.438331 
0.072660 0.019892 -0.449241 
-0.000001 -0.104804 -0.457176 
-0.000001 -0.104804 -0.453786 
0.035708 -0.104810 -0.454025 
-0.000001 0.019888 -0.362991 
0.069866 0.019897 -0.454116 
0.087414 0.009673 -0.442972 
-0.000001 -0.104804 -0.461281 
0.032940 -0.104811 -0.458470 
-0.000001 0.019888 -0.367345 
0.067231 0.019893 -0.458639 
0.084885 0.009671 -0.447580 
0.030137 -0.104809 -0.462884 
0.064553 0.019890 -0.463147 
0.082335 0.009672 -0.452184 
-0.000001 -0.104804 -0.466788 
0.027288 -0.104813 -0.467287 
-0.000001 0.019888 -0.373375 
-0.000001 0.019888 -0.378121 
0.080026 0.009670 -0.456244 
0.061835 0.019893 -0.467632 
-0.000001 -0.104804 -0.469426 
0.024390 -0.104809 -0.471674 
0.059084 0.019890 -0.472083 
-0.000001 -0.104804 -0.475270 
-0.000001 -0.104804 -0.472034 
0.021463 -0.104812 -0.476025 
-0.000001 0.019888 -0.390125 
-0.000001 0.019888 -0.396068 
0.077423 0.009670 -0.460763 
0.056299 0.019891 -0.476506 
-0.000001 -0.104804 -0.479523 
0.018491 -0.104810 -0.480356 
-0.000001 0.019888 -0.398461 
0.053461 0.019890 -0.480930 
0.015461 -0.104811 -0.484692 
-0.000001 0.019888 -0.405284 
-0.000001 0.019888 -0.406531 
-0.000001 0.019888 -0.412528 
-0.000001 0.019888 -0.413700 
0.074758 0.009672 -0.465294 
0.072058 0.009672 -0.469795 
0.050592 0.019891 -0.485320 
-0.000001 -0.104804 -0.486648 
0.012326 -0.104811 -0.489093 
-0.000001 0.019888 -0.419168 
0.069324 0.009674 -0.474290 
0.047685 0.019891 -0.489691 
0.009143 -0.104817 -0.493472 
-0.000001 0.019888 -0.426770 
0.066545 0.009673 -0.478740 
0.044748 0.019891 -0.494025 
-0.000001 -0.104804 -0.492264 
0.005975 -0.104864 -0.497705 
-0.000001 0.019888 -0.435119 
-0.000001 0.019888 -0.436721 
0.063747 0.009675 -0.483187 
0.041769 0.019891 -0.498349 
-0.000001 -0.104804 -0.497964 
0.002776 -0.104948 -0.501658 
-0.000001 0.019888 -0.442666 
0.060883 0.009673 -0.487601 
0.038766 0.019890 -0.502627 
-0.000001 -0.104795 -0.505693 
0.055068 0.009673 -0.496378 
0.057997 0.009674 -0.492015 
0.035716 0.019892 -0.506897 
-0.000001 0.019888 -0.454500 
-0.000001 0.019888 -0.456555 
0.052119 0.009674 -0.500722 
0.032643 0.019890 -0.511123 
-0.000001 0.019888 -0.461788 
-0.000001 0.019888 -0.465324 
0.049119 0.009674 -0.505048 
0.029531 0.019892 -0.515330 
-0.000001 0.019888 -0.475359 
-0.000001 0.019888 -0.481915 
-0.000001 0.019888 -0.468206 
0.026368 0.019890 -0.519527 
-0.000001 0.019888 -0.487344 
0.046084 0.009674 -0.509350 
0.023182 0.019891 -0.523684 
-0.000001 0.019888 -0.493335 
0.019952 0.019890 -0.527825 
-0.000001 0.019888 -0.500467 
0.043024 0.009674 -0.513625 
0.039917 0.009674 -0.517868 
0.036790 0.009675 -0.522099 
0.016712 0.019891 -0.531909 
-0.000001 0.019888 -0.506024 
0.013484 0.019891 -0.535909 
-0.000001 0.019888 -0.511551 
-0.000001 0.019888 -0.518974 
0.033598 0.009673 -0.526301 
0.010217 0.019890 -0.539901 
-0.000001 0.019888 -0.524791 
0.030404 0.009674 -0.530478 
0.007010 0.019890 -0.543758 
-0.000001 0.019888 -0.529814 
-0.000001 0.019888 -0.536788 
0.027149 0.009673 -0.534619 
-0.000001 0.019888 -0.544268 
0.023896 0.009673 -0.538722 
0.020597 0.009672 -0.542791 
0.004145 0.019864 -0.547215 
0.017282 0.009671 -0.546827 
0.013771 0.009675 -0.551019 
0.010316 0.009677 -0.555067 
0.006981 0.009673 -0.558940 
0.003462 0.009671 -0.562923 
-0.000001 -0.069567 -0.538190 
-0.000001 -0.073873 -0.535036 
-0.000001 0.009671 -0.566819 
-0.000001 0.004395 -0.566409 
-0.000001 -0.026905 -0.559872 
-0.000001 -0.031931 -0.558130 
-0.000001 -0.046681 -0.551827 
-0.000001 -0.051422 -0.549414 
-0.000001 -0.063726 0.351711 
-0.000001 -0.068716 0.351711 
-0.035698 -0.030188 0.351682 
-0.032243 -0.031469 0.351680 
-0.026717 -0.032273 0.351667 
-0.040238 -0.027126 0.351616 
-0.043723 -0.023640 0.351617 
-0.021315 -0.032550 0.351704 
-0.021054 -0.027489 0.350255 
-0.020979 -0.024177 0.346906 
-0.021766 -0.037129 0.351711 
-0.046772 -0.019121 0.351686 
-0.015945 -0.032608 0.351711 
-0.022426 -0.041864 0.351711 
-0.020979 -0.022770 0.341856 
-0.048025 -0.015704 0.351680 
-0.010604 -0.032614 0.351711 
-0.023217 -0.046737 0.351711 
-0.035489 -0.018921 0.336592 
-0.031229 -0.021770 0.336579 
-0.026216 -0.022773 0.336576 
-0.020978 -0.022772 0.336587 
-0.048840 -0.010227 0.351669 
-0.005274 -0.032617 0.351711 
-0.024107 -0.051814 0.351711 
-0.038346 -0.014660 0.336612 
-0.043938 -0.009715 0.350202 
-0.040627 -0.009525 0.346698 
-0.015727 -0.022772 0.336604 
-0.020978 -0.022772 0.331294 
-0.049124 -0.005130 0.351704 
-0.024879 -0.056930 0.351711 
-0.010476 -0.022772 0.336613 
-0.020978 -0.022772 0.325987 
-0.049191 -0.000032 0.351711 
-0.025509 -0.062106 0.351711 
-0.039348 -0.009574 0.341792 
-0.039354 -0.009642 0.336664 
-0.039353 -0.009654 0.331491 
-0.005226 -0.022772 0.336617 
-0.021093 -0.022771 0.320687 
-0.049180 0.005003 0.351709 
-0.025855 -0.067573 0.351711 
-0.039353 -0.004016 0.336819 
-0.039353 -0.009650 0.325977 
-0.021426 -0.022719 0.315414 
-0.026643 -0.022495 0.315410 
-0.049125 0.010175 0.351641 
-0.054367 0.010060 0.351709 
-0.025962 -0.073306 0.351711 
-0.039353 -0.000937 0.336840 
-0.016019 -0.022759 0.315414 
-0.031268 -0.021432 0.315405 
-0.059546 0.010042 0.351711 
-0.049205 0.015726 0.349933 
-0.025974 -0.078548 0.351711 
-0.039353 0.004596 0.336644 
-0.039341 -0.009749 0.320723 
-0.010656 -0.022769 0.315414 
-0.035140 -0.018874 0.315405 
-0.028655 -0.030383 0.315414 
-0.022372 -0.031895 0.315414 
-0.064718 0.010042 0.351711 
-0.025977 -0.083814 0.351711 
-0.039355 0.010056 0.336575 
-0.016544 -0.032691 0.315414 
-0.005311 -0.022772 0.315414 
-0.037953 -0.014825 0.315405 
-0.033993 -0.028656 0.315414 
-0.069901 0.010042 0.351711 
-0.049205 0.018122 0.347528 
-0.025986 -0.089055 0.351711 
-0.039080 -0.010042 0.315411 
-0.039322 -0.004716 0.315412 
-0.040759 0.015080 0.336575 
-0.011011 -0.033015 0.315414 
-0.040826 -0.026099 0.315414 
-0.075078 0.010042 0.351711 
-0.025986 -0.094306 0.351711 
-0.039355 0.000708 0.315410 
-0.005491 -0.033104 0.315414 
-0.080242 0.010042 0.351711 
-0.049124 0.019818 0.341999 
-0.025986 -0.099555 0.351711 
-0.039794 0.011334 0.315408 
-0.039390 0.005604 0.315413 
-0.044066 0.018424 0.336583 
-0.047817 -0.026913 0.315414 
-0.085413 0.010042 0.351711 
-0.025986 -0.104805 0.351711 
-0.031188 -0.104805 0.351711 
-0.036390 -0.104805 0.351711 
-0.041592 -0.104805 0.351711 
-0.046794 -0.104805 0.351711 
-0.051996 -0.104805 0.351711 
-0.057197 -0.104805 0.351711 
-0.041096 0.014743 0.315396 
-0.021285 -0.053938 0.315414 
-0.015952 -0.053938 0.315414 
-0.052753 -0.026988 0.315414 
-0.031913 -0.053938 0.315414 
-0.026602 -0.053938 0.315414 
-0.090584 0.010042 0.351711 
-0.049183 0.019884 0.336583 
-0.059565 0.019886 0.336604 
-0.054385 0.019886 0.336591 
-0.020785 -0.104805 0.351711 
-0.062405 -0.104805 0.351711 
-0.043219 0.017080 0.315386 
-0.010623 -0.053938 0.315414 
-0.057657 -0.026297 0.315414 
-0.037229 -0.053938 0.315414 
-0.067612 -0.104805 0.351711 
-0.095760 0.010042 0.351711 
-0.064720 0.019886 0.336613 
-0.049197 0.019886 0.331279 
-0.015582 -0.104805 0.351711 
-0.049197 0.019886 0.325994 
-0.048858 0.019244 0.315402 
-0.005301 -0.053938 0.315414 
-0.042557 -0.053938 0.315414 
-0.064769 -0.026934 0.315414 
-0.072815 -0.104805 0.351711 
-0.100930 0.010042 0.351711 
-0.069891 0.019886 0.336617 
-0.010381 -0.104805 0.351711 
-0.005179 -0.104805 0.351711 
-0.049134 0.019872 0.320686 
-0.054356 0.019833 0.315414 
-0.047880 -0.053938 0.315414 
-0.070424 -0.027251 0.315414 
-0.078015 -0.104805 0.351711 
-0.106100 0.010042 0.351711 
-0.075065 0.019886 0.336617 
-0.059550 0.019888 0.315414 
-0.053206 -0.053938 0.315414 
-0.076109 -0.027400 0.315414 
-0.083218 -0.104805 0.351711 
-0.121661 -0.079083 0.351718 
-0.124208 -0.074527 0.351718 
-0.126633 -0.069900 0.351718 
-0.111273 0.010042 0.351711 
-0.080238 0.019886 0.336617 
-0.064665 0.019887 0.315414 
-0.058530 -0.053938 0.315414 
-0.081510 -0.027488 0.315414 
-0.088401 -0.104805 0.351711 
-0.118982 -0.083587 0.351717 
-0.128919 -0.065239 0.351718 
-0.116446 0.010042 0.351711 
-0.085412 0.019886 0.336617 
-0.069817 0.019887 0.315414 
-0.063853 -0.053938 0.315414 
-0.087925 -0.027609 0.315414 
-0.093569 -0.104804 0.351711 
-0.113265 -0.092376 0.351718 
-0.116185 -0.088009 0.351717 
-0.131082 -0.060509 0.351718 
-0.135021 -0.050894 0.351718 
-0.136794 -0.046015 0.351718 
-0.121607 0.010042 0.351711 
-0.090583 0.019886 0.336617 
-0.138437 -0.041081 0.351718 
-0.139962 -0.036058 0.351718 
-0.074970 0.019887 0.315414 
-0.069165 -0.053938 0.315414 
-0.093617 -0.030421 0.315414 
-0.098699 -0.104809 0.351712 
-0.109980 -0.097102 0.351715 
-0.133117 -0.055726 0.351718 
-0.142589 -0.025936 0.351718 
-0.143696 -0.020831 0.351718 
-0.141339 -0.031034 0.351718 
-0.144662 -0.015727 0.351718 
-0.126776 0.010042 0.351711 
-0.095751 0.019886 0.336617 
-0.080124 0.019887 0.315414 
-0.074464 -0.053938 0.315414 
-0.098329 -0.032707 0.315414 
-0.104015 -0.104805 0.351711 
-0.107253 -0.100729 0.351711 
-0.145480 -0.010654 0.351718 
-0.100927 0.019886 0.336617 
-0.106112 0.019886 0.336611 
-0.131905 0.010042 0.351711 
-0.146168 -0.005531 0.351718 
-0.085279 0.019887 0.315414 
-0.079735 -0.053938 0.315414 
-0.103011 -0.034966 0.315414 
-0.100206 -0.039455 0.315414 
-0.138790 -0.082198 0.335310 
-0.141267 -0.077469 0.335310 
-0.111297 0.019886 0.336592 
-0.137059 0.010042 0.351711 
-0.146720 -0.000362 0.351718 
-0.090440 0.019887 0.315414 
-0.085000 -0.053938 0.315415 
-0.097544 -0.044427 0.315414 
-0.105747 -0.030509 0.315414 
-0.107685 -0.037363 0.315421 
-0.108224 -0.104987 0.351060 
-0.114268 -0.104897 0.349452 
-0.117519 -0.104959 0.347580 
-0.143621 -0.072680 0.335310 
-0.136192 -0.086869 0.335310 
-0.116515 0.019886 0.336567 
-0.142211 0.010043 0.351711 
-0.121704 0.019886 0.336542 
-0.147131 0.004817 0.351718 
-0.095610 0.019887 0.315414 
-0.110801 -0.021434 0.315414 
-0.108350 -0.025984 0.315414 
-0.095883 -0.049492 0.315415 
-0.090253 -0.053942 0.315424 
-0.112236 -0.039972 0.314499 
-0.121168 -0.105005 0.343612 
-0.145854 -0.067831 0.335310 
-0.133437 -0.091536 0.335310 
-0.147442 0.010056 0.351697 
-0.126934 0.019886 0.336515 
-0.100792 0.019887 0.315414 
-0.113120 -0.016828 0.315414 
-0.095791 -0.053938 0.315414 
-0.130537 -0.096171 0.335310 
-0.127558 -0.100679 0.335231 
-0.147965 -0.062925 0.335310 
-0.105985 0.019887 0.315414 
-0.152877 0.009989 0.350770 
-0.147620 0.015156 0.350175 
-0.132249 0.019886 0.336463 
-0.117294 -0.007644 0.315414 
-0.115271 -0.012254 0.315414 
-0.116745 -0.042785 0.311185 
-0.123353 -0.105040 0.339444 
-0.124334 -0.104934 0.335094 
-0.153534 -0.047924 0.335310 
-0.155133 -0.042843 0.335310 
-0.149949 -0.057968 0.335310 
-0.111166 0.019886 0.315414 
-0.147645 0.018789 0.346215 
-0.137123 0.019886 0.336354 
-0.119197 -0.002938 0.315414 
-0.121062 0.001828 0.315414 
-0.101135 -0.053938 0.314817 
-0.107455 -0.054077 0.311778 
-0.124628 -0.104826 0.330052 
-0.151806 -0.052968 0.335310 
-0.156599 -0.037735 0.335310 
-0.116353 0.019884 0.315414 
-0.157093 0.009887 0.348570 
-0.142518 0.019886 0.336130 
-0.121398 0.019881 0.315413 
-0.122892 0.006706 0.315414 
-0.124669 -0.104805 0.324898 
-0.157941 -0.032570 0.335310 
-0.159153 -0.027366 0.335310 
-0.160231 -0.022140 0.335310 
-0.161177 -0.016887 0.335310 
-0.147936 0.019886 0.335816 
-0.147680 0.019992 0.341052 
-0.126440 0.019905 0.315391 
-0.124381 0.011049 0.315414 
-0.125581 0.015299 0.315413 
-0.111181 -0.054162 0.308890 
-0.119704 -0.044561 0.306166 
-0.113145 -0.054231 0.305738 
-0.124669 -0.104805 0.319699 
-0.161989 -0.011611 0.335310 
-0.160474 0.009831 0.345285 
-0.153294 0.019999 0.335442 
-0.131513 0.019912 0.315197 
-0.162668 -0.006308 0.335310 
-0.124669 -0.104805 0.314468 
-0.153886 0.019908 0.330121 
-0.136450 0.019865 0.314279 
-0.114415 -0.054061 0.300301 
-0.120804 -0.045065 0.300310 
-0.124669 -0.104805 0.309223 
-0.163108 0.009796 0.340141 
-0.154064 0.019887 0.324544 
-0.159050 0.018509 0.335305 
-0.140287 0.019823 0.312369 
-0.163212 -0.000991 0.335310 
-0.120874 -0.044958 0.295053 
-0.123721 -0.040332 0.295054 
-0.117907 -0.049489 0.295030 
-0.114841 -0.053850 0.294969 
-0.124669 -0.104805 0.303989 
-0.163870 0.009729 0.335351 
-0.163620 0.004340 0.335319 
-0.154073 0.019884 0.319315 
-0.143610 0.019826 0.309062 
-0.154118 0.019890 0.313957 
-0.126436 -0.035632 0.295054 
-0.120914 -0.044894 0.289807 
-0.114967 -0.053719 0.289726 
-0.124669 -0.104805 0.298761 
-0.162518 0.015054 0.335310 
-0.146344 0.019887 0.305020 
-0.154058 0.019887 0.309085 
-0.129012 -0.030869 0.295054 
-0.131457 -0.026033 0.295054 
-0.133763 -0.021136 0.295054 
-0.115044 -0.053612 0.284479 
-0.124669 -0.104805 0.293530 
-0.163894 0.009678 0.330052 
-0.154113 0.019891 0.304121 
-0.137968 -0.011140 0.295054 
-0.135934 -0.016170 0.295054 
-0.139858 -0.006062 0.295054 
-0.115120 -0.053504 0.279232 
-0.120945 -0.044845 0.284556 
-0.124669 -0.104805 0.288300 
-0.163895 0.009670 0.324819 
-0.154065 0.019883 0.299048 
-0.146869 0.019854 0.299716 
-0.115196 -0.053395 0.273995 
-0.120989 -0.044774 0.279282 
-0.124669 -0.104805 0.283071 
-0.163895 0.009670 0.319595 
-0.154051 0.019887 0.293810 
-0.147088 0.019877 0.294550 
-0.141590 -0.000983 0.295054 
-0.115272 -0.053287 0.268736 
-0.124669 -0.104805 0.277841 
-0.163895 0.009670 0.314374 
-0.154058 0.019887 0.288566 
-0.147120 0.019886 0.289317 
-0.145960 0.014624 0.294940 
-0.144656 0.009415 0.295053 
-0.143191 0.004177 0.295054 
-0.115349 -0.053179 0.263473 
-0.124669 -0.104805 0.272609 
-0.163895 0.009670 0.309142 
-0.154058 0.019887 0.283312 
-0.147120 0.019886 0.284077 
-0.163895 0.009669 0.303916 
-0.163895 0.009669 0.298697 
-0.115425 -0.053070 0.258208 
-0.121049 -0.044679 0.273988 
-0.124669 -0.104805 0.267373 
-0.154058 0.019887 0.278072 
-0.147120 0.019886 0.278841 
-0.121117 -0.044570 0.268692 
-0.115501 -0.052962 0.252955 
-0.124669 -0.104805 0.262140 
-0.154058 0.019886 0.272818 
-0.147120 0.019886 0.273585 
-0.163895 0.009670 0.293452 
-0.121187 -0.044457 0.263405 
-0.115578 -0.052854 0.247691 
-0.124669 -0.104805 0.256911 
-0.154058 0.019887 0.267576 
-0.147120 0.019887 0.268332 
-0.163895 0.009670 0.288226 
-0.163895 0.009670 0.282980 
-0.115655 -0.052745 0.242440 
-0.124669 -0.104805 0.251682 
-0.154058 0.019887 0.262332 
-0.147120 0.019887 0.263070 
-0.163895 0.009670 0.277745 
-0.121258 -0.044344 0.258123 
-0.121328 -0.044232 0.252847 
-0.115730 -0.052637 0.237179 
-0.124669 -0.104805 0.246451 
-0.154058 0.019887 0.257082 
-0.147120 0.019887 0.257808 
-0.163895 0.009669 0.272508 
-0.121398 -0.044120 0.247578 
-0.115807 -0.052529 0.231928 
-0.124669 -0.104805 0.241218 
-0.154058 0.019887 0.251832 
-0.147120 0.019887 0.252554 
-0.121467 -0.044009 0.242339 
-0.115884 -0.052420 0.226672 
-0.124669 -0.104805 0.235988 
-0.154058 0.019887 0.246549 
-0.147120 0.019887 0.247286 
-0.163895 0.009669 0.267291 
-0.121537 -0.043898 0.237070 
-0.115959 -0.052312 0.221415 
-0.124669 -0.104805 0.230756 
-0.154058 0.019887 0.241297 
-0.147120 0.019887 0.242035 
-0.163895 0.009670 0.262075 
-0.121606 -0.043785 0.231832 
-0.116036 -0.052204 0.216154 
-0.124669 -0.104805 0.225527 
-0.154058 0.019887 0.236044 
-0.147120 0.019887 0.236778 
-0.163895 0.009670 0.256834 
-0.121675 -0.043673 0.226584 
-0.116113 -0.052095 0.210897 
-0.124669 -0.104805 0.220288 
-0.154058 0.019887 0.230803 
-0.147120 0.019887 0.231525 
-0.163895 0.009670 0.251601 
-0.121744 -0.043561 0.221333 
-0.116189 -0.051987 0.205650 
-0.124669 -0.104805 0.215048 
-0.154058 0.019887 0.225550 
-0.147120 0.019887 0.226262 
-0.163895 0.009670 0.246338 
-0.116265 -0.051879 0.200410 
-0.124669 -0.104805 0.209820 
-0.154058 0.019887 0.220291 
-0.147120 0.019887 0.220991 
-0.163895 0.009670 0.241111 
-0.121885 -0.043333 0.210857 
-0.121815 -0.043447 0.216094 
-0.116341 -0.051771 0.195164 
-0.124669 -0.104805 0.204590 
-0.154058 0.019887 0.215031 
-0.147120 0.019887 0.215732 
-0.163895 0.009670 0.235887 
-0.121955 -0.043219 0.205628 
-0.116418 -0.051663 0.189918 
-0.124669 -0.104805 0.199362 
-0.154058 0.019887 0.209774 
-0.147120 0.019887 0.210484 
-0.163895 0.009670 0.230664 
-0.122025 -0.043105 0.200426 
-0.116494 -0.051553 0.184657 
-0.124669 -0.104805 0.194134 
-0.154058 0.019887 0.204516 
-0.147120 0.019887 0.205221 
-0.163895 0.009670 0.225424 
-0.116571 -0.051441 0.179399 
-0.122096 -0.042992 0.195228 
-0.124669 -0.104805 0.188905 
-0.154058 0.019887 0.199262 
-0.147120 0.019887 0.199966 
-0.163895 0.009670 0.220188 
-0.116648 -0.051329 0.174145 
-0.124669 -0.104805 0.183676 
-0.154058 0.019887 0.194018 
-0.147120 0.019887 0.194722 
-0.163895 0.009669 0.214976 
-0.116725 -0.051217 0.168887 
-0.122237 -0.042764 0.184748 
-0.122166 -0.042878 0.189999 
-0.124669 -0.104805 0.178448 
-0.154058 0.019887 0.188762 
-0.147120 0.019887 0.189463 
-0.163895 0.009670 0.209742 
-0.116801 -0.051106 0.163632 
-0.122308 -0.042649 0.179493 
-0.124669 -0.104805 0.173219 
-0.154058 0.019887 0.183513 
-0.147120 0.019887 0.184210 
-0.163895 0.009670 0.204505 
-0.163895 0.009670 0.199275 
-0.023602 -0.049201 0.074334 
-0.028853 -0.049201 0.074334 
-0.116878 -0.050994 0.158374 
-0.122379 -0.042535 0.174252 
-0.034103 -0.049201 0.074334 
-0.039353 -0.049201 0.074334 
-0.124669 -0.104805 0.167991 
-0.154058 0.019887 0.178262 
-0.147120 0.019887 0.178954 
-0.163895 0.009670 0.194041 
-0.018353 -0.049201 0.074334 
-0.122450 -0.042419 0.168994 
-0.116955 -0.050881 0.153120 
-0.044604 -0.049201 0.074334 
-0.124669 -0.104805 0.162762 
-0.154058 0.019887 0.173015 
-0.147120 0.019887 0.173701 
-0.013103 -0.049201 0.074334 
-0.122521 -0.042304 0.163724 
-0.117031 -0.050769 0.147863 
-0.049854 -0.049201 0.074334 
-0.117108 -0.050657 0.142608 
-0.124669 -0.104805 0.157533 
-0.154058 0.019887 0.167760 
-0.147120 0.019887 0.168450 
-0.163895 0.009670 0.188805 
-0.007852 -0.049201 0.074334 
-0.122593 -0.042188 0.158460 
-0.055104 -0.049201 0.074334 
-0.117185 -0.050545 0.137355 
-0.124669 -0.104805 0.152305 
-0.154058 0.019887 0.162508 
-0.147120 0.019887 0.163185 
-0.163895 0.009670 0.178341 
-0.163895 0.009670 0.183575 
-0.002602 -0.049201 0.074334 
-0.122665 -0.042073 0.153206 
-0.060354 -0.049201 0.074334 
-0.117261 -0.050433 0.132100 
-0.124669 -0.104805 0.147077 
-0.154058 0.019887 0.157267 
-0.147120 0.019887 0.157940 
-0.163895 0.009670 0.173111 
-0.122736 -0.041957 0.147942 
-0.065604 -0.049201 0.074334 
-0.117339 -0.050320 0.126848 
-0.124669 -0.104805 0.141848 
-0.154058 0.019887 0.152015 
-0.147120 0.019887 0.152686 
-0.117416 -0.050209 0.121595 
-0.070854 -0.049201 0.074334 
-0.122879 -0.041727 0.137450 
-0.122808 -0.041842 0.142695 
-0.124669 -0.104805 0.136619 
-0.154058 0.019887 0.146786 
-0.147120 0.019887 0.147435 
-0.163895 0.009670 0.167871 
-0.117493 -0.050097 0.116346 
-0.076105 -0.049201 0.074334 
-0.122951 -0.041611 0.132211 
-0.124669 -0.104805 0.131391 
-0.154058 0.019887 0.141530 
-0.147120 0.019887 0.142179 
-0.163895 0.009670 0.162634 
-0.117569 -0.049985 0.111090 
-0.081355 -0.049201 0.074334 
-0.124669 -0.104805 0.126163 
-0.154058 0.019887 0.136276 
-0.147120 0.019887 0.136925 
-0.163895 0.009670 0.157396 
-0.086605 -0.049201 0.074334 
-0.117646 -0.049873 0.105836 
-0.123094 -0.041380 0.121737 
-0.123023 -0.041496 0.126969 
-0.124669 -0.104805 0.120933 
-0.154058 0.019887 0.131005 
-0.147120 0.019887 0.131666 
-0.163895 0.009670 0.152166 
-0.163895 0.009670 0.146954 
-0.091875 -0.049201 0.074334 
-0.117723 -0.049761 0.100582 
-0.123166 -0.041265 0.116514 
-0.124669 -0.104805 0.115705 
-0.154058 0.019887 0.125772 
-0.147120 0.019887 0.126417 
-0.097162 -0.049201 0.074334 
-0.117799 -0.049648 0.095317 
-0.123239 -0.041146 0.111266 
-0.124669 -0.104805 0.110478 
-0.154058 0.019887 0.120528 
-0.147120 0.019887 0.121163 
-0.163895 0.009670 0.141714 
-0.102449 -0.049200 0.074334 
-0.117876 -0.049536 0.090061 
-0.123318 -0.041017 0.105992 
-0.124669 -0.104805 0.105248 
-0.154058 0.019887 0.115277 
-0.147120 0.019887 0.115908 
-0.163895 0.009670 0.136479 
-0.117953 -0.049424 0.084805 
-0.107792 -0.049197 0.074334 
-0.123409 -0.040870 0.100713 
-0.124669 -0.104805 0.100020 
-0.154058 0.019887 0.110027 
-0.147120 0.019887 0.110659 
-0.163895 0.009670 0.131238 
-0.118034 -0.049345 0.079632 
-0.113582 -0.049313 0.074334 
-0.123518 -0.040691 0.095420 
-0.124669 -0.104805 0.094792 
-0.154058 0.019887 0.104783 
-0.147120 0.019887 0.105400 
-0.163895 0.009670 0.126009 
-0.118454 -0.049983 0.074402 
-0.123635 -0.040488 0.090152 
-0.124669 -0.104805 0.089567 
-0.154058 0.019887 0.099526 
-0.147120 0.019887 0.100139 
-0.163895 0.009670 0.120793 
-0.120697 -0.045350 0.074333 
-0.123745 -0.040300 0.084860 
-0.124669 -0.104805 0.084342 
-0.154058 0.019887 0.094289 
-0.147120 0.019887 0.094898 
-0.163895 0.009670 0.115566 
-0.123462 -0.040655 0.074334 
-0.124669 -0.104805 0.079114 
-0.154058 0.019887 0.089035 
-0.147120 0.019887 0.089643 
-0.163895 0.009670 0.110333 
-0.163895 0.009670 0.105102 
-0.123749 -0.040291 0.079593 
-0.126234 -0.035914 0.074334 
-0.124669 -0.104805 0.073882 
-0.154058 0.019887 0.083784 
-0.147120 0.019887 0.084385 
-0.163894 0.009670 0.099869 
-0.128910 -0.030969 0.074334 
-0.124669 -0.104805 0.068656 
-0.154053 0.019887 0.078518 
-0.147120 0.019888 0.079126 
-0.163895 0.009670 0.094636 
-0.131406 -0.026030 0.074334 
-0.124669 -0.104805 0.063426 
-0.154041 0.019886 0.073361 
-0.147120 0.019887 0.074334 
-0.163895 0.009670 0.089403 
-0.133735 -0.021085 0.074334 
-0.124669 -0.104805 0.058197 
-0.154041 0.019886 0.067872 
-0.145869 0.014399 0.074333 
-0.163894 0.009670 0.084166 
-0.135918 -0.016092 0.074334 
-0.124669 -0.104805 0.052971 
-0.154049 0.019887 0.062575 
-0.141631 0.019902 0.074326 
-0.163895 0.009670 0.078929 
-0.137948 -0.011062 0.074334 
-0.124669 -0.104805 0.047742 
-0.154055 0.019887 0.057303 
-0.136455 0.019884 0.074332 
-0.144606 0.009395 0.074334 
-0.163895 0.009669 0.073693 
-0.139838 -0.005974 0.074334 
-0.124669 -0.104805 0.042512 
-0.154056 0.019887 0.052049 
-0.131232 0.019887 0.074334 
-0.131232 0.019887 0.069094 
-0.163895 0.009669 0.068460 
-0.141580 -0.000858 0.074334 
-0.124669 -0.104805 0.037279 
-0.154057 0.019887 0.046796 
-0.131232 0.019887 0.063854 
-0.143184 0.004311 0.074334 
-0.131232 0.025215 0.074334 
-0.163895 0.009669 0.063248 
-0.124669 -0.104805 0.032049 
-0.154058 0.019887 0.041524 
-0.131232 0.019887 0.058621 
-0.131232 0.030501 0.074334 
-0.163895 0.009670 0.058036 
-0.124669 -0.104805 0.026821 
-0.154058 0.019887 0.036282 
-0.131232 0.019887 0.053409 
-0.163894 0.009670 0.052814 
-0.131232 0.035808 0.074334 
-0.124669 -0.104805 0.021593 
-0.154058 0.019887 0.031035 
-0.131232 0.019887 0.048187 
-0.163895 0.009670 0.047577 
-0.131232 0.041115 0.074335 
-0.124669 -0.104805 0.016362 
-0.154058 0.019887 0.025795 
-0.131232 0.019887 0.042965 
-0.163895 0.009670 0.042339 
-0.131232 0.046422 0.074335 
-0.124669 -0.104805 0.011134 
-0.154057 0.019887 0.020549 
-0.131232 0.019887 0.037743 
-0.163895 0.009669 0.037108 
-0.131232 0.051730 0.074335 
-0.031300 0.115901 0.074335 
-0.026079 0.115901 0.074335 
-0.041740 0.115901 0.074335 
-0.036519 0.115901 0.074335 
-0.124669 -0.104805 0.005906 
-0.154058 0.019887 0.015298 
-0.131232 0.019887 0.032525 
-0.163895 0.009669 0.031879 
-0.131232 0.057037 0.074335 
-0.020858 0.115901 0.074335 
-0.046960 0.115901 0.074335 
-0.124669 -0.104805 0.000678 
-0.154058 0.019887 0.010049 
-0.131232 0.019887 0.027302 
-0.163895 0.009670 0.026649 
-0.131232 0.062344 0.074335 
-0.015638 0.115901 0.074335 
-0.052181 0.115901 0.074335 
-0.124669 -0.104805 -0.004551 
-0.154058 0.019887 0.004793 
-0.131232 0.019887 0.022081 
-0.163895 0.009670 0.021414 
-0.131232 0.067646 0.074335 
-0.010418 0.115901 0.074335 
-0.057401 0.115901 0.074335 
-0.124669 -0.104805 -0.009780 
-0.154057 0.019888 -0.000458 
-0.131232 0.019887 0.016858 
-0.163895 0.009670 0.016176 
-0.131232 0.072948 0.074335 
-0.005198 0.115901 0.074335 
-0.062621 0.115901 0.074335 
-0.124669 -0.104805 -0.015008 
-0.154057 0.019888 -0.005730 
-0.131232 0.019887 0.011636 
-0.163895 0.009670 0.010934 
-0.131232 0.078236 0.074335 
-0.067842 0.115901 0.074335 
-0.124669 -0.104805 -0.020242 
-0.154058 0.019887 -0.011002 
-0.131232 0.019887 0.006414 
-0.163895 0.009670 0.005701 
-0.131232 0.083525 0.074335 
-0.073062 0.115901 0.074335 
-0.124669 -0.104805 -0.025481 
-0.154059 0.019886 -0.016254 
-0.131232 0.019887 0.001193 
-0.163895 0.009670 0.000465 
-0.131233 0.088783 0.074335 
-0.078282 0.115901 0.074335 
-0.124669 -0.104805 -0.030703 
-0.154059 0.019886 -0.021523 
-0.131232 0.019887 -0.004030 
-0.163895 0.009670 -0.004767 
-0.131214 0.094032 0.074335 
-0.083503 0.115901 0.074335 
-0.124669 -0.104805 -0.035928 
-0.154058 0.019887 -0.026775 
-0.131232 0.019887 -0.009244 
-0.163895 0.009671 -0.010005 
-0.130948 0.099391 0.074337 
-0.131235 0.099454 0.069153 
-0.088737 0.115901 0.074335 
-0.124669 -0.104805 -0.041160 
-0.154058 0.019887 -0.032029 
-0.131232 0.019887 -0.014466 
-0.163895 0.009670 -0.015245 
-0.131232 0.099495 0.063961 
-0.093961 0.115901 0.074335 
-0.088730 0.115901 0.069086 
-0.124669 -0.104805 -0.046386 
-0.154058 0.019887 -0.037265 
-0.131232 0.019887 -0.019688 
-0.163895 0.009670 -0.020475 
-0.131232 0.099495 0.058782 
-0.129841 0.104666 0.074346 
-0.099194 0.115900 0.074335 
-0.088722 0.115901 0.063860 
-0.124669 -0.104805 -0.051618 
-0.163895 0.009670 -0.025712 
-0.154057 0.019887 -0.042510 
-0.131232 0.019887 -0.024910 
-0.131232 0.099495 0.053599 
-0.127580 0.108954 0.074347 
-0.109673 0.115900 0.074335 
-0.104414 0.115901 0.074335 
-0.088708 0.115901 0.058663 
-0.124669 -0.104805 -0.056859 
-0.163895 0.009670 -0.030933 
-0.154057 0.019887 -0.047768 
-0.131232 0.019887 -0.030132 
-0.131232 0.099495 0.048405 
-0.124099 0.112385 0.074347 
-0.115617 0.115835 0.074334 
-0.088672 0.115901 0.053477 
-0.124669 -0.104805 -0.062086 
-0.163895 0.009670 -0.036168 
-0.154059 0.019887 -0.053027 
-0.131232 0.019887 -0.035353 
-0.131232 0.099495 0.043221 
-0.119218 0.115051 0.074339 
-0.114982 0.115889 0.069128 
-0.088631 0.115901 0.048322 
-0.124669 -0.104805 -0.067303 
-0.163895 0.009670 -0.041402 
-0.154065 0.019887 -0.058282 
-0.131232 0.019887 -0.040576 
-0.131232 0.099495 0.038013 
-0.114825 0.115901 0.063951 
-0.088597 0.115901 0.043184 
-0.124669 -0.104805 -0.072535 
-0.163895 0.009670 -0.046644 
-0.154071 0.019888 -0.063531 
-0.131232 0.019887 -0.045798 
-0.131232 0.099495 0.032827 
-0.114825 0.115901 0.058775 
-0.088579 0.115901 0.038030 
-0.124669 -0.104805 -0.077766 
-0.163895 0.009670 -0.051888 
-0.154064 0.019886 -0.069043 
-0.131232 0.019887 -0.051020 
-0.131232 0.099495 0.027635 
-0.114825 0.115901 0.053599 
-0.088574 0.115901 0.032857 
-0.124669 -0.104805 -0.082996 
-0.163895 0.009670 -0.057135 
-0.154077 0.019888 -0.074561 
-0.131232 0.019887 -0.056242 
-0.131232 0.099495 0.022451 
-0.114825 0.115901 0.048430 
-0.088574 0.115901 0.027672 
-0.124669 -0.104804 -0.088211 
-0.163895 0.009670 -0.062375 
-0.154066 0.019887 -0.079792 
-0.131231 0.019887 -0.061467 
-0.131232 0.099495 0.017287 
-0.114825 0.115901 0.043258 
-0.088574 0.115901 0.022488 
-0.124669 -0.104804 -0.093434 
-0.163895 0.009671 -0.067609 
-0.154059 0.019887 -0.085031 
-0.131232 0.019887 -0.066677 
-0.131232 0.099495 0.012105 
-0.114825 0.115901 0.038064 
-0.088574 0.115901 0.017303 
-0.124669 -0.104804 -0.098664 
-0.163894 0.009671 -0.072853 
-0.154058 0.019887 -0.090279 
-0.131231 0.019887 -0.077042 
-0.131232 0.019887 -0.071838 
-0.131232 0.099495 0.006902 
-0.114825 0.115901 0.032892 
-0.088574 0.115901 0.012119 
-0.124669 -0.104804 -0.103897 
-0.131232 0.019887 -0.082263 
-0.154058 0.019887 -0.095523 
-0.131232 0.099495 0.001712 
-0.114825 0.115901 0.027715 
-0.088574 0.115901 0.006934 
-0.124669 -0.104804 -0.109128 
-0.163894 0.009671 -0.078096 
-0.131232 0.019887 -0.087486 
-0.154058 0.019887 -0.100768 
-0.131232 0.099495 -0.003477 
-0.114825 0.115901 0.022527 
-0.088574 0.115901 0.001750 
-0.124669 -0.104804 -0.114355 
-0.163895 0.009671 -0.083329 
-0.131232 0.019887 -0.092707 
-0.154057 0.019888 -0.106006 
-0.131232 0.099495 -0.008654 
-0.114825 0.115901 0.017330 
-0.088574 0.115901 -0.003435 
-0.124669 -0.104804 -0.119584 
-0.163895 0.009670 -0.088544 
-0.131232 0.019887 -0.097930 
-0.154054 0.019890 -0.111240 
-0.131232 0.099495 -0.013813 
-0.114825 0.115901 0.012139 
-0.088574 0.115901 -0.008620 
-0.124669 -0.104804 -0.124812 
-0.163895 0.009670 -0.093764 
-0.131232 0.019887 -0.103151 
-0.163894 0.009670 -0.099002 
-0.154050 0.019893 -0.116470 
-0.131232 0.099495 -0.018990 
-0.114825 0.115901 0.006972 
-0.088574 0.115901 -0.013805 
-0.124669 -0.104804 -0.130024 
-0.131232 0.019887 -0.108374 
-0.163895 0.009670 -0.104223 
-0.154040 0.019891 -0.122233 
-0.131232 0.099495 -0.024178 
-0.114825 0.115901 0.001786 
-0.088574 0.115901 -0.018989 
-0.124667 -0.104805 -0.135258 
-0.131232 0.019887 -0.113595 
-0.163896 0.009669 -0.109442 
-0.153995 0.019927 -0.128013 
-0.131232 0.099495 -0.029375 
-0.114825 0.115901 -0.003402 
-0.088574 0.115901 -0.024174 
-0.124656 -0.104809 -0.140489 
-0.131232 0.019887 -0.118817 
-0.163896 0.009668 -0.114673 
-0.153997 0.019922 -0.133418 
-0.131232 0.099495 -0.034573 
-0.114825 0.115901 -0.008600 
-0.088574 0.115901 -0.029358 
-0.131232 0.025137 -0.118852 
-0.131232 0.019887 -0.124039 
-0.163896 0.009670 -0.119956 
-0.154049 0.019887 -0.140185 
-0.131232 0.099495 -0.039755 
-0.114825 0.115901 -0.013797 
-0.088574 0.115901 -0.034543 
-0.124617 -0.104809 -0.145726 
-0.127666 -0.100455 -0.145739 
-0.130621 -0.095985 -0.145743 
-0.131232 0.030387 -0.118860 
-0.131232 0.019887 -0.129261 
-0.163897 0.009665 -0.124729 
-0.131232 0.099495 -0.044917 
-0.114825 0.115901 -0.018959 
-0.088574 0.115901 -0.039727 
-0.124547 -0.104812 -0.150956 
-0.133453 -0.091455 -0.145744 
-0.131232 0.035608 -0.118896 
-0.131232 0.019887 -0.134483 
-0.153930 0.019919 -0.147604 
-0.148302 0.019887 -0.148578 
-0.131232 0.099495 -0.050105 
-0.114825 0.115901 -0.024131 
-0.088574 0.115901 -0.044913 
-0.124430 -0.104810 -0.156205 
-0.136170 -0.086852 -0.145744 
-0.138765 -0.082189 -0.145744 
-0.163898 0.009666 -0.130179 
-0.131232 0.040854 -0.119030 
-0.131232 0.019887 -0.139705 
-0.142367 0.019887 -0.149464 
-0.158200 0.018946 -0.146787 
-0.153842 0.019925 -0.152955 
-0.131232 0.099495 -0.055298 
-0.114825 0.115901 -0.029316 
-0.088574 0.115901 -0.050097 
-0.124269 -0.104811 -0.161441 
-0.141244 -0.077454 -0.145744 
-0.163897 0.009666 -0.135299 
-0.131232 0.046009 -0.119314 
-0.131232 0.019887 -0.144926 
-0.136696 0.019887 -0.149962 
-0.153740 0.019895 -0.158728 
-0.131232 0.099495 -0.060495 
-0.114825 0.115901 -0.034513 
-0.088574 0.115901 -0.055282 
-0.124063 -0.104811 -0.166684 
-0.143596 -0.072671 -0.145744 
-0.163894 0.009671 -0.140496 
-0.131232 0.051178 -0.119870 
-0.131232 0.019887 -0.150151 
-0.161502 0.016466 -0.146074 
-0.153555 0.019896 -0.164463 
-0.131232 0.099495 -0.065691 
-0.114825 0.115901 -0.039714 
-0.088574 0.115901 -0.060466 
-0.123810 -0.104810 -0.171915 
-0.145827 -0.067827 -0.145744 
-0.163857 0.009668 -0.145717 
-0.163571 0.004371 -0.145744 
-0.131232 0.056210 -0.120786 
-0.131232 0.019887 -0.155372 
-0.162979 0.014213 -0.145783 
-0.153338 0.019894 -0.169701 
-0.131232 0.099495 -0.076023 
-0.131232 0.099495 -0.070859 
-0.114825 0.115901 -0.044905 
-0.088574 0.115901 -0.065651 
-0.123514 -0.104813 -0.177148 
-0.147936 -0.062922 -0.145744 
-0.163164 -0.000977 -0.145744 
-0.131232 0.063278 -0.122519 
-0.131232 0.019887 -0.160600 
-0.131232 0.099495 -0.081204 
-0.153074 0.019890 -0.174938 
-0.114825 0.115901 -0.050067 
-0.026837 0.115901 -0.117063 
-0.021370 0.115901 -0.117064 
-0.088574 0.115901 -0.070835 
-0.038035 0.115901 -0.117094 
-0.032345 0.115901 -0.117069 
-0.123169 -0.104809 -0.182374 
-0.149919 -0.057970 -0.145744 
-0.163804 0.009671 -0.150899 
-0.131232 0.069982 -0.120221 
-0.131232 0.019887 -0.165829 
-0.131232 0.099495 -0.086391 
-0.163682 0.009667 -0.156363 
-0.163550 0.009672 -0.161110 
-0.152766 0.019891 -0.180144 
-0.114825 0.115901 -0.055238 
-0.015987 0.115901 -0.117064 
-0.088574 0.115901 -0.076020 
-0.043781 0.115901 -0.117139 
-0.122779 -0.104813 -0.187601 
-0.151774 -0.052969 -0.145744 
-0.161948 -0.011593 -0.145744 
-0.162625 -0.006288 -0.145744 
-0.131232 0.074370 -0.119135 
-0.131232 0.099495 -0.091590 
-0.131232 0.019887 -0.171057 
-0.152446 0.019890 -0.184873 
-0.114825 0.115901 -0.060437 
-0.010642 0.115901 -0.117064 
-0.088574 0.115901 -0.081205 
-0.049647 0.115901 -0.117191 
-0.122340 -0.104810 -0.192827 
-0.153504 -0.047920 -0.145744 
-0.155103 -0.042831 -0.145744 
-0.156574 -0.037702 -0.145744 
-0.161141 -0.016855 -0.145744 
-0.131232 0.078969 -0.118483 
-0.131232 0.099495 -0.096793 
-0.131232 0.019885 -0.176360 
-0.163354 0.009671 -0.166405 
-0.152051 0.019891 -0.190112 
-0.005309 0.115901 -0.117064 
-0.114825 0.115901 -0.065637 
-0.088574 0.115901 -0.086390 
-0.055514 0.115901 -0.117236 
-0.121859 -0.104812 -0.198040 
-0.157914 -0.032534 -0.145744 
-0.159122 -0.027336 -0.145744 
-0.160198 -0.022109 -0.145744 
-0.131232 0.084093 -0.118036 
-0.131232 0.099495 -0.101968 
-0.131232 0.019881 -0.181694 
-0.151611 0.019890 -0.195349 
-0.163115 0.009672 -0.171671 
-0.114825 0.115901 -0.070831 
-0.114825 0.115901 -0.076006 
-0.088574 0.115901 -0.091574 
-0.061299 0.115901 -0.117250 
-0.121330 -0.104811 -0.203261 
-0.131232 0.089129 -0.117829 
-0.131232 0.099495 -0.107159 
-0.131231 0.019873 -0.187013 
-0.151132 0.019890 -0.200591 
-0.088565 0.115901 -0.096759 
-0.066911 0.115901 -0.117217 
-0.120758 -0.104811 -0.208446 
-0.131232 0.094272 -0.117630 
-0.131232 0.099495 -0.112351 
-0.131232 0.019751 -0.192957 
-0.162841 0.009673 -0.176922 
-0.162510 0.009672 -0.182175 
-0.150609 0.019891 -0.205826 
-0.114825 0.115901 -0.081195 
-0.088543 0.115901 -0.101943 
-0.072372 0.115901 -0.117182 
-0.120139 -0.104812 -0.213661 
-0.131232 0.099495 -0.117545 
-0.131232 0.019887 -0.197176 
-0.114825 0.115901 -0.086374 
-0.162160 0.009673 -0.187402 
-0.161737 0.009671 -0.192636 
-0.150035 0.019890 -0.211066 
-0.088506 0.115901 -0.107122 
-0.077762 0.115901 -0.117199 
-0.119474 -0.104810 -0.218856 
-0.131232 0.099493 -0.122683 
-0.114825 0.115901 -0.091561 
-0.114825 0.115901 -0.096743 
-0.131198 0.019682 -0.201802 
-0.149399 0.019891 -0.216445 
-0.026638 0.115901 -0.159066 
-0.021306 0.115901 -0.159066 
-0.088465 0.115901 -0.112189 
-0.083110 0.115901 -0.117242 
-0.037303 0.115901 -0.159066 
-0.031971 0.115901 -0.159066 
-0.118767 -0.104813 -0.224044 
-0.131231 0.099493 -0.127769 
-0.130395 0.104639 -0.117513 
-0.128108 0.109112 -0.117517 
-0.114825 0.115901 -0.101938 
-0.130910 0.019771 -0.206602 
-0.161299 0.009673 -0.197863 
-0.160791 0.009672 -0.203091 
-0.148742 0.019890 -0.221650 
-0.015973 0.115901 -0.159066 
-0.088401 0.115901 -0.117254 
-0.042634 0.115901 -0.159066 
-0.118009 -0.104809 -0.229231 
-0.131232 0.099495 -0.133051 
-0.124522 0.112717 -0.117514 
-0.114825 0.115901 -0.107133 
-0.129968 0.019897 -0.212903 
-0.148040 0.019891 -0.226880 
-0.010642 0.115901 -0.159066 
-0.093725 0.115901 -0.117248 
-0.088251 0.115901 -0.122444 
-0.047967 0.115901 -0.159065 
-0.117210 -0.104813 -0.234400 
-0.130936 0.100803 -0.139072 
-0.114825 0.115901 -0.112321 
-0.128784 0.019936 -0.217772 
-0.147304 0.019890 -0.231994 
-0.005309 0.115901 -0.159066 
-0.099001 0.115901 -0.117285 
-0.087944 0.115901 -0.127629 
-0.053265 0.115901 -0.159058 
-0.116359 -0.104810 -0.239579 
-0.130285 0.101841 -0.143723 
-0.129187 0.102958 -0.148705 
-0.119979 0.115062 -0.117512 
-0.114825 0.115901 -0.117496 
-0.127089 0.019916 -0.222583 
-0.160259 0.009673 -0.208318 
-0.159672 0.009673 -0.213546 
-0.146527 0.019891 -0.237115 
-0.109563 0.115901 -0.117452 
-0.104291 0.115901 -0.117369 
-0.087507 0.115901 -0.132857 
-0.058582 0.115901 -0.159025 
-0.115469 -0.104811 -0.244740 
-0.127666 0.104024 -0.153557 
-0.124686 0.019918 -0.227522 
-0.145692 0.019890 -0.242312 
-0.159048 0.009673 -0.218770 
-0.021307 0.111096 -0.186418 
-0.026639 0.111096 -0.186418 
-0.087121 0.115901 -0.138730 
-0.063870 0.115901 -0.158952 
-0.031972 0.111096 -0.186418 
-0.037304 0.111096 -0.186418 
-0.114529 -0.104811 -0.249902 
-0.114825 0.115901 -0.122631 
-0.124307 0.025171 -0.226479 
-0.121751 0.019925 -0.232148 
-0.144814 0.019890 -0.247497 
-0.158382 0.009674 -0.223987 
-0.015975 0.111096 -0.186418 
-0.087107 0.115901 -0.144669 
-0.069162 0.115901 -0.158843 
-0.042635 0.111096 -0.186418 
-0.113548 -0.104810 -0.255039 
-0.125669 0.105089 -0.158390 
-0.114806 0.115903 -0.127735 
-0.123915 0.030268 -0.224988 
-0.118474 0.019931 -0.236244 
-0.157662 0.009673 -0.229218 
-0.143896 0.019891 -0.252663 
-0.010644 0.111096 -0.186418 
-0.087545 0.115901 -0.149966 
-0.074555 0.115901 -0.158644 
-0.112521 -0.104812 -0.260182 
-0.124045 0.085356 -0.182058 
-0.124409 0.089132 -0.177486 
-0.124032 0.081623 -0.185817 
-0.124121 0.077774 -0.189476 
-0.124173 0.074003 -0.193138 
-0.124206 0.070268 -0.196807 
-0.124317 0.091326 -0.175600 
-0.124103 0.093456 -0.173900 
-0.122901 0.098189 -0.171665 
-0.121777 0.102614 -0.169423 
-0.123250 0.106107 -0.162977 
-0.114694 0.115912 -0.132829 
-0.114742 0.019933 -0.239946 
-0.123571 0.035375 -0.223163 
-0.156917 0.009674 -0.234431 
-0.142934 0.019890 -0.257826 
-0.005309 0.111096 -0.186418 
-0.088395 0.115901 -0.155258 
-0.083120 0.115901 -0.156721 
-0.077600 0.115901 -0.158194 
-0.047963 0.111096 -0.186418 
-0.111449 -0.104809 -0.265310 
-0.124206 0.066420 -0.200445 
-0.124200 0.062427 -0.204009 
-0.120449 0.107053 -0.167256 
-0.114357 0.115922 -0.137956 
-0.110538 0.019935 -0.243239 
-0.123572 0.038338 -0.221618 
-0.123766 0.044518 -0.217782 
-0.141930 0.019891 -0.262987 
-0.156108 0.009672 -0.239630 
-0.094034 0.115901 -0.154113 
-0.089764 0.115901 -0.161769 
-0.053296 0.111096 -0.186418 
-0.110334 -0.104813 -0.270431 
-0.124145 0.057977 -0.207812 
-0.113656 0.115923 -0.143085 
-0.105965 0.019939 -0.246027 
-0.155282 0.009674 -0.244828 
-0.140884 0.019890 -0.268124 
-0.098799 0.115901 -0.154270 
-0.089693 0.115901 -0.168227 
-0.058632 0.111096 -0.186418 
-0.109169 -0.104809 -0.275537 
-0.124141 0.055365 -0.209813 
-0.124098 0.050455 -0.213336 
-0.117137 0.107954 -0.171359 
-0.118071 0.111425 -0.164709 
-0.112538 0.115924 -0.147984 
-0.101099 0.019941 -0.248243 
-0.154379 0.009673 -0.250034 
-0.139797 0.019892 -0.273247 
-0.103193 0.115901 -0.155365 
-0.089945 0.115959 -0.173587 
-0.063966 0.111096 -0.186418 
-0.069305 0.111094 -0.186421 
-0.107964 -0.104812 -0.280627 
-0.110950 0.115929 -0.152746 
-0.096046 0.019941 -0.249844 
-0.153460 0.009674 -0.255217 
-0.138663 0.019890 -0.278370 
-0.108572 0.115931 -0.157913 
-0.090447 0.115338 -0.178532 
-0.074837 0.111091 -0.186431 
-0.106710 -0.104810 -0.285717 
-0.113383 0.108779 -0.175118 
-0.113609 0.114986 -0.160787 
-0.090848 0.019937 -0.250827 
-0.152484 0.009673 -0.260380 
-0.137485 0.019891 -0.283486 
-0.080032 0.111103 -0.186413 
-0.105413 -0.104811 -0.290795 
-0.090598 0.024923 -0.249391 
-0.085552 0.019915 -0.251248 
-0.136267 0.019890 -0.288582 
-0.104071 -0.104811 -0.295862 
-0.109598 0.109468 -0.178159 
-0.090475 0.029824 -0.247640 
-0.080168 0.019891 -0.251345 
-0.150421 0.009673 -0.270691 
-0.151475 0.009673 -0.265543 
-0.135010 0.019891 -0.293657 
-0.090558 0.113731 -0.182473 
-0.085303 0.111173 -0.186329 
-0.102688 -0.104810 -0.300911 
-0.105148 0.110097 -0.180967 
-0.090450 0.034625 -0.245728 
-0.074748 0.019888 -0.251358 
-0.149322 0.009673 -0.275829 
-0.133704 0.019890 -0.298744 
-0.095357 0.110951 -0.184950 
-0.100295 0.110618 -0.183284 
-0.090621 0.111150 -0.185890 
-0.090651 0.107471 -0.189591 
-0.101260 -0.104812 -0.305953 
-0.090456 0.038951 -0.243844 
-0.069362 0.019888 -0.251359 
-0.148189 0.009673 -0.280967 
-0.132358 0.019890 -0.303817 
-0.090703 0.103773 -0.193281 
-0.099785 -0.104809 -0.310983 
-0.090482 0.043601 -0.241639 
-0.063974 0.019888 -0.251360 
-0.130970 0.019891 -0.308874 
-0.090642 0.099977 -0.197087 
-0.098269 -0.104813 -0.315999 
-0.090460 0.081559 -0.215381 
-0.090482 0.077735 -0.218838 
-0.090449 0.085281 -0.211822 
-0.090457 0.088957 -0.208144 
-0.090490 0.092640 -0.204453 
-0.090556 0.096316 -0.200764 
-0.090512 0.048219 -0.239261 
-0.058638 0.019888 -0.251360 
-0.146997 0.009673 -0.286096 
-0.145784 0.009674 -0.291222 
-0.129539 0.019890 -0.313924 
-0.096703 -0.104810 -0.321002 
-0.090511 0.073838 -0.222139 
-0.090532 0.069820 -0.225323 
-0.090533 0.052719 -0.236754 
-0.053282 0.019888 -0.251360 
-0.144503 0.009673 -0.296324 
-0.128069 0.019891 -0.318952 
-0.095100 -0.104812 -0.325983 
-0.090541 0.065716 -0.228367 
-0.090541 0.057148 -0.234096 
-0.047942 0.019888 -0.251360 
-0.126559 0.019890 -0.323959 
-0.143202 0.009674 -0.301438 
-0.093448 -0.104811 -0.330960 
-0.090541 0.061489 -0.231295 
-0.042602 0.019888 -0.251360 
-0.125008 0.019892 -0.328950 
-0.141840 0.009673 -0.306518 
-0.091756 -0.104811 -0.335917 
-0.037265 0.019888 -0.251360 
-0.123405 0.019890 -0.333953 
-0.090019 -0.104812 -0.340866 
-0.031925 0.019888 -0.251360 
-0.139014 0.009673 -0.316650 
-0.140455 0.009673 -0.311585 
-0.137538 0.009673 -0.321698 
-0.121767 0.019891 -0.338926 
-0.088241 -0.104809 -0.345788 
-0.026610 0.019888 -0.251360 
-0.136026 0.009674 -0.326723 
-0.120078 0.019890 -0.343911 
-0.086420 -0.104813 -0.350704 
-0.021293 0.019888 -0.251360 
-0.134462 0.009673 -0.331741 
-0.118354 0.019891 -0.348868 
-0.084552 -0.104809 -0.355599 
-0.015977 0.019888 -0.251360 
-0.132868 0.009674 -0.336766 
-0.116585 0.019891 -0.353818 
-0.082645 -0.104812 -0.360478 
-0.010643 0.019888 -0.251360 
-0.114787 0.019890 -0.358721 
-0.131211 0.009673 -0.341767 
-0.080690 -0.104810 -0.365344 
-0.005311 0.019888 -0.251360 
-0.112943 0.019891 -0.363624 
-0.129536 0.009674 -0.346769 
-0.078694 -0.104811 -0.370191 
-0.111060 0.019890 -0.368505 
-0.127796 0.009673 -0.351737 
-0.126036 0.009674 -0.356697 
-0.076658 -0.104811 -0.375019 
-0.109131 0.019892 -0.373387 
-0.124220 0.009673 -0.361639 
