-0.311664 0.008032 -0.001575 
-0.311131 0.014089 -0.001543 
-0.310514 0.020337 -0.001504 
-0.309870 0.026183 -0.001465 
-0.309115 0.032345 -0.001418 
-0.308677 0.035639 -0.001391 
-0.308202 0.039006 -0.001361 
-0.307193 0.045584 -0.001299 
-0.306174 0.051562 -0.001236 
-0.305026 0.057643 -0.001165 
-0.303674 0.064084 -0.001081 
-0.302322 0.069891 -0.000998 
-0.300791 0.075836 -0.000903 
-0.299210 0.081386 -0.000805 
-0.297470 0.086913 -0.000697 
-0.295404 0.092816 -0.000570 
-0.293389 0.097984 -0.000445 
-0.291048 0.103374 -0.000300 
-0.289618 0.106384 -0.000212 
-0.288190 0.109197 -0.000123 
-0.285394 0.114214 0.000050 
-0.283032 0.118001 0.000196 
-0.280751 0.121314 0.000337 
-0.277940 0.124983 0.000511 
-0.274446 0.128983 0.000727 
-0.270940 0.132450 0.000944 
-0.267477 0.135401 0.001158 
-0.264382 0.137687 0.001350 
-0.260443 0.140163 0.001593 
-0.256030 0.142425 0.001867 
-0.251109 0.144381 0.002171 
-0.245223 0.146031 0.002535 
-0.239174 0.147041 0.002909 
-0.232481 0.147448 0.003323 
-0.226320 0.147241 0.003705 
-0.219567 0.146444 0.004122 
-0.215482 0.145700 0.004375 
-0.211554 0.144811 0.004618 
-0.207547 0.143741 0.004866 
-0.203412 0.142473 0.005122 
-0.196269 0.139919 0.005564 
-0.190000 0.137325 0.005952 
-0.183043 0.134093 0.006382 
-0.176647 0.130818 0.006778 
-0.173006 0.128832 0.007003 
-0.169546 0.126868 0.007217 
-0.165513 0.124485 0.007467 
-0.161242 0.121859 0.007731 
-0.157479 0.119460 0.007964 
-0.153608 0.116912 0.008203 
-0.149622 0.114208 0.008450 
-0.146035 0.111706 0.008672 
-0.139850 0.107247 0.009054 
-0.134544 0.103281 0.009383 
-0.130131 0.099889 0.009656 
-0.126654 0.097158 0.009871 
-0.305216 -0.083647 0.098296 
-0.305208 -0.077626 0.098295 
-0.305195 -0.074588 0.098295 
-0.305174 -0.071358 0.098295 
-0.305134 -0.067231 0.098293 
-0.305079 -0.063124 0.098292 
-0.304981 -0.057789 0.098289 
-0.304853 -0.052537 0.098286 
-0.304673 -0.046712 0.098281 
-0.304458 -0.041092 0.098275 
-0.304226 -0.036011 0.098269 
-0.303958 -0.030961 0.098261 
-0.303659 -0.026030 0.098253 
-0.303333 -0.021263 0.098244 
-0.302919 -0.015892 0.098233 
-0.302462 -0.010601 0.098221 
-0.302068 -0.006471 0.098210 
-0.301640 -0.002339 0.098198 
-0.301183 0.001741 0.098186 
-0.300657 0.006084 0.098172 
-0.300094 0.010389 0.098156 
-0.299500 0.014601 0.098140 
-0.298936 0.018334 0.098125 
-0.298338 0.022048 0.098108 
-0.297701 0.025772 0.098091 
-0.297057 0.029314 0.098074 
-0.296361 0.032921 0.098055 
-0.295648 0.036412 0.098035 
-0.294822 0.040227 0.098013 
-0.293964 0.043950 0.097989 
-0.293071 0.047605 0.097965 
-0.292166 0.051096 0.097940 
-0.291230 0.054510 0.097915 
-0.290248 0.057898 0.097888 
-0.289198 0.061322 0.097860 
-0.288118 0.064645 0.097830 
-0.286964 0.068003 0.097799 
-0.285657 0.071580 0.097763 
-0.284228 0.075250 0.097725 
-0.282812 0.078659 0.097686 
-0.281281 0.082111 0.097644 
-0.279727 0.085396 0.097602 
-0.278077 0.088660 0.097557 
-0.276348 0.091856 0.097510 
-0.274536 0.094981 0.097461 
-0.272622 0.098053 0.097409 
-0.270908 0.100622 0.097362 
-0.269024 0.103262 0.097311 
-0.267037 0.105853 0.097257 
-0.264029 0.109432 0.097175 
-0.260844 0.112813 0.097088 
-0.258288 0.115252 0.097019 
-0.255608 0.117570 0.096946 
-0.252701 0.119829 0.096867 
-0.249797 0.121840 0.096788 
-0.246399 0.123909 0.096695 
-0.242863 0.125762 0.096599 
-0.238062 0.127830 0.096468 
-0.232311 0.129697 0.096312 
-0.226371 0.131004 0.096150 
-0.219803 0.131794 0.095971 
-0.212943 0.131965 0.095785 
-0.205079 0.131428 0.095571 
-0.197335 0.130215 0.095360 
-0.190085 0.128528 0.095163 
-0.183914 0.126708 0.094995 
-0.179148 0.125079 0.094865 
-0.173786 0.123026 0.094719 
-0.170135 0.121504 0.094620 
-0.164713 0.119063 0.094472 
-0.160732 0.117141 0.094364 
-0.155555 0.114484 0.094223 
-0.150178 0.111547 0.094077 
-0.142650 0.107145 0.093872 
-0.134619 0.102099 0.093653 
-0.130164 0.099154 0.093532 
-0.125621 0.096047 0.093408 
-0.002431 -0.175029 -0.187002 
-0.007844 -0.174878 -0.187002 
-0.014316 -0.174552 -0.187002 
-0.019617 -0.174157 -0.187002 
-0.025061 -0.173621 -0.187002 
-0.030639 -0.172922 -0.187002 
-0.036897 -0.171941 -0.187002 
-0.043806 -0.170588 -0.187002 
-0.049800 -0.169154 -0.187002 
-0.056030 -0.167375 -0.187002 
-0.062237 -0.165264 -0.187002 
-0.069336 -0.162366 -0.187002 
-0.076225 -0.158961 -0.187002 
-0.082444 -0.155270 -0.187002 
-0.088364 -0.151076 -0.187002 
-0.094104 -0.146199 -0.187002 
-0.098774 -0.141465 -0.187002 
-0.102867 -0.136571 -0.187002 
-0.107236 -0.130302 -0.187002 
-0.111219 -0.123233 -0.187002 
-0.113169 -0.119092 -0.187002 
-0.114915 -0.114846 -0.187002 
-0.117456 -0.107347 -0.187002 
-0.119322 -0.100207 -0.187002 
-0.120898 -0.092039 -0.187002 
-0.121506 -0.087838 -0.187002 
-0.121983 -0.083702 -0.187002 
-0.122537 -0.076783 -0.187002 
-0.122791 -0.070896 -0.187002 
-0.122863 -0.064946 -0.187002 
-0.122750 -0.058444 -0.187002 
-0.122486 -0.052452 -0.187002 
-0.122111 -0.046849 -0.187002 
-0.121584 -0.040851 -0.187002 
-0.120941 -0.034883 -0.187002 
-0.120254 -0.029393 -0.187002 
-0.119469 -0.023816 -0.187002 
-0.118520 -0.017733 -0.187002 
-0.117557 -0.012073 -0.187002 
-0.116640 -0.007038 -0.187002 
-0.115765 -0.002483 -0.187002 
-0.114924 0.001711 -0.187002 
-0.114090 0.005719 -0.187002 
-0.112413 0.010698 -0.187002 
-0.110978 0.012603 -0.187002 
-0.109856 0.014034 -0.187002 
-0.108481 0.015718 -0.187002 
-0.106793 0.017688 -0.187002 
-0.104820 0.019859 -0.187002 
-0.102072 0.022666 -0.187002 
-0.098517 0.025954 -0.187002 
-0.094748 0.029059 -0.187002 
-0.091265 0.031615 -0.187002 
-0.087521 0.034062 -0.187002 
-0.082864 0.036717 -0.187002 
-0.080071 0.038124 -0.187002 
-0.077453 0.039327 -0.187002 
-0.074376 0.040609 -0.187002 
-0.071647 0.041635 -0.187002 
-0.066548 0.043299 -0.187002 
-0.061447 0.044671 -0.187002 
-0.056017 0.045852 -0.187002 
-0.050875 0.046740 -0.187002 
-0.045698 0.047441 -0.187002 
-0.039923 0.048028 -0.187002 
-0.034276 0.048437 -0.187002 
-0.027695 0.048749 -0.187002 
-0.021493 0.048917 -0.187002 
-0.015161 0.048998 -0.187002 
-0.009309 0.049019 -0.187002 
-0.003716 0.049015 -0.187002 
-0.000786 -0.184309 0.051734 
-0.003708 -0.184268 0.051734 
-0.007063 -0.184191 0.051734 
-0.010716 -0.184069 0.051734 
-0.014902 -0.183879 0.051734 
-0.019226 -0.183624 0.051734 
-0.023177 -0.183334 0.051734 
-0.026491 -0.183049 0.051734 
-0.029908 -0.182712 0.051734 
-0.034156 -0.182229 0.051734 
-0.037981 -0.181731 0.051734 
-0.041728 -0.181181 0.051734 
-0.045660 -0.180535 0.051734 
-0.050810 -0.179575 0.051734 
-0.055705 -0.178533 0.051734 
-0.060031 -0.177500 0.051734 
-0.064432 -0.176332 0.051734 
-0.068953 -0.175000 0.051734 
-0.072939 -0.173705 0.051734 
-0.076812 -0.172329 0.051734 
-0.080220 -0.171016 0.051734 
-0.084500 -0.169219 0.051734 
-0.088735 -0.167264 0.051734 
-0.092146 -0.165549 0.051734 
-0.095434 -0.163767 0.051734 
-0.098451 -0.162011 0.051734 
-0.101141 -0.160338 0.051734 
-0.104430 -0.158145 0.051734 
-0.107132 -0.156210 0.051734 
-0.110423 -0.153674 0.051734 
-0.113825 -0.150821 0.051734 
-0.116909 -0.148006 0.051734 
-0.119729 -0.145218 0.051734 
-0.122858 -0.141850 0.051734 
-0.126220 -0.137859 0.051734 
-0.129867 -0.133011 0.051734 
-0.132939 -0.128413 0.051734 
-0.135486 -0.124165 0.051734 
-0.137570 -0.120329 0.051734 
-0.139767 -0.115861 0.051734 
-0.141723 -0.111428 0.051734 
-0.143902 -0.105846 0.051734 
-0.145869 -0.100036 0.051734 
-0.147519 -0.094378 0.051734 
-0.148788 -0.089344 0.051734 
-0.149807 -0.084698 0.051734 
-0.150854 -0.079113 0.051734 
-0.151753 -0.073307 0.051734 
-0.152403 -0.068130 0.051734 
-0.152866 -0.063580 0.051734 
-0.153255 -0.058714 0.051734 
-0.153514 -0.054386 0.051734 
-0.153706 -0.049796 0.051734 
-0.153822 -0.044747 0.051734 
-0.153843 -0.039362 0.051734 
-0.153764 -0.033995 0.051734 
-0.153622 -0.029397 0.051734 
-0.153427 -0.025037 0.051734 
-0.153130 -0.019987 0.051734 
-0.152746 -0.014738 0.051734 
-0.152361 -0.010281 0.051734 
-0.151999 -0.006538 0.051734 
-0.151593 -0.002719 0.051734 
-0.151109 0.001462 0.051734 
0.113316 0.009507 -0.185014 
0.113503 0.009507 -0.181956 
0.113781 0.009507 -0.179100 
0.114218 0.009507 -0.175630 
0.114681 0.009507 -0.172526 
0.115255 0.009507 -0.169085 
0.115810 0.009507 -0.166014 
0.116397 0.009507 -0.162948 
0.117040 0.009507 -0.159746 
0.117666 0.009507 -0.156740 
0.118388 0.009507 -0.153372 
0.119210 0.009507 -0.149639 
0.120044 0.009507 -0.145928 
0.120820 0.009507 -0.142534 
0.121542 0.009507 -0.139413 
0.122305 0.009507 -0.136142 
0.123195 0.009507 -0.132349 
0.124168 0.009507 -0.128229 
0.125232 0.009507 -0.123731 
0.126382 0.009507 -0.118872 
0.127630 0.009507 -0.113585 
0.128856 0.009507 -0.108357 
0.130085 0.009507 -0.103069 
0.131229 0.009507 -0.098097 
0.132364 0.009507 -0.093098 
0.133542 0.009507 -0.087829 
0.134691 0.009507 -0.082597 
0.135855 0.009507 -0.077182 
0.136880 0.009507 -0.072308 
0.137842 0.009507 -0.067629 
0.138840 0.009507 -0.062653 
0.139725 0.009507 -0.058113 
0.140532 0.009507 -0.053863 
0.141333 0.009507 -0.049518 
0.142088 0.009507 -0.045295 
0.142716 0.009507 -0.041673 
0.143299 0.009507 -0.038211 
0.143946 0.009507 -0.034237 
0.144606 0.009507 -0.030021 
0.145200 0.009507 -0.026065 
0.145692 0.009507 -0.022641 
0.146147 0.009507 -0.019350 
0.146659 0.009507 -0.015470 
0.147098 0.009507 -0.011953 
0.147516 0.009507 -0.008420 
0.147937 0.009507 -0.004636 
0.148360 0.009507 -0.000539 
0.148777 0.009507 0.003875 
0.149108 0.009507 0.007766 
0.149434 0.009507 0.012058 
0.149772 0.009507 0.017270 
0.150035 0.009507 0.022339 
0.150216 0.009507 0.026943 
0.150338 0.009507 0.031484 
0.150404 0.009507 0.036358 
0.150398 0.009507 0.041308 
0.150321 0.009507 0.046037 
0.150164 0.009507 0.050885 
0.149909 0.009507 0.056012 
0.149549 0.009507 0.061232 
0.149118 0.009507 0.066095 
0.148599 0.009507 0.070874 
0.147935 0.009507 0.075962 
0.147198 0.009507 0.080753 
0.146331 0.009507 0.085622 
0.145398 0.009507 0.090210 
0.144391 0.009507 0.094605 
0.142977 0.009507 0.100054 
0.141440 0.009507 0.105264 
0.140057 0.009507 0.109469 
0.138420 0.009507 0.113976 
0.136761 0.009507 0.118127 
0.135020 0.009507 0.122108 
0.133577 0.009507 0.125163 
0.132004 0.009507 0.128278 
0.129859 0.009507 0.132210 
0.127769 0.009507 0.135740 
0.125670 0.009507 0.139026 
0.123008 0.009507 0.142872 
0.120000 0.009507 0.146845 
0.116410 0.009507 0.151144 
0.113357 0.009507 0.154474 
0.110470 0.009507 0.157383 
0.107211 0.009507 0.160419 
0.104207 0.009507 0.163007 
0.101106 0.009507 0.165489 
0.097688 0.009507 0.168025 
0.094731 0.009507 0.170062 
0.091520 0.009507 0.172126 
0.087420 0.009507 0.174554 
0.083792 0.009507 0.176526 
0.080615 0.009507 0.178128 
0.077705 0.009507 0.179500 
0.074380 0.009507 0.180963 
0.071445 0.009507 0.182167 
0.068061 0.009507 0.183461 
0.064148 0.009507 0.184837 
0.060240 0.009507 0.186093 
0.057129 0.009507 0.187012 
0.053908 0.009507 0.187893 
0.050289 0.009507 0.188802 
0.045858 0.009507 0.189803 
0.041761 0.009507 0.190627 
0.037660 0.009507 0.191358 
0.033371 0.009507 0.192030 
0.029072 0.009507 0.192612 
0.025573 0.009507 0.193021 
0.022262 0.009507 0.193359 
0.018759 0.009507 0.193664 
0.015336 0.009507 0.193913 
0.012408 0.009507 0.194090 
0.009492 0.009507 0.194232 
0.006543 0.009507 0.194344 
0.003563 0.009507 0.194426 
0.000546 0.009507 0.194476 
0.000000 0.005774 0.194496 
0.000000 0.002436 0.194496 
0.000000 -0.002052 0.194496 
0.000000 -0.008113 0.194496 
0.000000 -0.015860 0.194496 
0.000000 -0.020320 0.194496 
0.000000 -0.024780 0.194496 
0.000000 -0.032703 0.194496 
0.000000 -0.039726 0.194496 
0.000000 -0.046666 0.194496 
0.000000 -0.053402 0.194496 
0.000000 -0.060133 0.194496 
0.000000 -0.065583 0.194496 
0.000000 -0.069971 0.194496 
0.000000 -0.073817 0.194496 
0.000000 0.180901 0.011924 
0.000000 0.180191 0.013733 
0.000000 0.179336 0.015911 
0.000000 0.178333 0.018466 
0.000000 0.176910 0.022091 
0.000000 0.174987 0.026991 
0.000000 0.172882 0.032352 
0.000000 0.170645 0.038051 
0.000000 0.168643 0.043151 
0.000000 0.166753 0.047966 
0.000000 0.164760 0.053042 
0.000000 0.162939 0.057681 
0.000000 0.161253 0.061976 
0.000000 0.159765 0.065766 
0.000000 0.158422 0.069188 
0.000000 0.157293 0.072065 
0.000000 0.156269 0.074673 
0.000000 0.155175 0.077459 
0.000000 0.153821 0.080909 
0.000000 0.152465 0.084363 
0.000000 0.151447 0.086957 
0.000000 0.150619 0.089065 
0.000000 0.149836 0.091060 
0.000000 0.149025 0.093125 
0.000000 0.148116 0.095441 
0.000000 0.147734 0.096413 
0.000000 0.010607 0.194493 
0.000000 0.012708 0.194468 
0.000000 0.015045 0.194409 
0.000000 0.017452 0.194316 
0.000000 0.020073 0.194174 
0.000000 0.023101 0.193958 
0.000000 0.026111 0.193684 
0.000000 0.029333 0.193326 
0.000000 0.033247 0.192794 
0.000000 0.037624 0.192071 
0.000000 0.041760 0.191257 
0.000000 0.045620 0.190376 
0.000000 0.049753 0.189297 
0.000000 0.054336 0.187930 
0.000000 0.059284 0.186239 
0.000000 0.063751 0.184510 
0.000000 0.067602 0.182856 
0.000000 0.071649 0.180946 
0.000000 0.076006 0.178681 
0.000000 0.080089 0.176352 
0.000000 0.083693 0.174119 
0.000000 0.087340 0.171681 
0.000000 0.091118 0.168957 
0.000000 0.094366 0.166443 
0.000000 0.097325 0.164010 
0.000000 0.100519 0.161219 
0.000000 0.104047 0.157931 
0.000000 0.107710 0.154276 
0.000000 0.111097 0.150663 
0.000000 0.114538 0.146752 
0.000000 0.118346 0.142124 
0.000000 0.121945 0.137442 
0.000000 0.124822 0.133475 
0.000000 0.127380 0.129770 
0.000000 0.130076 0.125679 
0.000000 0.132960 0.121081 
0.000000 0.135598 0.116669 
0.000000 0.138172 0.112167 
0.000000 0.140986 0.107017 
0.000000 0.143623 0.101970 
0.000000 0.145842 0.097556 
0.000000 0.147958 0.093201 
0.000000 0.154568 0.078707 
0.000000 0.160817 0.063834 
0.000000 0.162710 0.059132 
0.000000 0.164651 0.054232 
0.000000 0.172424 0.034053 
0.000000 0.173936 0.030077 
0.000000 0.175594 0.025721 
0.000000 0.049007 -0.187002 
0.000000 0.049085 -0.184041 
0.000000 0.049290 -0.181356 
0.000000 0.049740 -0.177928 
0.000000 0.050391 -0.174549 
0.000000 0.051234 -0.171213 
0.000000 0.052452 -0.167380 
0.000000 0.053849 -0.163749 
0.000000 0.055444 -0.160200 
0.000000 0.057158 -0.156845 
0.000000 0.058797 -0.153947 
0.000000 0.060688 -0.150885 
0.000000 0.062655 -0.147945 
0.000000 0.064607 -0.145221 
0.000000 0.066474 -0.142761 
0.000000 0.068479 -0.140252 
0.000000 0.070316 -0.138054 
0.000000 0.072145 -0.135951 
0.000000 0.074000 -0.133889 
0.000000 0.076167 -0.131563 
0.000000 0.078584 -0.129059 
0.000000 0.080805 -0.126831 
0.000000 0.082801 -0.124880 
0.000000 0.085117 -0.122671 
0.000000 0.087957 -0.120034 
0.000000 0.090677 -0.117570 
0.000000 0.093148 -0.115376 
0.000000 0.095454 -0.113365 
0.000000 0.097943 -0.111226 
0.000000 0.100444 -0.109105 
0.000000 0.102947 -0.107009 
0.000000 0.105238 -0.105109 
0.000000 0.107408 -0.103323 
0.000000 0.109618 -0.101516 
0.000000 0.111813 -0.099731 
0.000000 0.113772 -0.098144 
0.000000 0.115579 -0.096684 
0.000000 0.117315 -0.095283 
0.000000 0.119071 -0.093869 
0.000000 0.121030 -0.092290 
0.000000 0.123048 -0.090663 
0.000000 0.125048 -0.089047 
0.000000 0.127213 -0.087294 
0.000000 0.129417 -0.085502 
0.000000 0.131911 -0.083461 
0.000000 0.134119 -0.081642 
0.000000 0.136299 -0.079831 
0.000000 0.138723 -0.077798 
0.000000 0.141454 -0.075476 
0.000000 0.143997 -0.073280 
0.000000 0.146219 -0.071329 
0.000000 0.148374 -0.069404 
0.000000 0.150438 -0.067527 
0.000000 0.152550 -0.065568 
0.000000 0.154453 -0.063764 
0.000000 0.156258 -0.062015 
0.000000 0.158237 -0.060050 
0.000000 0.160156 -0.058091 
0.000000 0.162124 -0.056018 
0.000000 0.164355 -0.053578 
0.000000 0.166463 -0.051170 
0.000000 0.168273 -0.049009 
0.000000 0.169924 -0.046946 
0.000000 0.171613 -0.044729 
0.000000 0.173360 -0.042302 
0.000000 0.174917 -0.039996 
0.000000 0.176319 -0.037775 
0.000000 0.177692 -0.035434 
0.000000 0.179150 -0.032714 
0.000000 0.180268 -0.030410 
0.000000 0.181159 -0.028387 
0.000000 0.181989 -0.026299 
0.000000 0.182654 -0.024433 
0.000000 0.183299 -0.022389 
0.000000 0.183821 -0.020478 
0.000000 0.184295 -0.018427 
0.000000 0.184769 -0.015817 
0.000000 0.185068 -0.013493 
0.000000 0.185257 -0.011074 
0.000000 0.185318 -0.009131 
0.000000 0.185284 -0.006771 
0.000000 0.185169 -0.004863 
0.000000 0.184975 -0.002933 
0.000000 0.184640 -0.000631 
0.000000 0.184303 0.001153 
0.000000 0.183886 0.002995 
0.000000 0.183317 0.005118 
0.000000 0.182759 0.006927 
0.000000 0.182123 0.008764 
0.000000 0.181612 0.010113 
0.144000 0.053264 0.051734 
0.144032 0.053202 0.053078 
0.143981 0.053300 0.055871 
0.143777 0.053692 0.058724 
0.143411 0.054394 0.061702 
0.142900 0.055372 0.064657 
0.142309 0.056507 0.067352 
0.141683 0.057707 0.069738 
0.140912 0.059184 0.072263 
0.139918 0.061091 0.075065 
0.138843 0.063152 0.077679 
0.137752 0.065244 0.079999 
0.136599 0.067457 0.082160 
0.135263 0.070017 0.084347 
0.133787 0.072849 0.086429 
0.132336 0.075630 0.088169 
0.130945 0.078298 0.089580 
0.129585 0.080906 0.090729 
0.128334 0.083305 0.091596 
0.127069 0.085732 0.092293 
0.125789 0.088186 0.092815 
0.124583 0.090499 0.093142 
0.123375 0.092815 0.093308 
0.121987 0.095477 0.093298 
0.120232 0.098843 0.092980 
0.118417 0.102322 0.092292 
0.116773 0.105475 0.091353 
0.115364 0.108176 0.090302 
0.113990 0.110813 0.089050 
0.112729 0.113231 0.087693 
0.111482 0.115621 0.086143 
0.110179 0.118121 0.084280 
0.109014 0.120355 0.082381 
0.107837 0.122612 0.080204 
0.106736 0.124722 0.077890 
0.105609 0.126884 0.075171 
0.104404 0.129195 0.071738 
0.103291 0.131329 0.067814 
0.102396 0.133045 0.063652 
0.101815 0.134159 0.059724 
0.101512 0.134740 0.056025 
0.101457 0.134847 0.052849 
0.143961 0.053338 0.048682 
0.143828 0.053593 0.045430 
0.143584 0.054061 0.042101 
0.143189 0.054820 0.038555 
0.142645 0.055862 0.035078 
0.141902 0.057287 0.031525 
0.140870 0.059265 0.027787 
0.139438 0.062012 0.023875 
0.137505 0.065719 0.019969 
0.135504 0.069555 0.016977 
0.133414 0.073564 0.014635 
0.131333 0.077554 0.012903 
0.129654 0.080774 0.011858 
0.128312 0.083348 0.011219 
0.126967 0.085926 0.010736 
0.125283 0.089157 0.010332 
0.123199 0.093152 0.010120 
0.121203 0.096981 0.010193 
0.119671 0.099917 0.010436 
0.118300 0.102548 0.010804 
0.116851 0.105325 0.011358 
0.115485 0.107946 0.012051 
0.114050 0.110696 0.012976 
0.112462 0.113743 0.014269 
0.110819 0.116894 0.015956 
0.109143 0.120108 0.018128 
0.107594 0.123077 0.020658 
0.106121 0.125903 0.023704 
0.104627 0.128768 0.027753 
0.103300 0.131312 0.032770 
0.102431 0.132978 0.037595 
0.101880 0.134035 0.042351 
0.101576 0.134618 0.047144 
0.101487 0.134789 0.051292 
0.000000 0.009507 -0.385661 
0.003719 0.009507 -0.385590 
0.008521 0.009507 -0.385447 
0.013179 0.009507 -0.385228 
0.017558 0.009507 -0.384947 
0.021879 0.009507 -0.384593 
0.026142 0.009507 -0.384165 
0.030002 0.009507 -0.383704 
0.034028 0.009507 -0.383146 
0.038220 0.009507 -0.382475 
0.042563 0.009507 -0.381674 
0.046534 0.009507 -0.380842 
0.049923 0.009507 -0.380051 
0.053342 0.009507 -0.379170 
0.057508 0.009507 -0.377977 
0.061576 0.009507 -0.376674 
0.065088 0.009507 -0.375428 
0.068181 0.009507 -0.374230 
0.071239 0.009507 -0.372944 
0.074538 0.009507 -0.371434 
0.077940 0.009507 -0.369730 
0.082031 0.009507 -0.367459 
0.085683 0.009507 -0.365198 
0.088755 0.009507 -0.363103 
0.090986 0.009507 -0.361456 
0.093421 0.009507 -0.359524 
0.095559 0.009507 -0.357699 
0.097755 0.009507 -0.355683 
0.100014 0.009507 -0.353442 
0.102138 0.009507 -0.351158 
0.104077 0.009507 -0.348901 
0.105674 0.009507 -0.346902 
0.107276 0.009507 -0.344753 
0.109020 0.009507 -0.342223 
0.110549 0.009507 -0.339815 
0.111896 0.009507 -0.337522 
0.113225 0.009507 -0.335076 
0.114465 0.009507 -0.332598 
0.115617 0.009507 -0.330097 
0.116707 0.009507 -0.327514 
0.117766 0.009507 -0.324761 
0.118903 0.009507 -0.321473 
0.119881 0.009507 -0.318281 
0.120704 0.009507 -0.315253 
0.121414 0.009507 -0.312305 
0.122224 0.009507 -0.308407 
0.122921 0.009507 -0.304353 
0.123428 0.009507 -0.300735 
0.123786 0.009507 -0.297603 
0.124064 0.009507 -0.294579 
0.124280 0.009507 -0.291553 
0.124437 0.009507 -0.288512 
0.124543 0.009507 -0.285283 
0.124589 0.009507 -0.281669 
0.124571 0.009507 -0.278438 
0.124490 0.009507 -0.274893 
0.124354 0.009507 -0.271442 
0.124146 0.009507 -0.267698 
0.123878 0.009507 -0.263946 
0.123556 0.009507 -0.260194 
0.123211 0.009507 -0.256715 
0.122792 0.009507 -0.252943 
0.122364 0.009507 -0.249446 
0.121876 0.009507 -0.245763 
0.121378 0.009507 -0.242255 
0.120817 0.009507 -0.238522 
0.120213 0.009507 -0.234692 
0.119567 0.009507 -0.230759 
0.118848 0.009507 -0.226526 
0.118135 0.009507 -0.222422 
0.117470 0.009507 -0.218634 
0.116770 0.009507 -0.214647 
0.116061 0.009507 -0.210542 
0.115358 0.009507 -0.206323 
0.114750 0.009507 -0.202441 
0.114220 0.009507 -0.198707 
0.113782 0.009507 -0.195085 
0.113477 0.009507 -0.191806 
0.113293 0.009507 -0.188293 
0.113276 0.009507 -0.187002 
0.000000 0.049029 -0.189054 
0.000000 0.049181 -0.192889 
0.000000 0.049463 -0.196779 
0.000000 0.049889 -0.200929 
0.000000 0.050526 -0.205806 
0.000000 0.051306 -0.210816 
0.000000 0.052048 -0.215076 
0.000000 0.052901 -0.219623 
0.000000 0.053947 -0.224888 
0.000000 0.055023 -0.230118 
0.000000 0.056124 -0.235401 
0.000000 0.057299 -0.241081 
0.000000 0.058433 -0.246725 
0.000000 0.059561 -0.252647 
0.000000 0.060563 -0.258346 
0.000000 0.061501 -0.264334 
0.000000 0.062453 -0.271651 
0.000000 0.063179 -0.279409 
0.000000 0.063525 -0.285970 
0.000000 0.063600 -0.291577 
0.000000 0.063435 -0.297450 
0.000000 0.062905 -0.304211 
0.000000 0.062015 -0.310708 
0.000000 0.060939 -0.316226 
0.000000 0.059596 -0.321551 
0.000000 0.057868 -0.327065 
0.000000 0.055939 -0.332163 
0.000000 0.053641 -0.337320 
0.000000 0.050972 -0.342472 
0.000000 0.048325 -0.346952 
0.000000 0.045483 -0.351252 
0.000000 0.042781 -0.354958 
0.000000 0.040044 -0.358408 
0.000000 0.036958 -0.361997 
0.000000 0.034025 -0.365162 
0.000000 0.031382 -0.367840 
0.000000 0.028682 -0.370426 
0.000000 0.025857 -0.372989 
0.000000 0.022985 -0.375463 
0.000000 0.020210 -0.377740 
0.000000 0.017303 -0.380018 
0.000000 0.014181 -0.382354 
0.000000 0.010864 -0.384723 
0.002865 0.013402 0.195027 
0.007194 0.016313 0.195290 
0.011853 0.019447 0.195438 
0.016959 0.022881 0.195435 
0.022019 0.026284 0.195253 
0.027535 0.029995 0.194842 
0.033640 0.034100 0.194112 
0.039042 0.037733 0.193210 
0.044580 0.041458 0.192018 
0.051312 0.045986 0.190176 
0.057795 0.050346 0.187956 
0.063289 0.054041 0.185698 
0.068428 0.057497 0.183238 
0.073843 0.061139 0.180243 
0.079434 0.064899 0.176661 
0.084120 0.068051 0.173222 
0.088345 0.070892 0.169728 
0.092510 0.073693 0.165862 
0.096829 0.076599 0.161331 
0.100691 0.079196 0.156738 
0.104000 0.081421 0.152306 
0.107350 0.083675 0.147228 
0.110447 0.085757 0.141854 
0.113161 0.087583 0.136413 
0.115654 0.089259 0.130559 
0.117992 0.090832 0.123912 
0.119968 0.092161 0.116740 
0.121470 0.093171 0.109176 
0.122337 0.093754 0.102257 
0.122703 0.094000 0.096114 
0.122743 0.094027 0.093330 
0.101122 0.136106 0.051734 
0.100459 0.137937 0.051734 
0.099512 0.139932 0.051734 
0.098074 0.142261 0.051734 
0.096367 0.144436 0.051734 
0.094686 0.146203 0.051734 
0.092843 0.147855 0.051734 
0.090561 0.149609 0.051734 
0.087686 0.151488 0.051734 
0.084554 0.153227 0.051734 
0.081546 0.154672 0.051734 
0.078368 0.156008 0.051734 
0.074704 0.157354 0.051734 
0.071513 0.158387 0.051734 
0.068040 0.159386 0.051734 
0.064287 0.160340 0.051734 
0.060805 0.161124 0.051734 
0.057234 0.161840 0.051734 
0.053967 0.162423 0.051734 
0.049831 0.163075 0.051734 
0.044601 0.163774 0.051734 
0.039113 0.164373 0.051734 
0.034733 0.164762 0.051734 
0.030351 0.165077 0.051734 
0.025307 0.165354 0.051734 
0.021111 0.165518 0.051734 
0.017300 0.165616 0.051734 
0.012994 0.165669 0.051734 
0.009208 0.165664 0.051734 
0.005575 0.165611 0.051734 
0.001948 0.165508 0.051734 
0.000000 0.165349 0.051734 
0.144631 0.051146 0.051734 
0.145360 0.047862 0.051734 
0.146273 0.042943 0.051734 
0.146764 0.040005 0.051734 
0.147234 0.037015 0.051734 
0.147723 0.033719 0.051734 
0.148162 0.030590 0.051734 
0.148537 0.027763 0.051734 
0.148901 0.024861 0.051734 
0.149494 0.019594 0.051734 
0.149953 0.014414 0.051734 
0.150108 0.010320 0.051734 
0.122706 0.094027 0.007036 
0.122570 0.094027 0.003510 
0.122375 0.094027 0.000482 
0.122065 0.094027 -0.002936 
0.121640 0.094027 -0.006501 
0.121080 0.094027 -0.010250 
0.120520 0.094027 -0.013384 
0.119853 0.094027 -0.016625 
0.119127 0.094027 -0.019732 
0.118269 0.094027 -0.023010 
0.117140 0.094027 -0.026845 
0.115609 0.094027 -0.031431 
0.113850 0.094027 -0.036074 
0.111723 0.094027 -0.041046 
0.109165 0.094027 -0.046341 
0.106272 0.094027 -0.051658 
0.103250 0.094027 -0.056631 
0.100125 0.094027 -0.061278 
0.096987 0.094027 -0.065532 
0.093597 0.094027 -0.069741 
0.090546 0.094027 -0.073232 
0.087476 0.094027 -0.076499 
0.084228 0.094027 -0.079715 
0.081149 0.094027 -0.082559 
0.078164 0.094027 -0.085143 
0.075327 0.094027 -0.087453 
0.071963 0.094027 -0.090023 
0.068174 0.094027 -0.092711 
0.064667 0.094027 -0.095020 
0.061703 0.094027 -0.096844 
0.058597 0.094027 -0.098638 
0.055088 0.094027 -0.100526 
0.051707 0.094027 -0.102214 
0.047753 0.094027 -0.104031 
0.043447 0.094027 -0.105825 
0.039252 0.094027 -0.107396 
0.035109 0.094027 -0.108784 
0.031377 0.094027 -0.109899 
0.027843 0.094027 -0.110839 
0.023088 0.094027 -0.111934 
0.018207 0.094027 -0.112858 
0.013577 0.094027 -0.113551 
0.009051 0.094027 -0.114061 
0.004535 0.094027 -0.114406 
0.000510 0.094027 -0.114577 
0.107874 0.094027 -0.048792 
0.107841 0.095789 -0.048823 
0.107656 0.098528 -0.049004 
0.107229 0.101623 -0.049420 
0.106484 0.104928 -0.050147 
0.105027 0.109110 -0.051567 
0.103008 0.113011 -0.053535 
0.100786 0.116107 -0.055700 
0.098511 0.118520 -0.057918 
0.096409 0.120282 -0.059967 
0.094030 0.121864 -0.062286 
0.091914 0.122974 -0.064349 
0.089529 0.123939 -0.066674 
0.086767 0.124725 -0.069366 
0.084028 0.125184 -0.072035 
0.081230 0.125344 -0.074763 
0.078604 0.125214 -0.077323 
0.075581 0.124724 -0.080270 
0.072297 0.123751 -0.083471 
0.069020 0.122259 -0.086665 
0.066636 0.120783 -0.088989 
0.064555 0.119163 -0.091017 
0.062509 0.117183 -0.093012 
0.060512 0.114752 -0.094959 
0.058781 0.112058 -0.096646 
0.057592 0.109715 -0.097805 
0.056556 0.107128 -0.098815 
0.055579 0.103805 -0.099768 
0.054932 0.100452 -0.100398 
0.054632 0.097825 -0.100690 
0.054500 0.095481 -0.100819 
0.107792 0.090937 -0.048871 
0.107615 0.088588 -0.049044 
0.107248 0.085707 -0.049401 
0.106683 0.082755 -0.049952 
0.105751 0.079325 -0.050861 
0.104207 0.075309 -0.052366 
0.102147 0.071474 -0.054374 
0.099670 0.068087 -0.056789 
0.096811 0.065192 -0.059575 
0.093496 0.062753 -0.062806 
0.089510 0.060777 -0.066692 
0.085597 0.059652 -0.070506 
0.081388 0.059225 -0.074609 
0.076413 0.059721 -0.079459 
0.071693 0.061254 -0.084060 
0.068076 0.063253 -0.087586 
0.064825 0.065837 -0.090754 
0.062129 0.068758 -0.093382 
0.060240 0.071417 -0.095223 
0.058606 0.074338 -0.096817 
0.057274 0.077399 -0.098115 
0.056182 0.080721 -0.099179 
0.055377 0.084142 -0.099964 
0.054885 0.087254 -0.100444 
0.054582 0.090549 -0.100739 
0.251756 -0.083647 0.051734 
0.251757 -0.081970 0.051734 
0.251761 -0.079776 0.051734 
0.251768 -0.077276 0.051734 
0.251780 -0.074472 0.051734 
0.251795 -0.071726 0.051734 
0.251817 -0.068433 0.051734 
0.251850 -0.064342 0.051734 
0.251895 -0.059547 0.051734 
0.251953 -0.053904 0.051734 
0.252015 -0.048310 0.051734 
0.252084 -0.042328 0.051734 
0.252126 -0.038578 0.051734 
0.252167 -0.034937 0.051734 
0.252209 -0.030901 0.051734 
0.252248 -0.026985 0.051734 
0.252280 -0.023431 0.051734 
0.252307 -0.019956 0.051734 
0.252331 -0.016502 0.051734 
0.252350 -0.012965 0.051734 
0.252364 -0.009252 0.051734 
0.252371 -0.005502 0.051734 
0.252371 -0.002046 0.051734 
0.252363 0.001376 0.051734 
0.252347 0.004862 0.051734 
0.252323 0.008257 0.051734 
0.252283 0.012188 0.051734 
0.252231 0.016053 0.051734 
0.252161 0.020038 0.051734 
0.252074 0.024059 0.051734 
0.251976 0.027775 0.051734 
0.251848 0.031865 0.051734 
0.251717 0.035434 0.051734 
0.251573 0.038851 0.051734 
0.251406 0.042358 0.051734 
0.251222 0.045766 0.051734 
0.250982 0.049676 0.051734 
0.250726 0.053373 0.051734 
0.250425 0.057211 0.051734 
0.250099 0.060909 0.051734 
0.249794 0.064020 0.051734 
0.249442 0.067275 0.051734 
0.248798 0.072502 0.051734 
0.248092 0.077401 0.051734 
0.247106 0.083186 0.051734 
0.245875 0.089148 0.051734 
0.244587 0.094299 0.051734 
0.243378 0.098372 0.051734 
0.241714 0.103053 0.051734 
0.239759 0.107498 0.051734 
0.237162 0.112079 0.051734 
0.232177 0.117880 0.051734 
0.227586 0.120814 0.051734 
0.221897 0.122243 0.051734 
0.220140 0.122299 0.051734 
0.218392 0.122203 0.051734 
0.217320 0.122075 0.051734 
0.216262 0.121899 0.051734 
0.214249 0.121439 0.051734 
0.211752 0.120657 0.051734 
0.210171 0.120050 0.051734 
0.209016 0.119556 0.051734 
0.206667 0.118428 0.051734 
0.204901 0.117476 0.051734 
0.203625 0.116738 0.051734 
0.202226 0.115880 0.051734 
0.200246 0.114587 0.051734 
0.197948 0.112974 0.051734 
0.195883 0.111430 0.051734 
0.192707 0.108890 0.051734 
0.190167 0.106726 0.051734 
0.187148 0.104013 0.051734 
0.183952 0.100984 0.051734 
0.180057 0.097094 0.051734 
0.176300 0.093150 0.051734 
0.172942 0.089478 0.051734 
0.170030 0.086190 0.051734 
0.166018 0.081512 0.051734 
0.162395 0.077148 0.051734 
0.159286 0.073307 0.051734 
0.156100 0.069282 0.051734 
0.153202 0.065549 0.051734 
0.150872 0.062497 0.051734 
0.148964 0.059968 0.051734 
0.147523 0.058040 0.051734 
0.146298 0.056389 0.051734 
0.251756 -0.086146 0.051734 
0.251839 -0.089636 0.051734 
0.252160 -0.093735 0.051734 
0.252801 -0.098152 0.051734 
0.253740 -0.102413 0.051734 
0.255094 -0.106844 0.051734 
0.256823 -0.111135 0.051734 
0.258835 -0.115074 0.051734 
0.261144 -0.118746 0.051734 
0.263473 -0.121834 0.051734 
0.266609 -0.125302 0.051734 
0.270190 -0.128549 0.051734 
0.274277 -0.131564 0.051734 
0.276893 -0.133183 0.051734 
0.279567 -0.134626 0.051734 
0.282363 -0.135931 0.051734 
0.285346 -0.137115 0.051734 
0.290407 -0.138685 0.051734 
0.295528 -0.139766 0.051734 
0.298391 -0.140164 0.051734 
0.301381 -0.140428 0.051734 
0.306904 -0.140518 0.051734 
0.312241 -0.140118 0.051734 
0.316964 -0.139355 0.051734 
0.321756 -0.138165 0.051734 
0.326903 -0.136376 0.051734 
0.331247 -0.134398 0.051734 
0.335196 -0.132168 0.051734 
0.339229 -0.129376 0.051734 
0.342750 -0.126408 0.051734 
0.345233 -0.123935 0.051734 
0.347208 -0.121684 0.051734 
0.349252 -0.119016 0.051734 
0.351403 -0.115718 0.051734 
0.353435 -0.111933 0.051734 
0.355073 -0.108138 0.051734 
0.356319 -0.104491 0.051734 
0.357349 -0.100539 0.051734 
0.358173 -0.095931 0.051734 
0.358628 -0.091396 0.051734 
0.358765 -0.087290 0.051734 
0.358676 -0.083510 0.051734 
0.358723 -0.080536 0.051734 
0.358708 -0.077391 0.051734 
0.358675 -0.073464 0.051734 
0.358620 -0.069299 0.051734 
0.358532 -0.064544 0.051734 
0.358459 -0.061456 0.051734 
0.358370 -0.058301 0.051734 
0.358232 -0.054147 0.051734 
0.358066 -0.049927 0.051734 
0.357858 -0.045417 0.051734 
0.357613 -0.040846 0.051734 
0.357366 -0.036788 0.051734 
0.357089 -0.032725 0.051734 
0.356802 -0.028908 0.051734 
0.356480 -0.025016 0.051734 
0.356089 -0.020711 0.051734 
0.355655 -0.016354 0.051734 
0.355079 -0.011107 0.051734 
0.354439 -0.005850 0.051734 
0.353723 -0.000512 0.051734 
0.352939 0.004807 0.051734 
0.352175 0.009571 0.051734 
0.351392 0.014096 0.051734 
0.350508 0.018839 0.051734 
0.349590 0.023425 0.051734 
0.348468 0.028633 0.051734 
0.347330 0.033532 0.051734 
0.345972 0.038956 0.051734 
0.344625 0.043950 0.051734 
0.343179 0.048948 0.051734 
0.341741 0.053592 0.051734 
0.340475 0.057449 0.051734 
0.339254 0.060981 0.051734 
0.337963 0.064540 0.051734 
0.336000 0.069635 0.051734 
0.333898 0.074718 0.051734 
0.331714 0.079643 0.051734 
0.329387 0.084539 0.051734 
0.327204 0.088840 0.051734 
0.324886 0.093132 0.051734 
0.322422 0.097415 0.051734 
0.319870 0.101577 0.051734 
0.317838 0.104710 0.051734 
0.315798 0.107707 0.051734 
0.313612 0.110766 0.051734 
0.311406 0.113704 0.051734 
0.309121 0.116600 0.051734 
0.306738 0.119473 0.051734 
0.303662 0.122974 0.051734 
0.300358 0.126496 0.051734 
0.297133 0.129712 0.051734 
0.293894 0.132743 0.051734 
0.290216 0.135958 0.051734 
0.286394 0.139065 0.051734 
0.283428 0.141323 0.051734 
0.280307 0.143564 0.051734 
0.277229 0.145647 0.051734 
0.274030 0.147685 0.051734 
0.270792 0.149624 0.051734 
0.267469 0.151492 0.051734 
0.262996 0.153822 0.051734 
0.258575 0.155924 0.051734 
0.254083 0.157864 0.051734 
0.249492 0.159648 0.051734 
0.244555 0.161351 0.051734 
0.239583 0.162848 0.051734 
0.234916 0.164060 0.051734 
0.230171 0.165108 0.051734 
0.225560 0.165952 0.051734 
0.221086 0.166613 0.051734 
0.216146 0.167165 0.051734 
0.211202 0.167537 0.051734 
0.206192 0.167733 0.051734 
0.201307 0.167754 0.051734 
0.196177 0.167600 0.051734 
0.191240 0.167284 0.051734 
0.186621 0.166844 0.051734 
0.181948 0.166257 0.051734 
0.177206 0.165520 0.051734 
0.172607 0.164670 0.051734 
0.167398 0.163549 0.051734 
0.162133 0.162247 0.051734 
0.156956 0.160803 0.051734 
0.151780 0.159198 0.051734 
0.147304 0.157680 0.051734 
0.142858 0.156054 0.051734 
0.138824 0.154474 0.051734 
0.134768 0.152787 0.051734 
0.130668 0.150978 0.051734 
0.126435 0.149000 0.051734 
0.122206 0.146909 0.051734 
0.117992 0.144707 0.051734 
0.114444 0.142757 0.051734 
0.110985 0.140767 0.051734 
0.108392 0.139212 0.051734 
0.105327 0.137300 0.051734 
0.358699 -0.083647 0.049903 
0.358617 -0.083647 0.048191 
0.358474 -0.083647 0.046399 
0.358219 -0.083647 0.044251 
0.357881 -0.083647 0.042159 
0.357645 -0.083647 0.040962 
0.357415 -0.083647 0.039923 
0.357091 -0.083647 0.038621 
0.356700 -0.083647 0.037229 
0.356321 -0.083647 0.036021 
0.355905 -0.083647 0.034814 
0.355391 -0.083647 0.033457 
0.354908 -0.083647 0.032296 
0.354371 -0.083647 0.031102 
0.353733 -0.083647 0.029798 
0.353144 -0.083647 0.028684 
0.352453 -0.083647 0.027471 
0.351622 -0.083647 0.026123 
0.350871 -0.083647 0.024993 
0.350124 -0.083647 0.023943 
0.349260 -0.083647 0.022803 
0.348480 -0.083647 0.021839 
0.347699 -0.083647 0.020926 
0.346647 -0.083647 0.019773 
0.345653 -0.083647 0.018753 
0.344655 -0.083647 0.017791 
0.343409 -0.083647 0.016668 
0.342426 -0.083647 0.015839 
0.341236 -0.083647 0.014892 
0.340261 -0.083647 0.014161 
0.339281 -0.083647 0.013465 
0.337999 -0.083647 0.012605 
0.336902 -0.083647 0.011914 
0.335887 -0.083647 0.011309 
0.334879 -0.083647 0.010738 
0.333661 -0.083647 0.010085 
0.332524 -0.083647 0.009513 
0.331433 -0.083647 0.008994 
0.330067 -0.083647 0.008385 
0.328874 -0.083647 0.007888 
0.327583 -0.083647 0.007386 
0.326348 -0.083647 0.006938 
0.325043 -0.083647 0.006498 
0.323724 -0.083647 0.006087 
0.322711 -0.083647 0.005793 
0.321377 -0.083647 0.005435 
0.320191 -0.083647 0.005144 
0.318868 -0.083647 0.004848 
0.317446 -0.083647 0.004562 
0.316063 -0.083647 0.004316 
0.314911 -0.083647 0.004135 
0.313658 -0.083647 0.003962 
0.312462 -0.083647 0.003820 
0.310387 -0.083647 0.003625 
0.309084 -0.083647 0.003537 
0.307935 -0.083647 0.003481 
0.306715 -0.083647 0.003443 
0.305469 -0.083647 0.003427 
0.304026 -0.083647 0.003437 
0.302886 -0.083647 0.003468 
0.300638 -0.083647 0.003586 
0.298654 -0.083647 0.003754 
0.296317 -0.083647 0.004029 
0.294219 -0.083647 0.004350 
0.291861 -0.083647 0.004796 
0.289483 -0.083647 0.005340 
0.287160 -0.083647 0.005969 
0.284509 -0.083647 0.006809 
0.282138 -0.083647 0.007678 
0.279492 -0.083647 0.008793 
0.276214 -0.083647 0.010407 
0.272326 -0.083647 0.012709 
0.268762 -0.083647 0.015271 
0.265186 -0.083647 0.018404 
0.261442 -0.083647 0.022528 
0.257384 -0.083647 0.028605 
0.255983 -0.083647 0.031382 
0.255111 -0.083647 0.033414 
0.254094 -0.083647 0.036230 
0.253308 -0.083647 0.038946 
0.252639 -0.083647 0.041965 
0.252160 -0.083647 0.045045 
0.251881 -0.083647 0.047975 
0.358715 -0.083647 0.052968 
0.358684 -0.083647 0.054004 
0.358628 -0.083647 0.055164 
0.358520 -0.083647 0.056650 
0.358390 -0.083647 0.057980 
0.358167 -0.083647 0.059723 
0.357812 -0.083647 0.061861 
0.357409 -0.083647 0.063787 
0.356970 -0.083647 0.065545 
0.356143 -0.083647 0.068276 
0.354885 -0.083647 0.071583 
0.353198 -0.083647 0.075106 
0.350625 -0.083647 0.079325 
0.342805 -0.083647 0.087968 
0.339424 -0.083647 0.090604 
0.336255 -0.083647 0.092681 
0.332532 -0.083647 0.094726 
0.329128 -0.083647 0.096279 
0.327681 -0.083647 0.096858 
0.325735 -0.083647 0.097567 
0.324123 -0.083647 0.098096 
0.322374 -0.083647 0.098612 
0.320947 -0.083647 0.098992 
0.319478 -0.083647 0.099345 
0.316659 -0.083647 0.099918 
0.315196 -0.083647 0.100163 
0.313857 -0.083647 0.100356 
0.312250 -0.083647 0.100551 
0.310631 -0.083647 0.100705 
0.309181 -0.083647 0.100809 
0.307796 -0.083647 0.100878 
0.306117 -0.083647 0.100922 
0.304629 -0.083647 0.100925 
0.302746 -0.083647 0.100880 
0.300926 -0.083647 0.100785 
0.299083 -0.083647 0.100637 
0.297431 -0.083647 0.100459 
0.295755 -0.083647 0.100233 
0.294246 -0.083647 0.099992 
0.292770 -0.083647 0.099719 
0.291317 -0.083647 0.099415 
0.289772 -0.083647 0.099051 
0.288229 -0.083647 0.098646 
0.286840 -0.083647 0.098243 
0.285380 -0.083647 0.097780 
0.283921 -0.083647 0.097275 
0.282618 -0.083647 0.096787 
0.281131 -0.083647 0.096185 
0.279906 -0.083647 0.095651 
0.278788 -0.083647 0.095133 
0.277450 -0.083647 0.094472 
0.276067 -0.083647 0.093739 
0.274981 -0.083647 0.093126 
0.273764 -0.083647 0.092397 
0.272485 -0.083647 0.091581 
0.271515 -0.083647 0.090924 
0.270331 -0.083647 0.090076 
0.269248 -0.083647 0.089252 
0.267983 -0.083647 0.088226 
0.266751 -0.083647 0.087154 
0.265690 -0.083647 0.086167 
0.264562 -0.083647 0.085046 
0.263420 -0.083647 0.083826 
0.262558 -0.083647 0.082843 
0.261634 -0.083647 0.081719 
0.260783 -0.083647 0.080614 
0.259883 -0.083647 0.079361 
0.258852 -0.083647 0.077800 
0.257931 -0.083647 0.076269 
0.256959 -0.083647 0.074481 
0.256160 -0.083647 0.072847 
0.255412 -0.083647 0.071138 
0.254741 -0.083647 0.069416 
0.254158 -0.083647 0.067722 
0.253603 -0.083647 0.065872 
0.253156 -0.083647 0.064136 
0.252724 -0.083647 0.062130 
0.252435 -0.083647 0.060501 
0.252173 -0.083647 0.058651 
0.252016 -0.083647 0.057221 
0.251894 -0.083647 0.055754 
0.305216 -0.141029 0.051734 
0.305400 -0.140851 0.050684 
0.305589 -0.140659 0.049603 
0.305782 -0.140453 0.048502 
0.305967 -0.140247 0.047448 
0.306156 -0.140025 0.046367 
0.306345 -0.139792 0.045284 
0.306543 -0.139537 0.044153 
0.306783 -0.139213 0.042788 
0.307085 -0.138775 0.041057 
0.307427 -0.138240 0.039105 
0.307824 -0.137564 0.036841 
0.308288 -0.136689 0.034191 
0.308826 -0.135545 0.031117 
0.309356 -0.134263 0.028089 
0.309879 -0.132823 0.025100 
0.310382 -0.131243 0.022225 
0.310936 -0.129240 0.019064 
0.311205 -0.128146 0.017526 
0.311503 -0.126830 0.015826 
0.311901 -0.124861 0.013550 
0.312286 -0.122689 0.011356 
0.312681 -0.120095 0.009097 
0.312898 -0.118479 0.007860 
0.313090 -0.116895 0.006759 
0.313271 -0.115260 0.005727 
0.313439 -0.113582 0.004769 
0.313581 -0.112018 0.003959 
0.313699 -0.110589 0.003283 
0.313910 -0.107668 0.002076 
0.314004 -0.106163 0.001538 
0.314090 -0.104647 0.001047 
0.314232 -0.101731 0.000238 
0.314345 -0.098832 -0.000407 
0.314396 -0.097254 -0.000698 
0.314449 -0.095334 -0.000999 
0.314480 -0.093980 -0.001178 
0.314512 -0.092327 -0.001363 
0.314536 -0.090813 -0.001499 
0.314559 -0.088933 -0.001629 
0.314578 -0.086311 -0.001741 
0.314585 -0.084200 -0.001776 
0.305216 -0.141236 0.053613 
0.305216 -0.141377 0.055252 
0.305216 -0.141482 0.056944 
0.305216 -0.141550 0.059051 
0.305216 -0.141529 0.061703 
0.305216 -0.141345 0.064733 
0.305216 -0.141089 0.066941 
0.305216 -0.140708 0.069208 
0.305216 -0.140145 0.071653 
0.305216 -0.139369 0.074197 
0.305216 -0.138314 0.076859 
0.305216 -0.137147 0.079192 
0.305216 -0.135911 0.081225 
0.305216 -0.134388 0.083312 
0.305216 -0.132867 0.085067 
0.305216 -0.131208 0.086703 
0.305216 -0.129000 0.088540 
0.305216 -0.127714 0.089468 
0.305216 -0.126418 0.090316 
0.305216 -0.124052 0.091671 
0.305216 -0.121926 0.092712 
0.305216 -0.119782 0.093619 
0.305216 -0.117214 0.094547 
0.305216 -0.114479 0.095375 
0.305216 -0.111905 0.096024 
0.305216 -0.109459 0.096541 
0.305216 -0.106868 0.096993 
0.305216 -0.104315 0.097356 
0.305216 -0.101661 0.097656 
0.305216 -0.098710 0.097909 
0.305216 -0.097142 0.098012 
0.305216 -0.095575 0.098096 
0.305216 -0.093838 0.098169 
0.305216 -0.092122 0.098222 
0.305216 -0.090525 0.098256 
0.305216 -0.088905 0.098279 
0.305216 -0.086174 0.098294 
0.314579 -0.081408 -0.001756 
0.314572 -0.077447 -0.001755 
0.314557 -0.072940 -0.001755 
0.314536 -0.068814 -0.001753 
0.314509 -0.064882 -0.001752 
0.314472 -0.060835 -0.001749 
0.314427 -0.056879 -0.001746 
0.314359 -0.052066 -0.001742 
0.314252 -0.046119 -0.001736 
0.314112 -0.039929 -0.001727 
0.313931 -0.033484 -0.001716 
0.313721 -0.027309 -0.001703 
0.313582 -0.023720 -0.001694 
0.313430 -0.020179 -0.001685 
0.313235 -0.016015 -0.001673 
0.313021 -0.011908 -0.001659 
0.312800 -0.008033 -0.001646 
0.312572 -0.004340 -0.001632 
0.312125 0.002135 -0.001604 
0.311664 0.008032 -0.001575 
0.311131 0.014089 -0.001543 
0.310514 0.020337 -0.001504 
0.309870 0.026183 -0.001465 
0.309115 0.032345 -0.001418 
0.308677 0.035639 -0.001391 
0.308202 0.039006 -0.001361 
0.307193 0.045584 -0.001299 
0.306174 0.051562 -0.001236 
0.305026 0.057643 -0.001165 
0.303674 0.064084 -0.001081 
0.302322 0.069891 -0.000998 
0.300791 0.075836 -0.000903 
0.299210 0.081386 -0.000805 
0.297470 0.086913 -0.000697 
0.295404 0.092816 -0.000570 
0.293389 0.097984 -0.000445 
0.291048 0.103374 -0.000300 
0.289618 0.106384 -0.000212 
0.288190 0.109197 -0.000123 
0.285394 0.114214 0.000050 
0.283032 0.118001 0.000196 
0.280751 0.121314 0.000337 
0.277940 0.124983 0.000511 
0.274446 0.128983 0.000727 
0.270940 0.132450 0.000944 
0.267477 0.135401 0.001158 
0.264382 0.137687 0.001350 
0.260443 0.140163 0.001593 
0.256030 0.142425 0.001867 
0.251109 0.144381 0.002171 
0.245223 0.146031 0.002535 
0.239174 0.147041 0.002909 
0.232481 0.147448 0.003323 
0.226320 0.147241 0.003705 
0.219567 0.146444 0.004122 
0.215482 0.145700 0.004375 
0.211554 0.144811 0.004618 
0.207547 0.143741 0.004866 
0.203412 0.142473 0.005122 
0.196269 0.139919 0.005564 
0.190000 0.137325 0.005952 
0.183043 0.134093 0.006382 
0.176647 0.130818 0.006778 
0.173006 0.128832 0.007003 
0.169546 0.126868 0.007217 
0.165513 0.124485 0.007467 
0.161242 0.121859 0.007731 
0.157479 0.119460 0.007964 
0.153608 0.116912 0.008203 
0.149622 0.114208 0.008450 
0.146035 0.111706 0.008672 
0.139850 0.107247 0.009054 
0.134544 0.103281 0.009383 
0.130131 0.099889 0.009656 
0.126654 0.097158 0.009871 
0.305216 -0.083647 0.098296 
0.305208 -0.077626 0.098295 
0.305195 -0.074588 0.098295 
0.305174 -0.071358 0.098295 
0.305134 -0.067231 0.098293 
0.305079 -0.063124 0.098292 
0.304981 -0.057789 0.098289 
0.304853 -0.052537 0.098286 
0.304673 -0.046712 0.098281 
0.304458 -0.041092 0.098275 
0.304226 -0.036011 0.098269 
0.303958 -0.030961 0.098261 
0.303659 -0.026030 0.098253 
0.303333 -0.021263 0.098244 
0.302919 -0.015892 0.098233 
0.302462 -0.010601 0.098221 
0.302068 -0.006471 0.098210 
0.301640 -0.002339 0.098198 
0.301183 0.001741 0.098186 
0.300657 0.006084 0.098172 
0.300094 0.010389 0.098156 
0.299500 0.014601 0.098140 
0.298936 0.018334 0.098125 
0.298338 0.022048 0.098108 
0.297701 0.025772 0.098091 
0.297057 0.029314 0.098074 
0.296361 0.032921 0.098055 
0.295648 0.036412 0.098035 
0.294822 0.040227 0.098013 
0.293964 0.043950 0.097989 
0.293071 0.047605 0.097965 
0.292166 0.051096 0.097940 
0.291230 0.054510 0.097915 
0.290248 0.057898 0.097888 
0.289198 0.061322 0.097860 
0.288118 0.064645 0.097830 
0.286964 0.068003 0.097799 
0.285657 0.071580 0.097763 
0.284228 0.075250 0.097725 
0.282812 0.078659 0.097686 
0.281281 0.082111 0.097644 
0.279727 0.085396 0.097602 
0.278077 0.088660 0.097557 
0.276348 0.091856 0.097510 
0.274536 0.094981 0.097461 
0.272622 0.098053 0.097409 
0.270908 0.100622 0.097362 
0.269024 0.103262 0.097311 
0.267037 0.105853 0.097257 
0.264029 0.109432 0.097175 
0.260844 0.112813 0.097088 
0.258288 0.115252 0.097019 
0.255608 0.117570 0.096946 
0.252701 0.119829 0.096867 
0.249797 0.121840 0.096788 
0.246399 0.123909 0.096695 
0.242863 0.125762 0.096599 
0.238062 0.127830 0.096468 
0.232311 0.129697 0.096312 
0.226371 0.131004 0.096150 
0.219803 0.131794 0.095971 
0.212943 0.131965 0.095785 
0.205079 0.131428 0.095571 
0.197335 0.130215 0.095360 
0.190085 0.128528 0.095163 
0.183914 0.126708 0.094995 
0.179148 0.125079 0.094865 
0.173786 0.123026 0.094719 
0.170135 0.121504 0.094620 
0.164713 0.119063 0.094472 
0.160732 0.117141 0.094364 
0.155555 0.114484 0.094223 
0.150178 0.111547 0.094077 
0.142650 0.107145 0.093872 
0.134619 0.102099 0.093653 
0.130164 0.099154 0.093532 
0.125621 0.096047 0.093408 
0.000000 -0.175077 -0.187002 
0.000000 -0.175075 -0.188772 
0.000000 -0.175055 -0.192496 
0.000000 -0.175003 -0.196975 
0.000000 -0.174889 -0.202717 
0.000000 -0.174680 -0.209591 
0.000000 -0.174375 -0.216722 
0.000000 -0.173944 -0.224320 
0.000000 -0.173385 -0.232053 
0.000000 -0.172647 -0.240268 
0.000000 -0.172134 -0.245138 
0.000000 -0.171569 -0.249958 
0.000000 -0.170928 -0.254879 
0.000000 -0.170218 -0.259809 
0.000000 -0.168815 -0.268354 
0.000000 -0.167186 -0.276834 
0.000000 -0.166215 -0.281342 
0.000000 -0.165189 -0.285749 
0.000000 -0.163077 -0.293899 
0.000000 -0.160661 -0.302026 
0.000000 -0.159232 -0.306361 
0.000000 -0.157718 -0.310632 
0.000000 -0.156209 -0.314601 
0.000000 -0.154607 -0.318543 
0.000000 -0.151242 -0.326038 
0.000000 -0.147872 -0.332662 
0.000000 -0.144255 -0.338969 
0.000000 -0.139944 -0.345598 
0.000000 -0.135449 -0.351659 
0.000000 -0.131545 -0.356330 
0.000000 -0.127836 -0.360328 
0.000000 -0.123841 -0.364213 
0.000000 -0.118896 -0.368491 
0.000000 -0.113712 -0.372424 
0.000000 -0.108171 -0.376081 
0.000000 -0.101800 -0.379677 
0.000000 -0.095488 -0.382675 
0.000000 -0.089579 -0.385034 
0.000000 -0.083104 -0.387173 
0.000000 -0.075544 -0.389147 
0.000000 -0.068124 -0.390593 
0.000000 -0.060653 -0.391609 
0.000000 -0.053536 -0.392207 
0.000000 -0.046451 -0.392474 
0.000000 -0.039262 -0.392439 
0.000000 -0.032966 -0.392175 
0.000000 -0.026564 -0.391697 
0.000000 -0.019154 -0.390901 
0.000000 -0.012003 -0.389900 
0.000000 -0.006793 -0.389036 
0.000000 -0.002682 -0.388279 
0.000000 0.000806 -0.387585 
0.000000 0.003714 -0.386972 
0.002431 -0.175029 -0.187002 
0.007844 -0.174878 -0.187002 
0.014316 -0.174552 -0.187002 
0.019617 -0.174157 -0.187002 
0.025061 -0.173621 -0.187002 
0.030639 -0.172922 -0.187002 
0.036897 -0.171941 -0.187002 
0.043806 -0.170588 -0.187002 
0.049800 -0.169154 -0.187002 
0.056030 -0.167375 -0.187002 
0.062237 -0.165264 -0.187002 
0.069336 -0.162366 -0.187002 
0.076225 -0.158961 -0.187002 
0.082444 -0.155270 -0.187002 
0.088364 -0.151076 -0.187002 
0.094104 -0.146199 -0.187002 
0.098774 -0.141465 -0.187002 
0.102867 -0.136571 -0.187002 
0.107236 -0.130302 -0.187002 
0.111219 -0.123233 -0.187002 
0.113169 -0.119092 -0.187002 
0.114915 -0.114846 -0.187002 
0.117456 -0.107347 -0.187002 
0.119322 -0.100207 -0.187002 
0.120898 -0.092039 -0.187002 
0.121506 -0.087838 -0.187002 
0.121983 -0.083702 -0.187002 
0.122537 -0.076783 -0.187002 
0.122791 -0.070896 -0.187002 
0.122863 -0.064946 -0.187002 
0.122750 -0.058444 -0.187002 
0.122486 -0.052452 -0.187002 
0.122111 -0.046849 -0.187002 
0.121584 -0.040851 -0.187002 
0.120941 -0.034883 -0.187002 
0.120254 -0.029393 -0.187002 
0.119469 -0.023816 -0.187002 
0.118520 -0.017733 -0.187002 
0.117557 -0.012073 -0.187002 
0.116640 -0.007038 -0.187002 
0.115765 -0.002483 -0.187002 
0.114924 0.001711 -0.187002 
0.114090 0.005719 -0.187002 
0.112413 0.010698 -0.187002 
0.110978 0.012603 -0.187002 
0.109856 0.014034 -0.187002 
0.108481 0.015718 -0.187002 
0.106793 0.017688 -0.187002 
0.104820 0.019859 -0.187002 
0.102072 0.022666 -0.187002 
0.098517 0.025954 -0.187002 
0.094748 0.029059 -0.187002 
