0.89096433 0.39941949 0.66297072 0.00207615 0.00162069 0.00075574
0.63216573 0.23795499 0.24657995 0.00102103 -0.00160147 -0.00173657
0.84721226 0.12144834 0.78588688 0.00154658 -0.00220924 0.00222195
0.37841955 0.74220634 0.50116211 -0.00219044 0.00078248 0.00010480
0.77791512 0.52658170 0.31484288 0.00158778 0.00053206 -0.00097631
0.78181237 0.08316401 0.55713427 0.00091351 -0.00231556 -0.00101523
0.70232517 0.68449086 0.65375489 0.00146233 0.00014513 0.00156159
0.83987582 0.08249225 0.74132085 0.00143091 -0.00261346 0.00157057
0.73260307 0.85529876 0.49645343 0.00240667 0.00153772 -0.00053680
0.63688296 0.92743886 0.57847017 0.00050230 0.00316912 0.00113850
0.52318752 0.65485060 0.69159579 -0.00072447 -0.00012453 0.00216496
0.23887643 0.49824172 0.53478163 -0.00099803 0.00146237 0.00033159
0.94177717 0.21265087 0.73565847 0.00303115 -0.00072957 0.00147629
0.18694198 0.41591617 0.32078448 -0.00141276 0.00167723 -0.00124513
0.68026388 0.15512864 0.80471593 -0.00107573 -0.00146637 0.00239413
0.10918038 0.22991446 0.59312999 -0.00264528 -0.00122265 0.00179534
0.69734961 0.14150943 0.41952184 0.00058658 -0.00167015 -0.00046743
0.79986268 0.06074882 0.62542719 0.00054766 -0.00266517 -0.00087384
0.40528411 0.45835519 0.21962532 -0.00078963 0.00042257 -0.00161489
0.84791273 0.16353804 0.81554449 0.00167696 -0.00133655 0.00291066
0.49876103 0.75322676 0.32422784 -0.00072873 0.00189968 -0.00107136
0.38578877 0.65046668 0.56763804 -0.00090767 0.00065097 0.00067468
0.34160063 0.25463548 0.63912100 -0.00003737 -0.00025107 0.00177642
0.76362002 0.41827676 0.74146950 0.00045921 0.00113779 0.00118035
0.35682938 0.44424206 0.23866720 -0.00092626 0.00037073 -0.00144454
0.46325111 0.66570407 0.66301435 -0.00104888 -0.00003248 0.00190436
0.16800790 0.21780474 0.62289304 -0.00107912 -0.00148474 0.00238572
0.76484352 0.67873299 0.39501861 0.00151792 0.00099211 -0.00053225
0.76351637 0.36403349 0.24312839 0.00223481 -0.00051534 -0.00186986
0.21647125 0.13650292 0.40173292 -0.00028696 -0.00237762 -0.00112150
0.36342818 0.16205671 0.34188440 -0.00042649 -0.00172725 -0.00084598
0.16750988 0.44116601 0.57347685 -0.00092102 0.00168492 0.00117276
0.67740905 0.07160507 0.60742092 -0.00060727 -0.00261820 -0.00005495
0.15271226 0.43051490 0.57558852 -0.00149838 0.00138838 0.00131249
0.71832848 0.48662367 0.21035817 0.00183313 0.00084313 -0.00214256
0.42355555 0.79726624 0.62023062 -0.00216202 0.00077521 0.00133046
0.69679612 0.52376324 0.67302281 0.00040394 0.00001462 0.00063305
0.73224652 0.80195439 0.42403078 0.00192932 0.00143251 -0.00127506
0.77215683 0.45852318 0.26836795 0.00190671 0.00049805 -0.00140381
0.59327102 0.83242786 0.34722289 0.00014101 0.00187431 -0.00216194
0.62461817 0.21058923 0.28129038 0.00044174 -0.00183559 -0.00109553
0.25381961 0.17816873 0.32659969 -0.00071885 -0.00200141 -0.00162314
0.50320774 0.65204895 0.26802638 -0.00046483 0.00103149 -0.00133924
0.34605274 0.15800393 0.34846088 -0.00062267 -0.00187046 -0.00077710
0.73168850 0.11069941 0.48598874 0.00057726 -0.00187399 -0.00051399
0.26347288 0.14145714 0.38103190 -0.00058644 -0.00240875 -0.00089322
0.23248638 0.48069799 0.56070042 -0.00094445 0.00122942 0.00105838
0.55694538 0.65430754 0.69663507 -0.00026652 -0.00010370 0.00214809
0.70008618 0.06927329 0.59397775 -0.00028046 -0.00256795 -0.00024326
0.43303829 0.67817855 0.63470072 -0.00154265 0.00023802 0.00116851
0.59536541 0.24435414 0.22967975 0.00005226 -0.00165156 -0.00200375
0.67988956 0.57530153 0.66454929 0.00026423 0.00059384 0.00064308
0.93150675 0.31009835 0.59458673 0.00241404 0.00105035 -0.00006363
0.60159993 0.87884682 0.66858572 0.00018172 0.00272965 0.00223318
0.53357792 0.94253856 0.53869510 -0.00055083 0.00336438 0.00058605
0.50189555 0.89617091 0.42749277 -0.00112855 0.00199231 -0.00181149
0.61929327 0.84019959 0.68764901 0.00074098 0.00148287 0.00271682
0.69914651 0.39472809 0.76397890 -0.00013100 0.00101328 0.00163930
0.68376273 0.38616264 0.76781380 -0.00025531 0.00101054 0.00174562
0.60236079 0.12939335 0.67799252 -0.00132686 -0.00148019 0.00100105
0.91288054 0.37150601 0.63661319 0.00240442 0.00102595 0.00021002
0.74245471 0.82575762 0.47729072 0.00234907 0.00118772 -0.00061147
0.84315312 0.39425051 0.39408445 0.00163175 0.00013601 -0.00071965
0.43641022 0.17962639 0.31452680 -0.00030638 -0.00148584 -0.00091286
0.14914976 0.14201064 0.43749309 -0.00131089 -0.00279328 -0.00084945
0.08839296 0.35182783 0.36989233 -0.00230615 0.00068857 -0.00181830
0.18067019 0.13691860 0.41953182 -0.00116180 -0.00255550 -0.00079906
0.75880045 0.14898691 0.82632297 0.00057216 -0.00155791 0.00285866
0.49594861 0.48235169 0.18835096 -0.00090611 0.00063169 -0.00208386
0.37297094 0.44893768 0.23233308 -0.00071295 0.00042591 -0.00154758
0.65915531 0.17651278 0.34608135 0.00042524 -0.00153826 -0.00093452
0.84837568 0.14622715 0.80535859 0.00168498 -0.00220801 0.00237912
0.54028285 0.35427698 0.16340703 -0.00053942 -0.00049234 -0.00284742
0.49723795 0.81087542 0.35881367 -0.00101758 0.00129705 -0.00181158
0.92795241 0.33129510 0.60754198 0.00239868 0.00118626 0.00011997
0.19678174 0.50057620 0.41552451 -0.00159902 0.00199445 -0.00052485
0.10815477 0.16234145 0.46749896 -0.00269536 -0.00231846 0.00005935
0.50597215 0.59169692 0.23478723 -0.00045294 0.00094022 -0.00152454
0.77298224 0.39676145 0.25434032 0.00223886 0.00023687 -0.00150724
0.42946351 0.79505765 0.40221184 -0.00160744 0.00146153 -0.00137980
0.66510516 0.15921418 0.79530013 -0.00113961 -0.00134822 0.00216766
0.74988806 0.79273766 0.45758784 0.00230271 0.00104069 -0.00059099
0.18579543 0.21672821 0.62721735 -0.00089896 -0.00144205 0.00231632
0.07888748 0.20097369 0.50061035 -0.00283382 -0.00180301 0.00038790
0.82594776 0.42437857 0.71103293 0.00092201 0.00151330 0.00135821
0.13489655 0.41617242 0.57739276 -0.00195405 0.00120283 0.00144875
0.80921900 0.42784816 0.32879275 0.00157367 0.00040986 -0.00128207
0.52094311 0.93931854 0.50452948 -0.00097372 0.00332393 -0.00052785
0.58236057 0.65585977 0.69653183 -0.00008515 -0.00007125 0.00205497
0.58618671 0.25678083 0.21470976 0.00024684 -0.00190018 -0.00182182
0.62540907 0.66188824 0.68961060 0.00010446 -0.00012125 0.00193494
0.90456891 0.32851532 0.52116615 0.00232319 -0.00026121 0.00028871
0.08041109 0.34949058 0.57185274 -0.00282389 0.00068476 0.00166495
0.60014677 0.22438216 0.25573841 0.00013077 -0.00183084 -0.00145699
0.67904723 0.82416719 0.37368679 0.00166003 0.00174297 -0.00173420
0.30609471 0.52693099 0.54692990 -0.00075467 0.00042601 0.00046538
0.59906709 0.28559288 0.76111585 -0.00120476 -0.00012626 0.00168925
0.10588120 0.36127329 0.35515201 -0.00210253 0.00064663 -0.00171188
0.82043499 0.05834562 0.67595637 0.00127239 -0.00305071 0.00077647
0.59386677 0.26893917 0.75524747 -0.00127703 -0.00043274 0.00154462
0.71687359 0.81036240 0.40553376 0.00174229 0.00155535 -0.00141037
0.49717522 0.82622790 0.36889359 -0.00106708 0.00159090 -0.00171164
0.44933766 0.84453440 0.63046968 -0.00173788 0.00201440 0.00173477
0.19039807 0.45604667 0.56943953 -0.00073828 0.00162072 0.00105770
0.50247711 0.66778660 0.27666998 -0.00048812 0.00113642 -0.00128476
0.83413428 0.24879941 0.83767134 0.00121478 -0.00005984 0.00301062
0.68488514 0.91230750 0.54754168 0.00166305 0.00291624 0.00045492
0.91419172 0.21238799 0.55303824 0.00235665 -0.00107364 -0.00100945
0.50798500 0.22443309 0.65635955 -0.00003848 -0.00058820 0.00080389
0.43051273 0.81359154 0.62472546 -0.00220135 0.00103554 0.00147797
0.18640532 0.43640742 0.33532014 -0.00152951 0.00128153 -0.00145024
0.75648046 0.34801656 0.23882319 0.00217738 -0.00087353 -0.00201088
0.29269698 0.42582220 0.63277513 -0.00054091 0.00091032 0.00180627
0.74623144 0.81046879 0.46802476 0.00227523 0.00131964 -0.00052771
0.50013608 0.88337719 0.41450122 -0.00109271 0.00180104 -0.00183252
0.24599236 0.49189305 0.55027395 -0.00072280 0.00127152 0.00066427
0.40480927 0.69724548 0.59353071 -0.00121565 0.00018063 0.00119315
0.55924803 0.93100464 0.59604895 -0.00048633 0.00337075 0.00112501
0.77739936 0.07371721 0.57715714 0.00061868 -0.00260330 -0.00041978
0.41789728 0.78065526 0.61496121 -0.00203300 0.00059706 0.00118252
0.77692181 0.54254448 0.32306764 0.00152904 0.00069575 -0.00085829
0.68823940 0.49430811 0.19243921 0.00143568 0.00105175 -0.00256833
0.50417924 0.63102591 0.25647247 -0.00044732 0.00099018 -0.00137714
0.74330062 0.32593566 0.23459896 0.00190537 -0.00130254 -0.00207784
0.49386331 0.19351529 0.29301938 0.00007385 -0.00142246 -0.00113465
0.88484037 0.35012004 0.47945946 0.00191881 -0.00006870 -0.00018416
0.51958132 0.44427407 0.17096637 -0.00051920 -0.00008049 -0.00255972
0.66729999 0.67161024 0.67522228 0.00097925 0.00006911 0.00159665
0.33083123 0.14280564 0.52038449 0.00004146 -0.00215819 0.00073883
0.77954924 0.47837570 0.29067308 0.00185923 0.00072215 -0.00094189
0.51028615 0.19750440 0.28688043 0.00015596 -0.00145329 -0.00120467
0.58670330 0.21738450 0.73226148 -0.00108129 0.00011662 0.00154001
0.65115345 0.36227340 0.77295947 -0.00071055 0.00083263 0.00193945
0.37498528 0.62149447 0.55890483 -0.00062913 0.00077929 0.00055368
0.36762604 0.60519558 0.55462146 -0.00052999 0.00073030 0.00047011
0.65928859 0.25237828 0.24023949 0.00076812 -0.00177246 -0.00172520
0.69057977 0.54039192 0.66835785 0.00032269 0.00021136 0.00054547
0.21302247 0.21651582 0.63124287 -0.00067092 -0.00134978 0.00216056
0.90497100 0.38393438 0.64735126 0.00219432 0.00143729 0.00056536
0.76067972 0.77579111 0.47931623 0.00268209 0.00054293 0.00039790
0.51183003 0.50339925 0.19074823 -0.00055296 0.00103558 -0.00205193
0.81007862 0.15401846 0.82407802 0.00013357 -0.00165433 0.00312650
0.87449026 0.41097096 0.67787015 0.00193873 0.00158051 0.00083131
0.86397600 0.37230828 0.43654618 0.00165763 0.00008516 -0.00056164
0.09440414 0.37273851 0.57624257 -0.00253868 0.00096037 0.00163876
0.30578044 0.12835775 0.43698323 -0.00003997 -0.00253021 -0.00001906
0.04584574 0.29146218 0.47336701 -0.00335538 -0.00059139 0.00037776
0.55949706 0.21067837 0.26907653 -0.00014564 -0.00173168 -0.00122653
0.39719218 0.70433223 0.57856572 -0.00148676 0.00041919 0.00070696
0.39588371 0.68627775 0.58003426 -0.00139181 0.00023792 0.00077846
0.62817198 0.81479043 0.69320357 0.00094966 0.00071940 0.00269470
0.74406964 0.43183595 0.73150879 0.00020093 0.00090893 0.00124845
0.77839851 0.43776369 0.27155250 0.00203244 -0.00003363 -0.00141326
0.60717726 0.65887654 0.69345415 0.00019772 -0.00005147 0.00195413
0.32140172 0.35321227 0.65837252 -0.00023876 0.00017952 0.00215979
0.18791619 0.39897543 0.31029800 -0.00130397 0.00102852 -0.00172726
0.53948253 0.20498554 0.27615559 0.00004748 -0.00159516 -0.00124069
0.73642802 0.44427556 0.72044104 0.00033738 0.00065228 0.00118629
0.46102440 0.18560073 0.30532515 -0.00041182 -0.00149756 -0.00089725
0.59585750 0.49738440 0.17452617 -0.00016317 0.00090696 -0.00252190
0.84590745 0.18446873 0.82460332 0.00145578 -0.00058238 0.00327043
0.64665449 0.74395823 0.69280148 0.00087474 0.00027933 0.00214349
0.77872193 0.51056927 0.30668545 0.00165558 0.00041393 -0.00106868
0.73949069 0.70849782 0.61044770 0.00195349 0.00039851 0.00116802
0.32964146 0.15429589 0.35472950 -0.00060547 -0.00198181 -0.00079749
0.30809677 0.39181775 0.65039253 -0.00035833 0.00052674 0.00209174
0.74689674 0.09757549 0.51577479 0.00074543 -0.00220926 -0.00023893
0.57541764 0.92627913 0.60811996 0.00001833 0.00320696 0.00149679
0.20709042 0.50979429 0.45241168 -0.00141832 0.00195901 0.00003120
0.76025265 0.46651575 0.25232279 0.00175670 0.00068929 -0.00178119
0.54219711 0.82754093 0.35093549 -0.00044174 0.00171631 -0.00202251
0.74305683 0.79440683 0.44028696 0.00200411 0.00132663 -0.00110482
0.65097880 0.16403513 0.78469580 -0.00139478 -0.00115064 0.00177913
0.53493941 0.37296501 0.16232871 -0.00074629 0.00039181 -0.00277880
0.86559558 0.14134797 0.54224885 0.00179143 -0.00182733 -0.00109328
0.33883309 0.55915821 0.54645950 -0.00061885 0.00020218 0.00025674
0.72603613 0.86915988 0.50639951 0.00226720 0.00210711 -0.00020836
0.76442462 0.74389958 0.54308057 0.00235510 0.00074464 0.00041860
0.21366920 0.46989027 0.56471044 -0.00107357 0.00126778 0.00107965
0.20629358 0.29030740 0.27788115 -0.00139105 -0.00062943 -0.00245366
0.81539714 0.09979539 0.54768324 0.00140656 -0.00217175 -0.00109850
0.74053353 0.14864765 0.82449329 0.00003219 -0.00158935 0.00281797
0.84154451 0.42246389 0.70162475 0.00104941 0.00164073 0.00136141
0.32067129 0.13213721 0.48278499 -0.00004240 -0.00236171 0.00025630
0.60787946 0.30649856 0.76725167 -0.00106405 0.00048072 0.00194859
0.56296068 0.20529844 0.69830972 -0.00077708 -0.00066177 0.00103342
0.78623581 0.15097490 0.82639390 0.00070113 -0.00154232 0.00289842
0.52699178 0.94193363 0.52160203 -0.00083505 0.00337047 -0.00013882
0.90200567 0.18954073 0.54771209 0.00228834 -0.00119235 -0.00102859
0.66899645 0.62436163 0.66966224 0.00056913 0.00024835 0.00122283
0.44624132 0.80226320 0.38986975 -0.00146597 0.00147228 -0.00148345
0.66796404 0.37573889 0.77090603 -0.00044014 0.00098759 0.00185851
0.79414582 0.35364434 0.80625868 0.00048792 0.00145144 0.00201825
0.54788184 0.93837255 0.57216018 -0.00044600 0.00336011 0.00098032
0.06714435 0.23438928 0.52257937 -0.00312955 -0.00139530 0.00080847
0.15763372 0.38321182 0.32239771 -0.00184858 0.00069168 -0.00167841
0.38621631 0.23311628 0.62437570 -0.00051427 -0.00075015 0.00100412
0.05671560 0.32686573 0.41079772 -0.00342634 0.00002202 -0.00075293
0.77115119 0.39060354 0.77263480 0.00044439 0.00106665 0.00176451
0.50145131 0.69005811 0.28892523 -0.00051998 0.00106271 -0.00134814
0.95454544 0.25017247 0.66951400 0.00307259 -0.00010517 0.00029456
0.06624835 0.30802214 0.55871105 -0.00311522 -0.00015109 0.00147243
0.19821028 0.32518932 0.28200260 -0.00155909 0.00037980 -0.00219199
0.65035391 0.72614437 0.69029504 0.00092023 -0.00010661 0.00200258
0.22195943 0.50890017 0.49448279 -0.00115496 0.00163576 0.00048097
0.37973985 0.73187858 0.52182436 -0.00200553 0.00064597 0.00036452
0.18808492 0.46998793 0.36650217 -0.00164644 0.00151658 -0.00122459
0.61127549 0.18190135 0.74707961 -0.00129493 -0.00084368 0.00131236
0.42961720 0.46534476 0.21023855 -0.00078243 0.00046227 -0.00173352
0.29795912 0.13056768 0.41621765 0.00003267 -0.00261832 0.00001764
0.17312221 0.38870764 0.31453180 -0.00150755 0.00081023 -0.00180583
0.76083797 0.71658975 0.41533896 0.00165054 0.00129964 -0.00035955
0.76116681 0.73560256 0.55917221 0.00224347 0.00057863 0.00077340
0.70693010 0.50009865 0.68292123 0.00040366 0.00014938 0.00075316
0.26833749 0.15738495 0.35205251 -0.00076197 -0.00194004 -0.00165396
0.77547050 0.56243736 0.33342448 0.00148395 0.00068802 -0.00082188
0.48816547 0.88314527 0.63009948 -0.00150715 0.00220647 0.00174797
0.77383864 0.58228970 0.34385005 0.00144797 0.00071073 -0.00077194
0.66582006 0.64166117 0.67314970 0.00067181 0.00014005 0.00146089
0.13435625 0.14687344 0.44712317 -0.00183330 -0.00271332 -0.00055522
0.93950361 0.28462049 0.60521239 0.00262869 0.00016620 -0.00036987
0.11976692 0.36784342 0.34512579 -0.00190826 0.00068008 -0.00173888
0.63771206 0.16939640 0.77322465 -0.00154169 -0.00096930 0.00144295
0.38060078 0.16613635 0.33542201 -0.00052344 -0.00167521 -0.00080869
0.39055789 0.71167874 0.56320137 -0.00178142 0.00061416 0.00027432
0.57580507 0.21581359 0.26355064 -0.00011135 -0.00180052 -0.00132418
0.31245065 0.15059467 0.36138472 -0.00022312 -0.00204327 -0.00098737
0.92693865 0.24694380 0.56415874 0.00260953 -0.00046832 -0.00088656
0.06490213 0.33526832 0.39669913 -0.00318604 0.00016582 -0.00098489
0.55228764 0.49274811 0.17708355 -0.00013754 0.00085931 -0.00242912
0.40958431 0.23463851 0.62474775 -0.00042137 -0.00062177 0.00076144
0.49788293 0.77995032 0.33982545 -0.00082266 0.00137233 -0.00153745
0.78080177 0.37576163 0.78719407 0.00034647 0.00140633 0.00165145
0.49739352 0.84117562 0.37941098 -0.00105680 0.00205804 -0.00142790
0.23593292 0.40877578 0.28663847 -0.00182289 0.00042655 -0.00134493
0.80170923 0.42433369 0.72408223 0.00081936 0.00136050 0.00129119
0.14163134 0.37710378 0.33130556 -0.00160921 0.00077876 -0.00185297
0.92171884 0.23050751 0.55841547 0.00250859 -0.00065597 -0.00089135
0.04793327 0.28278172 0.48934147 -0.00332879 -0.00070076 0.00058697
0.49988267 0.72536939 0.30849424 -0.00062605 0.00165066 -0.00110257
0.19694455 0.13617000 0.41116881 -0.00090247 -0.00247521 -0.00087973
0.25319469 0.48462388 0.56528711 -0.00051108 0.00106307 0.00112349
0.07146503 0.25068596 0.55052739 -0.00278486 -0.00123535 0.00189635
0.44712004 0.67162251 0.64937007 -0.00123153 0.00009022 0.00158502
0.32449302 0.43485373 0.25132084 -0.00119165 0.00033229 -0.00134492
0.61303061 0.11095455 0.66263551 -0.00140901 -0.00178997 0.00089090
0.21567626 0.51061022 0.47774956 -0.00123240 0.00177132 0.00041238
0.04545457 0.30030727 0.45731995 -0.00337745 -0.00012980 -0.00046166
0.64250529 0.66538393 0.68467587 0.00023749 -0.00005260 0.00184639
0.49231648 0.22818482 0.64747947 -0.00010580 -0.00052783 0.00066219
0.75024146 0.71938866 0.59008282 0.00196293 0.00036233 0.00122144
0.33933565 0.27129328 0.64567798 -0.00010732 -0.00029506 0.00181565
0.72173822 0.14928164 0.82083255 -0.00074420 -0.00158103 0.00267730
0.65277845 0.07893974 0.62452495 -0.00086581 -0.00256685 0.00014747
0.78875542 0.06639525 0.60104913 0.00062565 -0.00259526 -0.00062296
0.75637543 0.72740287 0.57489085 0.00209104 0.00044163 0.00105687
0.73600870 0.47961193 0.22540003 0.00210694 0.00063868 -0.00173760
0.57874274 0.91224837 0.63293976 0.00000687 0.00272243 0.00238611
0.66680932 0.16937003 0.36071432 0.00037898 -0.00147477 -0.00097975
0.41996983 0.17562999 0.32067171 -0.00032247 -0.00151531 -0.00089611
0.84951359 0.12561208 0.54272807 0.00177532 -0.00183255 -0.00108868
0.27619520 0.50604123 0.55150026 -0.00069265 0.00086360 0.00073971
0.54576677 0.33742455 0.16606492 -0.00032400 -0.00119868 -0.00277683
0.43908268 0.82948160 0.62821519 -0.00200628 0.00156276 0.00164178
0.45880768 0.23346741 0.63344824 -0.00046311 -0.00040391 0.00036370
0.75826472 0.08815505 0.53829753 0.00043583 -0.00219388 -0.00086619
0.38073134 0.75404996 0.47791845 -0.00236723 0.00087643 -0.00010475
0.21998194 0.24686784 0.28316873 -0.00124766 -0.00120243 -0.00248924
0.80705142 0.05835152 0.64204681 0.00067492 -0.00284447 -0.00065056
0.68972343 0.14842750 0.40481016 0.00051538 -0.00158861 -0.00062165
0.34066689 0.16624324 0.56707001 0.00003257 -0.00189123 0.00096096
0.26109606 0.16723652 0.33895177 -0.00074134 -0.00193074 -0.00165883
0.50852829 0.54408222 0.20951314 -0.00050329 0.00084715 -0.00184033
0.87181193 0.36399847 0.45262134 0.00182261 -0.00005953 -0.00025378
0.63997835 0.19496885 0.30979770 0.00040517 -0.00160325 -0.00109728
0.54978639 0.21072975 0.68672842 -0.00058665 -0.00064587 0.00096868
0.11345785 0.39579448 0.57805312 -0.00209186 0.00129647 0.00156922
0.29595932 0.14725865 0.36787435 -0.00012680 -0.00219133 -0.00100430
0.06423814 0.25010154 0.53162688 -0.00317578 -0.00112404 0.00104491
0.47589615 0.23124658 0.63974726 -0.00054766 -0.00041489 0.00038250
0.30149341 0.40744138 0.64365500 -0.00055675 0.00094226 0.00182805
0.27706888 0.22065638 0.63231623 0.00029674 -0.00107987 0.00178325
0.61271906 0.85622060 0.68167144 0.00056256 0.00197389 0.00262504
0.40358722 0.78027821 0.42851973 -0.00216357 0.00127741 -0.00097351
0.30025589 0.42780298 0.26083180 -0.00097772 0.00044277 -0.00146172
0.24963081 0.21824317 0.63301253 0.00002631 -0.00118017 0.00193083
0.46617460 0.80938411 0.37807068 -0.00182368 0.00125417 -0.00133249
0.72405547 0.11744010 0.47114009 0.00047603 -0.00171979 -0.00069244
0.55873972 0.92193127 0.61421120 -0.00064474 0.00301564 0.00179737
0.82758778 0.06229244 0.69671196 0.00127885 -0.00319323 0.00072845
0.48318127 0.81460851 0.36969179 -0.00148928 0.00135582 -0.00150510
0.23604071 0.20980604 0.30028269 -0.00091985 -0.00180698 -0.00202773
0.20196244 0.30777746 0.27913186 -0.00150395 -0.00004668 -0.00233258
0.81534761 0.30937660 0.83046216 0.00099061 0.00079525 0.00288431
0.57443744 0.49551836 0.17503735 -0.00003540 0.00087212 -0.00244222
0.23286070 0.13762356 0.39422044 -0.00040475 -0.00236184 -0.00104704
0.76727444 0.65344387 0.38156635 0.00142414 0.00118256 -0.00043727
0.86410975 0.16705734 0.80772358 0.00209775 -0.00134869 0.00266714
0.65378404 0.70840186 0.68715644 0.00089242 -0.00012346 0.00193691
0.53232867 0.21706431 0.67293864 -0.00029898 -0.00063813 0.00092004
0.31436902 0.12906089 0.46224260 -0.00005586 -0.00246105 0.00008121
0.58285290 0.19609906 0.71760392 -0.00111300 -0.00069428 0.00115703
0.40921092 0.74706775 0.60294974 -0.00182092 0.00023944 0.00093810
0.49822038 0.86070508 0.39452833 -0.00105061 0.00175674 -0.00172027
0.88036364 0.15851696 0.54322618 0.00197860 -0.00157335 -0.00106116
0.89122945 0.17828517 0.79104489 0.00207309 -0.00131474 0.00245542
0.62509298 0.17512880 0.76117229 -0.00149635 -0.00086237 0.00127943
0.82467341 0.41301408 0.35768348 0.00174316 0.00011166 -0.00070585
0.50525409 0.60742688 0.24345769 -0.00043946 0.00085333 -0.00150873
0.32637686 0.13707915 0.50307721 0.00007841 -0.00215094 0.00081765
0.18695928 0.45758322 0.35353106 -0.00161670 0.00128916 -0.00140809
0.50299805 0.89372861 0.62793958 -0.00107962 0.00249991 0.00169994
0.81393903 0.05746147 0.65890563 0.00096002 -0.00302699 -0.00002505
0.77928722 0.49449137 0.29861355 0.00174188 0.00046525 -0.00107029
0.34334072 0.23835251 0.63134795 0.00006249 -0.00059354 0.00156708
0.91862792 0.19341023 0.76735806 0.00254572 -0.00107543 0.00206306
0.77235782 0.59892970 0.35264331 0.00144342 0.00057852 -0.00081435
0.05156718 0.27430683 0.50515282 -0.00346919 -0.00055202 0.00032362
0.44593707 0.46987575 0.20422463 -0.00073581 0.00050586 -0.00183480
0.83812660 0.23095049 0.83588576 0.00129589 -0.00055210 0.00295482
0.12058240 0.15363461 0.45716989 -0.00252585 -0.00237529 -0.00005168
0.54058057 0.94131058 0.55561930 -0.00035372 0.00331060 0.00107433
0.68047398 0.26591519 0.23638727 0.00066642 -0.00191888 -0.00174548
0.84431064 0.10004011 0.76425856 0.00159199 -0.00186125 0.00252750
0.08893416 0.18356913 0.48723665 -0.00293701 -0.00186023 0.00040333
0.63763475 0.08701167 0.63689703 -0.00096227 -0.00247427 0.00026920
0.79886442 0.43718418 0.31052631 0.00186153 0.00030301 -0.00098178
0.50771433 0.92002565 0.45814455 -0.00100452 0.00311695 -0.00075670
0.70449775 0.81579095 0.39330536 0.00183250 0.00157949 -0.00141229
0.06270086 0.27448875 0.54420197 -0.00319898 -0.00050456 0.00147777
0.24305339 0.19638012 0.30991870 -0.00085741 -0.00186543 -0.00189923
0.76630116 0.75499099 0.52127731 0.00244896 0.00077551 0.00029677
0.62804377 0.49873430 0.17638770 0.00022438 0.00100286 -0.00263888
0.52435708 0.82455605 0.35477042 -0.00028731 0.00168668 -0.00212329
0.93233401 0.27825272 0.57755464 0.00257536 -0.00036592 -0.00091353
0.83614588 0.07352756 0.72589105 0.00138094 -0.00291048 0.00121992
0.84155673 0.21321665 0.83275163 0.00133637 -0.00073181 0.00301508
0.34384963 0.18421903 0.59033018 0.00010138 -0.00154227 0.00136840
0.42747825 0.23500420 0.62647969 -0.00040772 -0.00051606 0.00056792
0.73929423 0.10407970 0.50084609 0.00075255 -0.00210691 -0.00019649
0.51837391 0.90326595 0.62500656 -0.00078252 0.00273783 0.00169911
0.76551658 0.07783775 0.56320781 0.00024578 -0.00245808 -0.00075323
0.79962534 0.09096441 0.55158913 0.00143960 -0.00216190 -0.00119190
0.74950963 0.47285277 0.23942763 0.00190441 0.00063364 -0.00174344
0.21521690 0.40239272 0.29541081 -0.00106710 0.00076794 -0.00179853
0.51318556 0.48565722 0.18396616 -0.00064392 0.00077565 -0.00220610
0.70381469 0.49093163 0.20062757 0.00151073 0.00099381 -0.00245593
0.28148460 0.14250638 0.37784871 -0.00038169 -0.00239662 -0.00081894
0.52266610 0.42697135 0.16724105 -0.00058869 0.00017893 -0.00253803
0.83215678 0.40553224 0.37221277 0.00186540 -0.00005918 -0.00036453
0.59591705 0.14582919 0.69002759 -0.00121052 -0.00136696 0.00096837
0.66379440 0.92151737 0.56237137 0.00090963 0.00320002 0.00095807
0.59657979 0.18929558 0.73174161 -0.00119703 -0.00075573 0.00129276
0.61625516 0.23080498 0.25093335 0.00061794 -0.00169379 -0.00163583
0.46243295 0.47425109 0.19852000 -0.00064470 0.00057170 -0.00196114
0.28969207 0.13531087 0.39616019 -0.00009395 -0.00262213 -0.00026686
0.53038096 0.48928884 0.18041046 -0.00022897 0.00084443 -0.00238169
0.56637591 0.83051717 0.34786373 -0.00033791 0.00177667 -0.00204587
0.80865824 0.32518068 0.82405204 0.00079052 0.00116821 0.00260951
0.27877033 0.42151791 0.26932302 -0.00118892 0.00043812 -0.00142703
0.41794503 0.68719691 0.61502397 -0.00124116 0.00005084 0.00139530
0.57484967 0.27417266 0.19757898 -0.00005525 -0.00154383 -0.00235059
0.76257855 0.70082062 0.40683907 0.00162445 0.00079990 -0.00063065
0.75990796 0.40749952 0.75541389 0.00025948 0.00110758 0.00154494
0.34065232 0.43954495 0.24499856 -0.00115678 0.00031947 -0.00135038
0.51295072 0.93098187 0.47872022 -0.00105112 0.00320674 -0.00081057
0.59125489 0.16317464 0.70157611 -0.00114643 -0.00135014 0.00084210
0.64765233 0.18747410 0.32424420 0.00041716 -0.00157360 -0.00102106
0.63541889 0.79023397 0.69519013 0.00083140 0.00088835 0.00247555
0.06366051 0.29119158 0.55182528 -0.00317722 -0.00018396 0.00153358
0.68209308 0.15535742 0.39009851 0.00049591 -0.00156608 -0.00068471
0.64580858 0.49855512 0.17908652 0.00045642 0.00104153 -0.00267709
0.71768904 0.47804967 0.69547850 0.00038098 0.00036310 0.00088837
0.56462032 0.29262146 0.18396342 -0.00016397 -0.00152709 -0.00260518
0.73182851 0.31110260 0.23304805 0.00191236 -0.00123048 -0.00204139
0.75591701 0.75572777 0.43672857 0.00200628 0.00111203 -0.00044328
0.29143128 0.51600599 0.54884225 -0.00091234 0.00050702 0.00061165
0.85681742 0.37989172 0.42187729 0.00151116 0.00023307 -0.00087042
0.68808520 0.67849690 0.66398627 0.00145756 0.00015971 0.00149406
0.78588331 0.44809991 0.28905123 0.00209358 0.00024632 -0.00086582
0.68492156 0.55762321 0.66551352 0.00022011 0.00060285 0.00053961
0.12638527 0.22453497 0.60515648 -0.00248474 -0.00131334 0.00194200
0.80153733 0.33992872 0.81584054 0.00056369 0.00146014 0.00221905
0.71493471 0.40215665 0.75933117 -0.00026591 0.00094779 0.00159781
0.50056720 0.70969081 0.29977605 -0.00057340 0.00136835 -0.00121522
0.69952995 0.28011516 0.23390447 0.00119713 -0.00165364 -0.00188320
0.82225835 0.29036519 0.83529586 0.00112461 0.00042972 0.00300802
0.64601368 0.83045894 0.35732055 0.00076449 0.00192282 -0.00218763
0.71501344 0.69112962 0.64206320 0.00162474 0.00023640 0.00143750
0.58784562 0.23625353 0.74147362 -0.00118123 -0.00030159 0.00145592
0.64263624 0.76180446 0.69451743 0.00084827 0.00057309 0.00228071
0.76893902 0.38029605 0.24834687 0.00227250 -0.00002112 -0.00165133
0.16466825 0.13879195 0.42830554 -0.00115651 -0.00266901 -0.00086189
0.74359715 0.41273335 0.74938130 -0.00012871 0.00096768 0.00138498
0.39122921 0.66834372 0.57362920 -0.00123198 0.00011430 0.00064799
0.67444366 0.16233824 0.37537050 0.00043643 -0.00151584 -0.00083169
0.49169436 0.65869278 0.68027020 -0.00089270 -0.00010228 0.00209836
0.41674981 0.78853208 0.41367573 -0.00196595 0.00133687 -0.00111992
0.51027733 0.52061462 0.19829622 -0.00055626 0.00103068 -0.00192704
0.34492570 0.19978847 0.60564220 0.00012706 -0.00175234 0.00104154
0.33657134 0.28825077 0.65103060 -0.00011596 -0.00045657 0.00183081
0.66322452 0.49754861 0.18323436 0.00093443 0.00108114 -0.00268558
0.19007607 0.37578255 0.29830655 -0.00125570 0.00006478 -0.00229451
0.33759648 0.15638483 0.55049944 0.00004146 -0.00197474 0.00091879
0.82770330 0.27300015 0.83751255 0.00113163 0.00038656 0.00303108
0.76439506 0.76776963 0.49568063 0.00254619 0.00069840 0.00030062
0.04756486 0.31087151 0.43849686 -0.00349686 -0.00005858 -0.00060948
0.21120188 0.27296108 0.27838781 -0.00134690 -0.00089209 -0.00252981
0.70424861 0.15091349 0.81554496 -0.00096326 -0.00156285 0.00259914
0.66243678 0.82789433 0.36433911 0.00144359 0.00179517 -0.00185805
0.91683245 0.31443632 0.54826260 0.00227711 0.00007228 -0.00027217
0.75897962 0.73228467 0.42385888 0.00172960 0.00150127 -0.00024906
0.77023381 0.62186748 0.36480531 0.00142967 0.00067661 -0.00073091
0.77675807 0.42052037 0.26400086 0.00208464 -0.00002272 -0.00151985
0.47911075 0.47842076 0.19320828 -0.00087352 0.00056280 -0.00200334
0.40358722 0.17166272 0.32680067 -0.00048555 -0.00159177 -0.00082782
0.75358063 0.77145910 0.44550225 0.00218664 0.00085226 -0.00065350
0.32724872 0.33191410 0.65847760 -0.00018646 -0.00009642 0.00206577
0.50420105 0.90800959 0.44122887 -0.00108160 0.00261951 -0.00128218
0.63776845 0.34929866 0.77342159 -0.00095882 0.00059696 0.00195812
0.94885135 0.22214769 0.71943003 0.00329481 -0.00037456 0.00085413
0.47743705 0.18956257 0.29917750 -0.00037968 -0.00150109 -0.00093321
0.59212172 0.92858958 0.60102999 0.00086512 0.00331625 0.00100729
0.74754673 0.07350162 0.57058293 -0.00027503 -0.00260290 -0.00043302
0.39306843 0.77153867 0.44463995 -0.00222942 0.00121016 -0.00080586
0.58849734 0.17933939 0.71148044 -0.00107653 -0.00109764 0.00091946
0.81703395 0.42045951 0.34319744 0.00161369 0.00029784 -0.00107181
0.95064729 0.26405182 0.64389467 0.00279724 0.00013721 -0.00019257
0.65790963 0.68588072 0.68259245 0.00084703 -0.00001195 0.00187183
0.71808380 0.88207734 0.51656860 0.00227641 0.00235448 -0.00010375
0.38383722 0.72176230 0.54239160 -0.00187944 0.00057907 0.00043000
0.72623533 0.69817960 0.62937951 0.00185775 0.00037385 0.00120671
0.60864395 0.92930371 0.59325415 0.00078787 0.00320260 0.00102158
0.27859977 0.45072332 0.61176300 -0.00059462 0.00094800 0.00154562
0.62336838 0.09882531 0.65074271 -0.00135896 -0.00203726 0.00072724
0.92642480 0.30272365 0.57072705 0.00225586 0.00035453 -0.00084677
0.73798031 0.84076035 0.48676211 0.00243694 0.00114451 -0.00071809
0.33149385 0.31387553 0.65653610 -0.00014932 -0.00029121 0.00197705
0.34969255 0.57385391 0.54824364 -0.00064677 0.00016440 0.00024774
0.26268062 0.41677952 0.27574173 -0.00155781 0.00038533 -0.00133309
0.35924396 0.58926189 0.55101824 -0.00060910 0.00034948 0.00031932
0.40380007 0.72185785 0.59338969 -0.00162490 0.00041043 0.00098403
0.15071839 0.21975359 0.61705834 -0.00156326 -0.00149266 0.00235440
0.26044932 0.47631454 0.57963496 -0.00045940 0.00096804 0.00138746
0.49750268 0.79534513 0.34912673 -0.00092921 0.00101836 -0.00186610
0.95416158 0.23544674 0.69609207 0.00328561 -0.00019219 0.00050167
0.27136832 0.46173996 0.59960550 -0.00050890 0.00084738 0.00156529
0.62247282 0.33068523 0.77197713 -0.00107608 0.00050703 0.00197682
0.32669884 0.22635148 0.62865317 -0.00019458 -0.00100707 0.00167043
0.59051079 0.89692140 0.65254241 0.00007438 0.00278431 0.00213827
0.30441827 0.22368722 0.63049424 -0.00017741 -0.00106620 0.00171039
0.23192152 0.50351703 0.51891786 -0.00101888 0.00150946 0.00050398
0.31501576 0.37317240 0.65566647 -0.00024218 0.00023347 0.00220227
0.82748228 0.15709934 0.82083338 0.00065611 -0.00163313 0.00315442
0.92140049 0.35301763 0.62238866 0.00254401 0.00066830 -0.00010734
0.70612055 0.13356031 0.43644521 0.00056790 -0.00168806 -0.00049611
0.61649847 0.21929605 0.26652142 0.00050355 -0.00180334 -0.00131650
0.53419542 0.91175717 0.62134486 -0.00100624 0.00274164 0.00187564
0.71310681 0.29176235 0.23287612 0.00153033 -0.00150364 -0.00197901
0.41321912 0.76390016 0.60913831 -0.00193976 0.00031494 0.00100826
0.32301673 0.54188728 0.54586095 -0.00057227 0.00035626 0.00032072
0.89304096 0.34126449 0.49656993 0.00193877 -0.00000645 -0.00026718
0.63229984 0.20265739 0.29546764 0.00037743 -0.00164160 -0.00120558
0.38622630 0.76376557 0.45927155 -0.00234400 0.00102505 -0.00042225
0.55181074 0.32111198 0.17050157 -0.00034730 -0.00120409 -0.00284449
0.07051899 0.32479909 0.56474543 -0.00304281 0.00011423 0.00152956
0.83208269 0.11119699 0.54462111 0.00154357 -0.00204238 -0.00107811
0.50738519 0.56324875 0.21939883 -0.00046196 0.00053500 -0.00189031
0.36056697 0.23041019 0.62584293 0.00006185 -0.00084072 0.00136592
0.89109713 0.17280202 0.54487675 0.00223538 -0.00123016 -0.00102000
0.20179507 0.50668383 0.43473831 -0.00149146 0.00201001 -0.00016093
0.22659801 0.23036651 0.28925315 -0.00120929 -0.00123846 -0.00241006
0.51689416 0.46140939 0.17558360 -0.00053592 0.00021090 -0.00249583
0.18988687 0.48117191 0.38046068 -0.00164808 0.00180979 -0.00093039
0.46744448 0.86512989 0.63155305 -0.00162601 0.00219395 0.00178026
0.67278320 0.60537207 0.66659504 0.00041869 0.00049590 0.00098136
0.90456033 0.18507224 0.78055346 0.00217442 -0.00122007 0.00228282
0.34487021 0.21522963 0.61760181 0.00013463 -0.00133086 0.00123526
0.72188789 0.06985952 0.58252388 -0.00011430 -0.00256835 -0.00039639
0.62017012 0.83246291 0.35030922 0.00024519 0.00194967 -0.00229849
0.07498069 0.34323791 0.38363299 -0.00261614 0.00057559 -0.00165357
0.05668833 0.26607484 0.52072382 -0.00345754 -0.00065334 0.00052523
0.78552806 0.42255828 0.73188442 0.00105550 0.00132277 0.00107412
0.93330276 0.20434608 0.74954277 0.00279101 -0.00096601 0.00188413
0.38912618 0.45364788 0.22597578 -0.00064541 0.00044940 -0.00161252
0.07142410 0.21926831 0.51314735 -0.00302681 -0.00154089 0.00062565
0.08652821 0.24042052 0.57110411 -0.00291106 -0.00111153 0.00167945
0.71641010 0.12427224 0.45632663 0.00049278 -0.00167977 -0.00064678
0.19356579 0.35085544 0.28878242 -0.00145348 0.00028437 -0.00218415
0.19321923 0.49285725 0.39922106 -0.00162631 0.00198463 -0.00066070
0.94613105 0.27357551 0.62606943 0.00272523 0.00012539 -0.00019137
0.23132299 0.21713345 0.63257271 -0.00046553 -0.00126948 0.00203314
0.86114895 0.41718829 0.68830252 0.00166072 0.00164853 0.00102897
0.93380666 0.29287025 0.58953565 0.00248349 0.00022068 -0.00063023
0.76875710 0.63766879 0.37319151 0.00141783 0.00095143 -0.00056981
0.70149338 0.90051889 0.53366292 0.00207046 0.00271740 0.00016317
0.52967137 0.39399040 0.16300045 -0.00065062 0.00018060 -0.00267679
0.72849435 0.45798379 0.70947701 0.00041492 0.00044321 0.00111373
