0.59287107 0.94631571 0.45737135 0.00030547 0.00280299 -0.00111869
0.40712896 0.19896504 0.38889045 0.00014261 0.00050828 -0.00177960
0.12851626 0.76568455 0.46050230 -0.00205416 0.00236092 -0.00097211
0.12851626 0.69371301 0.40830448 -0.00184516 0.00115136 -0.00164390
0.59287107 0.71414810 0.48354703 -0.00027600 -0.00067821 -0.00009038
0.87148374 0.50000000 0.38634160 0.00145037 0.00004454 -0.00148516
0.24460508 0.65624267 0.39476958 0.00065233 -0.00032757 -0.00140543
0.24460508 0.59163070 0.58696443 0.00084841 -0.00017808 0.00091166
0.75539494 0.26945749 0.61595941 -0.00009546 0.00004681 0.00202262
0.12851626 0.34402707 0.39767644 -0.00174202 -0.00073108 -0.00171445
0.40712896 0.90243226 0.40423509 -0.00017293 0.00143893 -0.00233070
0.12851626 0.28369644 0.58214408 -0.00194908 -0.00146717 0.00159034
0.12851626 0.54048270 0.38703474 -0.00145989 0.00013337 -0.00148544
0.75539494 0.48043570 0.42933995 -0.00084152 0.00010288 -0.00056480
0.75539494 0.38767856 0.59338754 -0.00077802 0.00021739 0.00105655
0.24460508 0.48329437 0.42952916 0.00089147 0.00002427 -0.00055156
0.24460508 0.86888438 0.55751365 -0.00094009 0.00243322 0.00165408
0.87148374 0.22760211 0.52638835 0.00206868 -0.00250099 0.00093422
0.75539494 0.71095020 0.61478597 -0.00024633 -0.00001255 0.00187262
0.87148374 0.51292145 0.61358339 0.00147371 -0.00005384 0.00147239
0.40712896 0.05021618 0.46693620 -0.00026154 -0.00296661 -0.00083117
0.24460508 0.76300019 0.61435932 -0.00016973 0.00033046 0.00218851
0.12851626 0.27998003 0.42008004 -0.00195865 -0.00141895 -0.00161936
0.75539494 0.81161892 0.60247183 0.00056367 0.00139260 0.00219879
0.40712896 0.06380927 0.56213653 -0.00022595 -0.00256263 0.00164475
0.59287107 0.87341130 0.39027405 0.00012201 0.00102582 -0.00230696
0.87148374 0.61268806 0.39119783 0.00160166 0.00039883 -0.00162969
0.59287107 0.74438936 0.57709730 -0.00023775 -0.00082940 0.00075987
0.24460508 0.81797653 0.40070105 -0.00060407 0.00129781 -0.00224688
0.59287107 0.71742064 0.46899521 -0.00027215 -0.00069164 -0.00020899
0.59287107 0.91001242 0.59040564 0.00021434 0.00188395 0.00206860
0.75539494 0.83367455 0.59055853 0.00072219 0.00171014 0.00206714
0.75539494 0.63651168 0.40004522 -0.00073119 -0.00031268 -0.00123357
0.75539494 0.11576325 0.52546740 0.00102935 -0.00291076 0.00074849
0.59287107 0.16542444 0.61590171 0.00000694 -0.00000427 0.00215272
0.24460508 0.74946392 0.38443220 -0.00004593 0.00017661 -0.00215908
0.24460508 0.85176724 0.42345262 -0.00083983 0.00207555 -0.00189062
0.24460508 0.35580900 0.60243821 0.00070438 0.00032455 0.00133063
0.24460508 0.17857178 0.40236166 -0.00062676 -0.00126779 -0.00231442
0.87148374 0.75586480 0.44679999 0.00202359 0.00190277 -0.00152774
0.12851626 0.47477737 0.38683191 -0.00145117 -0.00007020 -0.00146146
0.24460508 0.54174936 0.57413495 0.00087651 -0.00009558 0.00062124
0.59287107 0.15019806 0.61509752 0.00005092 -0.00031636 0.00229084
0.59287107 0.95427120 0.48948765 0.00032276 0.00305040 -0.00013150
0.12851626 0.57389277 0.61194921 -0.00152411 0.00035851 0.00155000
0.24460508 0.31693274 0.38896734 0.00048599 0.00031205 -0.00166663
0.75539494 0.26240626 0.38401514 -0.00006593 -0.00008006 -0.00205453
0.24460508 0.23148820 0.38619924 -0.00020813 -0.00049773 -0.00228010
0.12851626 0.52487975 0.61346608 -0.00145978 0.00005747 0.00148665
0.87148374 0.28245747 0.41867325 0.00191560 -0.00144495 -0.00154279
0.87148374 0.64946073 0.39660212 0.00170482 0.00098845 -0.00161378
0.59287107 0.92147696 0.58040208 0.00024325 0.00227203 0.00182297
0.75539494 0.59021527 0.41356778 -0.00084056 -0.00008482 -0.00093515
0.40712896 0.13529187 0.61244130 -0.00003677 -0.00048752 0.00240975
0.12851626 0.61119616 0.60903281 -0.00160949 0.00070757 0.00159847
0.87148374 0.74503386 0.56396681 0.00201366 0.00180172 0.00149230
0.40712896 0.05441653 0.54464018 -0.00024900 -0.00276151 0.00130977
0.24460508 0.87866735 0.54065353 -0.00099852 0.00271678 0.00126517
0.24460508 0.52515405 0.57114446 0.00087390 -0.00006202 0.00055548
0.59287107 0.06444877 0.43691427 0.00027646 -0.00250219 -0.00158117
0.75539494 0.53571475 0.42706627 -0.00084756 0.00000188 -0.00062923
0.24460508 0.18880048 0.60263103 -0.00054564 -0.00126136 0.00230416
0.59287107 0.25197014 0.58065820 -0.00022654 0.00078779 0.00088222
0.24460508 0.44622850 0.57656378 0.00087766 0.00015560 0.00066142
0.59287107 0.21302797 0.60636657 -0.00012959 0.00080177 0.00148410
0.59287107 0.10053869 0.59780258 0.00018725 -0.00145790 0.00229486
0.87148374 0.33546668 0.60024184 0.00177289 -0.00084009 0.00162687
0.75539494 0.52966535 0.57203823 -0.00084444 -0.00005102 0.00056000
0.24460508 0.88518465 0.47841352 -0.00104009 0.00304337 -0.00068198
0.75539494 0.86608267 0.43903649 0.00092853 0.00240599 -0.00158464
0.87148374 0.37399495 0.39280519 0.00163541 -0.00063739 -0.00159387
0.75539494 0.80169129 0.39434570 0.00047888 0.00096363 -0.00226947
0.59287107 0.26704371 0.43691880 -0.00024942 0.00081988 -0.00053602
0.87148374 0.77724457 0.49471235 0.00206968 0.00276118 0.00012358
0.12851626 0.67904246 0.40382120 -0.00179788 0.00095376 -0.00163457
0.87148374 0.23713130 0.45563182 0.00204136 -0.00223738 -0.00120867
0.40712896 0.09149301 0.40840864 -0.00016125 -0.00167217 -0.00229005
0.59287107 0.09964631 0.40294018 0.00019060 -0.00143915 -0.00222878
0.59287107 0.15359338 0.38469008 0.00004525 -0.00028342 -0.00230028
0.24460508 0.81717557 0.59969103 -0.00059575 0.00165418 0.00210556
0.59287107 0.71284908 0.49843466 -0.00027810 -0.00066477 -0.00001183
0.24460508 0.11422048 0.51847875 -0.00103828 -0.00304756 0.00049607
0.40712896 0.79073805 0.39224803 0.00014254 -0.00062675 -0.00166983
0.59287107 0.19451633 0.38776612 -0.00007174 0.00034639 -0.00184361
0.59287107 0.83586550 0.38418069 0.00001616 -0.00006423 -0.00218080
0.24460508 0.87484580 0.45201191 -0.00098225 0.00263226 -0.00140556
0.24460508 0.26945749 0.61595941 0.00011927 0.00015007 0.00204966
0.12851626 0.45874903 0.61315042 -0.00147220 -0.00019894 0.00149513
0.12851626 0.23427132 0.46039921 -0.00208332 -0.00233701 -0.00099096
0.24460508 0.51537973 0.42944729 0.00089162 0.00002185 -0.00056676
0.87148374 0.32657108 0.40215516 0.00177582 -0.00087585 -0.00165690
0.40712896 0.06315841 0.43916884 -0.00023162 -0.00253081 -0.00148437
0.59287107 0.88740468 0.39571384 0.00015996 0.00120067 -0.00236342
0.59287107 0.26781783 0.56176585 -0.00025567 0.00072302 0.00059858
0.12851626 0.30290943 0.40941429 -0.00188323 -0.00139914 -0.00156788
0.59287107 0.13142991 0.61125964 0.00010385 -0.00088283 0.00227875
0.75539494 0.81795514 0.40081522 0.00060243 0.00125688 -0.00226377
0.12851626 0.31461269 0.59448957 -0.00184486 -0.00090081 0.00164986
0.24460508 0.11616942 0.47326517 -0.00102851 -0.00294013 -0.00101804
0.12851626 0.72678423 0.42405120 -0.00194954 0.00151124 -0.00162722
0.24460508 0.40499443 0.58814561 0.00084953 0.00030202 0.00091286
0.87148374 0.47951078 0.38659403 0.00145614 -0.00004014 -0.00146655
0.40712896 0.20045464 0.61078936 0.00015178 0.00027740 0.00183240
0.24460508 0.21659155 0.38896734 -0.00033142 -0.00056732 -0.00236559
0.75539494 0.24535282 0.61541957 0.00010560 -0.00050047 0.00213750
0.75539494 0.44672519 0.57722008 -0.00084703 0.00003992 0.00070461
0.59287107 0.18017414 0.61493784 -0.00003594 0.00019646 0.00199039
0.24460508 0.74767053 0.61565244 -0.00004226 -0.00010962 0.00214830
0.24460508 0.86605668 0.43877724 -0.00092999 0.00236647 -0.00162615
0.75539494 0.61277086 0.40694317 -0.00080423 -0.00029809 -0.00103898
0.87148374 0.25094360 0.56011075 0.00202130 -0.00195069 0.00144915
0.87148374 0.26763362 0.57287097 0.00197849 -0.00163010 0.00152636
0.24460508 0.12297323 0.54448235 -0.00098825 -0.00280032 0.00127340
0.59287107 0.95164174 0.47392058 0.00031721 0.00299758 -0.00060918
0.59287107 0.76712918 0.40431058 -0.00017593 -0.00084647 -0.00118402
0.12851626 0.42171812 0.61168170 -0.00153062 -0.00036491 0.00154773
0.24460508 0.25150847 0.38437489 -0.00003812 -0.00036422 -0.00213877
0.59287107 0.71477127 0.52021921 -0.00027825 -0.00068236 0.00014024
0.59287107 0.04545455 0.49433818 0.00031964 -0.00304272 -0.00011187
0.59287107 0.24107011 0.40999281 -0.00019614 0.00084142 -0.00103315
0.87148374 0.28369644 0.58214408 0.00193319 -0.00142963 0.00159148
0.75539494 0.31693274 0.61114687 -0.00045502 0.00025422 0.00164611
0.87148374 0.70452118 0.41260493 0.00187696 0.00148922 -0.00157085
0.40712896 0.76331079 0.59344572 0.00021751 -0.00079287 0.00119084
0.12851626 0.77411485 0.52070504 -0.00207600 0.00257235 0.00049034
0.75539494 0.72593504 0.61576563 -0.00012865 0.00002923 0.00198891
0.24460508 0.57617015 0.41761577 0.00088585 -0.00016598 -0.00079390
0.40712896 0.26812986 0.43882364 0.00030880 0.00081658 -0.00053704
0.40712896 0.28277403 0.53026378 0.00032813 0.00072143 0.00016094
0.12851626 0.24529822 0.44533318 -0.00205767 -0.00196004 -0.00145760
0.12851626 0.22231516 0.50005710 -0.00211076 -0.00282659 -0.00016184
0.75539494 0.34913981 0.39605269 -0.00067736 0.00019021 -0.00138888
0.75539494 0.28350043 0.38480291 -0.00024193 0.00032718 -0.00189985
0.24460508 0.83159733 0.40814891 -0.00070286 0.00165053 -0.00213356
0.40712896 0.73933029 0.42855719 0.00026791 -0.00086474 -0.00068810
0.12851626 0.23230508 0.53643739 -0.00209173 -0.00229704 0.00097383
0.59287107 0.07604330 0.42246380 0.00024899 -0.00217276 -0.00185680
0.75539494 0.73086590 0.38436261 -0.00010533 -0.00005037 -0.00201273
0.75539494 0.77711540 0.61231619 0.00029162 0.00059388 0.00222405
0.75539494 0.13631389 0.56455219 0.00091114 -0.00245845 0.00161231
0.40712896 0.07852305 0.58040208 -0.00018911 -0.00222582 0.00188981
0.40712896 0.71611845 0.52610093 0.00030231 -0.00071760 0.00017129
0.24460508 0.35580900 0.39767644 0.00071481 0.00035290 -0.00131423
0.24460508 0.26663661 0.38406152 0.00009026 -0.00004498 -0.00205438
0.24460508 0.13725130 0.43454504 -0.00090516 -0.00239626 -0.00172493
0.75539494 0.84973371 0.57859462 0.00083008 0.00186173 0.00203392
0.75539494 0.77060491 0.38675368 0.00022857 0.00049700 -0.00222509
0.87148374 0.46211171 0.61302757 0.00148883 -0.00033698 0.00145136
0.24460508 0.11235292 0.50005710 -0.00104903 -0.00310992 0.00003872
0.87148374 0.46341211 0.38679233 0.00146730 -0.00009927 -0.00149145
0.24460508 0.88724452 0.49367175 -0.00105043 0.00303628 -0.00039872
0.75539494 0.40534192 0.58809465 -0.00081328 0.00027123 0.00089520
0.59287107 0.80622870 0.61252677 -0.00007715 -0.00030778 0.00186645
0.59287107 0.92099255 0.41943374 0.00024594 0.00202835 -0.00203169
0.75539494 0.18829291 0.60243821 0.00056198 -0.00109889 0.00232944
0.75539494 0.88733459 0.50503314 0.00105389 0.00296406 0.00018731
0.40712896 0.95419121 0.51205230 -0.00029529 0.00305336 0.00025713
0.24460508 0.37140882 0.40197095 0.00078020 0.00029186 -0.00119014
0.12851626 0.54280543 0.61309308 -0.00147660 0.00013908 0.00149806
0.87148374 0.62003452 0.60802990 0.00164830 0.00096799 0.00156076
0.40712896 0.83260566 0.38409838 0.00002136 0.00000959 -0.00218806
0.87148374 0.76627177 0.46161640 0.00204671 0.00226714 -0.00104538
0.59287107 0.82194716 0.61534673 -0.00003085 -0.00017005 0.00205947
0.12851626 0.67915708 0.59586543 -0.00181792 0.00106345 0.00156627
0.24460508 0.63212252 0.59879369 0.00074427 -0.00030430 0.00120225
0.24460508 0.12297323 0.45563182 -0.00099025 -0.00281994 -0.00123037
0.40712896 0.17805281 0.61534673 0.00008670 0.00021118 0.00212384
0.75539494 0.11777452 0.46772733 0.00101598 -0.00290704 -0.00081246
0.24460508 0.16476312 0.41031939 -0.00072507 -0.00152222 -0.00221978
0.12851626 0.73593044 0.57006329 -0.00199150 0.00159595 0.00160843
0.12851626 0.40540242 0.61049098 -0.00156721 -0.00051556 0.00154400
0.59287107 0.08668635 0.41221511 0.00022315 -0.00183064 -0.00209104
0.75539494 0.49580765 0.43035832 -0.00083960 -0.00004727 -0.00054969
0.24460508 0.46192992 0.57370287 0.00087932 0.00006523 0.00062699
0.75539494 0.88387877 0.47348785 0.00103418 0.00295060 -0.00072746
0.75539494 0.21514568 0.61076295 0.00035365 -0.00052535 0.00231109
0.24460508 0.83974338 0.58651048 -0.00075393 0.00157262 0.00225142
0.40712896 0.25358707 0.57931370 0.00028625 0.00090785 0.00082356
0.40712896 0.28645226 0.51343697 0.00033051 0.00070142 0.00003787
0.87148374 0.39196989 0.60908055 0.00161231 -0.00065169 0.00153714
0.12851626 0.39707354 0.39053103 -0.00158369 -0.00058687 -0.00153944
0.75539494 0.71481943 0.38510400 -0.00023671 -0.00010562 -0.00189889
0.59287107 0.05265226 0.54002041 0.00030360 -0.00283596 0.00099510
0.59287107 0.27472761 0.44992697 -0.00026118 0.00075990 -0.00037631
0.75539494 0.12431954 0.45334321 0.00097776 -0.00258605 -0.00124098
0.12851626 0.30009538 0.58979440 -0.00189420 -0.00129715 0.00163061
0.24460508 0.72134769 0.61549461 0.00017615 -0.00014068 0.00199154
0.40712896 0.72022831 0.46107686 0.00029690 -0.00073790 -0.00030618
0.12851626 0.44165111 0.61252135 -0.00149517 -0.00024330 0.00150170
0.12851626 0.41293988 0.38896734 -0.00154421 -0.00054889 -0.00156304
0.12851626 0.22605479 0.47740915 -0.00210193 -0.00269356 -0.00048308
0.24460508 0.14855793 0.42303464 -0.00083356 -0.00208273 -0.00194002
0.87148374 0.41293988 0.61114687 0.00156310 -0.00056908 0.00155443
0.12851626 0.38120675 0.39209428 -0.00162662 -0.00067574 -0.00157470
0.75539494 0.87453705 0.54863626 0.00098224 0.00269557 0.00126842
0.87148374 0.38881928 0.39106682 0.00159691 -0.00040334 -0.00159005
0.12851626 0.26883209 0.57370287 -0.00199589 -0.00155787 0.00163039
0.87148374 0.59776688 0.39003119 0.00156669 0.00055617 -0.00153270
0.12851626 0.44280955 0.38759145 -0.00148761 -0.00014307 -0.00150724
0.59287107 0.95454544 0.50577581 0.00032299 0.00306234 0.00016503
0.59287107 0.28409123 0.52529156 -0.00027472 0.00069512 0.00013209
0.87148374 0.34402707 0.39767644 0.00172132 -0.00083613 -0.00167283
0.12851626 0.71496457 0.58228606 -0.00193070 0.00136899 0.00161601
0.59287107 0.81982589 0.38517633 -0.00003016 -0.00017331 -0.00201084
0.24460508 0.21659155 0.61114687 -0.00032556 -0.00049847 0.00234841
0.12851626 0.62003452 0.39208430 -0.00161523 0.00086825 -0.00158266
0.87148374 0.48286185 0.61344510 0.00147464 0.00002762 0.00145778
0.24460508 0.33580098 0.39280519 0.00060824 0.00035435 -0.00149253
0.59287107 0.72553164 0.55069613 -0.00026860 -0.00081290 0.00030217
0.75539494 0.46192992 0.57370287 -0.00084638 0.00000915 0.00061556
0.40712896 0.27748936 0.54476005 0.00032346 0.00075537 0.00036178
0.12851626 0.52358812 0.38664314 -0.00144642 0.00007872 -0.00148527
0.40712896 0.93746972 0.44010445 -0.00025944 0.00260990 -0.00147868
0.24460508 0.42252681 0.58278584 0.00086859 0.00019728 0.00079517
0.75539494 0.14898092 0.57745481 0.00083242 -0.00213569 0.00178247
0.12851626 0.49157506 0.38649350 -0.00144198 -0.00000059 -0.00148437
0.40712896 0.04559555 0.49186406 -0.00027140 -0.00315821 -0.00009511
0.59287107 0.73187017 0.43882364 -0.00025163 -0.00072845 -0.00062906
0.75539494 0.23148820 0.38619924 0.00019811 -0.00037616 -0.00223899
0.24460508 0.37255043 0.59774393 0.00077041 0.00024959 0.00119327
0.59287107 0.75519979 0.58724093 -0.00021452 -0.00072997 0.00103878
0.75539494 0.84397554 0.41701403 0.00078584 0.00178327 -0.00200954
0.59287107 0.93931490 0.44304946 0.00028956 0.00248500 -0.00159326
0.12851626 0.49085301 0.61365980 -0.00145107 0.00003611 0.00148196
0.87148374 0.31066018 0.40687904 0.00182612 -0.00098493 -0.00167044
0.24460508 0.60578781 0.59114248 0.00082258 -0.00024059 0.00100158
0.24460508 0.69128513 0.38773927 0.00042873 -0.00010125 -0.00174892
0.87148374 0.25178275 0.43888140 0.00200501 -0.00204021 -0.00144510
0.75539494 0.29982886 0.61370206 -0.00033460 0.00007735 0.00178619
0.75539494 0.83093786 0.40795425 0.00069597 0.00148148 -0.00218607
0.59287107 0.07900699 0.58068049 0.00024158 -0.00201431 0.00201586
0.75539494 0.42256728 0.58299416 -0.00083359 0.00016753 0.00078859
0.24460508 0.64727974 0.60297585 0.00067909 -0.00041346 0.00131099
0.40712896 0.91433376 0.41315204 -0.00020336 0.00183958 -0.00212850
0.87148374 0.22356367 0.48742643 0.00207197 -0.00264941 -0.00041038
0.87148374 0.75639284 0.55247819 0.00203732 0.00206330 0.00130786
0.12851626 0.60046220 0.39013350 -0.00156444 0.00065982 -0.00154984
0.59287107 0.87952608 0.60764146 0.00013380 0.00089060 0.00238474
0.40712896 0.95266974 0.47809732 -0.00029329 0.00306518 -0.00062040
0.87148374 0.77535200 0.51704878 0.00206833 0.00278852 0.00045577
0.59287107 0.78209078 0.60416746 -0.00014593 -0.00074815 0.00148864
0.40712896 0.75415546 0.41367966 0.00023706 -0.00081548 -0.00101602
0.40712896 0.94528323 0.54546541 -0.00027424 0.00272329 0.00137821
0.40712896 0.28371373 0.47336578 0.00032751 0.00072594 -0.00021411
0.12851626 0.35972416 0.39512485 -0.00169164 -0.00070742 -0.00162540
0.87148374 0.74302626 0.43464148 0.00199056 0.00175246 -0.00163833
0.75539494 0.47902149 0.57120860 -0.00084489 0.00001764 0.00056380
0.75539494 0.17884196 0.40223157 0.00061695 -0.00137593 -0.00219490
0.24460508 0.69614911 0.61305255 0.00037377 0.00007693 0.00180946
0.40712896 0.21914454 0.60363942 0.00020380 0.00069326 0.00147416
0.24460508 0.28368369 0.38480610 0.00023231 0.00013968 -0.00192431
0.40712896 0.87341130 0.60984015 -0.00009469 0.00093848 0.00237271
0.12851626 0.58881396 0.61078256 -0.00155566 0.00049047 0.00153584
0.40712896 0.95448810 0.49307662 -0.00029673 0.00307315 -0.00024512
0.87148374 0.22301789 0.50859100 0.00207523 -0.00268017 0.00037689
0.87148374 0.56046301 0.38767061 0.00149642 0.00013680 -0.00150805
0.24460508 0.67065221 0.39153621 0.00056878 -0.00031845 -0.00153223
0.75539494 0.28481624 0.61520076 -0.00021952 0.00013615 0.00190076
0.59287107 0.95266974 0.52201688 0.00031835 0.00300256 0.00072016
0.87148374 0.56636620 0.61216384 0.00152985 0.00037390 0.00149211
0.40712896 0.94611794 0.45659769 -0.00027918 0.00283090 -0.00118617
0.40712896 0.95139438 0.52712494 -0.00028848 0.00292335 0.00084351
0.59287107 0.11516743 0.60545146 0.00014847 -0.00125684 0.00226227
0.87148374 0.68128932 0.40485957 0.00180456 0.00094132 -0.00162154
0.12851626 0.76841307 0.53446174 -0.00206614 0.00236963 0.00086918
0.87148374 0.76568455 0.53961188 0.00205369 0.00243871 0.00087230
0.12851626 0.77724457 0.50540185 -0.00208102 0.00275825 -0.00008992
0.75539494 0.19243640 0.39620736 0.00051487 -0.00124133 -0.00219503
0.12851626 0.76035488 0.54725170 -0.00205074 0.00198072 0.00144678
0.87148374 0.44729006 0.61272919 0.00150491 -0.00038190 0.00148635
0.59287107 0.11356596 0.39531541 0.00015465 -0.00100705 -0.00238772
0.24460508 0.67965144 0.61013985 0.00049203 -0.00013693 0.00163043
0.75539494 0.56151772 0.57864326 -0.00084375 -0.00014212 0.00070931
0.59287107 0.71851629 0.53474534 -0.00027593 -0.00073737 0.00020271
0.24460508 0.78584635 0.38973963 -0.00035174 0.00062283 -0.00228631
0.40712896 0.84736496 0.38479650 -0.00002131 0.00026424 -0.00232162
0.87148374 0.69952941 0.58993804 0.00188880 0.00119497 0.00170141
0.12851626 0.32975993 0.59877729 -0.00179318 -0.00076540 0.00165720
0.75539494 0.11292282 0.51001334 0.00104455 -0.00304359 0.00036582
0.75539494 0.36348882 0.40004522 -0.00073819 0.00027754 -0.00123111
0.24460508 0.80029815 0.39365801 -0.00046849 0.00096798 -0.00227261
0.40712896 0.74052382 0.57272452 0.00026802 -0.00079051 0.00072647
0.40712896 0.78290308 0.60441715 0.00016601 -0.00064502 0.00153602
0.40712896 0.92891616 0.42796636 -0.00023925 0.00239439 -0.00167643
0.87148374 0.77289462 0.47582012 0.00206022 0.00257460 -0.00053339
0.87148374 0.49768335 0.61374348 0.00147060 0.00017458 0.00149024
0.24460508 0.55059355 0.42407030 0.00089456 -0.00007417 -0.00066641
0.59287107 0.80508798 0.38788754 -0.00007249 -0.00046221 -0.00184264
0.59287107 0.25261918 0.41991040 -0.00022200 0.00079652 -0.00086153
0.75539494 0.61143041 0.59299773 -0.00077933 -0.00015309 0.00106792
0.75539494 0.78643626 0.39004847 0.00035756 0.00059073 -0.00226121
0.24460508 0.38974807 0.40735024 0.00083680 0.00026180 -0.00104053
0.59287107 0.86470813 0.61244130 0.00009285 0.00068742 0.00237066
0.24460508 0.38707408 0.59340841 0.00081337 0.00031082 0.00104745
0.40712896 0.79975504 0.61090714 0.00011788 -0.00053807 0.00178647
0.75539494 0.65535617 0.39495790 -0.00064451 -0.00026960 -0.00142256
0.75539494 0.56710076 0.42005822 -0.00085260 -0.00011603 -0.00077536
0.87148374 0.43167663 0.61200964 0.00152851 -0.00026176 0.00150137
0.24460508 0.49021789 0.57012612 0.00087499 0.00001350 0.00054378
0.40712896 0.26774508 0.56207830 0.00031107 0.00077185 0.00062771
0.40712896 0.05588565 0.45231757 -0.00024867 -0.00269874 -0.00127568
0.87148374 0.29631117 0.41208455 0.00187187 -0.00121527 -0.00162600
0.87148374 0.40690970 0.38949218 0.00155510 -0.00016679 -0.00156319
0.87148374 0.57836926 0.38851476 0.00152613 0.00025934 -0.00153892
0.40712896 0.73108965 0.56010252 0.00028431 -0.00083112 0.00047675
0.87148374 0.63761550 0.60545695 0.00169779 0.00070839 0.00161451
0.40712896 0.13627113 0.38743499 -0.00003930 -0.00057167 -0.00240715
0.87148374 0.42318130 0.38834330 0.00152254 -0.00029809 -0.00153835
0.59287107 0.73477745 0.56558460 -0.00025528 -0.00083890 0.00054042
0.87148374 0.54404885 0.38706660 0.00147523 0.00008899 -0.00148894
0.40712896 0.25671041 0.42404890 0.00028882 0.00086206 -0.00079339
0.24460508 0.13631389 0.56455219 -0.00090805 -0.00230173 0.00172244
0.87148374 0.31979275 0.59612882 0.00182213 -0.00088127 0.00166100
0.87148374 0.66415584 0.60032189 0.00177817 0.00079308 0.00165035
0.87148374 0.55153918 0.61274379 0.00150741 0.00029837 0.00148073
0.75539494 0.74105233 0.61598492 -0.00000536 0.00012773 0.00210245
0.12851626 0.50682622 0.38646665 -0.00144063 0.00001811 -0.00148589
0.59287107 0.28709495 0.49537802 -0.00027586 0.00064151 0.00004966
0.12851626 0.34612656 0.60286349 -0.00173784 -0.00076332 0.00169847
0.12851626 0.25784522 0.43403655 -0.00202427 -0.00159340 -0.00165055
0.40712896 0.88643408 0.39531541 -0.00013063 0.00116149 -0.00237588
0.24460508 0.17487720 0.59582722 -0.00064856 -0.00131645 0.00232756
0.40712896 0.81144381 0.38633704 0.00008313 -0.00044593 -0.00191750
0.40712896 0.15303710 0.38479152 0.00000898 -0.00024186 -0.00231894
0.12851626 0.37120777 0.60686457 -0.00165977 -0.00067119 0.00161394
0.12851626 0.75689590 0.44825095 -0.00203354 0.00210151 -0.00129686
0.24460508 0.30125427 0.61348927 0.00037344 0.00018465 0.00179889
0.24460508 0.72863948 0.38421798 0.00013152 -0.00001038 -0.00201635
0.75539494 0.87456387 0.45156845 0.00097994 0.00263163 -0.00144139
0.24460508 0.19244459 0.39621505 -0.00052294 -0.00107916 -0.00232452
0.24460508 0.50739825 0.56996828 0.00087415 -0.00005471 0.00054464
0.24460508 0.79354119 0.60845745 -0.00041697 0.00120271 0.00217942
0.59287107 0.22857274 0.40148064 -0.00016510 0.00082552 -0.00124405
0.24460508 0.76544803 0.38586220 -0.00018228 0.00032719 -0.00224390
0.24460508 0.34008819 0.60626513 0.00062677 0.00036984 0.00145572
0.75539494 0.79260379 0.60863709 0.00041587 0.00089389 0.00221396
0.59287107 0.90341884 0.40497920 0.00020181 0.00143734 -0.00234574
0.75539494 0.62565941 0.59718627 -0.00073711 -0.00024821 0.00116232
0.40712896 0.71550488 0.47582570 0.00030188 -0.00069398 -0.00019457
0.87148374 0.66401666 0.39991194 0.00174992 0.00091111 -0.00163633
0.59287107 0.04798613 0.52479666 0.00031406 -0.00301381 0.00058637
0.24460508 0.88387877 0.52662671 -0.00102915 0.00293936 0.00078665
0.12851626 0.25178275 0.56123322 -0.00204530 -0.00179461 0.00161095
0.59287107 0.74802989 0.41945648 -0.00022068 -0.00081556 -0.00089704
0.12851626 0.62739724 0.60675454 -0.00165558 0.00059186 0.00159510
0.24460508 0.29840386 0.38619924 0.00034938 0.00028531 -0.00181482
0.12851626 0.55591011 0.38750324 -0.00147844 0.00014309 -0.00150330
0.12851626 0.63761550 0.39465728 -0.00166662 0.00069635 -0.00163602
0.59287107 0.28492993 0.47823715 -0.00027342 0.00066590 -0.00012645
0.40712896 0.71299696 0.49413508 0.00030415 -0.00067624 -0.00000141
0.12851626 0.55834889 0.61252135 -0.00149791 0.00036802 0.00149466
0.40712896 0.76696897 0.40435472 0.00020637 -0.00074283 -0.00125679
0.75539494 0.69511479 0.61290205 -0.00036380 -0.00026296 0.00172979
0.24460508 0.42543820 0.41797009 0.00089010 0.00023455 -0.00076568
0.40712896 0.23494218 0.59452820 0.00024464 0.00093058 0.00111820
0.59287107 0.05997821 0.55595624 0.00028689 -0.00249935 0.00152942
0.75539494 0.59348512 0.58763850 -0.00081607 -0.00021403 0.00090767
0.59287107 0.20926198 0.39224803 -0.00011319 0.00054066 -0.00162778
0.12851626 0.74821723 0.56123370 -0.00202426 0.00178518 0.00168481
0.75539494 0.11386935 0.48366994 0.00103838 -0.00305367 -0.00047226
0.24460508 0.61284310 0.40668938 0.00082647 -0.00030069 -0.00104648
0.24460508 0.53578585 0.42697394 0.00089374 0.00000753 -0.00061400
0.59287107 0.76887977 0.59699160 -0.00018120 -0.00077330 0.00126589
0.40712896 0.08998751 0.59040564 -0.00015957 -0.00189308 0.00206157
0.40712896 0.92099309 0.58068049 -0.00021706 0.00204623 0.00204701
0.87148374 0.30009583 0.58979440 0.00188357 -0.00129643 0.00164923
0.40712896 0.93684161 0.56094533 -0.00025461 0.00251730 0.00165251
0.75539494 0.24689333 0.38452771 0.00006700 -0.00040375 -0.00212369
0.59287107 0.19491249 0.61222667 -0.00007855 0.00045927 0.00181103
0.59287107 0.85122150 0.38512900 0.00006016 0.00035383 -0.00232103
0.24460508 0.24689333 0.61558652 -0.00007235 -0.00035943 0.00217891
0.12851626 0.66423041 0.60014129 -0.00176933 0.00091553 0.00162875
0.75539494 0.67064947 0.39161718 -0.00055729 -0.00024501 -0.00154669
0.75539494 0.30303586 0.38689104 -0.00039379 0.00024151 -0.00176568
0.12851626 0.47408360 0.61345333 -0.00145865 -0.00016837 0.00147916
0.75539494 0.42252725 0.41732833 -0.00084708 0.00011997 -0.00082650
0.24460508 0.44003463 0.42134631 0.00089781 0.00015392 -0.00072611
0.12851626 0.71170706 0.41582555 -0.00190295 0.00142041 -0.00162677
0.75539494 0.86605668 0.56133693 0.00093220 0.00240690 0.00159137
0.59287107 0.05102850 0.46452424 0.00030718 -0.00283493 -0.00101833
0.12851626 0.32119998 0.40353331 -0.00182045 -0.00117512 -0.00159667
0.75539494 0.35722718 0.60204750 -0.00067652 0.00026299 0.00130830
0.87148374 0.37399495 0.60730898 0.00165847 -0.00049879 0.00164151
0.75539494 0.57617015 0.58249843 -0.00083579 -0.00020735 0.00077716
0.75539494 0.64002609 0.60119468 -0.00068223 -0.00030030 0.00127436
0.87148374 0.35932711 0.39514485 0.00167689 -0.00071273 -0.00159277
0.40712896 0.11847404 0.60685277 -0.00008344 -0.00093422 0.00238284
0.75539494 0.21659155 0.38896734 0.00032231 -0.00055939 -0.00231782
0.87148374 0.35116243 0.60359758 0.00172463 -0.00075754 0.00161883
0.75539494 0.76250350 0.61457169 0.00017187 0.00042424 0.00219305
0.75539494 0.17500363 0.59590226 0.00065780 -0.00132833 0.00222600
0.40712896 0.28715089 0.49843466 0.00033046 0.00069375 -0.00008116
0.75539494 0.43731838 0.42115891 -0.00085017 0.00010497 -0.00074681
0.75539494 0.69737166 0.38691878 -0.00037253 -0.00002425 -0.00178862
0.87148374 0.52968341 0.61340690 0.00148345 0.00005129 0.00148882
0.59287107 0.72421038 0.45210242 -0.00026338 -0.00073926 -0.00039700
0.87148374 0.44102934 0.38761559 0.00149404 -0.00035722 -0.00148509
0.75539494 0.51183724 0.42985165 -0.00084169 -0.00010258 -0.00056603
0.24460508 0.85940754 0.56903994 -0.00088160 0.00201717 0.00198297
0.59287107 0.04712469 0.47949663 0.00031592 -0.00299529 -0.00053418
0.40712896 0.83586550 0.61593348 0.00001195 0.00007153 0.00220270
0.75539494 0.12244336 0.54329050 0.00099224 -0.00274057 0.00117516
0.87148374 0.67904246 0.59629297 0.00182526 0.00087191 0.00165377
0.40712896 0.10409728 0.40025306 -0.00012800 -0.00142151 -0.00229421
0.40712896 0.15052736 0.61508429 0.00000682 -0.00010306 0.00233943
0.24460508 0.59557593 0.41185853 0.00086346 -0.00019793 -0.00093622
0.87148374 0.59770864 0.61019492 0.00159276 0.00055604 0.00154488
0.87148374 0.62886822 0.39357612 0.00164594 0.00050803 -0.00158695
0.59287107 0.04564876 0.50920069 0.00031923 -0.00304747 0.00028562
0.12851626 0.66334212 0.39958581 -0.00174692 0.00082493 -0.00166115
0.12851626 0.58571017 0.38898462 -0.00153089 0.00045172 -0.00154008
0.12851626 0.57084721 0.38814181 -0.00150210 0.00032969 -0.00151604
0.59287107 0.28668693 0.51076204 -0.00027627 0.00065568 0.00009795
0.59287107 0.93699038 0.56080705 0.00028111 0.00263460 0.00146975
0.40712896 0.04562648 0.50956070 -0.00027073 -0.00310115 0.00014645
0.40712896 0.72222775 0.54413223 0.00029637 -0.00078995 0.00030103
0.24460508 0.57599187 0.58239609 0.00086569 -0.00011658 0.00081261
0.12851626 0.22605479 0.52270460 -0.00210466 -0.00264064 0.00040926
0.12851626 0.69856203 0.59030741 -0.00187918 0.00135969 0.00166830
0.40712896 0.21302797 0.39374760 0.00018232 0.00074073 -0.00153599
0.24460508 0.23148820 0.61391497 -0.00020230 -0.00046917 0.00226274
0.87148374 0.23641630 0.54329050 0.00205307 -0.00223349 0.00122944
0.75539494 0.50966555 0.57011837 -0.00084290 -0.00002456 0.00052001
0.12851626 0.24121477 0.54963142 -0.00207170 -0.00204601 0.00127350
0.24460508 0.46620241 0.42703488 0.00089607 0.00008681 -0.00060146
0.75539494 0.67891645 0.61026084 -0.00047344 -0.00028783 0.00161221
0.12851626 0.77535152 0.48306543 -0.00207563 0.00278911 -0.00050410
0.24460508 0.31693274 0.61114687 0.00048489 0.00027719 0.00167736
0.59287107 0.13081087 0.38899234 0.00010845 -0.00056095 -0.00241230
0.87148374 0.52195275 0.38661221 0.00145699 0.00000717 -0.00147422
0.24460508 0.77762574 0.61206013 -0.00028946 0.00049871 0.00224924
0.40712896 0.24137396 0.41031072 0.00025586 0.00086774 -0.00106232
0.59287107 0.28091288 0.46393821 -0.00026906 0.00068146 -0.00029270
0.40712896 0.10484322 0.60041189 -0.00012049 -0.00151744 0.00221488
0.75539494 0.37850916 0.40398586 -0.00078592 0.00032403 -0.00111956
0.75539494 0.66266578 0.60683960 -0.00057101 -0.00025051 0.00148402
0.59287107 0.17653005 0.38467193 -0.00002010 0.00001012 -0.00206197
0.24460508 0.40677735 0.41244435 0.00087078 0.00029674 -0.00089258
0.87148374 0.58118647 0.61148119 0.00155674 0.00020403 0.00154856
0.75539494 0.88703442 0.48934636 0.00105206 0.00300760 -0.00025787
0.40712896 0.85122150 0.61498517 -0.00003265 0.00041822 0.00231256
0.75539494 0.37282693 0.59775251 -0.00073537 0.00022282 0.00118320
0.12851626 0.42787471 0.38827917 -0.00151370 -0.00026174 -0.00152077
0.24460508 0.15109499 0.57933050 -0.00081322 -0.00197631 0.00199766
0.40712896 0.04855149 0.52687526 -0.00026334 -0.00296702 0.00063616
0.24460508 0.49941009 0.42981434 0.00089220 -0.00002832 -0.00056531
0.40712896 0.75171673 0.58422995 0.00024488 -0.00080182 0.00095761
0.24460508 0.71026021 0.38539371 0.00028314 -0.00007467 -0.00189449
0.87148374 0.22779544 0.47326517 0.00206208 -0.00248621 -0.00076702
0.40712896 0.16929413 0.38430804 0.00005634 -0.00005281 -0.00216832
0.75539494 0.49415311 0.57039309 -0.00084486 0.00003464 0.00054677
0.75539494 0.32935056 0.39161718 -0.00057152 0.00009520 -0.00156731
0.12851626 0.38731152 0.60891634 -0.00161344 -0.00060831 0.00158797
0.75539494 0.85594219 0.42757976 0.00086463 0.00221028 -0.00166322
0.24460508 0.28436324 0.61522532 0.00024193 0.00026483 0.00192328
0.75539494 0.40094870 0.41073143 -0.00083024 0.00020594 -0.00097102
0.12851626 0.45797965 0.38716984 -0.00146712 -0.00011516 -0.00147781
0.59287107 0.05708868 0.44985557 0.00029343 -0.00268039 -0.00132250
0.24460508 0.64130557 0.39856654 0.00072562 -0.00028760 -0.00128969
0.40712896 0.88740468 0.60440034 -0.00013240 0.00119184 0.00239368
0.59287107 0.89297634 0.60150850 0.00017004 0.00123216 0.00229503
0.24460508 0.88703442 0.51076788 -0.00104799 0.00300928 0.00017347
0.87148374 0.71522564 0.58242971 0.00193567 0.00127854 0.00165220
0.75539494 0.13388599 0.43881863 0.00091999 -0.00225516 -0.00175505
0.40712896 0.22637999 0.40030217 0.00021844 0.00083516 -0.00131803
0.59287107 0.93088108 0.43067169 0.00026980 0.00229644 -0.00177743
0.40712896 0.81696588 0.61456716 0.00006759 -0.00026904 0.00198045
0.75539494 0.54649693 0.57506877 -0.00084557 -0.00007665 0.00063408
0.59287107 0.78208947 0.39608681 -0.00013679 -0.00083008 -0.00143872
0.75539494 0.14475235 0.42641130 0.00085165 -0.00207873 -0.00195873
0.75539494 0.88416034 0.52573150 0.00103662 0.00298129 0.00077347
0.12851626 0.74503434 0.43614694 -0.00200281 0.00187993 -0.00149684
0.87148374 0.26883209 0.42641130 0.00195684 -0.00175807 -0.00145595
0.12851626 0.50731760 0.61368257 -0.00145125 0.00009705 0.00148761
0.24460508 0.55969203 0.57810611 0.00087434 -0.00015950 0.00069787
0.75539494 0.75539494 0.38475558 0.00010241 0.00035529 -0.00219445
0.12851626 0.64504838 0.60416019 -0.00170835 0.00065265 0.00164616
0.59287107 0.23096196 0.59698296 -0.00017749 0.00089167 0.00116529
0.40712896 0.18446413 0.38573256 0.00010064 0.00021118 -0.00200001
0.59287107 0.83720678 0.61590761 0.00001379 -0.00004665 0.00221127
0.24460508 0.66230786 0.60667491 0.00059976 -0.00036755 0.00144904
0.40712896 0.27727693 0.45501196 0.00032111 0.00077516 -0.00032555
0.40712896 0.86993551 0.38921246 -0.00008533 0.00077367 -0.00241107
0.75539494 0.16590065 0.40964076 0.00070961 -0.00149874 -0.00219021
0.59287107 0.06819201 0.56827313 0.00026765 -0.00225344 0.00180416
0.59287107 0.27578965 0.54801178 -0.00026667 0.00074982 0.00036213
0.87148374 0.71888065 0.41978711 0.00192101 0.00145563 -0.00158200
0.59287107 0.94558340 0.54464018 0.00030159 0.00274027 0.00139829
0.75539494 0.16243030 0.58809465 0.00074437 -0.00160000 0.00206851
0.40712896 0.90954405 0.59083956 -0.00018908 0.00181849 0.00216401
0.75539494 0.45202807 0.42480621 -0.00084776 0.00004696 -0.00066862
0.40712896 0.07375231 0.42482439 -0.00020607 -0.00223627 -0.00194333
0.75539494 0.33580098 0.60730898 -0.00057098 0.00030306 0.00148627
0.87148374 0.73124665 0.57335538 0.00197936 0.00139882 0.00163863
0.75539494 0.55080146 0.42434773 -0.00085040 -0.00009557 -0.00066174
0.75539494 0.22999862 0.61363798 0.00023296 -0.00056603 0.00221099
0.40712896 0.71310425 0.50931078 0.00030453 -0.00068488 0.00010214
0.40712896 0.72734368 0.44585624 0.00028780 -0.00082421 -0.00042730
0.40712896 0.11838171 0.39334869 -0.00008917 -0.00114119 -0.00229260
