ply
format ascii 1.0
element vertex 1614
property float x
property float y
property float z
end_header
21.986700 23.231400 10.882100
20.985399 33.041698 41.646599
21.510599 13.820100 12.258000
38.148399 38.484901 13.440100
11.650300 34.877499 19.715700
12.464900 24.983801 38.350300
40.851799 43.942402 20.789499
33.954899 9.362850 26.844101
15.771800 16.319901 46.331699
34.758400 17.198400 44.471401
16.218100 41.202301 47.491699
16.380600 39.621300 50.230598
15.045900 19.387400 8.068760
34.224800 8.405470 18.812401
20.124599 8.881310 28.730700
26.796301 32.441502 16.461500
19.931400 30.728800 10.753600
22.591299 11.793900 24.010900
4.392410 37.347301 39.100300
26.924299 4.689760 32.016102
39.108501 23.404499 40.789600
39.910099 36.070900 9.445140
7.783830 30.794300 18.959700
42.069401 19.171400 21.997601
11.188300 21.539700 10.290000
21.658800 23.635201 18.586399
24.364599 20.184900 8.041230
19.333300 4.746430 29.682100
40.164001 35.952301 18.784300
20.978100 36.279701 7.641010
14.923900 9.095490 12.054600
38.706200 20.672199 48.812500
15.048900 8.591320 47.174999
40.621700 14.618500 43.479000
27.076200 40.999298 41.104599
17.535601 23.881201 37.137901
10.166200 17.094500 37.654800
18.235800 17.094200 59.189701
37.023300 20.656601 26.915100
22.345400 29.262800 49.936199
42.546101 16.941200 17.115000
9.474500 24.204901 52.486099
20.011400 4.733700 29.246201
36.857601 12.157200 28.797300
7.302760 21.475500 41.051701
28.964500 40.457199 33.379398
39.339199 13.776800 32.755699
25.957199 10.616800 24.989201
46.444698 26.395399 21.791201
18.459900 6.962590 22.753500
19.173800 33.292702 8.486570
15.592100 27.836399 13.793900
24.108500 21.868799 13.115900
17.033400 21.839500 58.296700
12.769600 10.083600 19.242300
42.723099 23.686899 39.075100
17.104799 40.434399 40.755699
42.099899 22.214701 45.739399
8.498840 32.812901 36.382500
15.749400 13.972400 49.036098
20.066900 6.953780 41.636600
21.571800 15.329400 24.056801
41.603802 38.091999 19.748600
33.949001 8.572460 24.099600
11.539800 34.092300 14.500300
31.014200 32.377800 11.677000
39.847000 39.214500 36.099400
9.275620 20.064501 21.231400
19.587099 11.231800 32.418499
27.039801 7.058810 40.791199
18.358000 36.661598 24.873699
3.070120 35.097599 17.710199
40.401600 30.782900 48.980598
20.189100 9.807720 45.083801
43.229198 22.149700 14.951300
13.654600 31.561001 48.988602
43.880699 24.659800 45.474602
20.447701 38.774601 18.097500
29.638201 29.871599 22.757700
37.955002 18.458900 20.263300
23.087601 27.525499 57.614300
24.093700 23.052500 15.034800
18.145500 41.522099 34.569099
15.899800 27.602200 46.358398
39.838100 31.185900 35.274601
23.230000 11.236700 18.324400
38.278198 31.935400 47.408401
38.711498 31.433001 33.354301
11.580000 40.011101 53.006401
11.807600 42.714500 38.161499
2.721180 33.572701 18.491699
6.125480 27.770201 30.742100
37.572800 22.156700 51.413898
22.218100 25.686600 55.389000
34.739498 35.784500 48.815701
19.008600 11.403200 21.576900
22.213800 16.958599 38.683498
37.977600 34.941502 46.939800
43.361599 36.244499 33.104599
42.348598 19.005400 29.804501
31.659000 26.106701 4.104550
20.750200 23.443199 45.396801
21.014999 11.887200 49.901501
20.023199 7.958480 44.264999
36.209099 12.741400 26.962099
8.480430 33.958099 12.134600
26.277500 53.951500 23.064400
22.826000 14.121200 47.435501
22.631100 48.269798 9.976780
31.257900 18.513100 11.815400
20.155899 4.622090 25.514099
12.078200 47.716400 22.627001
11.405100 18.217300 14.613600
26.511700 23.069099 11.988100
21.761499 24.003000 53.194000
6.133270 10.967600 27.656900
30.361300 36.036301 7.893550
14.600900 13.383800 16.764799
35.688202 40.999802 44.854900
26.374201 30.371300 14.578700
38.741100 18.567499 20.556499
40.688499 29.748699 48.283901
6.214770 19.758699 21.736401
25.576599 23.406300 52.759899
39.362301 12.932300 16.870100
37.488400 13.792800 34.329700
12.555400 32.070202 6.559330
26.278500 24.573000 48.893101
31.034000 3.970540 24.824900
26.915501 48.918400 16.008400
27.949499 10.892400 17.718100
33.581902 34.557499 21.340700
43.527000 17.666800 40.600601
29.749800 5.774640 29.843399
16.164400 5.331490 22.208099
16.867901 8.863510 47.966599
4.056250 21.030199 41.014702
27.291901 11.172700 16.282499
35.174900 38.437901 17.089600
26.525801 26.695400 56.384998
34.211899 29.076401 43.975700
13.222400 42.559502 46.354301
31.887199 34.024101 52.309502
13.654400 45.755001 40.526001
21.221100 13.064800 15.961100
37.050499 28.506800 13.013300
20.068300 44.620899 5.846990
33.584301 16.125401 48.613899
17.102900 27.382900 3.505050
42.224300 19.178200 36.867699
22.447399 32.466400 52.584301
16.299900 15.971000 46.720901
28.682501 2.124680 27.444201
14.256000 21.136700 6.043170
22.946199 15.883100 32.763599
18.147499 44.932201 37.871300
5.155220 28.863600 11.165400
8.295700 21.353300 54.083000
35.681599 12.085100 20.782900
34.895699 5.395270 23.635599
23.610100 15.235500 51.925499
16.829000 8.141290 18.711700
38.973099 16.923201 33.476002
28.671900 36.062000 2.245200
17.071699 36.818001 19.778900
12.299500 42.863701 52.320801
35.549702 39.694199 27.647900
45.478600 21.809200 24.635300
31.381399 38.112499 31.179501
4.820160 29.785801 11.835900
30.776100 36.271198 48.957901
10.742500 34.900002 22.569500
18.958599 41.794601 41.707199
24.126400 20.317900 15.794200
4.172840 25.275801 20.886000
10.559500 41.171600 23.083000
6.159710 28.842899 27.521500
9.001520 15.878600 14.622000
27.581900 52.185398 18.191999
31.019800 7.064190 35.897301
29.468399 28.703100 47.465000
2.850590 29.729000 25.487900
11.818300 20.600800 10.376500
18.585699 20.732300 38.736401
46.166901 21.064301 32.097198
1.924050 39.744301 32.861000
31.210899 40.603199 19.354401
42.375000 29.248501 13.061900
14.323400 5.703280 17.930099
9.307660 16.217699 14.757300
21.963699 49.908699 23.935200
24.934900 10.766800 46.828701
18.011801 3.097670 28.609600
34.117199 23.736500 24.734301
31.290701 19.548201 6.009950
29.673800 40.072201 28.882799
23.527100 15.698000 8.424030
30.210100 31.522301 15.798200
41.503700 27.982599 50.746601
17.731199 30.817900 18.810400
12.565000 40.627998 15.022000
33.129700 6.606510 38.077999
23.158701 16.106600 36.248699
8.277110 42.813499 37.885101
17.328199 18.605499 11.494000
16.461500 18.904100 11.843100
4.919640 35.904598 18.674101
27.369801 34.119400 16.587999
34.382099 32.293701 5.718800
34.426701 28.931601 42.628601
37.035599 38.679199 33.785198
31.244499 46.081299 13.185300
7.166970 34.872898 38.006699
39.887001 35.678299 46.575401
27.724199 17.776199 10.365500
12.824900 42.600700 47.109299
27.980101 14.799400 7.107000
9.692860 28.438999 51.365898
31.122801 35.112900 11.999600
37.530899 15.684500 33.860500
32.093700 14.451800 48.938099
21.781200 6.450970 25.541201
39.576599 35.576900 20.597099
9.872820 42.796398 12.577900
26.304100 32.504299 8.086120
23.181101 22.070499 28.431700
19.749701 32.390400 17.141300
19.110800 7.709730 23.637600
30.106800 35.021900 11.024700
12.082700 24.491800 11.773400
15.609400 25.276400 7.896460
28.351900 15.975100 15.115100
23.634001 21.820200 21.475800
24.516600 20.693199 6.208490
28.800400 36.038799 25.218399
23.598200 7.131020 23.341999
29.727200 18.603901 12.041600
11.329900 25.965300 11.373900
39.218700 48.367500 18.518700
42.199902 21.951000 38.213001
36.271599 22.906300 52.000599
27.292999 15.122400 57.041901
23.455099 23.457899 19.914000
34.403400 9.571540 45.253502
6.319250 11.946500 27.172800
33.082802 4.673360 26.300900
29.770100 29.106701 5.348790
14.171400 37.717300 16.270901
24.525900 26.407301 32.015701
28.888399 30.111401 4.755940
45.212601 32.734600 36.818100
11.609100 30.894199 59.276798
0.292822 32.742802 32.741100
39.066502 13.960800 46.436199
44.257900 19.743099 21.633900
7.229940 22.904900 45.245098
23.797199 28.175200 20.897600
14.948000 20.750900 10.013500
32.333801 46.200500 15.221600
23.048401 32.837502 31.983299
36.690800 31.667299 47.201401
36.091499 18.769501 22.158001
22.955000 16.725599 44.641399
40.931499 30.613300 19.167101
19.584999 26.020500 5.643670
43.555698 31.068899 28.820900
35.958900 39.401001 16.432400
32.195000 30.274700 21.322201
37.605701 29.220200 33.654800
14.942100 20.924500 9.745440
29.028299 39.393398 7.102200
5.966740 32.053398 28.062401
41.112598 35.453201 25.043100
35.107601 14.657400 9.550740
31.941299 4.813140 19.004000
28.971800 32.726398 43.518600
15.887300 32.894699 1.136700
23.344900 18.610001 39.363899
26.527399 22.237499 13.463900
14.083700 35.843601 43.947399
37.102100 39.981602 19.872101
38.048100 30.912399 11.070600
21.966999 25.202101 55.207699
20.699699 23.364599 54.724701
34.973000 48.077000 23.031700
5.006410 36.139900 18.946301
27.997999 52.000599 18.815001
44.000999 22.059700 41.154099
43.329300 27.358900 27.036900
13.388900 39.631699 23.666700
8.114130 21.332899 27.766899
10.887200 12.026300 27.009001
38.012100 18.166300 33.675400
13.375200 36.998699 6.022060
24.951599 29.751101 29.424200
18.640400 14.235000 10.910300
30.403400 34.944099 16.711800
29.981800 33.283100 48.212200
17.020000 37.889301 41.195801
23.046000 36.519001 56.327202
3.254590 20.769699 35.953201
22.237801 14.561700 41.834999
36.073502 25.746799 39.918999
22.789200 28.814100 57.240299
3.534090 32.371300 45.596901
7.079700 39.009300 27.916100
36.092499 19.280800 43.675400
21.309299 42.815800 21.372400
36.804100 32.073601 9.672210
12.838800 35.740101 18.042500
8.693840 33.046299 46.143398
19.478600 6.970440 21.212900
26.536200 52.251801 19.269199
12.595400 32.210300 24.115101
5.181000 29.438101 33.844898
33.447899 8.508230 15.078100
14.966100 44.847099 48.985401
3.355700 15.225800 32.532799
25.975300 23.434099 61.356899
9.424320 47.722599 18.888599
30.200500 7.830450 39.403400
25.337799 48.004501 29.891199
39.203701 11.251400 39.984600
29.960699 9.879770 12.964500
18.546301 39.364101 46.479900
22.296101 27.094101 30.741501
13.562100 8.712900 33.688999
27.644600 16.093300 21.057899
16.615000 43.300201 53.033199
4.532410 39.074902 23.720301
5.157940 27.804899 31.148399
28.959700 11.379900 46.076199
28.322500 36.452801 31.144600
24.147200 22.094299 13.573100
39.263199 24.870800 36.559101
26.167500 26.982300 23.951900
33.456001 31.815100 35.914700
37.606602 25.328600 43.944401
14.450800 10.827800 15.090500
22.678499 7.889410 31.991800
30.921200 13.741800 51.902802
33.823299 32.450802 33.761799
36.548500 16.458000 50.299099
24.083000 19.848301 11.866500
33.962101 14.219000 47.872002
20.480900 36.303799 11.960300
13.943200 31.996401 49.461601
15.477400 12.944100 53.248199
21.091600 11.268200 27.074600
23.190701 37.849098 43.356300
29.713301 38.818901 10.763900
23.679501 21.856300 16.615700
18.029301 27.609301 18.156601
9.078960 19.257999 47.329498
38.939701 48.439400 17.731701
29.065100 30.416500 26.170900
5.427710 26.953800 29.673901
16.330601 28.728500 4.995700
13.105000 40.009800 25.363001
8.539800 21.481001 48.816101
30.862801 23.284800 55.933498
27.650700 24.889000 6.316180
26.244801 31.101500 38.098999
26.575100 32.343300 13.112600
23.119200 15.094500 35.393101
11.258000 39.568802 25.763500
38.760201 9.770790 22.779200
2.915710 38.091301 28.612900
43.261799 22.310301 32.285500
16.549700 10.752400 18.347799
40.101200 13.172400 36.891899
30.999701 33.623402 44.932499
26.192499 20.792700 57.837002
24.186399 23.460100 55.893902
24.164000 10.559700 20.595200
26.811399 43.617500 36.188000
21.393299 49.246700 26.728701
19.455799 30.083099 52.125198
6.349950 16.302799 35.338402
31.877001 39.454800 12.512900
12.691600 38.158901 54.658100
5.232780 24.478201 40.577801
32.282600 24.549299 20.661900
11.239100 33.344002 26.190399
34.106400 9.238320 17.990499
39.319099 19.391300 46.707199
13.724400 35.505402 44.102901
27.984301 19.342600 43.459099
46.538200 29.603100 25.553801
28.790701 29.399599 41.610699
19.162300 29.978901 14.083500
35.765400 12.292300 41.320202
39.846199 25.949600 41.246899
17.764900 29.864799 1.705970
39.057201 31.067499 40.978100
8.252830 12.883900 37.026798
23.127899 35.824100 58.040699
43.434799 25.179899 15.840100
38.690102 27.058201 51.416000
12.896900 17.855101 44.987499
32.967400 18.806499 9.482400
32.968102 35.953602 14.965700
18.812599 8.279250 19.231199
20.084499 33.398701 35.898701
6.121960 26.212700 41.080700
40.302601 32.825298 33.497501
27.100300 4.740590 42.133999
23.096300 7.854100 34.124901
9.149210 17.374701 29.125000
45.911201 31.089399 37.091000
43.860699 20.671200 32.987999
23.814100 23.558701 14.839500
25.465401 41.140598 14.889400
17.398701 35.657101 48.074699
37.280800 43.690399 40.960499
7.858870 29.539200 42.551899
5.992920 23.748899 40.512100
32.392399 37.603199 8.783860
35.979801 38.859798 20.786100
9.781700 33.189701 51.632702
37.960602 19.178400 47.323101
27.015900 17.694599 14.856700
17.468000 20.040001 33.397598
6.800980 33.345200 43.838699
8.965090 31.386499 5.199460
10.350900 38.504398 34.949001
29.333300 22.604300 9.011740
15.318000 39.340801 32.248798
22.752701 25.417500 57.247601
25.986300 22.115200 52.475498
16.846201 41.631401 28.501301
42.597099 22.184999 41.039799
41.803699 33.288101 29.280600
36.732899 47.131699 23.055901
26.096701 15.546400 50.098400
10.974200 39.985001 32.404701
42.647202 22.623501 32.347500
18.657101 27.912600 60.675999
37.406799 14.104900 45.005798
12.740400 38.479698 18.416500
12.141400 34.179001 4.701080
15.064700 37.951801 54.790699
35.994999 37.997601 42.910500
39.916500 29.800699 19.146601
29.985500 31.917601 20.595800
44.738201 17.164000 26.485600
22.608900 14.566800 45.287498
22.200899 9.586800 49.506802
25.529699 20.912600 23.605700
20.094200 10.664100 31.376499
17.854900 41.150600 31.076799
8.533680 43.097599 37.881802
43.222900 27.403400 28.841200
38.130402 8.142870 30.123400
14.398300 15.861900 50.274899
4.011030 37.020599 36.199100
41.006699 22.824699 20.026100
12.959100 15.112800 48.159401
37.862900 23.311100 46.281898
20.231100 8.279560 47.448200
38.586102 11.597800 14.593700
19.638700 18.540501 48.926800
10.141100 10.546900 24.928699
31.190800 23.872601 25.214300
21.797100 12.176600 52.513599
35.605099 32.182301 37.214699
15.434600 8.983060 12.407000
0.614205 30.609900 26.909800
34.051498 39.071400 44.571098
19.855301 33.469299 44.141499
9.661440 12.923300 16.449301
44.016201 17.801399 40.176998
9.436410 38.818600 20.173800
35.973701 39.442101 15.533100
19.614500 12.056800 27.107901
43.144299 40.120602 35.007198
27.030001 13.960600 17.913700
29.170700 35.328201 16.651899
23.388901 21.200100 44.769001
28.026400 26.083900 25.640600
10.805900 17.840200 9.711360
16.168200 37.914001 9.341490
42.359699 27.559601 16.047199
32.858398 36.725498 41.034100
35.229900 10.782500 24.239300
18.973600 6.879220 22.611200
18.099001 31.818300 20.601700
34.620499 25.226101 54.014400
41.280300 31.081600 17.882099
19.874901 28.081301 4.843290
34.063599 30.950001 21.291401
40.297401 24.256300 46.855999
18.581301 34.288502 1.181030
21.193701 40.943901 40.845402
26.435301 9.769210 31.062700
30.156200 38.975800 11.012400
8.959230 21.281401 39.642899
36.432301 31.405100 48.592800
37.829498 33.954300 39.299400
8.940160 19.315701 24.381399
20.579100 24.687300 9.670070
28.797300 12.612300 43.652302
23.322901 12.492000 25.135099
33.887600 24.321899 35.752701
40.771099 29.430300 46.112400
30.025499 39.338799 42.430801
20.551201 16.135000 52.303299
29.745600 11.966600 15.283400
41.619202 15.950600 18.459499
19.953600 34.003101 44.142799
22.570801 40.625099 15.972300
20.746000 18.984200 29.602699
30.856800 23.701401 15.920400
24.541800 6.961710 39.895599
8.037280 19.144100 43.966801
12.107200 37.857601 54.302299
35.732700 21.423000 23.980801
36.188801 42.410400 44.644199
31.643600 30.616100 15.793900
19.849899 26.125401 25.580000
24.225800 10.993100 14.896500
12.063800 20.427700 52.384899
10.825900 13.115200 39.998901
36.598900 28.893000 52.056499
20.601400 13.802200 12.112900
8.050000 24.950701 36.928699
29.889000 13.823300 46.688400
5.956630 36.132000 21.165899
32.918201 24.140200 53.517399
27.982000 32.861000 5.144220
3.407290 34.305000 18.018600
1.735770 29.254900 22.323799
20.330700 11.442100 9.281020
3.839290 12.982300 25.603100
10.933200 40.800701 11.914000
27.408100 1.848790 32.261600
24.209499 11.679500 14.423000
29.289801 23.312201 43.608002
12.096000 23.123501 52.831402
18.121901 33.425598 5.830190
12.998000 9.621630 18.583500
24.094400 9.385720 51.550098
20.412300 46.337502 27.154400
32.325600 38.614399 9.990740
41.911201 19.845600 47.979000
26.241301 9.260150 20.287001
35.825401 8.428250 29.069599
20.659100 6.340090 30.731100
26.470501 41.904701 14.821600
24.609301 30.388700 4.909930
23.027800 6.279520 31.372999
33.030201 19.431499 11.635700
34.002399 12.491700 21.238899
40.333401 35.677502 30.305099
24.618799 30.015100 5.435870
15.983300 38.054699 13.599900
14.952500 26.787600 61.373299
42.006100 17.020800 31.012699
31.154301 29.919399 3.382900
27.097799 22.285999 53.636002
17.048300 35.158100 46.279301
23.988899 32.991798 20.206699
31.722799 31.542200 17.769800
34.772099 46.723000 18.523800
8.395570 14.319800 21.567101
28.170200 15.861200 53.261501
9.685780 40.573101 52.164799
21.896200 51.155300 25.123301
30.584400 15.904100 47.806999
29.615601 35.217602 21.168501
36.537102 26.630699 36.337399
34.597301 28.052500 29.435400
2.096940 22.383600 24.688000
23.606501 22.705700 29.777800
14.675400 37.746101 10.316800
23.067400 31.986300 24.342300
3.823800 27.820900 29.220200
42.646500 24.755301 23.058300
34.635700 39.690601 10.559200
17.814600 19.901600 35.822701
12.879300 25.774900 10.954900
40.133598 19.742500 21.984100
32.538502 32.217999 32.751499
33.975399 32.265499 59.893398
27.078600 34.636002 55.167000
35.166698 33.252602 47.431198
8.437900 24.657801 13.155900
26.558001 3.390630 27.553200
7.490990 34.910099 16.036100
25.583300 46.688301 11.673300
25.622299 21.976200 52.587601
12.367700 28.232300 59.865501
5.951270 39.479301 35.672901
28.665300 2.766920 21.396601
36.338100 30.004299 7.971750
10.586700 7.555260 33.065498
22.913200 28.851200 56.462700
35.104401 12.452700 15.892000
35.475300 16.702801 12.673700
36.454300 11.837600 12.658800
4.663500 33.936699 39.459999
6.853320 20.788601 23.065901
8.992890 25.577700 43.279202
33.535400 22.739100 26.211901
18.411600 20.533701 56.076000
13.865000 36.091400 16.342600
21.217100 19.414301 29.850401
5.030120 28.242599 30.820801
26.029600 15.013700 50.343300
19.288200 7.814980 21.151100
36.599899 17.438801 53.698601
28.049700 30.084999 3.584120
25.305799 31.457300 18.971800
9.635930 40.466702 30.730400
34.632401 3.583440 28.988600
6.782720 19.371599 23.443600
8.540380 22.880699 44.936798
27.262199 26.286800 50.318501
28.269699 23.018000 5.723000
9.866830 34.722000 29.318399
45.799599 23.268101 36.847801
20.869101 12.034800 40.242599
36.368000 24.975800 36.341599
5.208470 16.346500 24.066700
8.901560 8.322580 37.036999
39.200199 43.774101 42.766899
32.947701 7.496060 33.880501
39.871799 15.040500 16.037600
24.093000 8.972540 18.809601
23.789400 28.999100 58.768501
28.450399 21.208799 5.635470
34.482700 30.525900 25.872101
7.201530 31.880199 8.787710
16.375601 29.095600 1.696550
36.422901 35.475700 12.599700
26.985001 16.990000 59.172501
45.107700 37.957199 36.966400
37.410900 29.044100 41.784302
25.310499 22.065701 51.035500
25.016300 27.973301 17.827200
20.015100 32.044899 57.198799
12.884900 35.938801 27.748501
15.132100 31.794800 10.385800
10.760300 39.475201 48.242901
40.686199 38.451099 32.287300
22.380699 22.009899 54.209900
4.722230 31.153200 23.554100
23.773399 32.681801 19.826599
35.686100 19.497601 18.937599
15.808100 37.255199 53.435902
34.690300 33.927898 47.488701
26.419901 52.592098 22.927700
42.704201 36.579700 31.006100
39.612301 26.313700 7.520710
14.090300 14.521100 24.096001
11.111100 35.863800 31.133600
11.346000 31.557800 40.099701
14.843200 33.861099 20.405300
27.191999 16.873199 27.109800
6.868060 26.801701 24.512199
11.233200 9.784080 44.843399
1.260870 27.205799 32.118999
32.192902 7.762180 15.216500
18.184500 6.712150 17.439501
25.823999 38.393600 51.383701
25.832500 35.929699 45.772598
5.713760 18.412800 28.954599
13.563000 38.846901 21.893400
5.156450 31.069000 46.851002
20.096901 49.987202 23.391500
22.324900 49.694199 25.444099
40.626202 26.077999 40.401402
36.041901 22.469801 35.613899
37.354900 27.773199 43.677700
21.122700 10.351300 26.087500
29.019600 6.960270 15.869300
25.699100 23.966801 51.090500
21.279400 37.928299 50.703701
3.467520 31.020399 47.504501
10.272100 14.874900 43.752701
35.192200 22.412001 53.184101
12.574400 29.356100 60.491699
15.189600 29.059401 58.317902
36.754101 11.977900 20.825399
17.286600 8.769430 23.719299
32.494900 24.019100 58.644600
9.858660 39.547699 19.952900
22.892700 13.877500 38.179699
14.187700 3.964800 30.506701
19.622101 43.155800 35.903301
20.075100 33.730999 55.857899
30.363300 46.293598 15.845100
11.336000 10.880100 47.695301
37.209999 21.918200 22.827600
28.208200 14.172800 25.867300
38.404202 27.723101 15.362200
6.109270 29.286100 19.236799
29.023800 26.167900 11.441800
13.097600 32.686100 5.976210
37.041302 9.847800 16.993200
25.386000 34.520199 33.060101
19.973900 10.415800 32.317402
5.543220 32.009102 33.921501
28.451700 34.696201 9.273050
19.793100 6.939340 20.929001
17.316900 30.927200 44.445000
25.242300 43.525501 8.110920
35.876202 13.158500 35.065800
5.777120 35.047901 15.734900
5.993900 32.680801 48.356400
18.591000 7.274230 45.240700
40.685799 38.995499 24.395901
39.151600 24.907499 23.396000
36.701698 38.690300 34.922298
11.730300 37.973400 16.377199
36.759800 33.949100 6.270190
22.772800 12.754400 45.452900
25.229099 33.743698 14.061900
14.131000 38.621399 20.489000
5.024640 32.720798 26.864401
5.548970 15.925400 24.287399
24.822100 12.286400 46.723400
32.487301 31.146000 42.131100
22.201599 11.759600 49.389198
42.103600 29.808399 12.141100
10.730700 30.843599 54.997898
8.895750 33.733002 38.271900
39.941502 8.893770 28.031601
5.849090 34.195099 44.123402
8.616020 12.651800 32.347301
19.767401 3.833200 38.779301
32.878101 36.057800 2.988040
36.165199 37.932899 43.495701
28.600401 26.131399 17.339300
39.399300 40.675800 37.132198
39.281898 16.183300 24.334499
30.600800 28.693199 43.888802
1.885490 17.700100 28.163200
44.806400 17.643499 23.013500
25.797501 21.924400 51.466000
9.205110 33.058998 9.821350
19.679501 27.578300 5.281130
32.148998 37.124100 6.665980
12.017300 36.429600 57.724701
22.534901 6.554990 15.408100
43.407001 31.114799 14.086400
34.354801 16.233400 41.976299
37.059299 26.651899 6.022200
44.156799 39.280300 35.759800
8.719230 26.103100 33.399101
22.534700 22.818300 19.954800
24.327600 33.949799 13.629400
19.987700 41.228298 40.262402
27.484100 16.161501 47.583500
29.756701 19.876801 11.410200
17.983101 20.277100 37.644402
41.099800 28.790501 33.817501
14.886100 46.791901 16.227400
8.181640 36.735401 12.543800
30.931900 37.928699 8.477680
5.461300 34.819599 48.768799
32.751701 43.685600 8.510550
15.062500 42.927700 12.304900
37.621399 27.068501 53.034500
20.898800 14.645700 30.465900
41.803299 19.335400 45.399300
37.369499 17.692499 52.189400
36.625401 41.715599 25.290899
18.635300 12.601900 36.641499
14.945700 36.084202 29.099899
31.089100 30.106501 22.693399
24.616400 21.211201 13.821700
14.019600 35.622501 14.182800
19.813101 6.685620 24.922100
38.013599 14.643600 42.146900
38.116199 17.634600 35.783001
12.685600 32.137199 36.355000
14.924400 20.782301 8.469170
26.726500 22.846100 53.868801
41.175400 28.849701 43.765301
45.366699 32.289299 29.771299
35.841000 42.568100 44.914398
24.104300 46.357399 26.934000
43.616402 25.436001 31.127899
5.072950 32.142300 36.734600
11.801000 25.143101 52.721901
16.180099 39.250702 42.600399
28.899700 18.575899 10.817000
4.068300 35.906700 31.902700
40.979900 19.847000 41.890800
20.712299 44.729000 21.277599
18.605101 35.087898 17.129299
42.166901 19.178900 32.059799
42.346199 28.617500 43.877701
8.213730 18.566601 40.163502
42.741798 23.791401 49.763699
19.972200 40.015400 37.004501
36.048698 25.011200 35.608601
17.795601 32.004501 20.595200
30.723700 38.262699 7.498650
21.838200 48.251400 8.867590
32.659500 20.355000 9.645260
6.296380 33.281502 35.330399
15.144200 29.928101 19.009701
43.272400 23.557699 33.028500
10.955200 11.935000 20.550600
38.281399 35.413300 43.110600
22.766600 28.027000 24.798300
41.459499 26.321400 46.924000
7.122220 29.179800 14.189800
6.539790 38.570999 36.402000
35.600899 36.133202 46.032200
15.376600 38.076500 21.911699
23.583300 26.766500 49.702099
24.773300 44.309700 10.269900
38.404800 22.491800 32.451199
38.527699 11.255500 31.954700
33.647598 28.461500 17.343500
35.075100 15.363300 34.950401
19.226500 15.087700 39.300999
43.199001 25.881001 24.758801
33.494999 6.831360 34.171299
20.856600 16.184299 10.667200
10.179900 22.828600 51.708500
5.923040 17.062901 19.759300
23.526501 26.256701 53.595200
11.561300 12.926000 30.413900
37.829899 24.927799 41.581600
21.080799 19.714899 23.591801
40.304100 35.932400 19.629900
14.472600 6.292920 32.749401
23.529301 22.312799 56.125999
36.502102 33.861698 50.395302
13.925700 30.925501 41.591499
8.269590 31.494499 38.948799
12.238700 38.599400 35.298698
33.089199 31.239300 8.379550
22.105499 19.336800 58.009102
18.194901 36.000198 14.300500
11.818000 32.850101 41.116199
14.539500 27.382700 7.938240
39.005699 7.061490 24.289900
17.799500 35.743301 46.937000
21.755100 34.309200 14.191800
29.012501 22.338200 9.419640
40.491100 40.268200 19.337500
23.860500 7.723730 23.491301
19.909000 36.184799 36.888699
25.995600 50.162800 25.475599
45.631901 24.459200 25.853600
22.939600 17.029200 51.380299
18.979601 31.874100 43.022999
21.183901 28.167700 43.630501
18.112600 25.907600 13.233600
31.572300 3.205350 25.498400
18.991100 45.612801 32.983002
22.295099 23.118601 29.591801
43.329201 32.674400 26.013399
18.537399 32.722099 23.487301
21.683201 40.267399 35.947300
30.010700 44.769100 35.941799
14.851600 16.253799 52.703400
19.529400 34.042099 10.110400
41.205799 15.099000 20.061100
31.641199 40.354599 24.308001
39.608700 24.062099 43.503601
16.977699 44.751099 36.966301
12.185200 11.873100 43.071701
20.602501 8.429470 47.429600
11.521400 24.716299 52.544998
7.499210 29.016701 50.979099
9.108640 12.740700 46.912201
22.363100 21.179199 45.397701
15.392500 9.894410 23.763399
45.008202 32.121300 16.833200
12.028900 31.257099 41.008400
19.601400 9.571750 17.102900
28.899599 24.728300 2.727900
7.762140 40.204498 36.538101
30.364100 26.090700 54.920502
31.030701 17.737101 12.007100
27.783501 28.686199 7.941270
5.095050 26.730801 39.136799
28.272100 35.539398 37.667099
36.999699 35.833698 16.071600
2.094120 27.328899 33.844700
6.186000 20.232500 24.031200
34.052399 25.228800 38.419300
8.918730 44.640301 11.145200
18.184700 3.593240 33.585999
40.916401 34.220600 11.927200
9.755680 32.699699 45.752499
43.393799 28.872999 21.147900
13.542500 38.102100 14.632100
31.681700 35.665401 49.257301
10.613100 25.942400 47.270100
20.482599 16.865299 9.974410
34.085300 8.444590 44.196098
33.254700 45.748199 14.713700
4.827230 31.581499 34.936001
26.363199 35.770100 9.401860
1.093930 30.039600 31.123699
26.617100 28.529600 5.166970
23.271099 11.165700 43.641399
41.875198 17.225800 22.224400
6.587740 38.758999 36.574799
39.906700 13.649400 41.252602
13.262800 37.793400 18.469500
17.554100 5.805110 33.387001
26.222601 17.480499 10.929500
44.309399 27.681499 42.934101
22.638599 22.371201 56.330101
11.483100 44.836700 15.010700
8.802410 25.908100 56.368000
12.370300 15.421600 47.590401
19.492500 32.563400 57.026001
16.189800 44.495399 34.486401
15.460700 39.781300 49.909500
30.424200 27.382700 44.702900
26.521000 9.491720 42.019100
24.851299 38.675701 21.313000
13.856500 25.005400 8.063350
9.794610 34.598499 35.902401
40.067299 25.055599 46.661999
13.705900 37.308399 8.454120
13.776400 27.502399 30.305000
30.354200 20.323099 3.295920
41.290699 42.520199 13.724300
43.907902 29.526199 41.903999
7.123510 11.955200 33.620602
24.931101 16.165800 58.550301
4.064560 25.907400 27.038700
37.515999 17.381300 36.382702
8.004550 34.258400 35.619701
36.188301 25.812599 37.015301
18.067499 43.299599 29.313700
17.619301 14.451500 7.304300
38.960499 47.620399 13.897000
39.654701 17.433399 23.312099
26.858900 42.130001 7.511160
9.713850 33.185902 14.785400
40.956100 14.672500 37.348099
18.206800 18.507299 18.589399
12.391700 14.586100 14.978400
3.655200 29.801600 33.500500
4.078210 24.951099 47.628799
14.125500 30.150200 16.337299
11.868400 39.832500 44.805901
10.203700 12.549900 32.829800
38.235298 31.967100 8.275510
9.667190 11.281800 43.610500
29.704500 38.816200 11.001400
9.780610 19.657400 18.107700
8.027300 29.554899 12.989800
41.498199 29.289101 43.587002
8.941170 36.383701 30.977501
13.926300 38.289398 20.794100
14.040400 40.292198 27.469999
39.840801 31.489201 35.160000
8.326840 18.200001 40.255798
10.079800 21.936501 11.799200
28.260000 16.761801 57.562302
1.882320 26.918100 32.986000
9.548180 31.333799 30.316900
29.109800 17.405800 13.105100
39.318699 22.508900 11.931600
35.299900 46.928101 10.127900
12.077900 41.025799 36.459999
24.752199 3.279190 37.246799
39.138000 29.205299 55.472301
16.610901 39.672798 27.929399
8.921800 20.837400 54.244099
29.841600 29.336800 39.963100
24.114799 26.586201 28.816299
10.811300 12.759400 48.781799
33.464298 33.124699 57.276798
9.742650 24.232700 52.877499
16.753599 39.469501 53.023701
23.945000 39.255199 40.958900
36.629299 14.053100 34.950001
19.000099 42.818001 6.572810
36.013000 42.406300 43.922401
42.925900 23.772600 37.967800
42.068199 33.604000 38.936100
11.880500 11.560200 42.399601
36.188000 39.710899 25.782400
27.921400 38.784199 39.176800
4.969060 31.486200 34.598202
37.706402 15.801000 18.467899
26.424999 22.193300 40.727001
27.492201 25.754299 38.277401
3.962890 24.293800 28.353600
24.783899 41.347698 16.735500
39.681999 18.830099 31.324400
14.853500 33.270802 41.215099
27.770300 39.739498 43.357800
9.933250 30.083900 4.285580
43.261200 33.072701 14.019000
34.368599 10.866200 27.209999
3.487090 22.600000 42.970600
31.829700 37.030899 10.466900
31.338699 36.079899 48.281898
10.595500 39.227798 52.089298
19.615801 44.070801 12.699200
16.659401 37.856499 57.960602
34.228500 35.130600 46.328800
5.673400 22.695700 40.941601
41.817101 37.201401 34.123600
21.791800 12.897900 41.289200
9.690150 29.286600 33.401199
7.540790 30.464500 14.073400
15.114700 39.778400 33.315498
32.092602 14.863800 46.916901
4.191580 30.067101 34.221500
12.451100 16.095501 49.506802
10.102500 10.933100 43.218300
20.082800 19.912201 56.116402
27.479700 12.835200 55.855999
8.253360 41.317101 18.235100
12.508700 45.947800 11.393900
14.186000 32.650799 41.421501
24.172199 28.283100 33.414299
23.935301 19.478800 31.786301
11.640100 19.855801 12.088700
3.406570 24.321400 28.181700
38.844799 20.607300 49.049900
28.920099 16.339399 54.884602
21.442900 43.270699 14.263700
25.794901 14.727000 54.928101
41.775299 18.176701 22.410601
7.935880 21.558701 42.073898
15.890000 20.599800 11.676800
23.788500 14.483300 13.463200
15.636000 32.105598 57.571400
20.503099 18.550900 22.852501
25.683701 33.202301 62.122501
37.981300 41.153900 22.775499
35.421200 23.067400 18.086100
14.586200 31.010599 33.626999
26.263599 32.961300 6.287920
30.680700 33.088402 10.649700
25.950100 19.775600 10.976100
34.085800 46.923100 16.008900
23.346201 18.493900 8.075040
7.277020 25.052299 44.371799
3.777960 14.947400 35.668499
12.732800 34.756599 20.311001
18.089800 3.818500 17.281500
32.870602 36.581699 40.752602
16.119699 32.120899 57.243698
23.670900 18.768499 52.177601
28.291901 26.970301 60.602402
8.624380 23.538200 22.506201
13.077800 31.947500 9.761200
15.764000 20.875401 10.928000
27.391001 39.256100 44.223999
17.059299 34.827801 11.317600
32.170399 37.942501 32.455601
35.512299 37.434200 16.108299
27.666100 12.905800 28.998400
16.899599 6.048510 42.500999
35.768902 9.892010 36.678101
26.921000 20.251301 54.442402
15.590500 35.192402 5.357680
18.880400 15.857000 8.420020
37.006901 16.632900 48.161800
32.674000 20.128901 9.151460
19.874300 35.143299 51.779301
26.927000 14.509000 21.173500
15.013200 29.531500 42.369202
2.543090 39.777699 29.767599
23.443300 27.332399 36.850300
43.436100 29.161900 21.379601
15.934500 8.561720 34.509800
25.662701 11.131500 47.668499
6.719040 44.018398 15.323000
13.957700 21.894400 60.451900
29.131901 34.186501 16.151400
2.707100 38.759602 29.803101
32.715801 7.682540 20.414101
0.448907 33.539200 30.076099
17.163700 9.392040 14.290300
28.299999 36.015499 15.032400
29.768801 40.586700 39.547001
20.915501 24.113199 28.699301
40.527500 33.576900 37.984100
38.430199 32.793301 43.764900
38.792599 37.357899 15.655000
23.781799 13.589400 13.038400
26.792299 39.007801 35.014702
32.939499 30.680700 7.600720
39.185902 41.152500 36.909199
9.790380 12.962200 27.564400
27.761200 15.083000 10.092500
35.042900 34.607300 15.675300
20.238899 35.336800 36.547901
1.826260 33.514599 23.914900
38.949299 20.997900 11.456500
42.026402 21.375700 38.251900
17.929600 25.755400 6.153980
22.073601 17.470200 57.560600
7.389630 30.959499 18.731100
34.163300 28.992100 41.563900
32.862499 30.770100 1.938690
36.140400 7.612000 24.501801
5.991900 28.162001 11.256200
22.898899 33.881599 55.570400
38.014900 13.313500 42.001801
24.051300 55.151901 21.511700
6.091310 16.056400 22.018000
15.046000 6.199790 35.239201
15.736300 36.994900 21.831800
20.099400 6.653300 20.859400
40.915699 24.662399 48.385700
27.457199 35.212799 35.578800
11.287000 22.182899 6.109250
36.760502 31.744600 46.634300
19.115299 15.861500 8.456000
32.932999 44.207699 23.912300
13.782100 8.841700 38.830002
41.180901 25.175900 51.112202
43.649502 29.980801 32.372398
24.064100 15.606600 18.728500
17.375900 22.528799 58.235401
8.499110 25.335600 32.997601
7.578000 26.806101 23.847300
25.221701 15.744300 53.997200
15.891600 5.063580 17.244801
36.763100 22.802099 10.742300
17.702900 7.536860 18.573999
8.634250 24.810400 47.222301
15.227100 41.856998 19.624901
19.260799 7.163120 12.885700
38.071999 26.886299 46.014198
36.870701 36.420601 38.714699
38.952202 15.941000 45.820702
16.005899 7.368530 38.117699
37.422501 26.869699 28.962999
39.988400 12.452700 38.642799
25.450300 9.540810 42.260300
39.264702 15.939400 44.644600
27.368099 4.403200 32.091202
17.919600 12.797700 11.498700
40.017601 45.379700 19.156601
21.532900 10.574600 27.115601
29.510799 22.480400 56.985500
7.917050 39.009899 28.063900
17.768200 43.705502 33.944500
23.154800 14.277100 41.150101
37.287701 31.765600 17.945101
15.841000 40.337299 26.880699
10.040500 18.165701 32.946899
11.882200 39.743000 34.276299
4.903040 38.366199 31.493700
28.806801 29.975901 12.195300
31.308201 26.205799 3.990340
4.443850 15.039300 21.393700
41.151402 28.378599 9.483700
15.101400 34.832500 19.125999
24.031500 20.470400 20.187099
28.719299 33.533699 9.526970
23.871500 31.430401 8.012260
36.996300 42.320099 39.745399
8.948500 33.824299 44.516701
11.388200 12.297500 20.265301
8.998080 29.704399 31.109800
38.839001 37.237499 47.363701
39.136700 30.226000 11.494400
11.033600 20.698799 45.828899
6.819650 24.287100 39.711201
8.005160 8.620930 25.116800
17.983801 21.459400 48.633499
8.192520 33.839600 49.052799
25.546400 4.967400 41.654099
29.117901 34.905899 50.906601
35.594299 35.713799 26.265200
10.970000 38.112000 52.898998
46.408501 24.743900 23.586300
23.264799 6.440150 31.818199
5.023650 35.117401 40.813599
5.239080 33.934502 31.188999
6.073930 21.573400 11.544300
25.398899 40.995899 9.637460
12.803500 42.434502 45.890701
13.249000 38.817799 19.915400
18.149900 7.734220 44.035400
11.270900 33.207401 37.275902
15.925700 9.201140 15.017100
21.587500 16.580000 29.169500
36.877899 14.900000 42.362202
34.949600 40.842602 44.615101
14.473200 36.872101 47.046501
24.640301 31.258900 33.531399
17.931000 46.878502 14.950200
15.973100 5.002130 23.875700
12.879600 35.681999 15.523400
25.549200 29.097900 45.222801
18.485701 22.904200 61.051701
20.917500 8.241440 35.141800
25.858801 26.948799 5.570290
26.581301 33.579102 3.113630
16.270399 24.650900 58.415901
10.473000 17.634001 53.452702
32.841499 7.576900 19.527100
42.754200 23.995300 50.052200
24.552900 29.996401 20.062300
37.072601 30.258499 45.097698
7.432910 28.625200 30.920900
14.685900 19.147499 56.541500
19.774401 6.667970 32.692902
23.177700 51.839199 18.850800
38.032200 28.135201 47.005100
20.149000 38.659302 34.972900
23.750601 14.195300 17.399500
27.009701 10.025000 22.173500
40.808102 24.449499 47.787102
35.378201 26.128401 4.940440
37.446098 27.007401 38.744598
32.089500 40.051998 45.324699
38.850700 44.504299 38.989700
23.087400 12.211900 46.497898
43.733398 24.839300 31.134399
23.376400 11.235200 33.399300
30.985600 34.870701 8.384460
34.386902 15.205700 12.665100
25.088301 25.250799 16.219400
5.571590 26.395599 21.886700
13.529900 20.254299 47.618000
16.750500 40.102001 12.170200
18.906700 11.351600 17.800400
14.405800 8.677260 15.976000
15.815600 46.128899 38.945202
30.540100 8.989060 30.335699
19.421801 35.282299 51.122398
5.595500 12.753600 22.432600
36.338501 6.863290 34.916500
16.023500 38.251701 56.007301
12.687100 18.135799 45.012699
28.696800 36.444401 40.009399
32.111500 37.022800 40.530899
19.898701 34.555801 1.570980
33.034401 3.491510 30.483500
20.493700 19.655100 48.965500
33.215698 18.065201 41.576199
25.320400 12.104500 26.363199
36.993301 20.542299 54.011501
3.260510 23.912001 31.126301
13.319800 15.307000 53.823200
12.596600 23.162201 12.213100
9.997260 42.565102 13.980900
5.992420 22.036800 11.802000
24.416500 27.601299 50.518200
23.436199 23.270800 30.844700
7.157110 30.310499 30.810499
26.202600 38.482498 41.784901
32.496601 6.744030 20.132799
14.862800 17.069099 53.035702
1.565660 35.500301 29.626699
26.515200 25.811800 2.619740
19.485701 10.830700 30.530500
27.601299 23.803699 56.355598
19.943600 39.836601 15.925900
30.253201 22.869301 2.991780
6.026070 13.949800 17.325899
20.079800 15.997800 26.599001
9.317720 32.134300 31.340401
42.183300 31.106701 16.017900
2.968460 23.743099 30.973400
19.206699 39.001801 44.733200
7.993350 26.887199 32.663799
26.998600 25.456900 58.202999
32.467300 39.197601 44.442501
7.976470 10.953200 27.405500
9.719990 7.394470 34.915798
34.744701 36.755798 43.016602
26.918400 17.951000 47.680401
18.817900 28.025200 23.342300
24.128000 8.344510 21.669800
35.856400 22.955799 20.018000
15.188600 12.628000 49.944199
23.909401 21.374901 33.561100
1.205340 34.017399 26.562700
22.235901 36.142101 11.663500
20.483700 16.260500 20.044399
42.059299 29.057800 20.113400
28.938601 24.259899 59.767101
43.286201 22.001301 17.164301
11.234300 35.343800 48.793400
16.529400 32.139301 33.797501
22.990299 30.106899 27.368999
37.869801 24.906900 8.889060
26.195999 16.367300 49.946602
35.909599 44.349998 18.830999
19.203800 17.364401 54.740299
35.176498 36.861900 32.150101
30.117201 13.948900 47.832600
9.678050 41.976002 14.024900
18.089701 24.605801 4.741570
20.600700 4.594730 21.069599
18.870399 7.236740 13.496300
26.980000 28.389601 9.111640
11.992000 17.653799 17.417900
6.069280 26.029499 22.412399
33.612499 7.892490 33.837399
9.065610 10.528600 24.878700
9.341250 43.404900 10.188900
3.983060 15.114500 37.370098
36.668701 21.274401 25.570801
6.037830 35.332500 28.764799
37.228298 31.039101 4.592890
35.393501 7.132090 33.521000
23.858000 17.570299 40.304600
30.497601 7.140380 18.264200
23.012100 20.566500 44.051701
5.181640 22.497200 49.556999
21.021601 7.199130 25.112499
24.871201 11.048100 38.801800
13.658400 23.171801 12.609100
15.261900 13.388300 47.987000
21.224100 17.191401 9.597910
11.001600 18.212601 14.577300
6.849620 20.552700 16.512300
22.595900 29.014000 18.462500
32.061100 39.691502 45.237701
27.593000 15.958800 7.891530
13.568000 31.185101 19.377800
14.184400 31.850000 35.344898
27.974001 29.204300 10.306800
25.063499 41.665100 17.400200
20.838100 26.487000 60.899700
36.283600 15.997600 17.737900
40.000198 39.772099 39.046299
27.471201 7.615440 36.547001
20.797100 44.225201 17.983000
35.139099 13.974800 21.385500
23.121099 23.037901 51.734501
28.026501 7.922090 26.037100
30.421301 30.253599 23.110701
4.244350 39.066799 24.388100
21.446501 37.404999 23.984600
29.865499 42.067001 5.926520
27.898899 31.463900 44.063900
24.153999 19.988199 29.851700
40.102100 35.339298 18.500500
32.855598 46.286900 15.614000
37.824501 25.106501 32.259201
26.560200 12.441400 8.899890
41.305901 38.747700 38.121399
29.741699 4.603430 16.770901
18.127800 27.723499 59.349701
36.005001 14.341200 40.950100
28.105700 2.942040 20.621599
28.877001 19.734100 14.618900
11.686400 32.135300 7.344600
19.026899 20.306801 44.325001
21.332001 16.466101 28.688700
16.831400 31.717699 36.373199
41.573700 25.943701 31.001400
24.123501 21.776199 6.529960
26.913200 34.051201 47.710201
43.400799 14.455200 29.279301
20.902399 20.292700 31.136600
21.292400 35.137402 47.073898
14.561000 28.769600 15.557700
9.272400 17.231800 49.930901
34.887299 43.667000 21.823000
16.068701 5.029590 24.311701
28.916300 48.172100 10.882200
34.240299 26.707500 4.157000
38.969799 30.823999 16.297001
41.806801 27.328899 40.171600
18.575100 25.813200 10.104500
22.749300 16.034300 32.954201
20.212099 36.372299 36.805302
28.413300 13.087600 50.762402
9.098950 31.902500 46.604401
38.343102 41.858299 11.116800
28.461500 7.919950 22.750601
26.999300 31.067801 51.948002
3.542520 34.898399 16.911699
17.312500 8.121820 23.244900
33.146400 12.294000 34.957401
15.472500 40.620998 46.915501
34.024700 37.639900 21.300200
23.503000 28.270500 45.347900
40.752399 32.134800 46.155201
22.470900 15.876800 37.314499
38.306301 12.723800 32.514301
18.629400 3.457740 21.211399
28.987801 14.329000 28.143000
6.329350 17.738100 28.831699
36.244499 39.837101 43.121799
6.010960 35.108002 38.703499
27.993299 13.810800 16.139400
34.890202 13.563500 44.286201
13.350800 43.687698 50.554798
23.139601 25.819201 56.226101
22.006800 19.455799 20.712999
39.850300 17.983400 12.368300
15.848400 39.897999 9.204560
15.898600 42.900700 5.942550
28.110399 33.173599 5.043500
7.403540 15.843700 43.238899
35.661598 11.365400 25.221001
19.396799 22.860600 56.612000
17.157301 34.436401 11.486300
24.370100 44.208900 12.028700
16.369400 44.536301 52.165501
27.582300 16.503401 56.925098
13.153400 36.476101 44.689701
20.089600 34.974499 46.794899
3.963010 27.469801 33.896599
23.414000 22.231199 32.819099
13.347300 38.454899 38.508400
23.771900 14.341700 47.958698
46.172798 35.603901 28.524900
23.700001 26.197201 57.127399
9.838560 14.307800 42.088001
39.645599 25.056299 36.505699
22.279100 4.702020 32.284401
39.652401 29.759001 41.800301
23.146200 15.210800 33.861599
16.882200 29.929701 57.527100
33.643501 9.795830 26.947500
24.919100 28.159700 36.139801
6.056930 37.198002 40.065601
22.804600 27.259899 37.005798
40.412102 28.101801 46.290199
3.830470 30.877501 41.314098
16.694401 34.269901 44.733002
22.034100 28.129299 36.049500
10.554900 13.403100 21.914200
23.791700 23.901100 35.485199
11.676500 5.962780 28.416599
18.657101 36.070202 15.407500
17.081400 7.155200 35.548000
29.881399 33.658199 25.541401
18.999399 25.842699 25.313700
16.932501 18.496099 6.025730
18.926701 6.232050 44.075199
21.134399 19.559900 25.721399
39.605499 17.052500 29.600000
7.146540 28.289499 46.423000
33.508801 39.109798 43.143299
20.928801 32.148201 17.689501
8.090840 14.031400 46.639702
46.825699 36.091801 25.949600
22.423599 6.803310 14.920200
14.868000 24.057199 58.045399
4.516600 33.912300 31.167000
22.075199 22.422001 8.067770
6.565780 29.473801 39.838100
32.240101 33.296902 57.866299
34.803398 19.673000 6.973180
12.688800 30.586800 5.573420
7.449680 33.509499 46.767899
12.288400 51.414299 16.024500
13.453900 11.173000 16.672001
7.840530 25.587999 41.334400
20.905701 39.160198 35.638199
13.196800 16.509701 46.134899
43.680099 29.836599 32.202301
28.030500 30.425100 39.916801
38.967999 37.010700 42.867500
9.893450 14.140200 29.028999
23.863501 10.930300 38.112099
13.716800 51.051300 12.666200
19.113899 9.690370 17.129400
17.264799 26.483400 14.569400
33.809200 39.951099 40.091099
22.572100 32.393200 50.453400
11.128500 23.182100 9.955100
30.891001 8.440480 37.944302
14.892300 23.475700 3.519200
6.966670 42.322899 16.767799
31.496799 20.997400 6.268100
43.586300 15.111800 30.106199
2.710620 28.846600 47.405201
26.411100 20.051701 7.818450
23.433901 34.022900 5.274570
25.281000 10.202800 43.509499
3.215880 15.254800 28.855400
20.385599 34.862598 56.512199
13.121400 31.923901 11.096100
33.888401 33.231400 25.170000
12.545700 24.546301 58.921001
37.016499 25.673901 28.195999
8.902700 34.786201 7.064420
14.083200 35.392101 48.204102
39.242001 48.796001 18.411200
10.033500 38.565498 54.384998
23.059900 27.769300 17.103001
30.895700 17.924999 54.918098
22.017900 10.058200 22.092800
6.056720 26.295500 36.419701
38.916302 24.893299 7.057020
24.242399 25.607300 50.377899
43.218800 24.118601 38.620098
4.889590 34.656601 40.594200
26.989300 28.977501 55.040901
21.007000 45.148499 36.634800
35.520302 26.404600 12.117600
21.221800 15.470500 24.353001
22.869301 36.540100 55.413700
21.695101 38.372101 47.720200
7.903400 11.302300 19.377600
30.386101 28.537100 43.285999
7.044730 18.798901 33.620399
13.917100 34.342999 7.217040
19.450300 16.173700 27.013000
22.227301 19.967199 55.003101
16.758101 24.417299 17.119801
23.360800 26.258499 15.804800
20.024300 8.393030 43.650600
6.434390 23.238800 10.107000
18.345600 31.611500 43.634602
29.664900 18.927200 52.595001
10.155600 21.702600 19.906799
12.278600 38.119701 40.970699
21.976500 10.972300 32.081799
23.272900 15.561200 45.652000
16.480600 34.641300 9.652280
4.616390 18.476801 28.115999
34.756001 34.304199 47.199299
41.634499 19.169001 45.034100
35.640202 11.392200 37.313900
35.453701 36.386501 31.574499
10.183200 26.200600 35.782700
12.772100 42.072899 43.741699
25.418301 11.900100 12.899500
22.498400 16.567400 36.736599
17.704901 28.074100 61.174999
27.245501 23.638700 2.639390
46.317101 30.134399 22.492399
8.701680 32.273300 35.342201
26.683300 12.233400 16.780500
12.393600 27.042999 27.023001
25.531500 11.902500 21.806000
41.814098 18.743200 23.177601
23.676100 16.651800 15.283400
41.180401 14.089800 25.151501
23.872101 22.978500 14.710700
11.029100 38.119801 54.801998
41.325901 28.597799 46.113499
29.341700 26.195801 40.729599
33.852600 10.229400 38.443600
24.834000 31.642799 3.823450
15.369200 36.504299 5.303170
21.178301 44.461800 13.091600
16.822800 29.731600 24.706499
31.054501 12.298600 51.405300
27.023300 49.630402 26.982100
35.544601 16.887300 29.955099
25.987101 9.934890 24.913700
24.097500 23.136299 15.253800
11.124600 29.825500 46.592201
16.504801 39.557499 52.516399
27.146900 37.870499 34.406101
18.489599 13.813400 42.664700
37.641701 19.541700 25.520700
4.380390 28.255100 49.568298
38.015800 14.680000 24.724701
35.779900 19.664900 39.012901
38.955898 25.610800 26.282499
7.169630 19.129400 23.277399
30.544001 15.679200 52.041000
29.986601 35.937901 18.939400
23.126400 34.784801 57.486401
17.528500 16.910101 6.270670
41.165699 17.192301 41.693501
23.792801 37.831902 18.895201
23.970900 21.566299 32.101601
24.247601 23.533501 5.566930
22.719900 19.167200 41.357601
17.171200 31.284901 3.026710
17.819599 11.773000 14.736000
38.274300 8.398750 18.797001
13.359100 28.127600 60.044899
14.981900 37.441799 17.231100
26.854401 15.615000 41.375198
26.775600 20.926500 16.356899
25.122000 35.813400 6.141390
38.256001 17.085199 27.970501
16.899599 29.319700 21.150000
21.595699 20.072100 52.494499
3.881830 24.817801 16.618900
10.194000 41.821899 13.948800
11.187600 43.473099 37.852001
17.973801 31.322701 16.298800
15.583200 37.518700 54.675598
20.910400 29.917801 4.173700
27.655800 11.598400 46.627899
9.563490 37.400600 33.400501
15.081400 22.342400 4.129510
19.590000 24.048599 7.065490
4.274420 36.113201 25.944300
26.161699 23.665899 14.076800
16.113800 15.132300 55.081699
5.328940 20.047100 46.413700
6.886430 24.749001 39.260899
22.860901 28.988001 18.764099
26.873301 29.856100 9.388680
38.453400 37.968300 27.455799
27.234400 39.118401 42.232800
37.160500 38.152901 34.339401
23.572901 12.308300 49.270302
21.042601 37.110901 53.645699
5.369970 26.656200 33.837399
34.939201 30.691000 25.555401
24.054001 22.674400 12.849800
38.467300 36.907799 11.662200
38.395802 44.121399 17.318800
10.619200 15.169100 38.212002
32.147999 36.955200 46.976898
