ply
format ascii 1.0
element vertex 866
property float x
property float y
property float z
property float nx
property float ny
property float nz
element face 0
property list uchar int vertex_index
end_header
-17.6361 13.5117 1.91306 0.920903 0.389641 0.0108614
-1.59515 11.3148 -7.57288 0.436443 -0.178059 0.881937
-5.645 -4.68289 -7.51879 0.102274 0.269332 0.957601
-3.55077 7.45399 -3.6027 0.93082 -0.365466 -0.00290488
-24.6945 21.1923 -1.83628 -0.358521 -0.932678 0.0396735
-7.05123 1.60936 -9.72616 -0.10694 0.0590105 -0.992513
7.89158 8.09128 -5.86045 0.691762 0.721213 0.0362967
-17.0118 10.7355 -9.72759 0.0596137 -0.107716 -0.992393
-14.215 12.5363 0.932418 -0.275791 0.961154 -0.0110449
8.92336 -12.8007 -8.87265 -0.376387 -0.912583 -0.159769
-23.8247 5.76804 -7.56262 0.00397062 -0.00214692 0.99999
-11.9666 11.536 4.82243 0.303491 -0.952827 -0.00368317
-30.7816 2.6686 -7.79266 -0.0379974 -0.969448 0.242337
-24.6682 21.844 8.37737 -0.750164 -0.658177 0.063694
-12.3389 22.2309 9.35515 -0.0305921 -0.0281627 0.999135
-0.731017 21.9869 -9.18718 -0.0593717 0.019212 -0.998051
-30.0799 13.4857 -9.72836 0.122317 -0.0431745 -0.991552
-19.8394 14.9028 6.53145 -0.998951 0.0437227 -0.0135861
-0.962088 23.3116 -6.74315 -0.000392437 -6.24261e-05 1
22.7117 -31.1849 -8.75317 0.745726 -0.648189 -0.15409
-6.81966 6.40459 -9.18674 -0.0788999 0.0392748 -0.996109
-17.1398 -2.11524 -8.18995 -0.359512 -0.932009 0.0459322
-6.891 29.611 -6.7432 -0.000568141 7.32536e-06 1
-9.45035 14.0632 -5.19965 -0.291487 0.934108 0.2061
-6.42888 34.4362 7.73033 0.132838 0.34957 -0.927445
2.52594 -5.33027 -9.194 -0.00510377 0.00936602 -0.999943
26.3848 -23.111 -9.17551 -0.00143229 -0.00104958 -0.999998
-22.3016 11.5305 -7.5721 -0.0538089 -0.0972604 0.993803
2.26021 -6.9969 -7.56333 0.0342583 0.0792471 0.996266
-13.0606 11.1927 3.89574 0.300812 -0.953683 0.000500934
-25.0593 1.63774 -9.74195 -0.17448 -0.315082 -0.932888
-21.9117 3.70798 -7.56369 0.000690777 -0.000535408 1
25.8562 -20.7979 -7.55636 -0.000434621 -0.000417328 1
22.1462 -24.7649 -7.55634 -0.00282781 0.000673243 0.999996
-21.3944 19.6414 -8.60764 -0.501289 0.292953 -0.814179
24.7068 -11.3248 -7.42657 -0.128407 -0.305348 0.943543
16.6049 -21.2645 -7.21811 0.332843 -0.0341882 0.942362
-5.23268 -0.629996 -7.5558 0.0221355 -0.00704304 0.99973
-17.7801 -1.42213 -9.74485 -0.1472 -0.369647 -0.917438
16.0713 -0.386921 -1.75584 0.790241 0.528656 0.309907
-20.6048 9.53506 -6.99446 0.0411436 -0.13152 0.990459
-19.5241 24.564 9.35849 0.0396539 -0.00704166 0.999189
-26.1518 20.4824 -9.77418 0.349242 0.69477 -0.628748
-9.24955 -2.39653 -7.17818 -0.217174 0.170337 0.961156
-27.6993 12.8846 -9.17615 0.000124112 0.00234893 -0.999997
-31.9305 4.21493 -10.1375 0.296854 -0.0929054 -0.950393
-15.0042 10.5801 9.79898 0.310357 -0.949768 0.0402349
8.93461 -12.7971 -7.59339 -0.361749 -0.855508 0.370465
10.9547 -13.7292 -8.08384 -0.488702 -0.86572 0.108161
29.1959 -9.82208 -7.8223 -0.0392371 0.979783 0.196178
1.83664 14.4114 6.4856 0.721595 0.69231 -0.00277414
34.4994 -18.0961 -9.85114 -0.151466 -0.988062 -0.028125
-2.41898 1.07149 -7.57314 0.00651154 -0.00558193 0.999963
31.5132 -24.2875 -8.43713 0.414198 -0.908737 -0.0513532
12.262 1.2212 -4.7331 -0.718913 -0.695081 -0.00505647
-7.16112 23.5866 7.76031 -0.485399 0.172975 -0.857011
-7.34162 1.63433 -7.04129 -0.216591 0.0940322 0.971723
27.8131 -14.8041 -7.62297 0.941896 -0.290931 0.167899
-19.782 14.7971 -9.50571 -0.250451 0.0425294 -0.967195
-2.73715 21.0549 -6.74253 -0.000281304 -0.000694788 1
-10.1697 12.11 -4.49613 0.305749 -0.951388 0.0371402
-18.9558 17.8892 -4.53508 0.942818 0.31941 0.0952439
-16.0223 30.182 10.1036 0.653558 -0.63669 0.409252
-33.9732 6.67392 -9.43511 -0.358167 -0.919315 -0.163024
15.3229 -27.597 -10.2543 -0.261643 0.479398 -0.837688
18.7377 -21.4405 -9.17963 -0.00478679 0.00124943 -0.999988
-19.9213 20.6583 -2.89503 0.953543 0.301252 -0.00160649
-9.06972 12.4745 1.91403 0.246501 -0.968524 0.0346293
27.1549 -13.7705 -10.2703 -0.406994 0.227159 -0.884734
-15.2326 6.99461 -7.56307 -0.00390455 -0.00111746 0.999992
-19.0959 22.5926 9.35211 0.00632495 0.017883 0.99982
26.0803 -23.5391 -7.5559 -0.0116392 0.0089735 0.999892
-10.7827 13.706 6.33473 -0.256979 0.923212 -0.285728
-12.9765 18.4499 -9.17787 3.16913e-05 0.000144078 -1
-12.717 13.002 3.53424 -0.304866 0.952395 0.000281673
-10.6748 35.0187 9.81831 -0.198126 0.980097 0.0124608
-21.5158 20.3385 -2.96187 -0.954914 -0.296866 0.00295387
-4.17614 10.1677 -6.76855 -0.900872 0.394115 0.181944
17.7769 -24.8237 -7.55914 0.00046401 -0.00950089 0.999955
-9.93469 -1.72206 -7.53514 -0.143413 0.0923803 0.985342
-20.7503 23.3304 -3.20988 0.955183 0.296014 0.000468737
-13.5473 -1.2917 -9.18539 0.0989375 0.235527 -0.966819
-5.92747 34.853 9.29373 0.282484 0.95912 -0.01711
7.46807 6.38184 5.27047 -0.264605 -0.744552 0.612884
-4.69899 0.631933 -7.56578 0.0328501 -0.0071847 0.999434
14.6799 -27.6735 -7.08528 -0.246595 0.348086 0.904449
-3.18811 12.633 -1.92506 -0.97458 0.224038 0.0011367
25.5958 -28.1217 -8.15198 0.617473 -0.779426 0.105939
16.2004 -17.6836 -7.2861 0.319155 0.119488 0.94014
0.88786 -4.10741 -7.56532 -0.00120631 0.0134816 0.999908
-10.8546 34.9715 8.43968 -0.206777 0.937116 -0.281171
16.7964 -2.24743 -2.0197 0.465058 -0.29043 0.836284
19.4619 -5.14354 -4.30476 0.415901 -0.358411 0.835804
-14.8159 0.793012 -9.17691 -0.000772309 -0.00150451 -0.999999
12.1651 -14.5062 -7.31311 -0.503632 -0.631829 0.589191
7.53093 7.83255 5.95611 0.660086 0.0550311 0.749172
-26.425 15.6238 -7.03213 -0.0305029 -0.252541 0.967105
-1.46248 24.6822 9.29832 -0.034524 -0.000846121 0.999404
-9.65405 17.3032 -9.17781 -0.00065689 -0.00313939 -0.999995
-4.48747 9.46123 4.65515 -0.962642 -0.135561 0.234402
-7.53289 28.4344 7.7117 -0.0170113 -0.0259705 -0.999518
-17.0357 19.6075 -9.17688 0.00181502 -8.56803e-05 -0.999998
-20.2373 16.2931 -6.61364 -0.941271 -0.31869 0.111559
-8.63469 7.20729 -7.564 0.000982788 -0.00215491 0.999997
-4.82624 31.9325 -9.17919 -0.0720687 -0.181703 -0.980709
-3.09085 13.04 3.04112 -0.999741 -0.0220984 -0.00549774
-24.0989 21.1777 3.33283 0.10057 -0.994878 0.0102171
14.3406 -15.8241 -9.74564 -0.0904537 -0.0616299 -0.993992
0.813785 28.7315 -9.74414 0.397167 0.148794 -0.905604
-20.2027 21.5896 -3.59576 0.954831 0.297141 0.00224246
-18.1606 10.9228 10.9938 -0.126953 -0.0979546 0.98706
26.2769 -9.99653 -7.83398 0.191224 0.967319 0.166516
9.24774 -12.9297 -7.90432 -0.367234 -0.917479 0.152876
-10.9433 34.963 10.7277 -0.170487 0.789788 0.58921
-24.5379 5.35047 -9.17831 -0.00280765 -0.00146608 -0.999995
-4.16584 10.2402 2.758 -0.916124 0.40078 -0.00958471
19.4971 -14.6634 -7.55779 0.00442793 -0.00236009 0.999987
-10.5321 15.6364 -9.17415 -0.0030843 0.00287802 -0.999991
-8.90503 33.5974 9.90515 -0.0391949 -0.886213 0.461617
-27.8924 19.3181 -8.99813 -0.157283 -0.987518 -0.0083792
-16.4026 7.76553 -7.55822 0.000659476 0.00538686 0.999985
26.0019 -26.2239 -7.04153 -0.163031 0.172607 0.971405
-24.7814 18.968 -7.55061 0.300372 0.0186521 0.95364
-7.51237 14.7781 3.12108 -0.36186 0.931859 0.0263681
-10.3261 2.12344 -9.18024 0.00215765 -0.000397021 -0.999998
-13.3631 32.2822 9.45338 0.329092 -0.665838 0.669596
5.18935 11.1335 -2.85869 0.758781 0.651333 -0.0041191
-18.3312 15.6975 -5.0618 0.940812 0.286698 0.18077
-10.2381 12.15 0.606168 0.316759 -0.948363 0.0164746
11.9889 -28.9634 -9.73714 -0.279608 0.0742136 -0.957242
25.0628 -9.51868 -7.31703 0.439741 0.736672 0.513753
14.9596 -29.1126 -10.2952 0.261037 -0.111234 -0.958899
-35.2748 7.01123 -6.72181 0.129678 -0.30444 0.943663
-5.9405 13.4259 6.67458 0.299953 -0.953954 -0.000905528
-20.6605 17.0346 0.96807 -0.946096 -0.323372 0.0182693
13.1697 -29.5725 -7.55081 0.043696 -0.0745664 0.996258
-11.2556 33.3368 -9.53308 -0.00419329 -0.300848 -0.953663
-19.4309 23.0872 7.62707 0.357325 0.10352 -0.928225
-2.07643 -5.75934 -9.18244 0.0446974 0.15554 -0.986818
-1.33999 24.6828 -6.74328 -0.000287338 0.000216305 1
-21.3362 19.7755 -5.0636 -0.955488 -0.295027 -0.0010462
-14.4891 12.4651 4.87291 -0.251111 0.966869 -0.0459084
-10.9313 14.3208 -6.31826 -0.152455 0.520406 0.8402
-11.4498 16.9321 -6.7458 -0.000240347 0.00542354 0.999985
12.2723 -28.5822 -9.7392 -0.100841 0.0548723 -0.993388
26.1021 -24.1074 -9.17859 -0.0288446 0.0344637 -0.99899
-20.569 17.2634 -2.23172 -0.952773 -0.300418 -0.0444217
-5.00312 8.32215 -9.38381 -0.290847 0.13083 -0.947783
-23.358 13.5673 -2.06295 -0.58324 -0.812287 0.00466926
-20.4437 27.0908 11.0332 -0.330071 0.308793 0.89202
-4.97726 -6.00098 -9.73169 0.0387436 0.0900308 -0.995185
29.62 -25.1737 -8.62847 0.539368 -0.836397 -0.0975844
-6.09197 15.1996 6.29186 -0.280109 0.92415 -0.259779
-29.5366 8.41438 -7.53757 -0.0695009 0.189957 0.979329
12.2271 3.39317 2.11131 0.741389 0.208463 0.637876
15.3757 -20.1234 -9.7381 -0.465938 -0.00739748 -0.884786
14.5418 -1.08449 -4.86202 -0.682316 -0.730894 -0.015467
7.8925 -12.2727 -9.62519 -0.25407 -0.63921 -0.725851
-11.3395 32.5391 -9.17368 0.063679 -0.1584 -0.985319
-2.3066 17.2409 10.6916 -0.575039 0.594406 0.562149
-11.7135 11.6352 10.7445 0.261613 -0.758475 0.596887
20.5423 -21.4655 -9.17977 -0.00573622 0.00137237 -0.999983
-7.06155 -6.24939 -9.06477 -0.33749 -0.891658 -0.301738
-17.0983 9.1945 -7.56502 0.0844855 -0.275955 0.95745
-3.06336 13.2575 9.33547 -0.984834 -0.173466 -0.00354418
7.498 -9.06313 -7.55547 0.0105274 0.0388858 0.999188
-1.7309 8.2156 -7.55643 -0.00304609 0.00470058 0.999984
-9.75606 9.8399 -9.18049 -0.00174245 -0.00051492 -0.999998
-18.9653 21.7029 9.36111 0.0728086 0.0221905 0.997099
35.0297 -18.0962 -10.9878 -0.211812 -0.411542 -0.886436
-4.92356 8.3925 -3.57432 -0.925635 0.37841 -0.00242183
19.9549 -4.44065 -4.57899 0.807676 0.452506 0.378019
5.02517 -0.208334 -9.20364 -0.00427361 0.00475717 -0.99998
20.7784 -33.3792 -8.34644 0.72327 -0.690525 0.00741446
17.0696 -35.2649 -7.44043 0.0619387 -0.863334 0.500818
-0.484682 2.23778 -9.18622 -0.00790037 -0.0134739 -0.999878
10.1464 -0.709607 -7.56238 -9.86224e-05 0.000182993 1
23.9751 -18.5045 -7.56424 -0.00326315 -0.00238954 0.999992
26.2836 -26.2611 -9.73014 -0.103345 0.0918544 -0.990395
7.42614 -6.4345 -9.18068 -5.65189e-05 -0.00372105 -0.999993
2.35177 23.9511 -9.04099 0.969705 -0.054284 -0.238172
15.7023 -27.2043 -10.1525 -0.220247 0.603266 -0.766525
-10.6665 5.42805 -9.18101 -0.000587786 -0.00305572 -0.999995
-17.8964 20.2335 -9.18046 0.0184781 -0.00407037 -0.999821
-3.55774 15.875 0.029337 -0.299591 0.954067 0.000851389
-1.64225 7.77233 -7.55971 -0.00296206 0.00494542 0.999983
-12.3068 13.8387 7.28063 -0.182648 0.558047 -0.809459
-10.8757 11.8795 5.33585 0.309092 -0.950875 -0.0172789
-16.9354 9.97584 -0.10341 0.279341 -0.960164 -0.00737398
7.55192 6.12229 0.371361 -0.715326 -0.698788 0.00200215
-23.6273 16.9304 -9.18217 0.0636033 0.104158 -0.992525
-18.8131 12.1383 10.9781 0.00425492 0.00140774 0.99999
-0.586046 0.104574 -7.56069 -0.00925004 0.00412305 0.999949
1.9078 12.0688 -9.51842 -0.253704 -0.23188 -0.939077
-12.677 34.5055 -7.41217 -0.353653 0.905709 0.233709
-13.465 11.6018 11.014 0.105274 -0.268628 0.957474
17.5979 -18.7804 -9.18276 0.081851 0.00868016 -0.996607
9.6262 5.43981 4.08079 0.587131 -0.0752823 0.805984
-7.09634 26.6682 -9.88415 0.40927 0.566963 -0.714878
-17.8165 4.5034 -7.56055 0.00487419 0.00112328 0.999987
-16.9642 20.6394 -9.17712 0.00624955 -0.00346035 -0.999974
-0.311578 13.978 -7.29 -0.030504 -0.857072 0.514293
27.2981 -14.9559 -6.69927 0.216549 -0.0164946 0.976132
9.44986 -13.0142 -9.15956 -0.346776 -0.858299 -0.378244
10.438 -6.45626 -9.19135 -0.0120905 -0.00303507 -0.999922
-13.2583 15.9856 -6.74028 -0.00995061 0.0194323 0.999762
-6.70451 -5.79103 -9.75314 -0.105804 -0.328717 -0.938483
-16.9588 11.6868 -9.60155 0.0989603 0.173568 -0.979837
-7.60124 25.1643 -9.5676 -0.707568 -0.625824 -0.328164
2.06481 11.8316 7.0099 -0.722531 -0.691297 -0.00753315
12.9273 -25.9479 -7.52319 -0.745674 0.557343 0.365155
17.1115 -1.47132 -8.64625 0.725233 0.68818 -0.021122
6.36955 9.68941 -5.90776 0.763657 0.645287 0.0208093
-7.99843 14.4938 -3.39706 -0.325672 0.945315 -0.017829
18.089 -4.8629 -4.44057 -0.595337 -0.773344 0.217973
-7.23263 24.4484 8.62818 -0.97865 -0.139244 -0.151178
-3.85438 32.0127 7.73007 -0.00676386 -0.0097268 -0.99993
-21.9355 20.6182 -7.55016 -0.974423 -0.0154338 0.224191
-20.2488 16.1894 -1.31077 -0.942019 -0.333692 -0.0353476
-6.88204 15.2069 6.8497 -0.280524 0.80581 -0.521514
-31.0333 9.91304 -9.23351 0.276204 -0.149107 -0.949462
11.6608 4.18954 -4.19396 0.725955 0.687717 -0.00596022
-24.7071 21.5313 3.65963 -0.548577 -0.83565 0.0274486
-10.4119 3.10372 -9.1778 0.000319072 -0.000812258 -1
11.5589 4.28647 -6.80913 0.727121 0.686473 0.00701284
15.9198 -25.7855 -9.17077 0.152605 -0.0753216 -0.985413
16.8094 -11.9807 -9.18536 -0.00965591 -0.0107284 -0.999896
-18.3027 15.532 4.44105 0.952212 0.305432 -0.00208178
-17.9839 21.3415 -6.64731 0.102653 0.0705587 0.992212
-4.39539 16.8767 -9.18088 -0.0851789 0.135119 -0.987161
-13.855 10.9431 -3.84904 0.299416 -0.954123 5.29336e-05
-24.4517 21.1546 1.02542 -0.223541 -0.971609 0.077497
-11.8056 29.9348 -9.17841 0.00421755 -0.0001894 -0.999991
-36.0416 2.76123 -7.15967 -0.43614 -0.782634 0.444146
17.4873 -4.18276 -6.92012 -0.718019 -0.613422 0.32888
-2.73852 16.132 0.345281 -0.302474 0.953158 -0.000298192
15.0947 -13.7262 -7.55477 0.0811517 0.0766888 0.993747
29.414 -25.3406 -7.46185 0.500664 -0.743269 0.443719
-4.76793 8.81631 2.16783 -0.980945 0.168981 0.0958738
-29.4112 17.26 -9.61312 0.873339 0.368544 -0.318519
11.0935 2.42339 -1.8805 -0.721163 -0.692764 -0.00169362
-3.46291 17.5574 7.66891 -0.0838446 0.2245 -0.97086
14.869 -14.7648 -7.452 0.26125 0.17101 0.950002
10.608 5.28902 -6.86506 0.718747 0.69526 -0.00407401
30.0661 -16.9339 -6.72599 -0.146346 0.307816 0.940123
31.1335 -12.9754 -7.09349 0.289755 0.210466 0.933673
-16.6939 1.63813 -9.17849 0.00311575 -0.000422425 -0.999995
-22.7262 25.0815 8.26483 -0.749351 0.662172 0.00100538
-3.17417 11.2148 -9.7146 -0.12736 0.0589823 -0.990101
-8.71326 12.5699 4.29576 0.261938 -0.96467 -0.0283019
-14.8823 10.6217 10.6261 0.264882 -0.837895 0.477252
-0.272836 20.2346 7.72786 -0.0172291 0.00976723 -0.999804
13.5013 -25.2189 -7.34439 -0.670027 0.505183 0.543924
-1.44891 19.3058 -6.74207 -0.00654387 0.0206009 0.999766
11.5582 1.95313 -3.39245 -0.719941 -0.694031 -0.00244232
-23.5356 21.7346 7.60344 0.393475 -0.919335 8.32291e-06
-4.26695 5.64492 -3.16487 0.666428 -0.707041 0.23657
-22.2179 25.6546 8.95747 -0.753323 0.65763 -0.00528988
-6.44476 13.3443 -0.924291 0.318297 -0.947282 0.0366495
17.233 -5.75553 -7.55763 -0.0422517 -0.0613838 0.99722
32.0463 -14.423 -9.58834 0.654502 0.114621 -0.747322
-15.8437 12.4416 -5.83738 0.0388024 0.864392 0.501319
10.8046 -9.31679 -9.17878 -0.00269223 -0.00339237 -0.999991
31.9166 -10.6105 -7.14131 0.448311 0.693619 0.563835
-22.8424 13.2521 -6.74766 -0.580925 -0.786297 0.210388
26.6062 -27.0093 -7.00702 0.315151 -0.421002 0.850551
-0.495029 14.2953 -9.6899 0.000332309 -0.215495 -0.976505
1.03988 29.3274 8.83606 0.881709 0.456778 -0.118079
-5.55271 13.5473 9.6722 0.294544 -0.955625 -0.00503006
26.3744 -13.3375 -7.53971 -0.285182 0.182423 0.940953
6.85142 -5.07729 -9.17787 0.00172859 -0.00363813 -0.999992
1.16001 1.65267 -7.56332 0.00238252 0.00859579 0.99996
-7.72394 12.8747 -0.486357 0.34461 -0.938575 0.0179378
-8.33785 21.2756 -9.6755 0.0549713 -0.656209 -0.752574
24.5636 -25.7486 -9.17935 -0.11073 0.124003 -0.986084
23.6192 -16.7098 -9.18052 0.00413077 0.00114058 -0.999991
-12.3396 2.85143 -9.18102 0.00407163 0.00163753 -0.99999
-13.5419 17.0739 -9.17787 9.5095e-05 -0.000175204 -1
-5.28502 7.51565 -3.24959 -0.923821 0.382822 -0.0017558
-15.8202 14.8901 -6.73474 0.0546256 0.0200612 0.998305
9.87515 -0.923244 -9.18115 0.00102479 0.00224387 -0.999997
-2.98635 1.96609 -9.1806 -0.00500757 0.00674868 -0.999965
-1.69521 11.991 5.25854 0.923511 -0.383572 0.000392241
12.5566 3.25254 -1.8613 0.712488 0.701684 -0.00121441
-8.34185 25.5945 -9.97168 -0.145794 -0.762487 -0.630363
-23.8968 9.00663 -7.01656 -0.0644449 0.203866 0.976875
-17.2346 22.331 -9.19034 0.0091151 -0.00487426 -0.999947
12.6378 -12.4036 -9.19471 0.167361 0.217952 -0.961503
1.43643 12.4872 -2.79228 -0.711056 -0.703119 0.00487761
-29.4852 10.6696 -7.56075 0.0197261 -0.0155117 0.999685
-17.3691 15.2559 7.45938 0.479958 0.180357 -0.858552
29.6174 -9.84023 -8.75552 0.350434 0.821987 -0.448925
29.768 -23.2092 -7.41698 -0.169461 0.25633 0.951618
26.1441 -19.212 -9.17706 0.00160906 -0.00210575 -0.999996
-15.9348 8.1498 -7.56407 0.00061695 0.0103196 0.999947
-21.4411 20.1031 3.54668 -0.954127 -0.299388 -0.00291072
-19.9222 11.2187 -1.92348 -0.577387 -0.816468 -0.00223663
-36.2616 4.44774 -6.71861 0.226368 0.102011 0.968685
-6.36587 -6.53166 -8.72595 -0.3702 -0.918817 -0.136849
4.23108 9.55629 0.966126 -0.866658 -0.498866 -0.00604976
-15.7251 14.3913 7.67 0.0675072 0.0816853 -0.994369
13.9626 -0.52102 -5.14119 -0.700314 -0.713769 -0.00964384
-5.95456 10.1036 -7.566 0.017836 -0.00428505 0.999832
3.02157 10.9179 2.11491 -0.644587 -0.764512 -0.00533479
10.6688 5.24345 2.99234 0.797727 0.510719 0.32062
-14.9289 11.353 -9.7268 -0.00940034 0.00685363 -0.999932
-36.5935 4.0816 -6.71119 -0.343391 -0.19637 0.918434
-8.28196 32.1392 9.35007 0.00299595 -0.0467728 0.998901
-24.5127 23.0735 6.18909 -0.800126 0.599556 0.0181949
-16.5977 29.5466 9.87173 0.670173 -0.582274 0.460244
-23.3682 24.3598 8.96232 -0.740449 0.67195 -0.0148007
7.26804 8.51055 -2.16929 0.657084 0.753776 0.00782429
8.19971 7.78071 1.01884 0.678011 0.73504 0.00411907
-37.3185 6.28065 -7.80882 -0.940691 0.334371 0.0574158
20.3303 -10.263 -7.55814 -0.00287874 -0.00153804 0.999995
-21.4923 25.6813 -2.23629 0.620925 0.783858 -0.00440862
10.318 4.37186 3.38323 0.36206 -0.358312 0.860538
-14.7937 16.7885 9.32807 0.0136394 0.011952 0.999836
-0.57107 11.0085 -9.17655 0.0266758 -0.00746961 -0.999616
0.740717 13.2162 -5.66498 -0.676478 -0.735961 -0.0272001
3.13308 10.0133 -9.17986 -0.190449 -0.179476 -0.965152
36.538 -20.89 -11.0161 0.356941 -0.257275 -0.897999
-4.08568 16.3555 -9.29643 -0.137075 0.233726 -0.962592
33.8908 -14.6684 -9.73606 -0.129593 0.0982792 -0.986685
-10.3111 30.8661 -6.74242 -0.000337313 -0.000801347 1
-12.0267 13.2206 3.71707 -0.336863 0.941516 0.008451
-16.8679 6.44077 -9.18282 0.000103468 0.00775493 -0.99997
-11.0477 5.02432 -7.56341 0.000801966 0.000562227 1
34.0428 -16.498 -10.9545 -0.0395475 0.648911 -0.759836
21.3958 -31.4108 -6.99279 0.0271334 -0.0111662 0.999569
-14.186 31.8584 9.80742 0.526509 -0.763261 0.374461
-6.04001 27.8427 9.31154 0.0218555 0.0287977 0.999346
34.2382 -15.9169 -7.00901 -0.184769 0.18731 0.964767
-8.51142 18.7667 -9.1775 -0.00047585 -0.00113053 -0.999999
-10.324 13.6638 10.9133 -0.215876 0.725959 0.652979
5.04772 8.51129 2.84267 -0.737049 -0.674756 0.0382655
36.4987 -21.7802 -6.86188 0.522233 -0.571426 0.633044
-10.6238 16.4838 -9.1768 0.0008992 -0.00425271 -0.999991
-10.085 -3.40053 -7.02177 -0.0566205 0.205306 0.977059
-9.92385 26.2831 7.72789 0.021494 -0.0376819 -0.999059
-26.4301 1.6877 -8.60128 -0.359991 -0.928174 -0.0943414
6.41797 7.26497 -9.43179 -0.244674 -0.2521 -0.936259
-1.05955 13.4065 6.22085 0.735138 -0.677901 0.00466405
-21.0829 12.0235 0.652177 -0.572964 -0.81958 0.00129479
-10.7596 -3.82988 -9.74303 -0.0600746 -0.030205 -0.997737
-17.7777 25.1517 7.70378 -0.0172666 -0.00763021 -0.999822
18.3845 -5.14481 -6.43715 -0.71587 -0.69552 0.0614881
21.1729 -15.8331 -9.19827 0.00518312 -0.00795955 -0.999955
14.5817 -3.16413 -9.18205 -0.00859278 -0.00919806 -0.999921
-7.63714 33.4491 9.37304 -0.0738049 -0.581786 0.809987
-12.3636 3.68768 -7.55527 0.00171544 0.00149624 0.999997
-0.903731 30.675 7.7264 0.0944606 0.0882473 -0.99161
-24.8365 21.5027 1.4126 -0.712499 -0.697609 0.075408
-6.06737 27.2855 -9.19397 0.0219538 0.0355262 -0.999128
-5.0311 27.9329 -6.74296 -3.61392e-06 -0.0006402 1
15.6328 -35.1719 -7.66652 -0.160678 -0.932106 0.324594
12.3112 3.4841 -0.892212 0.714203 0.699934 -0.00249002
-8.3984 -2.65051 -9.73607 0.0718901 0.0122443 -0.997337
29.7974 -13.7264 -6.75312 -0.227308 -0.548372 0.804748
-15.1372 13.1557 9.35421 -0.0594188 0.097639 0.993447
16.7764 -28.4565 -7.1026 -0.0108585 -0.82974 0.558044
7.07597 6.2627 -9.22262 -0.231272 -0.217692 -0.948221
-13.3905 32.7733 7.73049 -0.00431275 0.01309 -0.999905
-6.32674 13.3059 8.01702 0.298351 -0.954456 -0.000524612
-7.05633 14.8735 -9.38681 -0.0974463 0.282396 -0.954336
-21.7458 26.2054 -7.00943 -0.724338 0.688331 0.0391702
-9.06272 12.3069 -9.35038 0.0752082 -0.288841 -0.954419
-21.6306 13.3078 10.956 -0.38032 0.147382 0.913036
-11.3705 13.4348 -1.4571 -0.329666 0.943278 0.0393274
-14.2534 25.2948 7.65643 0.00844845 -0.00296822 -0.99996
-16.1867 23.1525 -6.74317 -0.000521296 -0.000443615 1
-23.2417 13.498 -5.71594 -0.559655 -0.828513 -0.0187646
13.3733 -10.9638 -7.55665 0.00631395 0.00404088 0.999972
-10.427 34.421 -9.74835 -0.0278986 0.202587 -0.978867
13.3294 2.45294 -4.53539 0.720311 0.69365 -0.00148602
27.8067 -9.97338 -9.17618 -0.0928417 0.89859 -0.428855
-4.34067 18.9895 9.34943 -0.0113149 0.015032 0.999823
-19.0245 24.8799 9.35764 -8.29047e-05 0.00145308 0.999999
-13.4132 29.6123 -9.18592 -0.0181463 0.0128087 -0.999753
7.99809 -10.326 -9.22574 0.105441 0.266013 -0.958185
-6.42847 30.5858 7.67008 0.012631 0.0247446 -0.999614
9.5759 6.35872 -6.52287 0.722823 0.691031 0.00182557
-21.672 14.3995 2.10597 0.567683 0.823228 0.00563565
35.4259 -21.9689 -11.0145 0.168918 -0.362032 -0.916733
-11.4264 3.27239 -9.17845 0.00155419 0.00082906 -0.999998
-7.87152 30.1047 -6.74261 0.000518975 -0.000778475 1
25.2492 -18.9501 -9.17866 -0.00197633 0.00235916 -0.999995
30.2423 -16.9336 -10.2873 -0.139746 0.26085 -0.955211
2.64423 13.5719 -5.55613 0.719216 0.69478 -0.00306198
-33.769 4.01255 -10.1052 -0.360646 0.646648 -0.672146
15.8006 -0.10219 -9.37196 0.618023 0.638837 -0.458186
30.6701 -12.6844 -6.92248 0.165698 0.286803 0.943551
-12.5227 18.1057 -9.17787 -1.06267e-05 2.94277e-05 -1
-0.390672 26.9259 -6.74216 -0.000830209 -0.000374223 1
20.8802 -20.1959 -7.56001 0.000971078 0.00118637 0.999999
11.6419 -9.07101 -7.56304 -0.000184739 0.00119257 0.999999
12.5241 -12.8165 -7.20501 0.17481 0.244485 0.953765
-28.9665 19.2585 -10.266 0.29636 -0.455258 -0.83959
-29.8903 12.9277 -7.09378 0.300927 -0.153355 0.941236
34.8652 -18.1998 -9.42247 -0.421593 -0.906763 0.00637141
-26.7117 18.3358 -8.23631 -0.934148 -0.356455 0.0175331
-7.5633 -5.70803 -9.74817 -0.171052 -0.475068 -0.863164
-18.1263 9.63527 3.24438 -0.382058 -0.923903 0.0208779
-22.1667 23.3066 10.979 0.00267201 0.00673219 0.999974
1.77078 5.40596 -9.182 -0.00213208 0.00644831 -0.999977
-12.6624 11.3176 7.49414 0.300118 -0.953902 0.00014272
-18.6557 16.6153 2.62651 0.938271 0.345221 -0.0216919
-25.6326 4.06322 -7.55435 0.0627349 0.116932 0.991157
-17.0284 11.0112 10.9996 0.0334814 0.0295922 0.999001
-25.5201 19.2719 -10.1078 0.555552 0.181176 -0.811503
0.720777 -0.661765 -7.55485 0.00300731 -0.00329396 0.99999
0.633207 15.6632 9.17291 0.837819 0.545876 0.00881031
-19.8902 20.7732 6.30019 0.919229 0.283714 -0.272992
-19.8874 7.73028 -9.18089 0.0107448 -0.0712149 -0.997403
-22.4328 25.4085 4.35398 -0.679443 0.73355 -0.0161919
-20.2268 27.915 8.46384 -0.710034 0.659872 -0.245806
-20.8301 26.9075 -8.13685 -0.327471 0.318097 -0.889706
-2.69276 18.1397 -6.72624 -0.0513438 0.0991642 0.993746
-5.72078 25.8213 9.37355 0.231755 0.139519 0.962717
0.534669 23.6014 9.37128 -0.641134 0.0343455 0.76666
-15.2669 22.8523 -6.74306 0.000280416 -8.34915e-05 1
-29.1518 7.5118 -7.06301 -0.0731258 0.207521 0.975494
-12.5868 23.5991 7.71585 0.0206465 -0.00864139 -0.999749
-13.6587 1.39992 -7.562 -0.0037385 -0.0033212 0.999987
-24.2917 23.3276 -1.63134 -0.737174 0.6757 -0.00220742
26.3543 -25.5463 -9.58226 -0.208115 0.267669 -0.940766
16.3567 -0.562417 -5.32172 0.698307 0.714706 -0.0395208
-15.5887 12.3283 6.53459 -0.0826389 0.947197 -0.309819
19.6315 -33.3925 -6.98865 0.118976 -0.14403 0.982395
26.639 -13.9927 -10.1805 -0.564672 0.307085 -0.766058
-4.95891 13.741 -0.799517 0.218421 -0.975807 0.0096343
-3.45463 33.1604 11.0165 0.139084 0.153307 0.978342
35.1483 -22.5361 -10.9594 0.211989 -0.714602 -0.666637
-4.74821 13.8037 -5.89541 0.255679 -0.966705 -0.0104798
-13.6241 13.0025 -5.63519 -0.272772 0.880455 0.387808
35.7279 -19.2521 -6.86654 -0.69493 -0.108007 0.710919
-14.1781 10.8421 -5.52118 0.299694 -0.953933 -0.0139943
19.9519 -10.7258 -9.18103 0.00607145 0.00473968 -0.99997
-10.4921 1.5412 -9.18075 0.00227791 0.000554764 -0.999997
-4.50461 32.8262 -6.7453 0.00750647 0.0086527 0.999934
24.3592 -27.4631 -7.04114 -0.170238 0.234409 0.957116
-20.9434 18.5254 -5.87076 -0.953139 -0.302288 -0.0121474
-4.7696 34.4861 8.44927 0.316343 0.921873 -0.223781
1.18634 -8.32317 -9.72781 0.0809034 0.203979 -0.975627
-9.81506 35.1889 -7.7763 -0.106541 0.987939 0.112363
25.8524 -9.88152 -9.24902 0.27541 0.847012 -0.454664
-11.8385 33.1758 10.86 0.195337 -0.651268 0.733276
26.1796 -26.7086 -6.99156 0.0987232 -0.16118 0.981975
-14.0493 12.6709 5.90302 -0.30689 0.940286 -0.147242
-1.85622 30.083 -6.74349 -0.0105339 -0.00348536 0.999938
2.68079 11.2148 3.97159 -0.669877 -0.742455 0.00499332
3.32193 12.8674 5.95883 0.710984 0.703208 0.00036823
-19.6235 6.67875 -7.56168 0.00015166 0.00463931 0.999989
-13.8842 32.1767 10.9208 0.378353 -0.562773 0.734939
-1.94227 16.3818 1.25166 -0.302817 0.953048 0.00137427
-21.7115 20.97 -0.427593 -0.937893 -0.346922 -0.0012372
-14.2102 10.8293 7.96919 0.298448 -0.954425 -0.0010892
-10.9513 13.582 -4.32699 -0.31326 0.949596 -0.0116818
16.1061 -14.6513 -9.18152 0.02279 0.0094495 -0.999696
-7.60461 30.1416 -9.17741 -2.26616e-05 0.00408308 -0.999992
-20.0725 11.3271 -4.51585 -0.564786 -0.825219 -0.00552582
-3.15267 13.3591 -3.92886 -0.939996 -0.340403 -0.0231051
-1.10128 13.4426 8.52663 0.788052 -0.61545 -0.0139321
-9.19078 16.002 -9.17327 -0.00948071 0.0147991 -0.999846
-21.7836 23.3839 -7.87154 0.0111276 -0.028847 -0.999522
-0.066069 13.8447 3.62436 -0.231064 -0.972933 -0.0031703
-15.1725 27.8575 9.31318 0.0170365 -0.0201488 0.999652
-22.5298 14.9892 -3.70747 0.573478 0.819155 0.0103933
-17.8118 -1.85976 -9.11074 -0.348333 -0.89613 -0.274983
-23.1098 16.5474 -9.18158 0.069334 0.0781267 -0.99453
-6.09934 15.1711 -5.23828 -0.275617 0.945308 0.174435
-23.4625 11.4969 -9.17662 -0.00395131 0.00634525 -0.999972
-3.02559 29.9091 7.71782 0.0183523 0.0209356 -0.999612
-6.91304 32.2193 -6.74387 -0.000724044 -0.00104717 0.999999
33.4602 -18.3204 -8.23685 0.509348 -0.860544 0.00538774
-22.7186 25.0889 7.04294 -0.75046 0.660901 0.00448698
-27.8549 16.4019 -9.71492 -0.142928 0.913981 -0.37975
20.4315 -19.7142 -9.18093 0.000240135 -0.00497816 -0.999988
0.25738 2.96946 -9.21151 -0.00194609 -0.00993856 -0.999949
14.439 -2.14697 -7.57139 -0.161645 -0.152014 0.975071
-10.8796 2.05749 -9.1808 0.00170946 0.000588416 -0.999998
-0.494895 27.3438 9.34233 -0.28581 -0.0907053 0.953984
28.6851 -12.3462 -9.57744 -0.0363345 0.621946 -0.782216
-7.27071 34.6865 11.0736 0.0579556 0.391342 0.918419
-21.1565 24.7927 -5.32385 0.924983 0.288577 0.247245
-16.8032 28.3161 -8.37706 -0.421737 0.251835 -0.871043
15.8439 -19.7356 -6.99925 0.0473183 0.0105814 0.998824
7.88753 8.11534 -6.80175 0.715891 0.698048 0.0151069
-33.0095 4.77736 -10.245 -0.50746 0.194618 -0.83941
-8.9595 12.5082 -3.8082 0.264988 -0.96354 0.0370442
0.277669 30.7104 10.6998 0.698254 0.442819 0.562452
-26.8218 20.7132 -8.68418 -0.11852 0.990455 -0.0703636
-7.91843 12.8084 -3.02697 0.31392 -0.949405 0.00912396
1.76093 -6.27753 -7.56966 0.0121195 0.00236221 0.999924
5.2435 1.45559 -9.18151 -0.00777715 0.00799649 -0.999938
0.170909 -3.28962 -7.58848 0.00112557 0.00624807 0.99998
-8.02414 22.9148 -7.18597 -0.395396 0.75763 0.519287
21.9618 -8.92211 -7.32226 -0.280009 -0.382738 0.880401
11.3021 4.57104 -6.0138 0.728965 0.684549 0.00154858
15.8855 -13.2608 -7.55773 0.00149043 0.0112659 0.999935
-8.35036 14.3778 -4.05701 -0.307168 0.951608 0.00946384
-15.0282 27.9023 -9.20465 -0.0768531 0.0472453 -0.995922
30.5434 -18.4463 -7.58064 -0.242589 -0.266169 0.932901
-3.98405 33.3039 11.0134 -0.00926123 -0.0206894 0.999743
-3.33252 12.2643 -2.36455 -0.940733 0.338994 0.0101905
1.16067 24.8617 7.72876 0.0175968 -0.000185378 -0.999845
5.85585 10.2524 -6.59939 0.730873 0.682347 -0.0150609
-10.3014 13.7703 5.36423 -0.288134 0.957577 -0.00502974
-8.7927 12.5311 8.64539 0.2977 -0.954646 -0.00503734
35.2329 -14.7975 -9.08148 0.792305 0.509313 -0.335938
2.86868 13.3449 -1.91811 0.712316 0.701843 0.00467497
34.7138 -22.8815 -9.1093 0.373189 -0.925967 -0.0575775
-21.3168 8.10717 -9.21245 0.0704077 -0.230006 -0.970639
-17.94 5.08108 -7.56248 0.00506793 -0.00110105 0.999987
22.7882 -11.2704 -7.55328 -0.0632584 -0.0719618 0.995399
-4.23802 30.0445 -9.17254 0.000665078 -0.000325449 -1
23.174 -7.77868 -7.98368 0.721871 0.688655 0.0682382
-5.65483 -6.83092 -7.83153 -0.374516 -0.902333 0.213386
8.83036 0.011244 -7.5641 -0.00320426 -0.00323099 0.99999
-3.59309 4.06983 -7.55938 0.0649877 -0.0219799 0.997644
-6.03633 22.5134 7.72977 -0.00521296 0.0109379 -0.999927
-20.5447 22.6758 -0.642929 0.954144 0.299346 0.000637447
-11.1496 13.6098 3.58761 -0.36596 0.930019 0.0337393
-17.533 14.0012 6.91861 0.807395 0.290438 -0.513575
-16.7711 10.0309 -3.27687 0.312076 -0.950056 0.00132691
12.1509 -2.57009 -9.17794 -3.90289e-05 -0.000337195 -1
-1.40959 16.5496 0.421844 -0.308111 0.951349 0.00158431
16.5963 -8.854 -9.18096 -0.000103478 0.00256206 -0.999997
-14.2605 -3.29693 -8.40739 -0.371423 -0.928365 -0.0135344
18.05 -31.1985 -6.71681 -0.167263 0.1509 0.974296
8.82865 4.77782 3.02134 -0.685651 -0.726047 0.0523281
-2.90346 27.6067 -6.74187 -0.000698098 0.000413866 1
-17.3355 14.6162 9.36114 0.291893 0.0672715 0.954082
11.8423 -8.64654 -7.55938 -0.000611525 -5.89269e-06 1
24.93 -28.6829 -7.97933 0.691483 -0.709957 0.133465
-0.927813 12.3487 -9.20398 0.202428 -0.0804113 -0.97599
-17.897 16.3537 -9.18147 0.18586 0.0605967 -0.980706
10.9891 2.53306 -0.340773 -0.723353 -0.690365 -0.0125015
16.0208 -7.52188 -9.18106 0.000285827 0.000762412 -1
-26.2991 12.9326 -9.17668 -0.00148 0.00147122 -0.999998
-10.0645 26.5142 -6.74323 0.00644489 -0.00300386 0.999975
-13.1592 18.2601 -6.74321 0.000220764 -0.000806227 1
17.6717 -21.8398 -7.55454 0.0690363 -0.00926969 0.997571
-14.2821 25.2139 9.27971 -0.00908826 0.00799532 0.999927
-9.41294 16.8646 9.34122 -0.0154687 0.01664 0.999742
-10.5459 6.53149 -7.56283 0.00146702 -0.00104223 0.999998
-2.88391 33.1564 11.0692 0.271325 0.384614 0.882301
25.6545 -22.7534 -9.18079 -0.000109145 -0.00300426 -0.999995
4.0777 9.50421 -9.25468 -0.250061 -0.221908 -0.942458
-6.63325 27.7845 -9.19018 0.00493157 0.014433 -0.999884
-18.4255 18.4918 7.41655 0.576163 0.167988 -0.799885
-11.0235 17.7463 9.28678 -0.00134147 0.0236652 0.999719
-22.5452 25.2793 -5.11803 -0.73363 0.679521 0.00619584
-16.3906 31.9807 -6.88249 -0.551358 0.520906 0.65166
8.09639 7.87736 -4.81153 0.677657 0.735309 0.0100635
-19.8881 14.3254 -2.61662 -0.893913 0.446786 -0.036077
4.10463 12.1046 5.56072 0.679149 0.733719 0.0203413
-15.6701 11.6316 11.0171 -0.112271 0.390711 0.913641
27.1479 -10.0576 -9.23272 -0.000646292 0.910217 -0.414132
-16.8091 19.1259 -6.71986 0.0981707 0.0210808 0.994946
-3.61541 13.9995 -1.46849 -0.413281 -0.910441 -0.0172175
9.57486 4.01239 2.21872 -0.695467 -0.71772 0.0346833
-22.7971 1.90807 -7.20889 0.123938 0.330692 0.935565
-19.5809 26.152 -7.91058 -0.0984957 0.0437491 -0.994175
-30.0403 8.84791 -7.55878 -0.0141265 0.0550211 0.998385
30.2758 -24.8328 -7.58401 0.366783 -0.782351 0.503386
5.85635 -1.01129 -7.57495 -2.52662e-05 0.0115563 0.999933
34.4358 -21.0057 -10.6873 -0.0912778 0.797247 -0.596712
3.68515 10.5305 -0.700789 -0.693962 -0.719973 0.00742553
-15.9432 5.41204 -7.58248 -0.00501153 -0.000349895 0.999987
8.27801 -7.87156 -7.56024 -0.00182172 0.0039238 0.999991
-14.9316 26.9213 9.28223 0.00986674 -0.0179634 0.99979
-21.2566 22.1987 11.019 0.148231 -0.0133837 0.988862
2.06818 11.8297 -0.591117 -0.708511 -0.705698 -0.00148953
6.2211 9.63165 3.49839 0.749546 0.651731 -0.115878
-11.0272 9.40082 -7.56048 -0.00368651 0.00482781 0.999982
-19.4121 0.614793 -9.40719 0.122648 0.331691 -0.935382
-1.97557 11.3703 -5.61026 0.923699 -0.383118 -0.00118026
-5.16534 31.7634 7.7289 0.00612101 0.00799418 -0.999949
2.54908 13.6722 1.53173 0.722912 0.690934 -0.00302732
25.4216 -24.109 -9.17757 -0.00405159 0.00648362 -0.999971
19.9016 -12.5103 -9.18047 0.00644234 -0.00463447 -0.999969
-13.5174 -3.60079 -8.0583 -0.382023 -0.915875 0.123412
-13.1369 30.6783 7.72131 -0.019794 0.0212008 -0.999579
2.02388 21.6236 10.0104 0.954901 -0.273804 0.11487
29.2116 -10.9758 -7.00495 -0.0150086 -0.111658 0.993633
11.6343 -28.0345 -8.09912 -0.940433 0.336454 0.0488265
-20.4033 16.803 8.06271 -0.953772 -0.300531 -0.00105154
17.401 -27.4835 -10.2939 0.111599 0.355823 -0.927866
17.7203 -26.0006 -9.18629 0.0398916 0.142493 -0.988992
-17.0886 26.7305 -6.74335 0.00172751 -0.00140135 0.999998
10.7738 2.76068 -1.68365 -0.723299 -0.690531 -0.00229999
4.55979 7.42114 -9.17896 -0.022632 -0.0308929 -0.999266
21.4187 -32.3805 -9.69502 0.506936 -0.401464 -0.762786
-19.6363 15.4579 11.029 -0.412988 -0.11162 0.903871
10.9349 -10.3083 -7.55309 0.00814894 0.0323111 0.999445
-5.80097 27.9913 -6.7432 0.000234331 -0.000554403 1
8.75671 7.21123 -3.05377 0.712764 0.701402 0.00139303
-17.6269 6.21062 -7.55946 0.00738578 -0.000957179 0.999972
-19.332 10.845 10.8449 -0.484615 -0.627368 0.609555
16.3318 -18.9435 -7.08369 0.329096 0.0545139 0.942722
-16.5329 16.1141 7.70109 0.0935879 0.0584663 -0.993893
-1.56322 9.82944 -9.17954 0.100824 -0.0323012 -0.99438
-0.847565 -3.35046 -9.20365 -0.0123513 0.00687102 -0.9999
-27.2687 13.7687 -9.18264 0.016936 -0.0556543 -0.998306
-20.3363 16.5856 9.76226 -0.955596 -0.293632 0.0248177
11.3097 -29.7382 -8.68993 -0.995231 0.0141745 -0.0965139
18.4788 -7.42865 -9.17519 -0.00864341 -0.0129723 -0.999878
-15.1877 -2.9061 -9.36134 -0.335051 -0.761833 -0.554393
-31.0891 8.65724 -9.17851 0.190842 -0.0501907 -0.980337
-9.18262 12.82 11.0214 0.116524 -0.41139 0.90398
-30.2957 4.14476 -9.72247 0.0433699 0.0317918 -0.998553
-17.8389 0.26701 -9.2112 0.108937 0.274946 -0.955268
-13.3644 -3.67125 -9.0264 -0.359682 -0.893757 -0.268006
18.9952 -14.5956 -9.17905 -0.00355337 0.000941747 -0.999993
26.4945 -21.6481 -9.18095 0.00256093 0.000224362 -0.999997
-18.0602 19.1643 7.64884 0.292437 0.0987808 -0.951169
22.0319 -29.5947 -9.62481 -0.250861 0.207131 -0.945603
-10.4929 -3.7012 -6.98032 -0.0289193 0.109574 0.993558
-10.3217 15.8977 9.34824 0.00355868 0.0150976 0.99988
28.2979 -25.0772 -9.7424 0.0916775 -0.0629537 -0.993797
-31.0135 17.3291 -9.81145 -0.90938 -0.158012 -0.384785
-23.7758 19.3252 -7.54193 0.0796347 0.397168 0.914284
-1.3615 21.9302 9.31227 -0.0203474 0.00935781 0.999749
-4.46088 21.9627 7.68318 -0.0215226 0.0208842 -0.99955
31.4531 -12.4754 -8.39464 0.447881 0.72194 -0.527451
-3.32615 12.3002 3.61608 -0.946955 0.321251 0.00865492
17.769 -28.8717 -8.67497 -0.740154 -0.672413 0.00578103
1.30119 27.0099 7.73695 0.306329 0.116966 -0.944712
-7.64965 14.658 -0.380447 -0.361392 0.931739 -0.0354722
30.421 -18.9644 -9.15995 -0.281641 -0.0221895 -0.959263
-12.3468 34.6741 -8.18989 -0.396782 0.908628 -0.130225
-27.9764 13.9551 -9.18625 0.0549166 -0.163741 -0.984974
-1.39123 16.5546 1.71007 -0.31 0.950735 0.00166316
12.1507 -32.7526 -7.5116 -0.763262 -0.494853 0.415394
0.382744 16.2241 4.88117 0.919457 0.390587 0.045178
-35.4444 4.1444 -9.2285 0.596967 0.796034 -0.0997991
4.01276 10.0748 -2.31221 -0.781752 -0.62348 -0.0117159
-21.6786 12.4175 9.98031 -0.587509 -0.801415 0.112106
-15.1386 23.9533 -9.17836 0.00782602 -0.00278637 -0.999965
-13.6311 -1.94491 -7.11793 0.129828 0.324415 0.936963
23.9372 -8.63563 -9.56689 0.524769 0.508668 -0.682549
-26.6158 11.7938 -9.18106 -0.000652646 0.0037774 -0.999993
-21.4267 1.99221 -7.55853 0.106734 0.239818 0.964933
-17.6743 28.3512 10.0639 0.66444 -0.619615 0.417847
0.783625 27.627 11.0037 -0.215881 -0.0860591 0.97262
-15.4854 7.92499 -7.56555 -6.20497e-05 0.00937408 0.999956
0.342759 16.1294 -7.26383 0.947332 0.319575 -0.0208174
-19.0521 21.8839 -9.16243 -0.249499 0.149054 -0.956835
-20.7604 24.0325 9.38528 0.686424 0.0116743 0.727108
7.98238 7.97952 1.46045 0.649262 0.760554 0.00400959
-6.20872 14.4641 -9.68818 -0.0523788 0.138252 -0.989011
-11.7543 8.03311 -9.17834 -0.00192723 0.00224521 -0.999996
-19.6374 11.4072 -9.71763 -0.0788206 -0.00330072 -0.996883
23.5748 -9.55951 -9.73995 -0.0192586 -0.0518447 -0.998469
-30.1338 6.57517 -7.00367 0.0372384 0.029825 0.998861
-3.70376 5.99703 -9.21213 0.261896 -0.0931653 -0.960589
31.5748 -13.2517 -7.49068 0.267166 0.105128 0.957899
-4.72974 27.7555 -9.17693 0.00078191 0.00287992 -0.999996
19.0829 -25.9222 -7.56259 0.00153971 0.0103262 0.999945
-6.69552 22.4675 7.73022 -0.0201077 0.025405 -0.999475
-20.3668 0.729094 -7.07447 0.1319 0.34144 0.930602
-9.41253 2.81298 -7.56318 0.00157141 0.00253277 0.999996
-9.01735 14.1905 -5.01426 -0.296799 0.94847 0.110973
34.9263 -14.2667 -8.36602 0.831531 0.550295 -0.0757015
-6.33586 28.1547 -9.17915 0.0055087 0.00509607 -0.999972
-17.1576 28.9226 7.72898 0.00809034 -0.00175702 -0.999966
-12.5827 2.22924 -7.55923 0.00394578 3.44982e-05 0.999992
-12.1004 13.1964 -3.47366 -0.32247 0.946578 -0.00197879
-20.2636 21.7793 3.68053 0.953344 0.301887 0.00049905
-5.0328 22.7063 9.34474 0.0627711 -0.0379915 0.997305
-9.2889 -5.1531 -9.6909 -0.234438 -0.555392 -0.797859
1.6118 -3.28315 -9.21351 0.0112862 -0.0120362 -0.999864
18.8706 -5.65611 -6.13381 -0.725237 -0.688126 -0.0226733
-14.7912 27.2745 -6.74327 -0.000366614 -0.00114751 0.999999
-1.50145 30.1334 7.72978 0.00168278 0.000283007 -0.999999
-2.24656 16.3304 -4.95342 -0.299524 0.944747 0.133188
12.9485 -27.8607 -9.71853 0.16113 -0.0871532 -0.983077
26.6946 -14.7854 -10.2847 -0.417243 0.108855 -0.902252
-12.3901 33.0189 10.9793 0.262124 -0.618676 0.740629
-20.7569 23.3542 -2.38993 0.956084 0.293093 -0.00037617
-3.98819 7.56024 2.03821 0.0652383 -0.927417 0.368295
-4.53415 26.6021 -6.74305 -0.000465655 1.8199e-05 1
9.62535 3.97489 1.65167 -0.71854 -0.69526 -0.0177226
-15.1367 3.31532 -9.17986 0.00136088 -0.000726266 -0.999999
-14.3684 5.24102 -7.55861 -0.00305658 0.00483291 0.999984
7.18936 8.5509 2.21606 0.644224 0.764823 0.00455956
-27.5924 19.2145 -9.6294 -0.307981 -0.879479 -0.362855
32.0874 -14.1087 -9.20664 0.433498 0.196345 -0.879504
-8.49095 25.7536 7.78644 -0.0499291 -0.580477 -0.812744
-21.3781 19.9086 -4.21704 -0.955628 -0.294574 -0.00130221
-36.6457 5.5725 -10.3033 0.0496593 -0.0166316 -0.998628
-21.3273 19.7482 9.02534 -0.954227 -0.299008 -0.00679468
-30.5392 8.85241 -7.55569 0.0839303 0.00125132 0.996471
-20.2572 27.6421 -6.76734 -0.43186 0.466818 0.771737
-16.6899 10.5349 11.0155 0.130351 -0.384085 0.91405
-22.4551 25.3942 -2.39142 -0.677453 0.735563 -0.00216274
-22.8219 24.9742 -4.04234 -0.740423 0.672061 -0.0104198
-10.3501 -2.01263 -7.55079 -0.026124 0.119343 0.992509
9.55304 6.38636 3.05276 0.7267 0.686769 0.0159812
-32.9127 10.2395 -9.12815 -0.826419 0.424712 -0.369663
0.701401 13.2514 8.81074 -0.696906 -0.717057 -0.0122963
-31.0592 17.8935 -7.94668 -0.993735 -0.0128108 0.111023
-4.27049 9.98438 -0.809304 -0.92117 0.389161 -0.000432206
18.4029 -21.7676 -9.17512 -0.00144032 -0.000310625 -0.999999
-12.313 15.4623 -9.17439 0.00116671 0.000923156 -0.999999
20.913 -29.8054 -7.5594 -0.154695 0.126041 0.979889
-3.85403 10.982 -1.58271 -0.925431 0.37885 0.00711356
-10.7886 12.7102 10.9983 -0.0253562 -0.0376502 0.998969
-11.0212 11.8476 -6.81452 0.295137 -0.92349 0.245073
-13.856 32.9806 7.72532 -0.116718 0.168982 -0.978684
-4.58196 15.3335 -9.64219 -0.122108 0.20254 -0.971631
-3.78152 11.1682 -0.649717 -0.925634 0.378414 -0.00199862
-5.90749 13.6795 0.599801 0.204845 -0.977909 0.0416309
-1.81954 11.6995 -3.10905 0.915888 -0.401058 -0.0173614
36.9405 -19.8936 -11.0079 0.456283 -0.0313069 -0.889284
32.4022 -21.8343 -6.75827 -0.191897 -0.116252 0.974506
-7.35599 5.71764 -7.56931 -0.0103568 0.0174951 0.999793
-21.2665 19.5538 -4.55393 -0.955157 -0.2961 -0.00102016
-5.13015 34.6052 8.73933 0.307026 0.940674 -0.144457
-9.53434 14.0476 3.97901 -0.248732 0.967945 0.0348387
-7.0169 33.4791 10.1589 -0.16339 -0.9166 0.364895
7.92548 6.54004 -9.73678 -0.0976473 -0.111812 -0.98892
10.7826 2.75205 -5.67239 -0.722569 -0.691235 -0.00939305
17.0197 -7.9575 -7.56276 -0.001291 0.0013959 0.999998
14.5823 -30.7673 -10.2828 -0.167896 -0.0595204 -0.984006
-26.6049 8.24535 -9.69926 -0.0555082 0.235956 -0.970177
-17.9823 27.873 -6.74134 0.00625472 -0.00540188 0.999966
-21.4652 20.1812 4.46023 -0.950739 -0.309943 -0.00557433
-13.9486 17.3377 7.67462 -0.0124084 -0.0186721 -0.999749
-12.2354 34.5961 7.9979 -0.274891 0.816014 -0.508484
22.2979 -9.19726 -9.50155 -0.278459 -0.246433 -0.928295
-10.9443 3.25428 -7.55724 -0.000310121 0.000441186 1
6.40028 -10.7693 -7.00088 -0.0446933 -0.0552976 0.997469
-5.71372 15.2267 -2.15472 -0.258461 0.966009 0.00502202
-23.8793 13.954 -3.38667 -0.727781 -0.685791 0.00512611
-15.4107 7.63846 -9.18082 -0.00539088 0.0044297 -0.999976
6.87189 8.70719 2.85988 0.674513 0.737677 -0.0293968
-18.4783 15.6342 -9.53723 0.270496 0.0704454 -0.96014
6.70147 9.36029 6.35126 0.793093 0.450093 0.41039
25.9932 -26.692 -9.73867 0.0026417 -0.0486113 -0.998814
-11.7697 11.5977 -1.42582 0.30811 -0.951329 -0.00650429
-6.405 10.2744 -9.17905 0.00193917 0.00470484 -0.999987
29.4462 -25.1897 -9.62787 0.406896 -0.614172 -0.676186
-0.972779 29.5806 10.1794 -0.746433 -0.546666 0.379465
16.0502 -21.6579 -7.00724 0.170227 -0.0191991 0.985218
30.5429 -13.0941 -6.73343 0.160506 0.246953 0.955642
-2.78886 21.5241 -6.74244 -0.00029708 -0.000112328 1
30.9846 -20.1155 -9.22732 -0.669817 -0.104875 -0.735083
12.9647 -31.9832 -7.00752 0.150337 0.0854976 0.984931
27.7388 -15.2945 -7.33497 0.918735 0.0287492 0.393826
-20.2494 16.313 -3.55567 -0.953971 -0.299882 -0.00320882
-7.85443 27.5672 7.72891 -0.0043683 -0.00392907 -0.999983
-37.4334 4.80357 -8.57309 -0.980902 -0.194504 0.00059072
-17.4054 8.25921 -7.56503 0.00301701 -0.00359159 0.999989
0.339395 24.7957 -9.20634 -0.281823 -0.0251154 -0.959138
-6.76884 30.0593 -9.17762 0.00244271 0.00352323 -0.999991
14.4297 -6.28458 -9.17915 -0.00104099 -0.00347332 -0.999993
-4.95486 12.3267 -7.5642 0.0259522 -0.0409218 0.998825
-21.9413 14.6579 6.05435 0.206835 0.976874 0.054192
-12.2615 17.733 9.28483 -0.00345358 0.0228605 0.999733
-12.5832 33.4307 -9.25471 -0.461085 0.159877 -0.872834
-24.8572 7.66342 -7.10101 0.0738263 -0.253242 0.964582
7.64261 -3.20746 -9.18236 -0.00857297 -0.00147813 -0.999962
-14.513 14.1978 -6.65193 -0.0859354 0.202117 0.975584
-25.8244 14.0502 -7.56673 -0.0580553 -0.102973 0.992989
12.6397 -28.8831 -9.71299 0.190077 -0.0621072 -0.979803
-11.5249 8.77522 -9.18083 0.000271142 0.0067543 -0.999977
-21.5567 20.4759 7.21375 -0.951991 -0.305985 -0.00927691
-7.39304 10.7672 -7.55842 -0.00518269 0.0109052 0.999927
1.457 14.8131 -8.59628 0.713844 0.699871 -0.0246431
26.9567 -13.3109 -9.87124 -0.537614 0.415607 -0.73365
14.9829 -11.6194 -9.18041 -0.00207375 1.81934e-05 -0.999998
-20.5763 11.6736 1.86305 -0.573243 -0.819385 -0.000113785
-16.9454 21.0163 9.33074 0.0277612 0.00802286 0.999582
-35.4536 3.00481 -6.70776 -0.173201 -0.416845 0.892324
-9.79095 21.3441 7.72964 0.00267317 0.0166022 -0.999859
-15.5144 32.1617 -6.72183 -0.240897 0.239434 0.940553
-7.92473 12.8039 -1.37019 0.322524 -0.946487 -0.0118998
-6.86498 30.8496 9.29076 -0.00836239 -0.0236477 0.999685
-11.8021 13.3029 -2.29707 -0.347235 0.937647 0.015658
11.2656 4.6014 -4.95027 0.727901 0.685672 -0.00380975
-18.5171 16.2115 4.65036 0.947791 0.318596 -0.0137197
0.541915 16.3804 -0.235162 0.853823 0.519858 0.0271087
19.187 -27.8367 -7.54615 0.298651 0.280061 0.912345
24.0765 -24.3554 -9.18033 0.00497884 -0.00302472 -0.999983
27.9392 -15.9873 -8.46047 0.868639 0.49536 -0.00921706
15.2048 -30.5924 -10.2519 0.54939 0.215858 -0.807202
14.9983 -21.9243 -9.59893 -0.730694 0.138952 -0.668415
-23.8583 21.3545 4.29332 0.316795 -0.948254 0.0213581
30.6822 -20.4513 -9.16282 -0.384355 -0.0945328 -0.918333
-4.00026 -3.18839 -7.56309 -0.00114721 -0.000550848 0.999999
28.2734 -18.9572 -7.55059 -0.0452617 -0.157449 0.986489
-13.1938 13.241 7.01444 -0.22073 0.752264 -0.620788
3.02383 11.5776 -9.73451 -0.133489 -0.129842 -0.982508
-16.0223 15.2107 -9.17218 0.00525735 -0.00449035 -0.999976
19.1463 -34.7036 -7.5214 0.458787 -0.819849 0.342581
14.3977 1.34097 -6.34192 0.719179 0.694824 -0.00115878
-7.78806 1.64612 -9.39313 -0.278399 0.123277 -0.952521
-26.2335 8.83544 -7.34781 -0.104906 0.304668 0.946664
-19.4627 -0.283901 -9.74269 -0.00807416 0.0251141 -0.999652
-3.93235 28.2169 -9.17763 -0.000734539 0.00381211 -0.999992
-1.56323 28.0077 -9.17695 -0.0283561 -0.0202012 -0.999394
-22.6024 13.0594 7.02742 -0.728866 -0.683983 0.0303576
-4.4438 30.53 -9.17208 -0.00395272 -0.00308666 -0.999987
-8.149 22.8297 8.45817 -0.345161 0.8855 -0.311053
-10.4591 13.8704 2.9295 -0.285384 0.958216 -0.019453
16.6257 -26.9801 -10.0996 -0.0312208 0.640057 -0.767693
-3.40684 15.9223 -1.06032 -0.300422 0.953806 -0.000197057
-13.3591 18.7331 -6.74324 -6.88402e-05 -0.000427792 1
-21.1077 25.2481 -5.88083 0.824189 0.275143 0.494983
34.5804 -20.9734 -9.39911 -0.22145 0.975104 -0.0115153
-11.3088 14.3333 9.36321 -0.0899425 0.185051 0.978604
31.9608 -14.095 -7.24129 0.376472 0.156199 0.913165
-23.7457 21.495 -1.47674 0.532836 -0.846102 0.0140566
-0.528146 19.3889 10.6577 -0.717371 0.428918 0.549007
-10.6485 33.4079 9.82814 0.208974 -0.886016 0.41389
-20.7708 23.398 -1.24425 0.955582 0.294725 -0.000479233
-14.1249 15.979 -9.17785 0.000347137 -0.00228718 -0.999997
12.4203 1.34761 -9.66055 -0.222481 -0.177626 -0.958619
-18.3458 0.924224 -9.1778 0.0654137 0.179114 -0.981651
14.0641 -14.8506 -9.73921 0.131697 0.107202 -0.985476
-14.5578 10.7227 -4.75286 0.297373 -0.954751 -0.00438174
-28.4342 10.0365 -7.56209 -0.00390866 0.00485692 0.999981
-5.08511 15.4905 9.72594 -0.35035 0.752721 0.557374
33.5536 -20.7875 -9.29476 0.51154 0.859163 0.0128917
-18.2356 17.224 -9.22212 0.210822 0.068456 -0.975125
5.6111 3.52013 -9.17691 -0.00506231 0.00151004 -0.999986
-19.3643 24.1336 -8.31681 -0.389503 0.239593 -0.889316
7.47905 -4.58543 -7.55661 0.00474509 0.00546795 0.999974
4.47413 3.31459 -7.56301 0.000773233 0.000539439 1
-25.3957 19.4158 -9.57511 0.639628 0.260176 -0.723315
-9.65166 12.7975 11.0064 0.0956195 -0.318061 0.943236
2.99591 13.2066 6.02528 0.715915 0.698185 -0.00201701
-6.74697 13.1738 6.52862 0.298157 -0.954517 -0.000319261
-9.131 14.276 -9.32688 -0.0859617 0.261474 -0.961375
6.73331 3.96057 -7.56254 0.00256471 0.00154912 0.999996
-16.5854 30.3457 -8.02242 -0.292042 0.176676 -0.939945
-7.75757 32.7053 9.35907 -0.0251794 -0.20454 0.978534
37.4812 -19.2945 -8.58932 0.99689 0.0786086 -0.00553003
7.31597 -12.1334 -8.48252 -0.388597 -0.921275 -0.0156544
-13.2577 0.892012 -7.55819 0.00108023 -0.00206572 0.999997
-11.152 33.7427 -6.74302 -0.0103719 0.028154 0.99955
-7.59295 7.34831 -7.56494 0.0068944 -0.00642488 0.999956
22.2918 -28.1953 -7.54382 -0.177637 0.15489 0.97183
11.9381 -32.4262 -9.04467 -0.84839 -0.441785 -0.291652
15.2143 0.501958 -1.53513 0.743113 0.667753 0.0434675
-34.9138 3.88925 -7.97114 0.267602 0.963467 0.0110095
11.1782 4.03839 2.90323 0.632027 0.00288195 0.774941
24.2136 -17.3641 -7.55502 7.59514e-05 -0.00310865 0.999995
1.0004 12.9386 6.11984 -0.715463 -0.69865 0.000971235
8.44734 7.53514 3.33618 0.695295 0.718479 -0.0187721
-21.3225 19.7305 3.90583 -0.955688 -0.294374 -0.00193508
-11.3606 -2.35167 -9.19544 0.0970171 0.255257 -0.961994
-20.5007 19.1723 11.0053 -0.310796 -0.111619 0.9439
-6.00437 25.7305 -9.25187 0.448572 0.285489 -0.846923
-8.96159 7.91274 -7.56522 -0.000247305 -0.00247404 0.999997
-20.1389 14.0722 -3.35436 -0.658495 0.750373 -0.0576624
-0.866314 -8.28663 -6.99333 -0.142554 -0.414156 0.898974
17.9667 -11.9768 -9.20492 -0.0017075 -0.0119714 -0.999927
-14.8353 18.8585 9.35114 0.0292053 0.0169589 0.99943
-5.09328 5.06483 -4.19327 -0.0594098 -0.930783 0.360712
-14.05 -1.36244 -9.25074 0.112466 0.290253 -0.950318
-19.3598 -0.257544 -6.98618 0.0147205 0.0350037 0.999279
-20.6822 -0.667023 -8.06995 -0.362282 -0.928433 0.0822484
-35.9428 5.57603 -7.11179 0.850515 -0.207067 0.483475
