ply
format ascii 1.0
element vertex 892
property float x
property float y
property float z
property float nx
property float ny
property float nz
element face 0
property list uchar int vertex_index
end_header
-31.2282 -39.3461 19.3307 0.0123382 -0.999454 -0.0306468
-43.0379 -8.26284 -15.6284 -0.135534 0.558868 0.818106
-47.3286 -29.7482 13.7175 -0.0522353 0.434524 0.899144
-36.7841 -27.3634 -36.6441 0.964199 -0.0557825 -0.259245
-20.9291 -31.5027 -38.7868 0.0459956 0.86816 0.494148
-22.5485 -18.9287 -7.62759 0.242531 -0.749904 0.615486
29.566 -30.715 -6.33466 0.527439 0.604573 -0.596908
49.9532 25.8275 22.2507 -0.694368 -0.636373 0.335979
-20.1669 14.562 -11.554 -0.190195 0.966172 -0.174176
-12.0051 -38.9548 -39.0154 0.650601 -0.366398 0.665185
59.1509 8.80516 5.39019 0.26093 -0.305465 -0.915755
-10.7109 -13.4788 -18.1725 0.812219 -0.448448 -0.373087
54.6318 -10.5945 32.6826 0.510377 -0.354103 0.783662
98.4619 23.8084 5.31757 -0.359194 -0.915493 0.181253
63.4232 43.3812 27.1304 -0.492577 0.711934 -0.500517
79.8693 30.7849 16.9232 0.377663 0.810232 0.448213
9.20794 -11.5514 9.38667 0.112039 -0.411015 -0.904718
-0.834132 -8.21168 0.280165 0.391634 -0.821667 -0.414109
-37.3553 -29.258 -14.3152 0.167466 -0.971196 0.16951
72.659 4.45179 27.3179 0.66968 0.0427608 0.741417
-75.9568 23.5781 -21.279 -0.0279779 0.152174 -0.987958
72.6116 5.53803 12.0495 0.0457225 -0.900756 0.431912
38.9351 -26.7249 29.3204 0.338854 -0.878775 0.336054
17.3283 -25.9979 16.7865 -0.17288 -0.906181 -0.385939
-70.8909 7.00413 -13.5804 -0.113349 0.229486 0.966689
50.5944 2.30972 34.5563 -0.677667 0.431732 0.595294
-44.3628 -29.2255 7.40967 0.805904 0.508775 -0.302764
20.5902 1.01704 31.3652 0.3749 0.81831 0.435681
-20.5668 11.3971 4.35544 -0.641441 0.731178 0.232233
56.0299 0.39693 36.4334 0.807023 -0.384617 0.448089
-0.910236 6.12023 29.9597 -0.158218 0.761773 0.628227
80.6206 1.70862 11.1884 -0.720366 -0.642027 0.262439
-22.1697 -22.8557 -11.6252 0.247563 -0.759033 0.602147
-46.3882 -27.8021 -47.3354 -0.276085 0.358462 -0.891786
-22.4995 6.99767 -19.0732 0.432135 0.383846 -0.816041
-17.3222 -16.1325 -24.1773 0.642293 -0.320589 -0.696191
72.5355 14.3913 26.675 0.498333 -0.0349488 0.866281
27.6759 -28.8974 19.7387 -0.00802954 -0.953396 -0.301616
-42.4329 -15.9793 -29.0358 -0.389086 0.676198 -0.625594
-58.1079 -39.9995 3.61424 -0.0253896 -0.814621 -0.579437
-29.933 -15.5419 -30.8562 0.111053 0.244755 -0.963204
83.0633 0.269217 21.3423 0.36758 0.078265 0.926693
26.1414 -32.0413 -8.30903 0.0332716 0.0109124 -0.999387
52.3242 19.5723 29.9757 -0.730912 -0.415016 0.541784
55.6096 31.4108 9.53151 0.183435 0.532724 -0.82617
91.7913 35.1148 6.17786 0.105488 0.615649 -0.780928
43.3862 15.3559 20.4725 -0.638619 0.767712 0.052759
16.9334 4.07146 28.0759 0.410733 0.742343 0.529363
82.027 -2.85473 17.4073 -0.72452 -0.455559 -0.51724
41.0827 -11.6712 40.9261 0.540822 0.0747623 0.837808
33.0569 -25.0235 47.1401 0.427505 -0.814072 -0.393099
32.6475 -25.4981 35.5523 0.362014 -0.804818 0.470333
54.7119 -34.2185 51.1539 -0.474014 -0.0196246 -0.880298
-39.0494 -31.765 -23.453 0.0368552 -0.997573 0.0590705
30.2198 -25.5269 44.9197 0.292876 -0.851026 -0.435865
46.1443 1.05669 33.9925 -0.0971723 0.54621 0.831993
32.3466 -2.12911 32.3873 -0.263266 0.791503 0.551556
-25.7279 -30.9181 -41.9815 0.0702931 0.96666 0.246228
-47.0529 -27.3443 -5.01921 -0.53978 -0.770046 -0.340098
84.5566 -13.6539 12.5287 0.729458 -0.582335 0.358855
-15.7154 -20.153 -13.0209 0.600887 -0.758762 0.251426
-51.8246 -19.5124 -43.9589 0.492097 0.793952 -0.357045
4.7392 -16.2399 35.5039 -0.697137 -0.354307 0.623271
78.3647 0.378228 21.2913 -0.902 -0.179519 0.392643
24.9361 -25.9422 7.06036 0.413363 -0.868627 0.273165
84.5188 -3.55271 5.4139 -0.286129 -0.637678 -0.715191
63.5404 -7.86616 20.2931 0.827376 -0.559806 -0.0454593
50.2108 17.2635 32.6264 -0.745652 0.58154 -0.32529
-43.5418 -38.0428 16.8582 -0.528875 -0.395554 0.750885
19.0044 -15.977 -5.26886 -0.690825 -0.705518 -0.158129
7.44427 2.66522 7.47678 0.912296 0.126613 -0.389469
-0.054094 -7.41942 0.780226 0.57566 -0.724006 -0.380041
25.6957 -25.7127 35.3331 -0.118873 -0.90948 0.398391
-13.0238 18.8782 0.729274 -0.12521 0.990887 0.049664
-12.6273 -38.3954 -37.3703 0.962767 -0.154132 -0.222089
-29.3285 -27.5661 -14.5958 0.270358 -0.841403 0.467918
15.7811 -21.6304 11.5632 -0.706248 -0.525291 -0.47464
99.0355 24.3971 9.33437 0.26537 -0.962104 -0.0627254
-84.1062 41.2976 -15.9724 0.779855 0.575382 0.246497
83.2204 6.95868 9.33357 0.73094 0.651676 0.202595
38.5014 -39.4939 60.3133 -0.0548959 -0.998376 -0.0152188
-23.2197 -25.0779 -14.0765 0.361831 -0.801631 0.475884
34.3713 -27.4232 24.0133 0.108609 -0.992877 0.0489819
-7.39849 -10.8752 -14.9311 0.81633 -0.357486 -0.453662
-80.6892 23.4632 -14.8385 -0.0408056 -0.0321631 0.998649
28.0693 -14.4377 58.5035 0.676117 -0.186775 0.712727
-29.3502 -39.6909 -40.6383 -0.055779 -0.976329 0.208975
-33.9623 -25.4482 -31.5131 0.571663 -0.398248 -0.717356
30.3014 -23.443 60.2549 0.568239 0.621824 0.538924
52.1713 -39.9913 -11.9476 0.664512 -0.740815 -0.0980666
-12.875 10.9762 -11.841 0.298851 0.758485 -0.579127
97.7968 29.2511 5.01268 0.616647 0.41726 -0.667563
46.8537 -39.2806 63.0726 0.137281 -0.989106 -0.0531343
-2.68366 -6.76778 -4.79965 0.429992 -0.899426 0.0783604
33.2195 -2.28755 14.2517 0.0967692 -0.0882426 -0.991387
48.9557 -38.8414 -0.397478 -0.128088 -0.987182 0.0952116
-26.1323 -39.317 32.5965 -0.0136693 -0.909889 0.414626
34.0521 -8.16618 10.8248 -0.303864 0.601316 -0.738976
-4.74383 -8.23216 -7.49955 0.528809 -0.848402 -0.0239753
60.9992 4.34073 7.23583 0.306626 -0.169486 -0.936619
-28.9833 -16.919 -5.43181 0.0677804 -0.336828 0.939123
30.2805 -19.0668 3.56934 0.961944 0.00318145 -0.27323
-41.2946 -28.1833 -7.77233 0.145349 -0.965507 0.216034
-35.8145 -18.7644 -3.54866 0.593694 -0.10632 0.797636
-74.3119 6.62564 -21.2717 -0.127269 -0.321754 -0.938231
-60.2784 -22.3982 -12.3477 -0.579789 -0.600242 0.550958
50.1835 -38.0002 60.6885 0.0830802 -0.975852 -0.202017
-62.2705 -2.82911 -12.6358 0.373779 0.487362 0.789156
-27.6687 -40.3824 -45.9701 0.0610471 -0.997624 0.0319332
19.7866 1.11659 21.6943 0.300129 0.52543 -0.796144
-40.1521 -26.1055 -41.3882 0.650279 0.596343 -0.47065
-48.9413 -39.2149 12.7054 -0.369235 -0.696633 0.615117
56.8716 30.7823 29.9859 -0.558608 0.565822 0.606467
-40.8309 -6.91611 -16.1504 -0.12711 0.552111 0.824025
32.013 -25.5834 56.513 0.930305 0.361366 -0.0628236
-2.76039 -8.04265 1.13938 0.28987 -0.90167 -0.320884
53.4215 30.7682 37.248 0.437756 -0.202117 0.876081
1.67921 13.2983 9.38791 0.668271 0.692743 -0.271148
72.1277 5.61942 13.8314 0.454722 -0.888011 -0.068291
48.2342 28.1318 5.46622 0.282775 0.115657 -0.952188
58.2567 30.4564 19.2842 -0.438004 0.867305 0.236505
77.6674 35.1425 23.3311 -0.452046 0.240432 -0.85898
-13.6447 -36.6303 -49.5543 0.300726 0.841723 -0.448405
-4.14892 -8.13098 -5.02251 0.48756 -0.872878 -0.0191895
71.7242 3.62234 9.53616 -0.315659 -0.921386 0.226733
47.5445 -15.4492 37.0213 0.518574 -0.300068 0.80065
54.5788 -11.8533 10.7253 0.419729 -0.712174 -0.562704
-48.2068 -31.9541 3.86015 0.0508258 -0.337715 -0.939875
77.4472 7.00602 6.19224 0.0324688 0.23744 -0.97086
43.5533 13.4965 18.3872 -0.769198 0.487129 -0.413569
-50.8718 -30.6385 12.0721 -0.629487 -0.140298 0.76424
48.1277 31.7777 33.9044 -0.780226 0.283649 -0.557486
-68.9176 14.4183 -20.2483 0.360685 0.00841293 -0.93265
-44.9475 -13.9 -3.43019 -0.188275 0.970678 -0.149456
59.9595 32.7566 16.1638 -0.404384 0.888083 0.218589
-21.2309 12.1339 -7.70261 -0.817047 0.56731 0.102922
95.9671 -3.62955 12.8401 0.3287 0.756863 -0.564902
71.313 16.8734 27.3213 0.475069 0.141046 0.868571
74.1966 24.7016 8.85913 -0.50477 0.663781 -0.551908
-28.5374 -28.6866 -18.7104 0.36473 -0.930064 0.0441835
29.0424 -28.7318 19.9017 0.0845173 -0.928753 -0.360935
-23.9141 -3.66917 4.16469 -0.806046 -0.409898 0.426935
-55.8156 -9.86365 -10.6661 0.532274 0.551111 0.64262
-52.198 -19.9566 -27.6435 -0.134221 0.221396 -0.965903
-44.5645 -16.365 2.48321 0.602971 0.581077 0.546603
-21.1991 -2.9396 9.18398 -0.801615 -0.386503 0.456101
32.0055 -10.051 9.4197 -0.0179548 0.615008 -0.788317
5.81818 8.04563 8.86702 0.799053 0.461064 -0.385921
18.0857 -30.582 -6.3022 -0.667088 -0.531611 -0.521905
-23.026 -4.89303 4.94526 -0.781354 -0.344562 0.520349
15.7421 11.1786 22.9978 -0.602972 0.766886 -0.219796
71.2565 3.681 18.5633 0.651661 -0.756867 -0.0498961
51.6026 0.982578 6.9083 0.318582 -0.155771 -0.935009
-54.8852 -21.338 -26.1698 -0.564964 -0.141088 -0.812964
66.6023 -3.26834 23.4136 0.860903 -0.488015 0.143829
-27.2095 1.38767 0.153113 -0.963147 0.146776 0.225398
12.7245 -0.72374 13.5525 0.632909 0.500692 -0.590537
-15.3319 -15.4032 -4.53837 0.409789 -0.778251 0.475814
-17.8935 15.5277 -3.14962 -0.831621 0.377819 0.407014
30.1768 -34.4526 53.0218 -0.399932 -0.633816 -0.662066
14.5632 -4.85555 12.9204 0.453905 0.39321 -0.799598
-13.2226 -39.3431 -34.7265 0.292982 -0.874039 0.387579
-42.4337 -12.6473 -5.92124 -0.32383 0.945659 0.0293884
-5.44226 -10.4586 29.3874 -0.661983 -0.460359 0.59148
-26.4378 -38.688 13.0597 0.0473374 -0.965496 -0.256079
50.2945 26.165 38.5922 0.381529 -0.191658 0.904269
36.9412 -24.0145 35.6822 0.408892 -0.780088 0.473572
1.15662 6.96885 30.5791 -0.028356 0.803713 0.594341
-10.0024 12.5015 20.0709 -0.253786 0.791411 0.556112
27.09 -23.6147 -4.12848 0.884826 0.366907 -0.287164
64.7176 3.90739 4.71387 -0.123223 -0.775226 -0.619549
75.6307 35.0993 6.87113 0.148294 -0.665575 -0.731449
2.4598 4.01635 32.2926 -0.0922697 0.475024 0.875122
-33.6573 -32.0359 10.4361 0.163057 0.681909 -0.713031
91.7713 -1.6665 13.7464 0.308969 0.857978 -0.410381
9.08573 -22.8222 16.7206 -0.371198 -0.770122 -0.518772
54.1245 -15.455 31.061 0.691587 -0.413314 0.592351
-24.1302 -6.25489 3.9632 -0.806159 -0.281404 0.520499
32.9996 4.6491 28.2674 -0.768826 0.491199 -0.409427
81.2254 36.7602 7.54079 0.383885 -0.733908 -0.560366
-54.1298 -6.24332 -14.3007 0.491745 0.552962 0.672622
-19.7216 -32.0417 -43.9688 0.291086 0.954037 -0.0712875
-4.59048 -14.1287 26.4977 -0.711938 -0.614037 0.340738
85.1801 14.2016 16.444 0.726968 0.239708 0.643474
-47.909 -8.11861 -21.8667 0.00535252 0.410619 -0.911791
-50.6965 -13.6721 -25.3108 -0.0224453 0.455257 -0.890077
95.5858 26.135 3.53746 -0.0635338 -0.473543 -0.878476
61.4487 -10.3656 24.4944 0.790941 -0.587769 0.170116
50.1037 4.49204 32.7181 -0.332643 0.242831 0.911253
26.3292 -11.5843 59.5357 0.55239 0.632434 0.543041
-53.2962 -16.7581 2.03179 -0.687887 0.416189 -0.594641
-39.7535 -31.4617 -40.1409 0.705854 -0.139766 0.694432
62.1045 -0.847497 31.9893 0.576035 -0.156255 0.802351
-8.225 12.8145 19.4085 -0.164719 0.811302 0.560943
82.1361 37.3806 14.5288 -0.109805 0.860962 -0.496677
24.296 -18.2152 43.5292 -0.988383 0.0228778 0.150252
44.6888 -33.0433 53.4665 0.159526 0.235453 -0.958704
-24.4272 10.5245 -17.8999 -0.186052 0.809467 -0.55691
25.5833 -26.3922 -8.25034 0.501028 0.30414 -0.810228
40.3127 -34.8191 2.89413 0.0698753 0.203345 0.976611
84.0549 22.7638 10.2892 0.335364 -0.814147 0.474021
93.3092 -3.59708 10.0047 0.576147 0.807536 -0.126253
-2.00513 0.75854 -11.6812 0.717818 0.119266 -0.68594
37.35 -8.90956 41.0866 0.211697 0.790027 0.575362
53.8024 -36.7049 -7.68657 0.521585 0.853073 -0.0146987
-56.4708 -1.62771 -16.9917 0.581461 0.675415 0.453561
-31.047 -25.4911 -29.5217 0.470545 -0.536486 -0.70055
49.8007 -8.25938 36.6168 -0.0607822 -0.201759 0.977547
-54.3095 -17.4791 7.4852 -0.806398 -0.263381 0.529483
-21.9243 -2.63552 8.32146 -0.76181 -0.327505 0.558915
-13.983 -14.1292 -3.45004 0.435941 -0.822199 0.365984
-42.2789 -9.65921 -13.694 -0.261502 0.74452 0.614253
82.4552 37.3671 16.6454 0.128305 0.683577 0.718513
30.279 0.358187 27.7708 -0.247243 0.867244 0.432155
87.7914 36.6989 18.0759 -0.435672 -0.669996 0.601079
-11.4492 8.76618 23.2116 -0.508308 0.606273 0.611601
28.5158 -7.7337 38.5768 -0.108732 0.766015 0.63356
24.567 -17.0272 49.2368 -0.792382 0.608563 -0.0422168
74.9164 25.5357 8.45983 -0.459713 0.761851 -0.456342
-25.5587 -38.3166 12.2628 0.0279346 -0.973322 -0.227738
-44.3644 -29.3147 -10.9858 0.0833462 -0.944667 0.317266
44.2561 -15.5737 39.4948 0.439812 -0.31233 0.84203
37.7443 -28.7878 57.5675 0.278521 0.957738 0.0718621
32.3058 -3.48678 13.4233 -0.0865262 0.0208218 -0.996032
-11.3743 -0.534963 -20.1069 0.490699 0.386768 -0.780785
3.43903 -22.0769 21.3799 -0.493959 -0.854021 -0.163254
2.39968 -14.7305 34.2215 -0.563433 -0.346425 0.750022
90.5039 24.4222 21.666 0.308118 -0.432618 0.847293
-24.1185 -24.0229 -12.3062 0.243904 -0.734882 0.632819
-1.65852 -17.509 27.2412 -0.704701 -0.599949 0.378758
0.065127 -12.8753 11.433 -0.210144 -0.702064 -0.680401
23.1288 -32.7392 1.22841 -0.442747 -0.384251 0.81014
66.8758 37.5446 9.60466 -0.243711 -0.206749 0.947555
64.5261 29.4887 28.8031 0.261612 0.264749 0.928152
97.6596 26.1336 19.4441 0.376255 -0.340487 0.861685
45.3618 38.0603 40.0695 0.963929 0.246743 0.0997965
88.6021 -1.57335 19.6877 0.321952 0.0173911 0.946596
77.2364 0.985783 20.8425 -0.695434 -0.706603 0.130704
71.0557 32.0948 26.5721 0.206231 -0.298693 0.9318
97.9368 -2.92093 12.8011 -0.0306652 0.753449 -0.656791
-74.7723 3.08484 -19.5612 -0.71067 -0.386336 -0.587956
71.5198 15.7378 4.81353 -0.512596 0.167422 -0.842149
46.8923 32.173 35.9991 -0.156523 0.814833 -0.558165
-46.4827 -19.5073 6.06132 0.386542 0.423057 0.819517
1.09171 14.0402 20.5836 -0.237701 0.655912 0.716434
25.3907 -26.7665 48.494 -0.608686 -0.543859 -0.577684
-10.7538 -36.409 -40.8797 0.322587 0.758262 0.566547
38.863 -30.4994 -5.39627 -0.0279156 0.935742 -0.351578
52.6215 26.3089 23.9689 -0.513263 0.282934 0.810253
-70.2059 8.85714 -21.5705 0.404882 0.0187332 -0.914177
38.1909 -21.7526 41.5335 0.42906 -0.89527 0.119996
-57.027 -22.2048 -9.03034 -0.402118 -0.493668 0.771099
82.312 5.568 6.23695 0.114796 0.456679 -0.882194
101.318 -1.85272 14.389 0.665298 0.719171 0.200429
36.2681 1.11748 30.2616 -0.261467 0.57827 0.772812
1.40111 -16.1115 13.7251 -0.335 -0.653255 -0.678994
84.5537 30.1769 11.4552 -0.459181 0.72355 -0.515391
-56.9101 -15.966 -26.0821 -0.193454 0.241138 -0.951014
-23.2204 11.0891 -12.2628 -0.852249 0.405716 0.330251
-14.0212 -39.9929 -43.2267 -0.120043 -0.992667 0.0141931
-20.0605 -23.6431 -20.8742 0.550742 -0.756292 -0.353138
51.7378 -5.1044 38.6341 -0.149175 -0.037876 0.988085
-2.42547 18.9093 14.0912 -0.047195 0.967447 0.248634
-25.8285 6.29494 -6.44709 -0.83782 0.539439 0.0840421
-24.9803 -35.9426 8.32543 -0.157044 -0.0440604 -0.986608
51.5406 2.57877 35.3377 -0.883623 0.319267 0.342461
15.7785 -16.5822 3.31296 -0.927857 0.343468 -0.145296
-35.313 -34.0047 21.5152 -0.490652 0.487196 0.722427
38.4981 7.44946 24.4714 -0.468248 0.715742 0.518129
-51.7867 -23.5524 -38.4142 -0.897968 -0.0618922 0.435688
44.3605 39.6096 38.5557 0.532032 0.373592 -0.759849
16.4474 -19.0989 7.08668 -0.994558 -0.0898608 -0.052712
-17.3295 -39.9553 -50.5984 -0.0366078 -0.997606 0.0586743
98.2761 24.8027 10.0948 -0.0705776 -0.997396 0.0148594
50.2105 -16.8374 14.0514 0.551524 -0.719778 -0.421594
-44.4413 -40.6101 -49.8651 0.0619376 -0.992385 0.106465
83.0468 -5.31838 19.7942 -0.317104 -0.885385 0.33991
-68.9137 38.1582 -15.9986 -0.525068 0.576184 0.62635
-16.6435 -21.3844 -18.4158 0.677466 -0.72666 -0.114042
36.3233 -8.22634 9.54291 -0.268394 0.338267 -0.901965
32.3075 -39.8654 -5.69071 -0.0974765 -0.995208 0.00767871
-22.8345 6.25649 7.57116 -0.890808 0.252647 0.377664
40.9858 15.0202 6.37667 -0.0763174 -0.995608 -0.0542174
52.2403 5.50096 36.9613 -0.743631 0.356843 0.565399
-25.8631 4.22425 -1.70584 -0.92233 0.369788 0.112094
-4.10878 12.3771 21.4925 -0.173552 0.855752 0.487411
-85.7619 29.4443 -16.319 0.382383 0.914479 -0.132327
15.2961 -20.3581 37.869 -0.299341 -0.545995 0.782486
24.3661 3.38876 24.289 0.386215 0.921913 -0.0302431
13.6726 -3.42384 12.1409 0.546925 0.337613 -0.766088
-56.0019 -19.6871 5.46258 -0.924381 0.379012 0.0432389
74.8109 25.2853 9.65919 -0.260689 0.727699 -0.634425
74.8327 21.264 24.6872 0.191161 0.281581 0.940303
52.2107 33.329 10.1494 0.618737 0.770611 -0.15272
-78.3901 17.5245 -14.7947 -0.137955 -0.0815003 0.98708
48.5007 -8.4793 4.84505 0.692414 -0.170045 -0.701176
81.937 -0.231345 13.3517 -0.850952 -0.524896 0.0191008
3.22491 -13.9192 34.9449 -0.635281 -0.22796 0.73787
58.9205 -14.3342 23.369 0.672949 -0.722387 0.159052
-14.0471 -11.0864 -22.8707 0.742993 -0.213203 -0.634434
-35.1579 -30.6412 11.951 0.124862 0.966607 -0.223787
40.0345 -32.9037 -8.88744 -0.36478 0.583715 -0.725405
40.5305 -25.7974 20.7235 0.374021 -0.857547 -0.35316
-19.6229 -32.0292 -45.1255 0.322683 0.94351 -0.0752574
26.9288 -0.523385 20.1774 -0.186736 0.788476 -0.586034
-52.2872 -11.627 10.5103 0.577161 0.753033 0.315953
21.1411 -13.212 -9.03759 0.719415 -0.325029 -0.613839
31.1853 -24.8063 61.1022 0.558874 0.527341 0.639978
49.9597 28.8068 6.81252 0.264227 0.0928386 -0.959982
75.1948 32.6814 26.6983 0.153355 -0.843902 0.514112
33.712 -11.1707 47.8637 0.666173 0.572169 0.478368
90.3939 -7.02723 7.62375 0.0258322 -0.833784 -0.551487
51.8595 -16.6737 17.5011 0.461069 -0.750218 -0.473907
-38.2376 -14.8599 -28.6066 -0.195037 0.513712 -0.8355
9.16872 1.76655 10.9801 0.839478 0.147044 -0.523119
-53.6765 -17.8598 -8.48908 -0.0729767 0.509395 0.857433
-19.2337 3.04556 -21.0254 0.163546 0.538856 -0.82637
-88.6482 41.5805 -14.9592 -0.90424 -0.258428 0.33995
86.5705 4.34101 17.5954 0.679055 0.716217 -0.160988
84.9182 25.2949 23.409 0.182077 0.131776 0.974414
-28.8068 -2.04031 -4.49652 -0.825226 0.323568 0.462931
51.705 -31.6294 63.143 0.161051 0.956013 0.245156
-49.8463 -39.2931 6.98501 0.418166 -0.772578 -0.477766
-11.3431 18.9291 3.70851 -0.305777 0.944107 0.123131
-35.7777 -7.08141 -12.9649 -0.619883 0.634925 0.461103
-33.7948 -9.40915 -26.9798 -0.473249 0.449405 -0.757674
60.6046 -36.672 62.7269 0.894236 0.300247 -0.331954
57.4212 -14.8931 23.2756 0.614874 -0.781918 0.102637
86.0764 3.67764 8.89167 0.676391 0.515888 0.525695
27.6506 -25.9392 45.426 -0.3128 -0.791824 -0.524568
24.5072 -27.4093 16.0139 -0.122887 -0.85196 -0.508982
72.7744 34.0442 8.448 0.00214927 -0.997262 0.0739157
45.5192 -31.7418 0.795944 0.241987 0.843228 0.480009
-73.4687 26.3912 -14.1455 0.212347 0.197705 0.956986
68.2821 35.4346 26.4816 -0.609035 -0.512686 -0.605169
74.7088 8.13396 24.722 0.471818 0.153653 0.868204
-22.9585 -24.1453 -13.0107 0.317358 -0.769642 0.554018
23.5326 0.392944 27.4315 0.367778 0.831065 0.417216
55.5855 -31.3443 59.8478 0.322617 0.856998 0.401836
52.7998 -6.92168 38.2351 0.41747 -0.229458 0.879243
-46.1555 -38.7141 -48.6675 -0.485073 0.433265 0.759596
54.621 14.5341 31.631 -0.396921 -0.0523241 -0.91636
-15.2388 -17.5005 -7.54801 0.485522 -0.716221 0.501294
-55.6892 -11.257 -9.59016 0.526011 0.547181 0.65108
-59.1193 -39.306 7.70673 -0.561525 -0.266779 0.783274
-45.4807 -17.4972 4.88004 0.467062 0.584017 0.663911
-9.98511 -12.8654 -10.3206 0.66841 -0.729398 0.145627
-45.0699 -4.34662 -20.214 -0.16617 0.900575 -0.401686
-25.2519 8.19976 -14.2229 -0.843708 0.376194 0.382929
68.7033 5.70067 28.1895 0.519185 0.0162814 0.854507
68.0502 15.6422 6.85467 0.144518 0.0461485 -0.988425
-17.2296 -38.015 10.0761 0.380526 -0.681737 -0.624847
13.8313 1.68509 33.3777 0.229015 0.665811 0.710104
82.042 37.041 10.2887 0.195433 -0.653926 0.730881
8.38237 -6.88246 9.58818 0.316337 -0.344762 -0.883782
21.5468 -22.7634 52.0679 -0.972173 -0.107337 -0.208229
-51.6863 -33.4154 10.0835 -0.939947 -0.102641 0.325522
56.1072 29.8076 30.5017 0.0444555 0.999009 0.00212463
-44.7737 -31.2586 -18.5073 0.00627545 -0.974766 0.223139
-4.83799 -9.12761 -0.071488 0.469095 -0.876857 -0.105219
31.4381 -14.255 52.8612 0.77968 0.287853 0.556093
-61.9395 3.29144 -20.4089 0.355707 0.227847 -0.906399
-58.9724 -9.9559 -23.2729 0.140926 0.442855 -0.885449
33.5419 1.01045 29.3519 -0.52921 0.224289 0.81831
26.3942 -3.93641 15.5396 -0.250833 0.824456 -0.507302
-27.9735 -37.1388 9.55143 -0.0948693 -0.621802 -0.777407
-20.1226 9.83421 -16.2552 0.482139 0.452907 -0.749945
58.596 6.96855 35.9821 0.539616 0.0506288 0.840388
-51.4126 -28.2456 0.999917 -0.429373 -0.74085 -0.516508
26.8663 -7.31093 10.6618 0.218707 0.672597 -0.706952
-71.3076 -1.13943 -22.2801 -0.405891 0.0222841 -0.91365
-50.8601 -28.1887 -13.8596 -0.265361 -0.892009 0.365929
-7.93523 3.49246 -16.9026 0.616362 0.36852 -0.69591
31.7101 0.047793 28.7983 -0.409826 0.802555 0.43353
26.9204 -15.0679 59.0322 0.353825 -0.536696 0.766006
33.2193 -17.3899 8.87008 0.25743 -0.222748 -0.940273
5.26831 -16.1312 12.2335 -0.156058 -0.576994 -0.801701
-28.5406 -23.3827 -9.67518 0.355541 -0.793865 0.493325
38.3654 -26.7374 21.8821 0.186141 -0.956338 -0.225322
15.0605 -16.9726 5.87978 -0.99026 -0.113703 0.0803548
52.3999 25.1082 23.3848 -0.715418 0.187774 0.672992
-35.7708 -25.4408 -5.68812 0.545812 -0.698816 0.462326
24.4629 -36.0744 -9.55885 -0.110706 0.535137 -0.83748
-51.1639 -39.2039 -53.8988 -0.834091 0.177808 -0.522184
-23.5214 -7.58034 4.16209 -0.721612 -0.435901 0.537835
99.1128 31.813 9.56584 0.613525 0.678633 -0.403786
35.0054 4.16456 19.7652 -0.417899 0.511887 -0.750554
51.8094 -13.5582 34.1708 0.667421 -0.30379 0.679898
63.9605 5.60332 5.85175 -0.601688 -0.271809 -0.75106
-65.8015 3.78458 -20.359 0.20743 0.403757 -0.89104
-66.1152 -14.5799 -22.4407 -0.523591 -0.331879 -0.784671
64.97 18.8604 30.1573 0.49639 0.101652 0.862128
-18.652 -37.7824 16.1728 0.803885 -0.407634 -0.433131
-41.5098 -28.784 -8.757 0.0883522 -0.969541 0.228439
24.1249 -23.3001 47.571 -0.746841 -0.439223 -0.499311
84.076 -10.6469 9.50336 -0.0294276 -0.234501 -0.97167
47.4875 9.28202 11.4771 -0.705524 0.334116 -0.624982
32.306 -31.6164 62.1138 -0.0319005 -0.00114448 0.99949
16.4473 0.267758 33.8151 0.300326 0.65745 0.69106
-15.8845 -35.2769 -53.2983 0.26853 0.900431 -0.342222
-31.008 -26.8321 -26.7428 0.461322 -0.821518 -0.335096
-50.4008 -8.80605 -22.391 -0.0150205 0.484165 -0.874848
-65.4882 38.5877 -16.0523 0.788992 0.285377 0.544107
33.0599 -8.90553 10.3787 -0.167113 0.615154 -0.770492
14.5051 4.5542 29.8964 0.33582 0.822915 0.458297
-65.6252 -10.9436 -23.5978 -0.372692 -0.139773 -0.917368
17.7373 -30.8356 -3.07609 -0.63278 -0.766994 0.106347
39.7012 -39.0193 56.5575 0.0587877 -0.959131 -0.276788
-24.5099 -1.03236 5.43013 -0.85279 0.050415 0.519815
34.5455 -40.2027 -6.33608 0.0536079 -0.989439 -0.134675
-41.2154 -39.2663 -53.9175 0.387501 -0.131422 -0.912453
73.6529 28.1198 9.9913 0.478408 0.10044 -0.872375
93.3082 -2.02248 13.2827 0.308144 0.910407 -0.276055
-43.7936 -16.3801 1.53317 0.60455 0.586239 0.539299
48.2577 26.9165 39.4455 0.22926 -0.312959 0.921681
-86.0126 37.7187 -15.0785 -0.534048 -0.391318 0.749442
-49.4005 -37.9207 6.3748 0.47068 -0.262306 -0.842411
-31.9412 -35.8355 8.94283 0.135787 0.0280674 -0.99034
31.5948 -20.083 8.86481 0.580054 -0.541867 -0.608209
61.2702 -35.312 66.9968 0.126303 0.708822 0.693987
56.44 -37.979 -5.03345 0.45279 0.0959164 -0.886443
-20.5713 -9.43686 4.1803 -0.461023 -0.702463 0.542221
68.9313 12.7359 28.7285 0.525329 -0.0561099 0.849047
70.0639 13.0828 28.1242 0.522849 -0.0734805 0.849252
-32.28 -32.231 10.5928 0.120877 0.665802 -0.736272
51.2542 -8.52671 8.86821 0.286981 -0.296084 -0.91103
49.4515 11.7683 32.2662 -0.220798 -0.611991 -0.759418
1.41867 -8.89537 35.4375 -0.432431 -0.166346 0.88619
-51.5722 -24.8404 -1.85965 -0.634335 -0.197721 -0.747346
94.9734 25.4557 8.91997 -0.0501691 -0.915918 0.398218
-68.8842 3.12265 -12.3003 0.186531 0.31153 0.931748
2.1046 -19.4482 29.9965 -0.634339 -0.660347 0.40194
-30.0625 -3.68758 -7.28783 -0.864797 0.364567 0.345277
57.2829 -35.4393 49.7516 -0.299231 -0.388967 -0.871301
39.8699 -35.9685 65.0798 -0.407189 0.0429789 0.912332
94.5838 -3.58745 10.3941 0.69881 0.628463 -0.341612
-71.1161 -9.97094 -18.4003 -0.934049 -0.291206 -0.206767
57.8122 13.5434 32.7653 0.405512 0.160526 0.899884
68.7166 34.7318 27.2767 -0.717543 -0.691789 0.0809922
57.4214 17.1565 6.15977 -0.0187325 0.319867 -0.947277
-61.451 -20.9999 -22.2284 -0.48663 -0.525467 -0.697908
64.0933 16.3087 6.15809 0.147494 0.137276 -0.97949
-41.1855 -33.1785 -37.4515 0.587078 -0.808032 -0.0492309
-18.9617 -16.716 -4.72707 0.103588 -0.774829 0.623626
46.458 34.8443 11.7369 -0.503856 0.101599 0.857792
-28.0037 -39.2894 -38.7271 0.0522543 -0.793659 0.606115
-69.8961 21.6279 -20.1581 0.130467 0.0908746 -0.987279
3.85649 -12.0579 9.59247 -0.096971 -0.571324 -0.814976
26.3955 -28.0986 17.8886 -0.0262888 -0.905995 -0.422471
-51.1127 -14.7056 8.94219 0.835193 -0.0453754 0.548083
-27.0145 -33.3497 18.0953 0.485374 0.868468 0.100875
-4.63132 -8.2368 -8.69301 0.621954 -0.78303 -0.00613592
4.29757 -2.92575 2.33274 0.677394 -0.564143 -0.472102
-49.5588 -11.5122 -12.3748 0.221729 0.701901 0.676883
-30.1514 -31.7119 22.0444 0.115275 0.946863 0.300272
30.2924 -39.696 -6.23022 -0.0682738 -0.997533 -0.0163297
53.0234 -37.9913 59.8824 -0.0555725 -0.991249 -0.119735
-24.856 -20.8504 -8.97037 0.386363 -0.816221 0.429542
83.5765 22.163 7.50964 0.21857 -0.886772 -0.407263
-18.4395 -39.3022 18.7611 0.145059 -0.981402 -0.125734
-44.1801 -15.3692 -26.7369 -0.347646 0.556135 -0.754888
64.7595 34.0158 18.1248 -0.0387927 0.998786 0.0303472
-8.07079 2.4252 29.0818 -0.493496 0.293231 0.818827
-45.6265 -38.6273 15.1831 -0.467575 -0.527581 0.709248
3.20974 9.27684 3.31655 0.7587 0.615952 -0.212077
20.5155 -26.7631 6.88089 -0.25671 -0.762201 0.594264
37.6338 9.37598 20.766 -0.570085 0.601571 -0.559567
-45.7767 -27.9949 2.34869 0.351812 -0.933139 0.074031
-71.3319 18.2843 -14.3786 -0.0860577 0.00334022 0.996285
-93.2065 30.6297 -15.8818 -0.15114 0.981709 -0.115775
80.2814 21.5134 8.26936 0.208452 -0.797725 -0.565846
15.1186 -24.9509 1.44426 -0.947759 -0.112494 0.298492
51.8738 -15.0664 15.3405 0.564561 -0.73431 -0.376907
-22.5329 -13.7314 -28.8948 0.334451 -0.15055 -0.93031
-13.0883 -40.3918 -54.7786 0.168862 -0.973525 -0.154059
17.0293 -36.7965 -9.99069 -0.0345786 0.700539 -0.712776
79.3075 -2.29812 23.4462 0.383463 -0.377968 0.842672
40.7239 -39.3067 63.7285 -0.161596 -0.849931 0.501501
-27.9415 -9.83102 -1.73561 -0.643295 -0.229872 0.730295
53.8426 -29.6263 54.4481 0.144341 0.942812 -0.300452
-30.569 -13.1795 -3.641 -0.255148 -0.179533 0.950088
-70.9227 -9.55653 -12.8885 -0.836847 -0.360192 0.412249
46.169 31.5952 6.70418 0.131453 0.102453 -0.986014
-50.6787 -24.4577 -8.35693 -0.380354 -0.629326 0.677701
5.36706 -5.1249 37.2729 -0.202342 0.142945 0.968826
-33.8516 -29.5897 -24.549 0.44473 -0.868512 -0.218865
-2.10269 -16.1716 15.3239 -0.387515 -0.677142 -0.625548
56.2418 -38.493 4.04425 0.522653 -0.851376 -0.0446393
87.1595 20.908 19.0249 0.264433 -0.963516 0.041377
7.21431 -20.7337 34.6113 -0.508695 -0.662388 0.549975
-18.7003 -16.8521 -25.3043 0.664871 -0.266602 -0.69776
21.3946 -26.7476 -9.0793 -0.156454 0.0324217 -0.987153
14.4649 -16.4261 11.5044 -0.263476 0.0852014 -0.960896
24.3755 -14.6913 55.7093 -0.968901 -0.213921 -0.124371
27.7876 -24.2029 3.4893 0.790792 -0.61053 0.0436076
44.1966 -31.3206 -4.28008 0.258347 0.959369 -0.113437
56.4415 -5.52567 9.12957 0.285215 -0.446958 -0.847868
42.8594 -23.2256 32.975 0.460018 -0.792991 0.399437
-39.9962 -28.0849 -41.914 0.721417 0.617342 -0.313763
10.7006 -15.8578 38.4889 -0.2986 -0.172912 0.938584
-47.3507 -35.2257 -36.7015 -0.254 -0.883391 0.393833
52.64 28.1721 23.7662 -0.231259 0.705268 0.670161
-28.1179 2.36244 -4.41083 -0.904671 0.263731 0.334688
78.735 27.4305 8.83866 -0.405898 0.912176 0.0564095
-34.7781 -38.5473 -51.2705 0.124476 -0.391356 -0.911782
58.8398 21.5261 7.21606 0.112477 0.206621 -0.971935
54.1866 -6.88565 35.388 0.806371 -0.25962 0.531378
21.7843 -14.2183 -7.03523 0.836259 -0.283249 -0.469511
89.3914 39.3743 18.1012 0.0971917 0.98271 0.15759
-37.1 -28.6224 -11.2652 0.0183122 -0.979614 0.200052
-0.405081 13.5668 20.397 -0.227676 0.731758 0.642413
-37.745 -39.2755 -42.8238 -0.178071 -0.955521 0.235095
-16.6188 3.67996 -20.2465 0.239302 0.537004 -0.808926
-8.74289 15.5869 13.5923 -0.376287 0.811176 0.447662
24.4345 -21.3504 60.3628 -0.190103 0.788348 0.585122
57.51 32.114 9.49961 0.0390295 0.574941 -0.817263
49.5669 -29.4456 56.6585 -0.0743495 0.960514 -0.268114
57.2156 28.9509 27.4945 -0.834868 0.407259 -0.370318
-11.2359 -11.5632 1.23407 0.305571 -0.93437 0.183248
-59.7393 -0.734676 -14.3154 0.525109 0.560234 0.640623
54.8294 29.5662 36.1502 0.59867 -0.1446 0.787836
41.7519 -25.4496 21.4588 0.428311 -0.846017 -0.317499
76.6697 25.6796 22.6563 0.715564 0.13274 0.685819
-12.9577 -39.5007 -37.3392 0.565539 -0.824668 -0.00940201
80.4355 18.207 23.2623 0.719964 -0.607831 0.334954
53.1987 -37.3728 6.19401 -0.0329836 -0.0984254 0.994598
-13.9377 15.6453 8.89587 -0.403136 0.893656 0.19713
64.0688 -2.3178 11.9734 0.592689 -0.547164 -0.591043
-35.1867 -1.87714 -18.1284 -0.398665 0.655542 0.64135
32.8466 -0.904309 15.2283 -0.583302 0.673182 0.454516
46.7393 -36.4596 55.2755 0.207607 -0.775454 -0.596298
-6.87177 -7.50799 29.9495 -0.575442 -0.312469 0.755797
59.4348 -37.8015 72.1277 0.894705 0.0726643 -0.440707
-15.316 -40.0062 -37.527 -0.0343749 -0.998648 -0.0389908
-20.615 16.8694 -8.30773 -0.924991 -0.220114 0.309744
-21.278 3.76129 11.8638 -0.910702 0.136177 0.38997
-41.4236 -14.0921 -2.53708 0.31809 0.779492 0.53964
29.5085 -4.11877 13.66 0.00359336 0.152146 -0.988351
101.279 27.2708 11.8535 0.984143 -0.17396 0.0346529
-23.6896 -25.8145 -14.9166 0.374807 -0.838679 0.395142
38.2374 35.9126 3.79403 -0.411623 -0.0887549 -0.907022
-44.5308 -22.625 -39.6915 0.0988485 0.947303 -0.304705
42.2524 15.4124 12.2252 -0.730082 0.65304 -0.201295
-15.2203 -6.17687 19.0212 -0.812103 -0.535274 0.232314
30.9525 0.105305 26.8742 -0.259417 0.820157 0.509946
83.2998 -5.89984 10.9738 -0.994809 0.0465814 -0.0904705
22.7488 -27.2464 52.3345 -0.767104 -0.441911 -0.465044
70.8622 28.7628 9.17904 0.0867976 0.139201 -0.986453
-51.0321 -28.7841 -15.1928 -0.28875 -0.9077 0.304474
36.5537 38.7695 5.18089 -0.878942 0.0310078 -0.47592
-27.9491 -32.6748 21.3827 0.4805 0.84532 0.233568
68.067 -0.311002 16.7593 0.846404 -0.516609 -0.129287
64.7878 -5.90122 23.9986 0.826124 -0.544953 0.143335
2.50035 -6.9518 35.9549 -0.474155 -0.102549 0.874449
84.5887 32.0177 12.8573 -0.496064 0.393614 -0.773943
16.9383 -28.7846 1.29496 -0.580736 -0.716598 0.386306
-9.7113 -6.25341 27.3934 -0.730576 -0.337455 0.593619
21.0803 -32.7719 -1.43255 -0.583203 -0.730226 0.355871
-46.4181 -10.8976 -13.7331 0.0432435 0.693332 0.71932
-58.6307 -12.4503 -7.70966 0.0137083 0.0670615 0.997655
58.9572 33.4811 11.5769 -0.00272604 0.964711 -0.263297
-29.9641 -28.1618 -15.3752 0.233585 -0.874129 0.425837
25.0606 0.383174 26.7211 0.259714 0.720353 0.643149
-42.5524 -34.7376 5.89585 0.417776 -0.104478 -0.902523
43.7365 -24.9729 22.6983 0.457427 -0.853571 -0.249353
-2.01624 -12.8345 32.6372 -0.637207 -0.444622 0.629506
1.29137 16.7425 14.0871 0.700357 0.525835 -0.482698
-63.6956 -4.42216 -21.655 0.137513 0.228992 -0.963666
-49.2096 -23.3462 -5.82829 -0.869197 -0.439327 0.226909
-49.0293 -21.9352 -4.87315 -0.9918 -0.127267 0.0116489
-61.7289 5.7727 -17.0339 0.746127 0.0950445 0.658985
-50.4976 -21.503 -35.2941 -0.675594 0.575006 0.461454
5.67698 -20.0346 33.9594 -0.590853 -0.595211 0.544625
-17.9819 -35.013 10.1399 0.329489 0.781679 -0.529541
-25.8818 0.444221 -24.2722 -0.225039 0.46794 -0.854628
99.645 26.4255 4.34122 0.642348 0.593787 -0.484568
84.5107 27.5126 22.774 -0.140331 0.796222 0.588505
-10.9246 -6.73862 26.0045 -0.665026 -0.447694 0.597754
41.5672 -38.6638 -0.386481 0.0168069 -0.96233 0.271363
51.7719 -37.0126 -14.8539 0.658245 0.752346 -0.0262572
-72.2206 30.1267 -19.5878 -0.513953 0.10342 -0.851562
-71.1433 29.7101 -14.7917 -0.207827 0.173117 0.962724
94.407 23.3007 15.5413 0.0770892 -0.878687 -0.471132
-13.6765 13.4315 12.004 -0.382435 0.812703 0.43961
81.669 26.4196 23.5061 -0.383699 0.745967 0.544342
78.9355 40.6692 18.1347 -0.171836 0.611527 0.772339
66.5128 10.3765 7.59387 0.0307189 0.0147186 -0.99942
83.2474 -4.83377 11.4696 -0.959235 -0.245153 0.140599
-50.426 -29.6184 -17.6074 -0.327408 -0.910297 0.253304
88.1386 39.5535 10.4535 -0.00606032 0.974136 -0.225881
54.0468 -39.2238 71.2121 -0.193829 -0.970994 0.139999
-68.0307 3.08546 -21.843 0.0894821 0.286973 -0.95375
48.879 -7.08132 7.52667 0.700485 -0.18817 -0.688413
19.0399 -25.1411 33.9599 -0.248179 -0.83062 0.498476
51.234 2.80822 33.6289 -0.670188 0.366605 0.645329
51.4508 -19.9165 27.8793 0.611368 -0.764614 0.203946
81.0275 37.2945 14.2336 -0.327642 0.453861 -0.82865
-36.2492 -27.1005 -33.5985 0.907247 -0.172158 -0.383751
68.2007 37.5546 6.08032 0.015439 0.140153 -0.990009
44.7963 0.945372 33.9622 -0.109126 0.568028 0.815742
-25.7439 7.85681 -20.3103 -0.00348509 0.588092 -0.808786
86.06 12.7732 12.676 0.758329 0.224481 -0.612001
-43.1693 -14.1285 -5.83151 -0.374242 0.925847 -0.052443
87.9409 40.0388 8.1428 0.339239 0.744896 -0.574496
27.044 -24.731 44.2707 -0.510075 -0.771518 -0.380243
21.1443 -22.9587 53.3849 -0.984396 0.0253601 -0.174128
60.4646 -35.9817 51.2666 0.166062 -0.950634 -0.262143
-11.3384 -13.6748 -19.1468 0.806529 -0.39875 -0.436473
33.779 5.56301 24.6909 -0.258787 0.460282 0.849217
46.093 19.4487 11.8206 -0.750407 0.636772 -0.177231
77.2253 9.97206 7.60665 0.140722 0.363009 -0.921098
30.287 0.909982 14.4871 -0.675717 0.43211 0.597234
-52.3058 -39.8249 8.25876 0.0501867 -0.996419 0.0680547
-71.2767 13.5633 -21.9854 0.433599 0.0522778 -0.899588
69.1551 2.13577 14.8464 0.779173 -0.584864 -0.225439
32.334 4.41487 29.1916 -0.821782 0.569799 0.00153962
80.4836 40.0222 8.17834 -0.335103 0.928257 -0.161383
26.0414 -32.5656 55.1289 -0.612951 -0.742317 -0.270659
-59.6161 10.9191 -19.401 0.97421 -0.170808 0.147442
-10.1419 -36.6719 -34.6938 0.823018 0.565591 -0.0524317
-12.5461 -17.079 -16.1686 0.811104 -0.575402 -0.104992
-44.3956 -32.0024 -27.598 -0.230452 -0.92362 0.306299
-48.3625 -31.3126 -31.5695 -0.711619 -0.547825 0.43987
-53.7314 -15.0742 10.5763 -0.324896 -0.535608 0.779465
79.6986 17.5596 23.854 0.740941 -0.529438 0.413161
-49.0289 -20.7795 -36.1383 -0.0461329 0.982773 0.178966
-52.7814 -25.8839 -10.4351 -0.283194 -0.733929 0.617373
68.6149 30.4309 11.0601 -0.149799 0.136696 -0.979221
55.6734 30.8361 35.1609 0.892165 0.189476 0.410049
-80.6662 10.8597 -21.8369 -0.621312 -0.601438 -0.502239
41.3522 8.99722 30.7653 0.078744 -0.0916279 0.992675
-32.7884 -25.8845 -31.4662 0.521609 -0.472528 -0.710381
25.7221 -0.720342 27.4927 0.263771 0.877424 0.40069
58.4422 20.2483 6.86006 0.103181 0.193063 -0.975746
91.1759 22.6718 18.472 0.229697 -0.970725 0.0702274
36.2355 39.9273 6.46984 -0.994387 0.0770337 -0.0725227
56.1125 -30.9115 53.6726 0.328799 0.936485 -0.122016
51.1295 10.2271 3.89015 -0.100873 0.153764 -0.982945
46.8485 -5.50051 38.0488 0.262998 0.27313 0.925328
-37.1125 -11.5233 -27.0327 -0.259087 0.638597 -0.724616
75.975 29.1382 24.7189 0.701528 0.011445 0.71255
-6.6632 -9.91291 -3.59219 0.512657 -0.858549 -0.00876485
-51.7318 -8.05059 -22.1762 -0.115793 0.542702 -0.831905
-43.1063 -3.59092 -19.2069 -0.223545 0.971255 0.0818034
16.5425 -0.954586 17.4191 0.479469 0.618411 -0.622638
-49.9671 -38.6378 -52.3039 -0.811095 0.58013 0.0746561
9.51054 -20.8261 14.3797 -0.242186 -0.654153 -0.71654
-16.5627 0.097426 20.6437 -0.929517 -0.0784237 0.360344
19.5332 -10.2872 39.8809 -0.0374519 0.451688 0.89139
-3.40144 -9.66647 31.6846 -0.677946 -0.258702 0.688086
90.3691 32.2638 4.79787 -0.36326 0.450355 -0.815612
19.6887 -14.9983 40.9332 -0.227579 -0.18153 0.956689
54.1261 35.2316 35.8316 0.714733 0.652627 0.251467
-76.8417 13.5685 -22.6527 0.0893463 0.144898 -0.985404
3.13859 -2.92323 0.134593 0.728757 -0.543786 -0.416184
-17.9433 -0.035699 17.8841 -0.892973 -0.223743 0.39056
-44.5618 -30.0228 13.5725 0.118299 0.780234 0.614199
72.5339 16.3664 26.6919 0.509583 0.0949834 0.855163
83.899 31.5851 16.1479 -0.333078 0.483705 0.809375
56.1556 33.4363 29.4974 -0.535629 0.844453 -0.000720033
-21.259 -20.1379 -8.89811 0.171759 -0.75886 0.628196
-31.2076 -27.5137 -13.7214 0.326447 -0.871628 0.365645
-7.30159 -12.8966 -14.182 0.602789 -0.753628 -0.262088
-10.023 -36.1894 -43.474 0.294486 0.94053 -0.169354
54.1498 -38.0208 6.24582 0.0623035 -0.387821 0.919626
79.6943 39.5395 9.02481 -0.370571 0.853939 0.36533
-22.6055 -31.2992 -39.7786 -0.0956114 0.908405 0.407011
53.6716 28.7663 28.8206 -0.329141 0.569019 -0.75358
83.3744 -4.23088 12.8502 -0.908852 -0.32614 0.26004
33.4112 -7.55739 41.5945 -0.107801 0.866704 0.487035
-27.9803 -23.8865 -10.6258 0.3853 -0.72559 0.570143
52.0545 10.3426 30.6743 -0.119698 0.392778 0.91181
73.6091 34.3329 9.24589 0.036399 -0.871376 0.489263
-30.0521 -26.6558 -26.1092 0.458166 -0.80452 -0.377932
5.61519 3.35211 5.32203 0.815534 0.251961 -0.52098
-37.671 -10.5216 -9.71972 -0.447528 0.75767 0.475032
19.506 0.683634 31.6282 0.310456 0.805847 0.504209
-16.3603 5.94765 20.4133 -0.711568 0.330182 0.620203
48.2374 22.1629 8.84608 -0.94224 0.25629 0.215638
-83.3918 32.8588 -19.033 -0.688497 -0.366322 -0.625923
64.2197 -6.269 25.5069 0.821314 -0.506379 0.262725
-43.0272 -25.4071 4.19986 0.5037 -0.380691 0.775474
-33.5141 -29.1725 -13.0444 0.323917 -0.939466 0.11172
-31.021 -4.28125 -7.48989 -0.823129 0.375618 0.425875
50.1604 -40.3608 -13.6701 -0.0332756 -0.998754 0.0371912
53.4734 -9.04163 36.2235 0.82716 -0.408133 0.386308
16.438 -39.859 -10.4836 -0.0914544 -0.647638 -0.75644
-17.9384 -1.13153 -23.4733 0.215686 0.527233 -0.821891
-28.3839 -14.7428 -4.63668 -0.0511334 -0.42816 0.902255
-12.2488 2.47034 -18.8671 0.297042 0.429184 -0.852975
-76.0708 27.6374 -20.2451 0.228624 0.242376 -0.94286
37.4731 -31.3934 52.4795 0.186766 0.472955 -0.861065
64.7196 9.79591 31.2629 0.552925 0.00303585 0.833225
48.3265 6.3669 3.88166 -0.268216 0.0777343 -0.960218
69.526 3.30241 24.7653 0.571461 -0.820492 0.0150421
-86.683 23.1712 -14.9889 -0.436087 -0.535282 0.723395
65.9501 18.8723 7.18747 0.123989 0.260122 -0.957582
43.3189 -34.1561 -12.3074 -0.446084 0.504367 -0.73934
91.3186 24.1184 5.51994 0.140448 -0.911078 -0.38757
81.3383 30.8693 13.6387 -0.277441 0.817185 -0.505208
48.3161 -30.0474 55.884 -0.0357126 0.866924 -0.497159
82.6152 36.3883 20.9097 -0.293062 -0.280166 -0.914123
1.12686 -2.28131 -3.59725 0.851569 -0.373423 -0.367947
66.28 40.0856 8.9443 0.463716 0.643374 0.609129
-7.47187 17.2381 12.0062 -0.496813 0.715069 0.491785
1.81164 -13.1234 34.3802 -0.488331 -0.255552 0.834402
-31.8454 -37.0137 26.7262 -0.938438 0.00309824 0.345434
65.3292 -4.09139 16.1672 0.774808 -0.564869 -0.283895
5.82465 9.73552 26.16 0.029907 0.783428 0.620763
53.9096 14.9386 4.89992 -0.11814 0.533713 -0.837373
24.8209 -13.3189 1.04127 0.658376 0.5957 -0.46009
-19.0508 -23.433 -17.9596 0.60484 -0.795429 -0.0382214
45.6939 32.4033 7.39589 -0.0872772 0.273786 -0.957823
-76.1763 32.9659 -17.6137 0.722086 0.641738 -0.258386
42.1965 -25.8852 23.4989 0.425508 -0.890909 -0.158822
-44.6714 -33.0399 4.8214 0.437753 0.0213364 -0.898842
-14.2513 18.4994 0.565331 -0.426757 0.850833 0.30653
68.6946 1.78312 13.783 0.767718 -0.539681 -0.345475
-24.534 -6.90529 2.223 -0.690248 -0.317007 0.650434
95.5322 -5.11186 11.8767 0.78341 0.020114 -0.62118
76.0749 6.00756 15.3391 -0.388962 -0.91237 -0.127628
-53.2093 -12.726 -24.2522 -0.0903844 0.485485 -0.86956
-16.1095 18.7571 -2.08531 -0.409795 0.830439 0.377411
-70.4531 19.058 -13.835 -0.0770832 0.036466 0.996358
42.8847 6.06535 29.3887 -0.261798 0.246435 0.93313
100.48 25.5807 4.215 0.748942 0.571217 -0.335853
23.0219 -12.4782 60.4226 -0.800991 -0.00829376 0.598619
54.7954 -2.31578 36.1037 0.875138 -0.215302 0.433333
-29.2961 -9.51864 -28.9861 -0.144323 0.428417 -0.891981
25.5903 -15.6397 58.4198 -0.228472 -0.794101 0.563208
-7.31827 19.3672 8.94689 -0.199206 0.967502 0.155744
20.9639 -23.3525 37.2643 -0.254613 -0.787019 0.561937
18.6196 -28.8165 3.06083 -0.325132 -0.815564 0.47869
22.5532 -8.22584 38.6008 0.0611901 0.480101 0.875077
85.3747 11.5902 16.1485 0.634571 -0.063292 0.770268
38.9775 -19.4437 42.5769 0.85026 -0.317656 0.419706
6.32122 -7.004 8.16328 0.306567 -0.467911 -0.8289
50.4493 -34.4745 -4.36004 0.535834 0.808867 -0.242106
-76.1884 4.65843 -17.6887 -0.894821 -0.385893 0.224457
-63.6312 -5.52812 -22.2462 0.124463 0.33409 -0.934287
-47.4976 -15.5071 -6.9832 -0.132499 0.898069 0.419423
-13.2289 13.2859 -7.57501 0.397686 0.804395 -0.441356
16.4319 -26.2014 3.78367 -0.767383 -0.391034 0.50815
-43.0252 -17.3632 1.75508 0.595867 0.564443 0.571267
38.2818 9.34261 29.7779 -0.499164 0.479321 0.721863
-85.696 35.6529 -17.4025 -0.845919 -0.505799 -0.16908
-34.6214 -29.4684 -17.5829 0.127051 -0.945086 0.301116
28.4023 -24.6195 40.3715 -0.0889639 -0.990037 0.109142
-49.7194 -30.1434 -32.7785 -0.81013 -0.328255 0.485735
42.0134 -4.02966 9.51793 -0.308914 0.341975 -0.887483
28.6816 -33.7232 2.08229 -0.0650687 0.0954402 0.993306
86.4742 40.665 8.21774 0.278408 0.871079 -0.404613
53.6092 -39.0447 -10.4982 0.332715 -0.296315 -0.895264
46.748 6.40686 4.66274 -0.645894 0.274043 -0.712545
74.55 33.7971 24.2975 0.12646 0.639788 -0.758076
34.7196 -8.36814 9.20795 -0.264575 0.456533 -0.849458
3.15398 10.4765 25.4215 0.0134157 0.759672 0.650168
-30.8462 -31.3765 11.5149 0.0170499 0.848152 -0.529479
-39.2265 -39.1556 -43.9525 -0.225238 -0.972761 0.0548116
44.2465 -20.8535 16.0272 0.523743 -0.707703 -0.474183
-20.488 -32.7732 -37.4366 -0.0612877 0.668308 0.741356
-12.7772 5.33087 25.5791 -0.695808 0.321584 0.642211
-36.5368 -12.1774 -27.8038 -0.262356 0.600804 -0.755118
83.9345 16.2261 13.1222 0.439301 0.72787 -0.526517
73.1032 6.1599 6.2048 -0.00241053 -0.000364311 -0.999997
48.5789 -6.84488 4.83732 0.713096 -0.0861786 -0.695749
-5.57215 13.4955 -0.416754 0.423419 0.862196 -0.278092
84.0115 0.369885 4.87406 -0.119629 0.0869388 -0.989005
23.614 -19.4602 54.9678 -0.609903 0.652646 0.449524
72.0519 17.5697 8.16267 -0.454066 0.166503 -0.875272
-13.1572 -11.0123 7.2859 -0.212035 -0.964394 0.158069
56.8193 -31.8272 55.1431 0.498003 0.831643 0.245689
32.9201 -19.4828 9.54552 0.391153 -0.452977 -0.801131
80.9521 3.27687 22.0599 0.309183 -0.0781785 0.947784
59.912 34.1621 18.6747 -0.417903 0.63333 -0.651345
32.2128 -26.058 52.1859 0.525396 -0.848249 0.0665803
-67.2311 3.66238 -13.0008 0.325422 0.383722 0.864209
-24.9098 1.6727 -22.8705 0.0578395 0.574962 -0.816133
-52.3504 -29.4226 2.85651 -0.504736 -0.622518 -0.598091
72.033 13.8318 7.59253 0.0674846 -0.292785 -0.953794
-50.6048 -27.4134 -1.73373 -0.539271 -0.630872 -0.557842
-56.7937 -39.9596 4.12812 0.0951591 -0.878784 -0.467636
-54.1051 -13.1771 11.5106 -0.46839 -0.0655226 0.881089
26.8645 -3.31565 34.4399 0.0127912 0.829974 0.557656
-4.12998 11.5809 -4.29339 0.444805 0.796679 -0.409207
-21.7898 5.22236 9.81812 -0.839562 0.252699 0.480915
-21.9823 -6.37196 -27.4791 0.216512 0.459454 -0.861408
46.5165 8.32669 6.50156 -0.912615 0.402528 -0.0714428
-38.0117 -3.59952 -17.7375 -0.219766 0.639533 0.736682
63.5587 -33.6049 53.087 0.656642 0.28305 0.699074
45.5668 -9.35759 38.6431 0.476341 -0.0150898 0.879131
54.0055 35.2066 34.6121 0.686214 0.713816 -0.139918
-10.6231 18.8379 5.35818 -0.432825 0.874644 0.218315
-35.7622 -11.2859 -27.2629 -0.300417 0.610137 -0.733132
-49.1318 -11.9901 -24.2401 -0.00650537 0.548271 -0.836276
62.4966 26.7072 8.19584 0.0921617 0.119242 -0.988579
53.5025 -34.1517 51.8256 -0.468978 -0.041782 -0.882221
47.1899 30.7986 11.3067 -0.34693 0.15816 0.924459
40.2485 -6.24773 9.40104 -0.241199 0.366826 -0.898477
64.2044 -6.83587 21.4473 0.827493 -0.561455 0.00477873
-20.8417 5.69398 11.4508 -0.86924 0.290878 0.399765
22.4922 -39.3194 58.9633 -0.598206 -0.18937 0.778645
37.1164 44.3701 7.6326 -0.936354 0.330242 0.119088
-25.0017 -14.4992 -3.85423 -0.314882 -0.651564 0.690155
47.1515 -32.8017 53.6762 0.0115009 0.240545 -0.97057
-26.3448 -1.81191 0.620391 -0.935377 -0.0357742 0.351839
-24.8121 4.98074 2.21816 -0.888858 0.195307 0.414471
-9.41362 -11.5187 -18.1533 0.779212 -0.370621 -0.50544
-1.02316 -18.8445 19.5138 -0.503103 -0.837078 -0.214914
92.5183 24.552 21.2132 0.348066 -0.412878 0.841654
45.7333 24.9713 10.6488 -0.498573 -0.766689 0.404492
-33.737 -24.7644 -7.57132 0.622114 -0.602273 0.50024
35.5845 -38.7538 -0.391135 -0.0308136 -0.956209 0.291059
32.9496 -10.2219 47.7615 0.451453 0.805462 0.383955
-13.571 -35.3608 -43.7657 0.373528 0.918389 -0.130534
33.8803 5.71391 20.9707 -0.45196 0.470802 -0.757679
-17.8653 4.2096 19.2665 -0.829943 0.179074 0.528325
53.2765 -39.0955 4.30094 0.0469986 -0.965582 0.255818
-33.8287 -4.61482 -23.247 -0.43327 0.448919 -0.781504
-45.7429 -16.5179 4.10252 0.508416 0.600056 0.617613
8.53322 -15.6251 11.5022 -0.185584 -0.376394 -0.907682
-21.9963 -38.7335 20.1686 0.195479 -0.972414 -0.127276
-81.9742 28.5926 -15.9785 -0.734646 0.236435 0.635919
26.5767 -21.5481 -2.82855 0.794097 0.250046 -0.553973
69.7968 2.37961 30.5284 -0.093986 -0.215094 0.97206
67.3399 34.6191 16.7009 0.0180907 0.990123 0.139028
15.8078 -26.8899 22.0034 -0.363417 -0.918613 -0.155175
-57.7165 -1.36323 -20.2298 0.363742 0.337137 -0.868349
21.6618 0.935088 28.3369 0.443156 0.810678 0.382641
-34.7423 -14.201 -29.4727 -0.336011 0.451626 -0.826517
39.6853 -34.8794 64.693 -0.386409 0.242678 0.889829
101.072 22.3991 14.7876 -0.0188064 -0.849907 -0.526598
-15.209 -35.742 -33.9766 0.0200988 0.6696 0.74245
-10.1221 -11.278 7.32279 -0.0178053 -0.999472 0.0271717
66.1084 29.6527 28.36 0.24724 0.168285 0.954229
-28.5282 2.97431 -12.2183 -0.868497 0.492797 -0.0535259
-48.1306 -16.7757 -26.8471 -0.130592 0.419735 -0.898203
21.7403 -12.1823 -6.78795 0.86096 0.499007 -0.0986877
11.4371 -19.4695 37.4172 -0.178376 -0.496528 0.849495
89.244 5.59989 10.8389 -0.093274 0.25798 -0.961637
30.3386 -33.8885 2.24231 -0.0718892 0.227861 0.971036
-41.4873 -21.4521 -36.1118 0.227246 0.870263 -0.437038
-26.3098 -35.3402 23.3693 0.469292 0.801181 0.371315
-26.6347 -31.3864 14.079 0.39094 0.891719 0.228043
-3.4757 -13.373 13.2466 -0.325992 -0.799749 -0.504113
44.836 -18.6756 12.2697 0.315042 -0.731289 -0.60495
88.6682 40.023 21.1901 0.466529 0.7683 0.438254
-7.64888 -1.67135 30.7471 -0.616305 -0.00939772 0.787452
23.0488 -31.5515 1.60716 -0.31468 -0.299936 0.900564
51.7107 21.3755 32.4889 -0.53345 -0.841209 0.0883103
-19.3771 -35.8221 18.9842 0.290277 0.871066 0.396212
46.7855 -14.009 37.4777 0.518162 -0.120203 0.846793
93.9633 -2.69163 14.4511 0.419898 0.903937 -0.081136
21.0909 -9.58419 9.57373 -0.402458 0.789806 -0.462854
35.2115 -39.3262 61.3356 -0.163702 -0.870423 0.464291
58.0889 -5.43111 33.1679 0.589416 -0.234031 0.773187
92.2149 24.7822 14.7963 0.016874 -0.814016 -0.580598
42.2753 15.3987 6.71482 0.22962 -0.971321 -0.0617253
87.099 3.29377 18.7927 0.687002 0.585827 0.429924
64.8807 29.5475 10.0821 0.209947 0.32438 -0.922334
-17.7271 13.3281 4.77077 -0.551228 0.814775 0.179691
-3.76484 -6.98174 32.0277 -0.630597 -0.119592 0.766841
-27.2317 5.0141 -12.4937 -0.813896 0.576427 -0.0728314
59.5545 -9.93048 29.6647 0.644169 -0.533711 0.547904
-35.0337 -6.96028 -12.0177 -0.696836 0.582104 0.419016
-64.8935 -14.8756 -22.9654 -0.508712 -0.2294 -0.829812
-57.6713 -0.47642 -17.0646 0.657051 0.64435 0.391276
18.2002 -13.2209 -3.71101 -0.965051 0.233837 0.118305
33.5134 -27.4266 28.9296 0.0727301 -0.996082 -0.050315
-5.3571 14.3786 2.47717 0.461712 0.822253 -0.332747
22.4478 -35.1875 -5.0583 -0.981942 0.0774722 0.172591
45.6006 -17.8134 11.9903 0.327815 -0.664735 -0.671315
60.147 -9.1495 14.4828 0.636818 -0.561608 -0.528262
7.56158 -2.32411 6.44077 0.891183 0.17163 -0.419923
85.9271 23.6571 16.3355 0.0401542 -0.839655 -0.541633
-64.9606 39.4534 -16.7444 0.90056 0.38507 0.201775
-1.42557 -4.23214 -7.96336 0.914447 -0.129079 -0.383569
-24.6042 -25.3238 -23.0966 0.513221 -0.708193 -0.484836
-23.7618 11.6336 -13.5618 -0.803722 0.559171 0.203369
-17.6313 -32.6409 -42.6419 0.497227 0.866572 0.0426369
53.4735 20.1147 31.3352 -0.913725 -0.405815 0.0205256
47.9805 19.4574 26.1431 -0.654998 0.737217 0.165797
44.2156 -39.3091 -4.23825 -0.0631303 -0.995813 0.0661068
-41.0754 -26.6293 -43.162 0.690443 0.64351 -0.330429
-54.3447 -26.163 2.0577 -0.795425 -0.398328 -0.456765
83.5791 -4.94561 17.212 -0.691259 -0.666462 -0.279264
-94.0896 30.0661 -14.2928 -0.230606 0.760955 0.606439
98.4013 33.3115 10.8444 0.695774 0.647139 -0.311624
28.8785 -0.339707 28.4907 -0.145171 0.929352 0.339455
-71.5497 35.437 -18.0992 -0.836303 0.493256 -0.239365
-20.419 -18.8221 -26.3519 0.578419 -0.313786 -0.752974
53.2549 -39.9713 -3.44018 -0.00171289 -0.990967 0.134094
