ply
format ascii 1.0
element vertex 836
property float x
property float y
property float z
property float nx
property float ny
property float nz
element face 0
property list uchar int vertex_index
end_header
0.434181 -0.196095 -0.011711 -0.0949069 -0.365379 0.926008
0.075732 -0.337651 -0.043131 -0.11591 -0.975211 -0.188488
0.190422 -0.036563 -0.041153 -0.55391 -0.787072 -0.271481
0.077337 0.079434 0.057996 -0.143802 -0.014882 0.989495
0.207397 0.112918 -0.024683 -0.0296329 -0.998913 -0.0359743
-0.184597 -0.031808 -0.06305 0.396461 -0.718768 -0.571131
0.329351 -0.21242 -0.103921 -0.0706756 0.125335 -0.989594
0.306835 -0.01423 -0.000405 0.380004 0.573997 0.725345
0.171837 0.075013 -0.027945 -0.412661 -0.588039 0.695645
-0.179116 0.1647 -0.006929 -0.387732 -0.829659 -0.401658
-0.021016 -0.024002 -0.010212 -0.670668 -0.452766 -0.587543
-0.349388 -0.16713 -0.071398 0.365536 0.867949 0.336226
0.138752 0.062633 -0.026283 0.827442 -0.0193523 -0.561218
0.068397 0.167685 -0.049291 -0.162831 0.976992 -0.137743
-0.103367 -0.316119 -0.004495 0.405939 0.512604 0.756605
-0.451199 -0.176019 -0.019716 -0.561563 -0.694724 0.44945
0.090676 0.13448 -0.07532 -0.410525 0.873173 -0.26275
-0.181916 -0.304334 -0.036844 -0.139091 -0.255518 0.956747
-0.263703 0.010154 0.001621 -0.316609 0.625411 0.713176
-0.282598 -0.009843 0.012749 -0.350346 0.261627 0.899338
-0.115204 -0.265871 -0.0440725 0.375707 0.777144 0.504867
0.402747 0.019279 -0.037232 0.488026 0.311744 0.815258
0.000742 -0.340829 -0.057585 -0.00912872 -0.217403 -0.976039
-0.041867 -0.265214 -0.085491 0.46648 -0.21074 0.85906
0.235248 0.230928 0.01927 0.485836 -0.678465 0.551043
-0.382332 -0.16804 -0.099647 -0.120032 0.0493511 -0.991543
-0.200991 0.240637 0.007798 0.884599 0.113753 -0.452266
-0.226909 0.251002 0.005372 -0.913805 -0.337615 0.225778
0.372991 0.10386 -0.036895 -0.193937 0.12851 -0.97256
0.069198 0.141353 -0.071403 0.516608 0.447254 -0.730123
0.044877 0.119842 -0.078393 -0.234734 0.156122 -0.95944
-0.194504 -0.014305 0.01076 0.157199 -0.370398 0.915475
0.01163 -0.200506 -0.090585 -0.50558 0.726336 0.465645
0.090827 0.140352 0.008422 0.229256 0.964021 0.134553
0.075471 -0.029736 0.030102 0.432892 -0.89851 -0.0726926
0.100325 0.100673 0.063058 -0.2734 0.545411 0.792326
0.057075 -0.027355 0.003534 0.58128 -0.404517 -0.706031
0.152274 -0.282912 -0.087779 -0.204251 -0.450184 -0.869262
-0.131803 -0.016397 -0.04618 0.461997 -0.841788 -0.279197
-0.004599 -0.043257 0.096512 -0.400162 0.0106772 0.916382
-0.254358 0.308458 -0.01877 -0.854783 -0.171299 0.4899
-0.394708 -0.104346 0.003128 0.297254 -0.940251 0.166037
-0.404214 -0.026243 -0.011894 -0.218208 0.829798 0.513635
0.213528 -0.311225 -0.06061 -0.159259 -0.626572 -0.762918
0.420843 -0.054052 -0.072245 0.476647 0.761821 -0.438675
0.479728 -0.117986 -0.081945 0.419068 0.893208 -0.162976
0.066799 -0.311293 -0.061143 -0.182109 -0.289751 -0.939617
-0.418683 0.022672 -0.064993 0.456504 0.395707 -0.796882
0.238841 -0.053569 -0.002384 0.161918 -0.169574 0.972125
0.414988 -0.050452 -0.069704 0.433969 0.824111 -0.364022
0.437397 -0.062158 -0.025013 0.339361 0.896252 0.285598
-0.147921 -0.285358 -0.022117 -0.486699 -0.502523 0.714559
-0.359434 -0.0729 -0.077336 0.120079 -0.806693 -0.578643
0.416528 0.012048 -0.054325 0.582352 0.774886 -0.245801
0.023051 -0.053787 0.09541 -0.395783 0.126406 0.909603
0.13179 0.215323 -0.005964 -0.251163 0.967862 -0.0126395
0.371154 -0.268607 -0.070824 0.41145 -0.908365 0.0747106
-0.162614 0.168963 -0.021191 -0.429531 -0.192838 -0.882223
-0.045621 0.092142 0.055764 0.203674 0.201092 0.958164
-0.379353 0.108227 -0.038882 0.191456 0.103357 -0.976044
-0.164449 0.031034 -0.002156 0.0836788 0.442786 0.892714
0.390426 -0.196468 -0.064122 -0.208191 0.803326 0.557964
0.19183 -0.233437 -0.052627 -0.0931366 0.974417 0.20454
0.241815 0.025793 -0.054574 0.416925 0.836655 -0.355222
0.320999 -0.083313 -0.081553 -0.318745 -0.813678 -0.486138
-0.400599 -0.149577 -0.021884 0.745305 0.649352 0.151202
-0.220435 0.250268 0.014678 -0.614988 0.202559 0.762076
-0.269842 -0.226141 -0.033197 0.667935 0.0511133 0.742463
0.013879 0.06339 0.077546 0.0207237 -0.0966096 0.995107
-0.102698 0.097065 -0.032554 -0.687159 0.557542 -0.46579
0.047281 0.082761 0.061674 0.528318 -0.275541 0.803093
-0.141181 -0.354764 -0.054488 -0.420575 -0.208759 -0.882914
-0.118931 0.033284 -0.066643 -0.179088 0.45262 -0.873535
0.095195 0.114747 -0.075581 0.194787 -0.436414 -0.878408
0.370342 -0.101879 -0.014364 -0.299768 -0.452233 0.840015
0.175335 -0.014636 -0.014715 -0.519322 -0.00575845 0.854559
0.046184 -0.225576 -0.074935 0.0419359 0.751311 0.658614
-0.303864 -0.230317 -0.03654 -0.159937 -0.058701 0.98538
0.141021 0.034538 0.047196 0.378518 -0.475345 0.794211
0.396954 -0.226149 -0.040981 -0.874677 -0.278176 0.396937
-0.100354 -0.00436 0.004098 -0.427936 -0.859318 -0.280079
0.238205 -0.262851 -0.037336 0.254784 -0.336343 0.906619
-0.137558 0.217133 -6.5e-05 0.183167 0.933257 -0.308999
-0.003778 0.025757 0.095466 -0.636034 0.258034 0.727241
0.404382 -0.060284 -0.009863 0.31808 0.594212 0.73874
0.181118 0.176691 -0.024812 0.269667 0.371322 -0.888482
0.127732 0.176451 -0.030892 -0.147327 0.983084 0.108813
-0.472827 -0.158958 -0.030709 -0.797073 -0.55401 0.240308
0.425584 -0.213847 -0.013095 0.405597 -0.440409 0.800956
0.421519 -0.251439 -0.065345 0.47239 -0.881134 0.021235
0.489561 -0.14057 -0.042799 0.968056 -0.0823937 -0.236809
-0.048192 -0.350981 -0.054193 -0.0234678 -0.662839 -0.748394
0.430405 -0.235876 -0.093276 0.0926154 -0.674374 -0.732558
-0.261063 -0.045903 0.006973 0.14167 -0.450969 0.881225
-0.055911 0.027544 0.063405 0.0888484 -0.116479 0.989211
-0.357423 -0.229605 -0.044652 0.169486 -0.272563 0.947092
0.027496 -0.212883 -0.082961 -0.0154123 0.455477 0.890114
-0.117113 0.170927 -0.01862 0.393395 0.60887 0.688852
0.145375 0.009717 -0.007352 0.667241 -0.636605 -0.386683
0.138466 -0.237318 -0.060624 -0.0968855 0.97594 0.195332
0.247488 -0.045598 0.0003515 -0.208884 -0.318313 0.924686
-0.432986 -0.201448 -0.043478 -0.70026 -0.693223 0.17052
-0.002776 0.147504 0.057907 -0.476427 0.678932 0.558632
0.125327 -0.243424 -0.046981 -0.0744093 0.970482 0.229408
-0.438053 0.01508 -0.072656 -0.566081 0.636094 0.524344
-0.137593 -0.24464 -0.086293 0.190376 0.96839 -0.161176
-0.115298 -0.274481 -0.096807 -0.0269383 -0.195528 -0.980328
0.19133 0.117907 -0.042446 0.303428 -0.721623 -0.622247
0.078166 0.058974 -0.07714 0.0538228 0.221543 -0.973664
-0.013895 -0.358851 -0.043996 0.124571 -0.876591 -0.464834
-0.090512 0.131031 0.015492 -0.56799 0.822458 -0.0308229
-0.424484 -0.205609 -0.071984 0.0340556 -0.856487 -0.515043
0.377471 -0.043728 -0.008352 0.53095 0.674896 0.512452
0.030763 -0.057422 0.017264 -0.182862 -0.965006 -0.187952
-0.230064 0.102519 -0.006632 0.220138 -0.821247 0.526396
0.305836 -0.225439 -0.03966 -0.340132 0.404697 0.848841
-0.050603 0.100043 -0.075543 -0.307845 -0.0852981 -0.947605
0.263079 -0.26787 -0.091516 -0.0609682 -0.779958 -0.622855
-0.318726 0.116771 -0.017955 0.154832 0.984872 -0.0778135
0.446792 0.088135 -0.060819 -0.286236 0.453421 -0.844084
0.241855 0.014327 -0.006174 0.306131 0.626955 0.716388
-0.082815 0.133244 -0.073641 -0.00327926 0.939948 -0.341301
0.22584 0.375654 -0.05261 -0.241645 0.729949 0.639361
-0.321007 0.008827 -0.025099 -0.36868 0.929252 0.0237858
0.357353 -0.018267 -0.053299 0.283492 0.948199 -0.143354
-0.369169 0.003147 -0.012198 -0.193949 0.773505 0.603385
0.056683 0.064227 -0.079852 -0.224982 -0.224448 -0.948159
0.037905 -0.040261 -0.009005 0.405835 -0.640456 -0.652008
0.178962 -0.258362 -0.092928 0.137823 0.10253 -0.985136
0.203851 -0.242018 -0.093502 -0.00814401 0.0937363 -0.995564
-0.075638 0.131993 -0.076703 0.0209656 0.881494 -0.47173
0.387192 -0.091774 0.002033 -0.301288 -0.566513 0.766999
-0.298745 -0.262802 -0.035766 0.621542 -0.673045 0.400869
-0.313278 0.06935 -0.003712 -0.38681 0.905318 0.175436
-0.301629 -0.299577 -0.055194 -0.220765 -0.871812 0.437271
0.221064 -0.262147 -0.09396 0.0503112 -0.146238 -0.987969
-0.257195 -0.262356 -0.097415 -0.0826708 -0.47497 -0.87611
0.310786 -0.252326 -0.045075 0.201192 -0.271206 0.941259
0.078288 -0.027454 0.008588 0.517853 -0.784908 -0.340216
-0.267876 0.221113 -0.004898 0.4164 0.838209 -0.352161
-0.036532 0.1698 -0.042008 -0.274806 0.808692 -0.520095
-0.229792 0.003976 0.012767 -0.124623 0.434075 0.892215
0.054484 -0.047703 0.031638 0.871476 -0.450919 0.192878
0.361399 -0.077916 -0.001747 -0.344309 -0.459731 0.818595
0.18894 -0.282855 -0.086204 0.106867 -0.710321 -0.695718
-0.249113 -0.066173 -0.019585 0.28625 -0.950463 0.121163
0.154725 0.078129 0.025182 0.747406 0.32755 0.57801
0.266747 -0.033754 0.004055 -0.2158 -0.223261 0.950571
-0.0619365 0.115348 0.0514045 -0.162153 0.354523 0.92088
-0.189246 0.228771 0.01437 0.345098 0.686402 -0.640125
0.004994 0.185934 -0.004505 -0.280833 0.953761 -0.107108
0.093419 0.073808 -0.07071 0.239837 -0.534426 -0.810473
0.074018 -0.010004 0.064359 0.597844 -0.450586 0.662989
-0.413032 0.029002 -0.044729 -0.727495 0.184158 0.660936
-0.26365 0.01765 -0.005215 -0.29637 0.88057 0.369813
-0.253066 0.1201 -0.014241 -0.037101 0.99919 0.0155902
-0.307519 -0.001092 -0.064584 0.0464442 0.763104 -0.644605
0.066256 -0.255624 -0.086066 0.0649535 -0.317177 -0.946139
0.001991 0.036742 0.089444 -0.428207 0.523185 0.736829
-0.010223 -0.010571 0.098143 -0.514507 0.0134389 0.857381
-0.170313 0.116413 -0.022805 0.294631 0.200842 0.934267
-0.029263 0.104885 -0.07751 0.0768916 -0.041902 -0.996159
-0.153184 -0.303917 -0.029636 -0.269017 -0.178763 0.9464
0.479874 -0.161321 -0.012755 0.557411 -0.0464403 0.828937
-0.233354 0.292336 -0.010392 0.570859 0.616983 0.541713
0.020915 -0.226253 -0.087302 -0.710474 -0.44359 -0.54631
0.034299 -0.024467 -0.018579 0.172632 -0.483346 -0.858239
-0.089257 0.089887 -0.083045 -0.249699 0.109843 -0.962073
-0.093379 0.200628 -0.012095 0.334588 0.928593 -0.160519
-0.110703 -0.350004 -0.011785 -0.636102 -0.354763 0.685213
0.119491 0.07894 0.062519 0.659335 0.194055 0.726375
-0.082245 -0.28366 -0.03868 0.675975 0.392466 0.623722
0.273368 -0.040551 0.002794 -0.25397 -0.393445 0.883572
-0.364893 0.110239 -0.036538 0.101027 0.351098 -0.930872
-0.346251 -0.23313 -0.045052 -0.222588 -0.233665 0.946496
-0.021898 -0.080898 0.064992 -0.513509 -0.760278 -0.397852
-0.243251 0.18837 0.012473 -0.296193 -0.889523 -0.347876
-0.12881 -0.01484 -0.030181 0.425262 -0.66161 0.617596
-0.22922 -0.220371 -0.062791 0.347202 0.866682 0.358209
0.071797 0.129588 0.035714 -0.175568 0.780784 0.599626
0.458283 -0.13237 0.014493 -0.173546 -0.691142 0.701573
-0.028267 0.088852 -0.077602 0.0920522 -0.0534072 -0.994321
-0.461147 -0.127319 0.003174 -0.435392 -0.0930599 0.895418
-0.313557 -0.240113 -0.038929 -0.274151 0.0123488 0.961607
0.0036635 0.104851 0.0766175 -0.404746 0.053355 0.912871
0.074567 -0.267339 -0.082347 -0.0564467 -0.215278 -0.97492
-0.142444 -0.286869 -0.019387 -0.384433 -0.580058 0.718153
0.335103 -0.246083 -0.048586 0.244984 -0.292603 0.924319
0.244387 -0.006772 -0.080711 0.175439 0.360962 -0.91593
0.073031 -0.33197 -0.009454 0.125797 -0.73675 0.66436
0.245684 -0.061017 -0.01155 0.0119905 -0.854598 0.519152
0.278832 0.002663 -0.0082 0.541303 0.471396 0.696259
-0.313522 -0.18427 -0.0725775 0.38858 0.87078 0.301244
0.344838 -0.103904 -0.024974 -0.174532 -0.838589 0.51605
0.240028 0.122665 0.004821 -0.403006 -0.202006 0.892625
0.110663 -0.312115 -0.058033 -0.0606941 -0.583299 -0.809986
0.365603 -0.256198 -0.056361 0.283188 -0.339847 0.896833
-0.336063 0.237988 -0.01954 -0.406424 -0.909515 -0.0871878
-0.366601 -0.163934 -0.058982 0.287399 0.781757 0.553405
0.136898 0.099522 0.038664 0.827135 0.54142 0.150706
0.386164 -0.180454 -0.093607 -0.432194 0.875478 0.21621
0.243266 -0.231947 -0.096065 -0.0784013 0.132031 -0.98814
0.028013 -0.297157 -0.058679 0.0813215 -0.207106 -0.974933
-0.264247 -0.002454 0.012501 -0.076845 0.719449 0.690281
0.289406 -0.070376 -0.080389 -0.33404 -0.732019 -0.593772
-0.360385 -0.159579 -0.079212 0.432407 0.869837 0.237502
-0.108254 -0.010489 -0.041981 0.30098 -0.942467 -0.145487
-0.261681 0.019078 -0.033205 -0.305934 0.932352 -0.192677
-0.07665 0.134765 -0.061383 -0.39328 0.906076 -0.156066
0.322195 -0.029924 -0.080944 -0.00831997 0.477187 -0.878763
-0.125089 0.091876 -0.041426 0.430061 0.405313 0.806703
0.004572 -0.021055 0.10202 -0.0673321 -0.520853 0.850987
0.009612 -0.064188 0.035016 -0.334026 -0.933061 -0.133503
-0.393383 0.100501 -0.029525 -0.0187557 -0.988928 0.147208
-0.08529 -0.314868 -0.011346 0.296874 0.640754 0.708025
-0.09919 0.071037 0.059108 -0.559179 0.0714491 0.825962
-0.260429 -0.269424 -0.084449 -0.154892 -0.726248 -0.669755
-0.153029 -0.346938 -0.044144 -0.581942 -0.692469 0.426415
0.040514 -0.048907 0.09061 0.630206 0.225494 0.742962
-0.143302 0.0749595 0.0206355 -0.859537 0.49821 0.113946
-0.217217 -0.0587 -0.008899 -0.204931 -0.977455 0.0508534
0.341425 0.052946 -0.011462 0.652639 0.66802 0.357507
0.12921 0.087604 0.050716 0.562419 -0.148072 0.813486
-0.065181 0.159514 -0.067439 -0.110619 0.377089 -0.919548
-0.34465 -0.091853 -0.022072 0.00926273 -0.740492 0.672002
0.240371 0.237679 0.021636 0.440047 -0.457864 0.772476
-0.20955 -0.340051 -0.057939 0.619374 -0.744574 -0.248969
-0.131812 0.088431 0.004733 -0.964177 0.265244 0.00282354
0.102651 0.10907 0.054147 -0.22271 0.633738 0.740794
-0.345824 -0.254927 -0.062792 -0.0457942 -0.92371 -0.380346
0.140659 0.0094435 -0.077698 -0.482037 -0.250516 -0.839572
0.457213 -0.12713 -0.096947 0.0196081 -0.118565 -0.992753
0.118305 -0.306165 -0.026978 0.355263 -0.0581884 0.932954
-0.122829 0.002738 -0.073012 0.273667 -0.384057 -0.88182
0.107553 0.199209 -0.026223 0.399219 0.339263 -0.851777
-0.237851 0.110968 0.000257 0.182959 0.0259577 0.982778
-0.200892 0.022058 -0.064036 -0.205185 0.591728 -0.779588
-0.171111 0.162425 -0.009347 -0.301757 -0.911994 -0.277865
-0.245892 -0.220333 -0.095362 0.185828 0.305269 -0.933959
-0.326565 -0.224236 -0.099552 -0.0130693 -0.0811592 -0.996615
0.169273 -0.324277 -0.059367 -0.598692 -0.197666 -0.776206
0.221334 -0.052014 -0.013452 -0.609127 -0.653578 0.449221
-0.437796 -0.036967 -0.010012 -0.628097 0.408012 0.662586
0.293138 -0.229451 -0.098895 -0.0693321 0.0608977 -0.995733
0.342194 -0.21328 -0.034027 0.484484 0.731251 0.480153
-0.184023 -0.292548 -0.033996 -0.144412 -0.20074 0.968942
-0.153568 0.028594 -0.002834 0.487012 0.0117743 0.873316
0.218844 0.132161 -0.009825 -0.128723 0.906074 0.403064
0.404094 -0.093399 0.005769 0.236522 -0.595803 0.767513
0.014945 -0.302204 -0.023535 -0.437622 0.131216 0.889533
0.39209 -0.102192 -0.094858 -0.273805 -0.768107 -0.578829
0.433755 -0.13662 -0.036957 -0.434223 -0.887389 -0.15489
0.474208 -0.123678 -0.006901 0.327369 -0.000776631 0.944896
0.402289 0.101092 -0.024146 0.367316 0.418659 0.830544
-0.046201 -0.264199 -0.083254 0.568049 -0.0401928 0.822013
-0.130554 -0.247037 -0.095198 -0.0586267 0.795207 -0.603498
0.392047 -0.120524 -0.049731 -0.263117 -0.941875 -0.208905
0.123832 -0.287241 -0.025678 0.212215 -0.348103 0.91312
-0.341599 -0.250629 -0.052911 -0.281834 -0.622797 0.729859
0.065573 0.140353 0.023954 0.378757 0.651292 0.657542
0.480032 -0.196636 -0.070105 0.72913 -0.399805 -0.55545
-0.452947 -0.059047 -0.048443 -0.781712 0.505692 -0.364967
0.308711 -0.037207 0.004615 -0.0590174 0.209238 0.976082
0.086523 0.137941 -0.058211 0.544545 0.661979 -0.515029
0.473479 -0.090377 -0.052653 0.765744 0.507671 -0.394849
-0.059342 0.176435 -0.016171 -0.151831 0.262288 0.95297
0.277848 -0.224609 -0.09747 -0.0755215 0.166763 -0.9831
-0.005671 -0.263554 -0.063425 0.529584 0.547652 -0.64778
-0.145491 0.211589 -0.004299 -0.207988 0.337331 -0.918123
0.246889 0.28528 -0.011927 -0.633487 0.218547 -0.742247
0.008727 0.033521 0.104301 -0.720212 0.568822 0.397161
-0.386232 -0.025617 -0.006315 -0.256734 0.655616 0.710109
0.26703 0.369485 -0.040606 0.423375 0.750199 -0.507892
0.148624 0.068054 0.03491 0.772853 0.0660361 0.63114
-0.420242 -0.065641 0.00947 -0.0209578 -0.0468345 0.998683
-0.033345 0.166159 0.01808 -0.501675 0.605173 0.618133
0.268249 0.011966 -0.003385 -0.153455 0.432879 0.888295
0.435306 -0.117571 -0.098669 0.126744 0.0334781 -0.99137
0.243983 0.030802 -0.024602 0.532984 0.844791 0.0475061
-0.016854 0.177849 -0.049287 -0.268557 0.805236 -0.528652
-0.027973 0.090947 -0.077719 0.082242 -0.032121 -0.996095
0.157327 -0.292701 -0.07868 -0.0225494 -0.705256 -0.708594
0.070159 -0.256576 -0.038891 -0.155914 0.771767 0.616495
0.291609 0.124715 0.004336 0.139445 0.986092 0.0904313
-0.446885 -0.044949 -0.041421 -0.657839 0.680173 -0.323437
0.361181 -0.239849 -0.104735 0.133211 -0.587189 -0.798413
-0.39803 -0.082114 -0.0786 0.322829 -0.780877 -0.534801
0.351583 0.229288 -0.024417 -0.395478 0.885536 -0.243767
-0.274463 -0.061408 -0.063142 0.19634 -0.843098 -0.500636
0.032694 0.011913 0.09412 0.522688 0.422502 0.740465
-0.42452 -0.074294 -0.087074 -0.21622 0.42535 -0.878821
0.008879 -0.20116 -0.096107 -0.643909 0.297611 -0.704847
-0.015329 -0.245283 -0.100658 0.857122 -0.352647 0.375475
0.340551 -0.050121 0.00268 0.626969 -0.141629 0.766062
0.317256 -0.012265 -0.066548 0.0783379 0.792535 -0.604774
-0.21685 0.255861 0.012814 -0.0751697 0.618645 0.782066
-0.056778 0.089129 -0.076745 0.266791 -0.229937 -0.935923
-0.439539 -0.122413 0.006361 0.320766 0.539169 0.778721
0.429238 -0.22014 -0.102792 -0.0145078 -0.317287 -0.948219
0.039712 -0.031814 0.092983 0.589222 -0.13367 0.796838
0.00187 0.030441 -0.043748 0.334149 -0.517536 -0.787718
0.340725 -0.220205 -0.029631 0.388091 -0.00738227 0.921592
-0.236229 0.081069 -0.006055 -0.397336 0.734096 -0.550661
-0.052583 -0.31911 -0.033967 0.406192 0.715597 0.568269
-0.265002 -0.249545 -0.09673 -0.053097 -0.186176 -0.981081
-0.091085 0.073819 -0.069349 -0.0562149 -0.902345 -0.427332
0.252382 0.260428 0.013994 0.655562 0.029173 0.754578
0.405208 -0.211576 -0.03175 -0.668495 -0.174863 0.722868
-0.461853 -0.054763 -0.010502 -0.850029 0.498035 0.171498
-0.033152 0.118324 0.044462 -0.627524 0.354838 0.693039
-0.271045 0.072853 0.012031 -0.190413 0.904548 0.381491
0.073832 -0.28359 -0.078136 -0.394918 -0.370712 -0.840603
0.265395 -0.28576 -0.063886 -0.706103 -0.703264 -0.08269
0.477414 -0.169515 -0.012142 0.537672 -0.0554431 0.841329
0.286686 0.199096 0.014073 0.281203 -0.254501 0.925286
0.489633 -0.16265 -0.020973 0.840935 -0.0585337 0.537961
-0.079468 -0.251634 -0.078071 -0.0604638 0.832016 0.551447
0.272562 0.014689 -0.025697 0.271255 0.962503 0.00289106
-0.035939 0.017883 -0.045102 0.0849851 -0.972769 -0.215636
-0.036267 -0.03698 0.011058 -0.345618 -0.619852 -0.704508
-0.02215 0.051245 0.060014 -0.591087 0.210063 0.778775
-0.376753 -0.161295 -0.099497 -0.0766471 0.108602 -0.991126
0.02805 -0.324556 -0.058353 -0.254645 0.966887 0.016873
-0.083935 -0.307842 -0.080955 0.704685 -0.315136 -0.635695
-0.166235 -0.034505 -0.001539 -0.391658 -0.822596 0.412237
-0.18107 0.049083 -0.03471 -0.249731 0.96509 -0.0789677
-0.168808 0.104151 -0.042412 -0.0433643 -0.963046 -0.265825
0.0931595 -0.007638 0.02326 0.683568 -0.615137 0.392862
0.296949 -0.206625 -0.085213 -0.338034 0.936102 0.0971895
-0.437631 -0.086541 0.021994 -0.119173 0.453503 0.883251
-0.054873 0.10099 0.057613 0.0823031 0.0930231 0.992256
-0.402903 -0.100345 -0.028264 0.130282 -0.978691 -0.158712
0.011626 -0.026643 -0.016838 -0.121606 -0.335056 -0.934318
-0.45424 -0.076443 0.00356 -0.514459 -0.243606 0.822185
-0.227903 0.118706 -0.009592 0.0921623 0.920059 0.380785
0.403672 0.019783 -0.038111 0.556888 0.554602 0.618298
-0.362288 -0.033683 -0.087124 -0.260152 0.583093 -0.769626
-0.161192 0.215615 0.024269 0.397239 0.224451 0.889844
0.368252 -0.107298 -0.073294 -0.216836 -0.859776 -0.46235
0.072946 -0.31387 -0.06091 -0.205752 -0.443527 -0.872324
0.24253 0.188192 0.020164 -0.20106 -0.0684689 0.977183
-0.24818 -0.208961 -0.072347 0.413937 0.874366 0.253257
0.163066 0.224469 0.00612 -0.370717 0.904325 0.211579
-0.462257 -0.055849 -0.0096 -0.862606 0.474276 0.175991
-0.13908 -0.302017 -0.025562 -0.270893 -0.306558 0.912491
0.390966 -0.210305 -0.053835 -0.624772 0.0503899 0.77918
-0.11292 -0.347506 -0.067407 -0.0738929 -0.487306 -0.870099
0.433241 -0.061928 -0.02183 0.28837 0.842449 0.455108
0.239594 -0.26502 -0.038393 0.201185 -0.333975 0.920861
0.437202 -0.164974 -0.010695 -0.705103 0.673534 0.221767
-0.01423 0.14743 -0.063705 -0.211513 0.473168 -0.855204
-0.168533 -0.329192 -0.039269 -0.673874 -0.390913 0.626961
0.094744 0.161561 -0.060479 0.670613 0.171146 -0.721794
-0.169865 -0.311099 -0.079052 -0.222147 -0.764229 -0.605479
-0.268176 -0.067213 -0.046554 0.284111 -0.893449 -0.347894
-0.324338 -0.255584 -0.047996 -0.45248 -0.568451 0.687114
0.436546 -0.128603 -0.091363 -0.38513 -0.853884 -0.350082
-0.098196 0.122885 -0.008331 -0.568656 0.7984 -0.197958
0.31716 -0.247592 -0.103488 -0.0320748 -0.356589 -0.93371
-0.452987 0.1073 -0.058145 0.365711 0.357342 -0.859396
0.272402 0.197337 -0.000119 -0.4239 -0.0915843 -0.901067
0.173472 0.168725 -0.00335 -0.166076 -0.551847 0.817241
-0.360913 -0.001664 -0.030196 -0.0764496 0.99679 0.0237619
-0.181667 0.009356 -0.073758 -0.0445916 0.323479 -0.945184
0.413346 -0.102145 0.000298 -0.0671094 -0.205021 0.976454
-0.076784 -0.014489 0.00566 -0.210791 -0.961198 -0.177949
-0.191396 -0.032817 0.006883 0.372174 -0.415254 0.830091
0.395172 -0.0785305 0.0023425 0.25596 0.337552 0.905838
-0.079676 -0.24845 -0.083251 -0.0492072 0.845433 0.53181
0.072576 -0.275484 -0.012969 -0.650172 0.488726 0.581741
0.186139 0.177586 0.001359 -0.361944 0.491224 0.792273
0.00335 -0.058435 0.0986 0.517532 0.187949 0.834767
0.319553 0.20626 0.002022 0.727595 -0.3823 0.569606
-0.050727 0.125633 0.038269 0.375168 0.772047 0.513023
0.09596 0.032634 0.062288 0.273161 -0.284004 0.919089
-0.476377 -0.167465 -0.050333 -0.961534 -0.269414 -0.0535502
0.022596 0.185254 0.006884 0.278295 0.960495 0.000714745
-0.106964 -0.300019 -0.010117 0.294144 0.0984045 0.950682
-0.063603 0.013798 -0.045144 0.212329 -0.93981 -0.267718
0.014612 -0.110928 0.056594 0.0204946 0.359472 -0.932931
-0.046245 0.055661 0.052091 0.402352 0.147994 0.903444
-0.221464 -0.218012 -0.084103 0.210405 0.975045 -0.0708294
-0.140621 -0.30956 -0.088358 -0.0902351 -0.565499 -0.819798
-0.187996 -0.234193 -0.06137 0.270853 0.940353 0.205852
0.362673 -0.237147 -0.108815 0.100393 -0.36289 -0.926408
-0.29573 0.216712 0.001396 -0.442455 -0.75416 0.485259
0.060333 -0.275093 -0.072299 -0.824018 -0.396359 -0.404839
-0.274022 -0.04595 -0.082398 0.20765 -0.52048 -0.82824
0.45455 -0.090733 -0.004487 0.349223 0.322583 0.879763
-0.241305 -0.034573 0.0103 0.131553 -0.420356 0.897772
-0.433609 -0.136015 -0.087643 0.295341 0.139185 -0.945199
-0.070492 0.094574 -0.081888 0.327727 0.303264 -0.894777
0.037904 -0.073864 0.056678 -0.197276 -0.637896 -0.744427
-0.208977 -0.265918 -0.032165 -0.0881762 -0.119249 0.988941
-0.296457 -0.073943 -0.046419 0.271328 -0.899851 -0.34154
0.406733 -0.246761 -0.048509 -0.424142 -0.666314 0.613294
-0.028501 -0.035064 0.007479 -0.515157 -0.518045 -0.682819
-0.359565 -0.275752 -0.057139 0.68066 -0.643475 -0.350202
-0.135245 -0.012 -0.058454 0.0702064 -0.809611 -0.582753
0.38156 -0.031384 -0.032434 0.352377 0.894391 0.27549
-0.376098 -0.221127 -0.046801 -0.194822 -0.0918838 0.976525
0.395593 -0.191612 -0.059989 -0.838879 0.544206 0.0110538
-0.095708 0.133287 -0.066792 -0.193059 0.91693 0.349237
0.175661 0.046564 -0.043355 -0.0304612 0.9505 -0.309228
-0.20369 0.224378 0.023956 -0.591276 -0.599666 0.539253
-0.153942 -0.306387 -0.092715 -0.217496 -0.587759 -0.779253
-0.453155 -0.114478 0.00972 -0.124311 -0.0368966 0.991557
-0.00772 -0.035388 0.09479 -0.475027 -0.154538 0.866295
-0.342536 -0.207854 -0.036176 -0.452138 -0.446397 0.772205
0.216664 -0.238568 -0.093564 -0.080333 0.137005 -0.987308
0.210595 0.036276 -0.060134 0.200936 0.8416 -0.501333
-0.172327 0.168013 0.010017 0.349194 -0.439295 0.827698
0.201254 -0.263113 -0.093404 -0.0724508 -0.02775 -0.996986
-0.107674 -0.329441 -0.08058 0.279968 -0.679304 -0.678354
0.377394 -0.219351 -0.107711 -0.0524236 0.131635 -0.989911
0.017972 0.041439 -0.060022 -0.413369 -0.539842 -0.733278
0.097397 -0.332552 -0.033861 0.252391 -0.591658 0.765663
-0.44845 -0.120656 0.009072 0.0874102 -0.0835957 0.992659
-0.198859 -0.31365 -0.071721 -0.107732 -0.699786 -0.706182
0.092325 0.070684 -0.072311 0.283871 -0.262001 -0.922374
0.215646 0.116881 -0.032267 0.29097 -0.653711 -0.698568
0.261276 -0.000394 -0.073519 0.277447 0.529869 -0.801412
0.079468 -0.337205 -0.044252 -0.204198 -0.936964 -0.283552
0.169865 -0.310161 -0.06536 -0.202977 -0.546923 -0.812204
-0.236688 -0.069672 -0.011156 0.118043 -0.985156 0.124634
0.334953 -0.27339 -0.071409 -0.0630246 -0.890497 -0.450603
0.151501 -0.270035 -0.089722 -0.0502693 -0.0752875 -0.995894
0.243927 -0.025782 -0.085808 0.0177468 0.114298 -0.993288
-0.238797 -0.035828 -0.076512 0.0382924 -0.493679 -0.868801
0.116356 -0.285098 -0.022368 0.331217 -0.483806 0.810078
0.265685 -0.216591 -0.092928 -0.407627 0.590377 -0.696631
-0.021083 0.142425 -0.067308 0.22117 0.640319 -0.735579
-0.085682 0.001783 -0.039109 0.377949 -0.886679 0.266374
0.297387 0.064099 -0.007237 -0.121665 0.867065 -0.48311
-0.386064 -0.151554 -0.096193 -0.0343117 0.178301 -0.983378
-0.135287 0.072868 0.006908 -0.951542 0.217237 -0.217662
-0.290852 -0.242142 -0.03477 -0.167297 -0.201995 0.964992
-0.065051 0.170702 -0.014787 -0.429792 -0.549691 0.716323
0.357751 -0.048996 -0.003693 0.00951683 0.323419 0.946208
-0.190123 -0.288339 -0.034268 -0.236977 -0.35485 0.904391
0.155231 -0.287543 -0.085113 -0.143656 -0.75434 -0.640573
-0.118957 -0.002364 0.012143 -0.672381 -0.740195 -0.00380802
0.425058 0.083705 -0.048971 -0.149295 -0.87862 -0.453583
0.042826 -0.033622 -0.014437 0.615734 -0.484835 -0.621134
-0.273002 -0.257303 -0.040067 -0.158248 -0.407003 0.899614
0.198255 0.0354785 -0.0166255 0.180633 0.536845 0.824117
0.352081 -0.304181 -0.06466 -0.22342 -0.951575 -0.211161
-0.073156 -0.321597 -0.022736 0.562445 0.561241 0.607177
0.350147 -0.261159 -0.044172 0.210058 -0.166231 0.963454
0.09303 -0.310364 -0.0659855 0.236279 -0.711941 -0.661296
-0.15935 -0.341747 -0.050302 -0.593401 -0.753059 -0.284212
-0.248576 -0.211271 -0.067055 0.38894 0.831761 0.396104
-0.473215 -0.08282 -0.035307 -0.493732 0.742393 -0.452859
-0.226077 -0.238105 -0.0228215 -0.117321 0.0810699 0.989779
-0.084392 0.03173 0.057765 -0.505488 -0.320652 0.801039
0.259503 -0.040863 0.001697 0.0848076 -0.235149 0.968252
0.093707 -0.342915 -0.040134 0.168132 -0.831484 0.529496
-0.065014 0.05551 -0.074273 -0.149131 0.356033 -0.922497
0.383333 -0.0659635 0.0057525 0.488377 0.656129 0.575311
-0.233036 -0.052591 -0.000778 0.220969 -0.64549 0.731105
-0.018718 0.0039 0.08975 -0.659379 0.399014 0.637187
-0.161414 0.159771 -0.005552 -0.107568 -0.978271 0.177245
-0.105763 -0.331918 0.008252 0.426414 -0.497842 0.755198
0.253897 0.017479 -0.01629 0.255689 0.836503 0.484651
-0.042368 -0.361161 -0.045427 0.0144398 -0.783959 -0.620644
-0.178271 -0.284597 -0.031694 -0.11654 -0.250064 0.96119
0.07397 0.157282 -0.002614 0.440363 0.712419 0.546387
0.022423 0.172501 -0.053679 0.0360841 0.441209 -0.896679
0.359529 -0.099251 -0.083864 -0.313853 -0.818693 -0.480872
-0.244158 0.286819 -0.010906 -0.860538 -0.372273 0.347689
0.392583 0.023557 -0.031933 0.401809 -0.0743969 0.912697
-0.015107 -0.280498 -0.061784 -0.43228 -0.609065 -0.664962
-0.072918 0.051348 0.067866 0.103167 0.148988 0.983442
-0.370625 -0.234376 -0.049624 -0.547679 -0.546415 0.633623
0.225654 -0.278862 -0.035474 0.764456 -0.0783009 0.639903
-0.106318 0.024638 0.04044 -0.440795 -0.630867 0.638519
-0.24637 0.309596 -0.034769 -0.079711 -0.469166 -0.879505
0.432543 -0.170986 -0.058287 -0.337082 0.937384 -0.0876714
-0.036258 -0.029223 0.059336 -0.805013 -0.400448 0.437717
-0.10455 -0.256682 -0.064741 0.211527 0.834244 0.509209
-0.148681 0.04788 -0.03941 -0.109011 0.979254 -0.170814
-0.270332 -0.200463 -0.084459 0.394713 0.908666 -0.136115
-0.225283 0.28298 -0.00806 0.724896 0.585959 0.362185
-0.166329 -0.035068 -0.036101 0.517833 -0.800401 -0.302007
0.456447 -0.207127 -0.020347 0.140107 -0.793664 0.592002
-0.008219 0.1295 0.078665 -0.608407 0.10611 0.7865
-0.271816 -0.266634 -0.083474 -0.367043 -0.65397 -0.661516
0.215444 -0.008416 -0.084023 0.0174809 0.108293 -0.993965
-0.371087 -0.22355 -0.045529 -0.355611 0.0246636 0.934308
0.281882 -0.22566 -0.0303 -0.0725191 0.978942 0.190826
0.479066 0.076741 -0.080165 0.113787 0.889914 -0.441708
0.059785 -0.268481 -0.03306 -0.631773 0.542012 0.554153
-0.230623 0.346778 -0.047316 0.504612 -0.0663884 0.86079
-0.139165 0.015939 -0.068777 -0.254627 0.253421 -0.933243
0.44885 0.085922 -0.046633 0.454278 -0.329505 0.827682
0.450619 -0.118635 -0.0941895 0.308547 0.494358 -0.812655
0.090567 0.129601 -0.079587 -0.253503 0.588138 -0.768004
0.321783 0.110558 0.00344 0.248957 -0.146597 0.957356
0.278682 -0.052909 -0.086326 -0.284016 -0.10166 -0.953415
-0.213462 0.264321 -0.012575 0.733417 0.102676 -0.67198
-0.38223 0.046959 -0.035213 -0.181335 0.95583 -0.231314
-0.190324 -0.041077 -0.050309 0.249277 -0.831538 -0.496392
0.103539 -0.266145 -0.083341 -0.146441 0.0040117 -0.989211
-0.316826 0.23493 -0.021331 0.0811713 -0.49014 -0.867856
0.12626 -0.315054 -0.030441 0.192932 -0.273036 0.942459
0.146966 0.08324 -0.07504 0.53429 -0.168785 -0.828279
0.193262 -0.012109 -0.004515 -0.440388 0.138295 0.887092
0.367863 -0.20368 -0.05328 0.119187 0.923186 0.365406
-0.14626 0.167127 -0.002579 0.433627 -0.152957 0.888016
0.383644 -0.234224 -0.101439 0.288672 -0.603974 -0.742889
-0.238706 0.120683 -0.017095 -0.0527511 0.996713 -0.0614822
-0.293958 -0.24318 -0.095764 -0.125499 -0.318158 -0.939694
0.050024 0.17063 -0.005953 0.334459 0.805538 0.489128
-0.29046 -0.25701 -0.035124 0.171726 -0.315403 0.933291
0.214427 -0.231563 -0.047889 -0.0797421 0.962456 0.259458
0.007082 0.028575 0.101788 -0.837063 0.126799 0.53221
0.37195 -0.070233 0.009215 -0.690835 0.366202 0.623412
0.418164 -0.112411 -0.097152 -0.302115 -0.465078 -0.832123
0.400745 -0.063613 -0.088959 0.321992 0.501539 -0.802982
0.433598 -0.234814 -0.04567 0.419979 -0.847677 0.324133
-0.233883 0.286534 -0.024171 0.281144 -0.228609 -0.932039
0.002846 -0.060627 0.099776 0.526326 0.166501 0.833822
-0.001035 -0.054206 0.019664 0.356321 -0.906291 -0.227316
0.246686 0.010823 -0.070432 0.328422 0.556055 -0.763507
0.308216 -0.204731 -0.084695 -0.082555 0.988715 0.125009
0.325206 -0.023288 -0.077941 0.0560685 0.576402 -0.81524
0.222903 -0.295592 -0.056755 0.537208 -0.842008 0.0493011
-0.19037 -0.291991 -0.035363 -0.260588 -0.237066 0.935892
0.393841 -0.054747 -0.086191 0.29565 0.495097 -0.816988
0.478011 -0.157343 -0.087564 0.479069 0.0605515 -0.875686
-0.059943 0.149223 -0.067746 -0.237893 -0.028813 -0.970864
0.305183 0.063407 -0.009182 -0.0728941 0.956511 -0.282442
-0.30351 0.223762 0.002453 -0.465084 -0.43091 0.773313
0.428715 -0.202325 -0.013171 0.247398 -0.181512 0.95176
0.43162 -0.242933 -0.083141 0.335577 -0.891036 -0.305686
0.357162 -0.073664 -0.000756 -0.250463 -0.382269 0.88946
0.227713 -0.031939 0.000614 0.105943 -0.314384 0.943366
-0.461325 -0.074805 -0.05876 -0.935942 0.271081 0.224782
0.274706 0.356279 -0.034465 -0.0759289 -0.738985 -0.669429
0.182241 0.077719 -0.021628 -0.432413 -0.0765321 0.898422
0.305956 -0.261202 -0.045523 0.438389 -0.278986 0.85439
-0.07705 -0.353138 -0.021858 -0.468395 -0.715636 0.518141
0.035392 0.114468 -0.079276 -0.00895436 -0.0491332 -0.998752
-0.100104 -0.270912 -0.044822 0.19454 0.808207 0.555838
-0.361494 0.276417 -0.046069 0.428715 0.796298 0.426747
0.136763 0.020093 -0.013862 0.337518 -0.471992 -0.814436
0.371047 -0.034719 -0.0809385 0.188497 0.554381 -0.810636
-0.100146 -0.280135 -0.097425 -0.141623 -0.0317987 -0.98941
-0.01901 -0.040722 0.000824 -0.656496 -0.533946 -0.532836
0.198966 0.066993 -0.018703 -0.340998 -0.834061 0.433661
0.463764 -0.0708 -0.019127 0.595876 0.519345 0.612546
-0.46367 -0.187589 -0.045923 -0.52183 -0.782051 0.340721
-0.036266 0.109973 0.047088 -0.302083 0.473757 0.827224
0.151981 0.133986 -0.061415 0.366283 0.672687 -0.642906
0.057846 -0.326308 -0.044269 -0.512821 -0.853137 -0.0957657
-0.362071 -0.014409 -0.069316 -0.194605 0.644323 -0.739579
0.029769 -0.302681 -0.017714 -0.290626 0.428995 0.855278
0.357035 0.223669 -0.012088 0.283985 0.264959 0.921493
-0.257986 0.112334 -0.017296 -0.383185 0.163221 -0.909136
0.123041 0.174184 -0.027489 -0.3725 0.767061 0.522361
0.355236 -0.075221 -0.002179 -0.294146 -0.445406 0.845631
0.057638 0.118888 0.042601 0.385866 0.484097 0.785339
0.466288 -0.149487 -0.003389 0.442729 0.177613 0.878888
-0.431379 -0.124062 -0.000647 0.766378 0.606705 0.211123
0.2153 -0.282179 -0.081828 0.144891 -0.773228 -0.617354
-0.427793 -0.12791 -0.019036 0.710981 0.70249 -0.0318562
-0.439739 -0.108075 0.004582 0.602542 -0.58484 0.543052
-0.322062 -0.077184 -0.007284 0.0115377 -0.646436 0.762881
-0.080102 0.012553 -0.018834 -0.233443 -0.923472 -0.304473
0.009439 0.102963 -0.082582 0.0282129 -0.0918823 -0.99537
0.031618 -0.050112 0.001313 0.128278 -0.849749 -0.511342
0.453096 -0.210289 -0.02298 0.2685 -0.754878 0.598386
-0.200216 -0.256368 -0.030542 -0.306769 0.0690718 0.949274
-0.154457 0.165198 -0.023709 -0.393895 -0.602504 -0.694144
0.261765 0.300695 -0.001211 -0.18121 0.328506 0.926956
0.094275 -0.340592 -0.049543 0.152379 -0.531181 -0.833443
0.0276015 -0.0145105 0.107816 0.389124 -0.392093 0.833574
-0.477762 -0.096127 -0.056433 -0.852126 0.506542 -0.131519
-0.243067 -0.258126 -0.034369 -0.157261 -0.205581 0.965922
-0.007082 0.151678 0.049728 -0.611677 0.674719 0.413045
-0.210482 0.181339 0.027999 -0.127724 0.099261 0.98683
-0.405924 -0.065649 0.009611 -0.264835 -0.087201 0.960343
-0.068787 0.011304 -0.045394 0.279441 -0.928954 -0.242813
-0.120422 -0.254872 -0.097918 -0.0931579 0.252664 -0.963059
-0.318726 0.237396 -0.003301 -0.243871 0.311202 0.918521
-0.018546 0.07693 -0.077922 0.180065 -0.0144686 -0.983548
0.049549 0.147813 0.029946 0.135059 0.598169 0.789907
-0.005736 -0.329028 -0.057511 -0.0143661 0.637314 -0.77047
-0.347362 -0.199228 -0.100608 -0.0215943 0.0139269 -0.99967
-0.263647 -0.078601 -0.012762 0.753325 -0.655495 0.0531759
0.4164 -0.071452 -0.006727 0.217328 0.512339 0.830829
0.32459 -0.202083 -0.080674 -0.242001 0.947364 0.209613
0.423157 0.274712 -0.088049 0.710326 0.389012 -0.586606
-0.001622 0.069724 0.078676 -0.472554 -0.254468 0.843764
0.029062 -0.232999 -0.087489 -0.502607 -0.545956 -0.670312
0.136995 0.052134 -0.04394 0.875021 0.474706 0.094833
0.278522 -0.253628 -0.097663 0.044377 -0.166012 -0.985125
0.055491 -0.266235 -0.07481 -0.74193 -0.64202 -0.193262
0.17253 -0.299115 -0.040922 0.14695 -0.387739 0.90998
-0.403639 -0.204706 -0.049328 0.752019 -0.0673122 0.655696
-0.180432 0.042114 -0.016201 -0.31625 0.921314 0.226201
-0.046044 0.157497 0.000659 -0.5072 0.757684 0.410686
0.378386 -0.070954 0.01592 0.0386865 0.663844 0.74687
0.250055 0.254373 -0.003915 0.513261 -0.566094 -0.645059
-0.213008 -0.222456 -0.085396 0.500339 0.841744 -0.202802
0.203728 0.119928 -0.011927 -0.304565 -0.571746 0.761804
-0.054664 -0.320477 -0.032138 0.32233 0.661043 0.677588
0.274508 0.129568 -0.000704 0.426276 0.903875 0.0360359
0.276735 -0.226629 -0.015177 -0.360295 0.705577 0.610204
-0.256192 -0.012698 0.023615 0.424392 0.558302 0.712875
0.236712 0.182499 0.016335 -0.0989522 -0.331229 0.938347
-0.355096 -0.063022 -0.088433 0.0297027 -0.75055 -0.660145
0.299926 -0.048555 0.001454 0.00292779 -0.454781 0.890599
-0.299009 -0.226511 -0.035666 -0.301272 -0.0609773 0.951586
0.412958 -0.0454 -0.046168 0.519126 0.854131 0.0311367
-0.169855 -0.280846 -0.029293 -0.205119 -0.186097 0.960882
0.132166 -0.246478 -0.036474 -0.125048 0.925419 0.357719
-0.324425 -0.263517 -0.063451 -0.277442 -0.930359 -0.239703
0.042005 0.146072 0.052072 0.771908 0.533631 0.345539
0.274862 -0.273066 -0.083493 0.101728 -0.681956 -0.724284
-0.195974 0.022497 0.007394 -0.255945 0.729534 0.634249
-0.308666 -0.024858 -0.083912 0.0289254 0.52862 -0.848365
0.26991 -0.23811 -0.034093 -0.661344 -0.0268765 0.749601
0.311385 -0.205189 -0.097487 -0.0732446 0.839075 -0.539062
-0.231926 0.349737 -0.057755 -0.58809 0.106743 -0.801721
0.219699 0.116473 -0.0083 -0.264696 -0.764536 0.587724
-0.257472 -0.011006 -0.072314 -0.0934674 0.522632 -0.84742
-0.240102 -0.040088 0.007733 0.156767 -0.399929 0.90304
0.246581 -0.264169 -0.039696 0.222537 -0.311732 0.923743
0.146684 0.085129 -0.074947 0.527116 0.196093 -0.826859
0.018629 0.0178755 -0.041696 -0.308612 -0.568037 -0.76295
-0.308155 -0.269959 -0.065718 -0.642835 -0.50271 -0.577968
-0.363403 -0.072464 -0.078775 0.128516 -0.793697 -0.594582
-0.473004 -0.083804 -0.036066 -0.48829 0.748021 -0.449487
0.387119 -0.195003 -0.107581 0.0292156 0.0280746 -0.999179
0.345894 -0.207432 -0.057117 -0.155629 0.919993 0.359712
-0.150505 -0.305511 -0.029178 -0.2583 -0.187776 0.94764
0.0878455 0.124271 0.047069 0.169532 0.51814 0.838325
-0.086158 -0.243944 -0.09471 -0.112706 0.990628 -0.077154
0.182534 -0.294603 -0.039956 0.152468 -0.495713 0.854998
-0.48872 -0.122163 -0.020833 -0.946124 -0.210032 0.246447
0.17531 -0.252179 -0.018625 0.608841 -0.287147 0.7395
-0.331444 0.063031 -0.022358 -0.157683 0.937916 -0.30895
0.075572 -0.322645 -0.056979 -0.0409218 -0.489577 -0.870999
-0.045789 -0.318985 -0.03995 0.409369 0.872924 0.265368
0.305329 0.04913 -0.017765 -0.500686 -0.566891 -0.654177
0.319152 -0.222624 -0.103239 -0.329811 0.0359244 -0.943363
-0.255184 0.117163 -0.004401 0.106027 0.876842 0.468942
0.447954 -0.18986 -0.008292 0.147636 -0.438103 0.886718
-0.125069 -0.355556 -0.059229 -0.281679 -0.34198 -0.896497
0.064574 0.066715 -0.08287 0.169894 -0.172292 -0.970284
-0.33254 -0.253997 -0.051547 -0.329905 -0.679929 0.654873
0.022645 0.014622 -0.041281 -0.249123 -0.701276 -0.667944
0.306431 -0.260835 -0.092627 0.10401 -0.834446 -0.541185
-0.117506 -0.277313 -0.020077 0.166839 0.882768 0.439188
0.049092 -0.289357 -0.024499 -0.441117 0.741801 0.505121
-0.155913 -0.010047 0.001293 0.586248 -0.25238 0.769817
-0.331372 -0.005695 -0.002593 -0.206511 0.774139 0.598383
-0.049316 -0.337405 -0.061898 0.0341778 -0.254026 -0.966593
-0.014657 -0.055211 0.03753 0.0250165 -0.965006 -0.261031
0.104118 0.138624 -0.022304 0.77289 0.631971 0.0570347
-0.162682 -0.006362 0.005223 0.283724 0.0197027 0.958704
0.248909 0.030236 -0.040368 0.280024 0.912141 -0.299307
0.061986 -0.035485 0.040095 0.655448 -0.754231 0.0390344
-0.280053 -0.001454 0.008125 -0.0906996 0.676558 0.730783
0.024814 0.058048 0.073674 0.498808 -0.00236976 0.866709
0.271125 -0.042831 0.001263 -0.145999 -0.37604 0.915029
0.164956 0.135512 -0.034039 -0.0925042 0.947516 0.306034
-0.116242 -0.35355 -0.020177 -0.718696 -0.519941 0.461668
-0.3102 0.056085 -0.021772 0.326573 -0.62958 -0.704967
0.050886 0.019335 0.067331 0.635995 0.400302 0.659748
-0.338318 0.114586 -0.020694 -0.217206 0.973389 0.0730471
-0.086586 -0.272749 -0.045386 0.292143 0.72165 0.627594
-0.065881 -0.26294 -0.069674 0.530231 0.257618 0.807767
-0.353305 0.267339 -0.035897 0.577402 0.807641 0.119679
0.381859 -0.211658 -0.107376 0.026583 0.0134067 -0.999557
-0.11411 0.107385 -0.017569 -0.695173 0.601992 -0.392861
-0.313087 -0.041351 0.011109 -0.0156785 -0.284866 0.958439
-0.227388 0.343633 -0.052467 0.300001 -0.948227 -0.104238
0.199167 0.186961 -0.000556 -0.310581 0.898577 0.309998
0.002811 0.004767 0.101749 -0.164886 0.235271 0.957841
-0.441019 0.00378 -0.091117 0.129454 -0.130067 -0.983018
-0.055043 0.12809 0.037441 0.316041 0.83793 0.444961
0.149886 -0.290406 -0.0817535 0.0846081 -0.731116 -0.676987
0.185103 0.075688 -0.020575 -0.446429 -0.287861 0.847253
0.462812 -0.153762 -0.089744 -0.667938 0.546801 -0.504844
0.35782 -0.086022 -0.008407 -0.145628 -0.556145 0.818227
0.213191 0.124192 -0.006888 -0.386815 0.00727623 0.922129
-0.0753 0.175924 -0.033983 -0.61431 -0.442285 -0.653458
-0.419409 0.020537 -0.066371 0.575306 0.0638327 -0.815444
-0.019813 -0.084695 0.072478 -0.788524 -0.614678 0.0200244
-0.366295 0.052606 -0.019349 -0.408758 0.83129 0.376661
-0.046719 -0.319838 -0.037139 0.398668 0.813597 0.423231
0.087349 0.036511 0.063926 -0.068961 -0.200037 0.977359
0.00352 0.119186 0.079474 -0.215647 -0.351814 0.910891
0.162826 0.07404 -0.060694 0.277888 -0.714593 -0.641978
-0.308971 -0.0109135 0.008077 -0.279892 0.413751 0.866297
0.369132 -0.196756 -0.066291 -0.133471 0.853344 0.503974
0.255045 -0.072563 -0.040196 -0.298677 -0.952118 -0.0652973
-0.421885 -0.173492 0.000984 0.131571 -0.11951 0.984076
0.071132 -0.013056 0.059996 0.625432 -0.526167 0.57618
0.043805 0.013957 0.082481 0.687491 0.501256 0.525452
0.457319 0.087122 -0.053568 0.585268 0.631663 0.508392
-0.00392 0.019256 0.094171 -0.650554 0.140597 0.746332
-0.150959 0.218572 0.017242 0.388359 0.656244 0.646932
-0.377482 -0.178809 -0.100553 -0.128753 -0.0448386 -0.990663
0.006728 0.038462 -0.055953 0.235915 -0.715126 -0.657981
-0.047233 -0.00766 0.067723 -0.592947 -0.330523 0.734281
0.073199 0.103068 0.057443 -0.228023 0.11367 0.966998
-0.188653 -0.234712 -0.052704 0.262457 0.922409 0.283332
0.28824 -0.250315 -0.098587 -0.0480572 -0.156872 -0.986449
0.385899 -0.112622 -0.012926 -0.580464 -0.196103 0.79032
-0.129524 0.177095 -0.030051 -0.0975942 0.970525 -0.220356
0.460386 -0.070984 -0.0186755 0.400043 0.605346 0.688129
0.050179 0.032609 -0.058451 -0.17234 -0.772359 -0.611359
-0.436961 -0.195492 -0.035924 -0.639649 -0.709091 0.296714
0.110645 -0.309107 -0.023447 0.474661 -0.0494961 0.878776
-0.397257 -0.226045 -0.043924 0.445855 -0.00806679 0.895069
-0.252175 -0.244672 -0.034474 -0.0746323 -0.0648769 0.995098
0.035623 0.027892 0.085093 0.771306 0.305066 0.558589
-0.334417 0.00559 -0.029396 -0.116658 0.991286 0.0611807
0.086322 0.104739 0.054994 -0.0430547 0.251247 0.966965
-0.378386 -0.039474 0.004985 -0.0795912 0.447223 0.890874
-0.114886 0.1747 -0.024842 0.304143 0.871225 0.385311
-0.137787 -0.015409 -0.055218 -0.0409169 -0.818936 -0.572424
-0.468551 -0.087264 -0.054539 -0.548453 0.836172 0.00394471
0.301081 -0.007449 -0.064789 0.203685 0.766596 -0.60897
-0.420074 -0.182902 -0.08857 0.0441139 -0.418146 -0.907308
-0.030962 -0.354768 -0.019992 0.188688 -0.210349 0.959245
0.468487 -0.181492 -0.010007 0.387205 -0.279431 0.87863
-0.163499 0.078789 -0.045958 -0.467953 -0.354511 -0.809532
0.353502 -0.035493 -0.009727 0.313649 0.477917 0.8205
0.42558 -0.133991 -0.050696 -0.295481 -0.947463 -0.122498
-0.325571 -0.175835 -0.083807 0.462356 0.886329 0.0254355
-0.250746 0.000314 -0.066079 -0.187298 0.590012 -0.78537
0.118932 0.064232 0.06167 0.747343 -0.173294 0.641442
-0.201235 -0.232275 -0.093742 0.22103 0.459769 -0.860092
-0.328814 -0.199919 -0.025205 0.730121 -0.137497 0.669342
0.227476 0.015377 0.000244 0.586102 0.691314 0.422573
0.154002 0.171826 -0.008344 -0.243275 0.19765 0.949606
0.434215 -0.187911 -0.008846 -0.485142 -0.427741 0.762676
0.367245 -0.045411 -0.00288 -0.106808 0.359974 0.926828
-0.024664 -0.357341 -0.021878 0.115394 -0.493626 0.861985
0.14254 0.209974 0.008009 -0.326472 0.312564 0.892031
0.29191 0.201676 0.01258 0.283941 -0.0331878 0.958267
0.108836 0.133342 -0.002447 0.482149 0.86894 -0.111697
-0.032287 0.146604 0.025342 -0.40871 0.643877 0.646822
0.262907 -0.022184 0.004726 -0.020187 -0.0329578 0.999253
0.35399 -0.213425 -0.048826 0.024135 0.566241 0.823886
-0.266798 -0.017478 -0.075587 0.00901377 0.519492 -0.854427
0.077527 0.093169 -0.083504 -0.471459 0.158151 -0.867591
-0.423291 -0.030168 -0.020861 -0.203342 0.979065 -0.00916184
-0.238276 0.021016 -0.048975 -0.30284 0.832825 -0.463347
-0.335641 -0.086158 -0.02119 0.36425 -0.653718 0.663306
-0.1075 0.062829 -0.042884 -0.936222 0.212918 -0.279561
-0.224058 0.242845 0.002754 -0.792583 -0.607975 -0.0466809
-0.185507 0.082682 -0.004694 0.328531 0.374975 0.866869
-0.284088 -0.216452 -0.019667 -0.559643 0.461411 0.688404
0.095027 0.124846 -0.080634 -0.0800719 -0.227432 -0.970496
-0.22174 -0.286559 -0.040622 -0.0495447 -0.412078 0.909801
0.472548 -0.205647 -0.073952 0.795656 -0.368335 -0.480896
-0.264862 0.198322 0.011514 -0.485777 -0.869182 0.0924303
0.014856 0.110215 -0.081528 0.132476 0.0311888 -0.990695
-0.371359 -0.247934 -0.062509 -0.955854 -0.162515 -0.244811
-0.068148 -0.322343 -0.068502 0.393463 -0.14035 -0.908564
0.114331 -0.244689 -0.038218 -0.29457 0.873239 0.388177
-0.219559 0.072228 0.013613 0.360642 -0.323924 0.874649
0.013762 0.13846 -0.076618 0.0552741 0.37064 -0.92713
0.204465 -0.0118415 -0.000125 -0.146536 -0.0463891 0.988117
-0.131671 0.215735 0.004364 0.332622 0.942486 0.0329135
-0.072686 0.114533 0.049858 -0.0910526 0.429033 0.898688
-0.135243 0.016106 -0.072574 -0.280766 0.316147 -0.906213
0.402594 -0.22227 -0.037827 -0.691927 -0.324783 0.644789
0.026367 -0.329292 -0.050084 -0.0257528 0.786674 0.616832
-0.128247 0.041402 0.029427 -0.739067 -0.459338 0.492735
0.048316 0.094257 -0.082419 -0.293463 0.092948 -0.951441
-0.008845 0.161537 0.028369 -0.538066 0.690196 0.483854
0.176017 -0.26355 -0.094871 0.0483502 -0.0137642 -0.998736
-0.288179 -0.257156 -0.088421 -0.311833 -0.778394 -0.544851
-0.143746 -0.365993 -0.046615 -0.435448 -0.858653 0.270371
0.301141 0.063674 -0.001816 0.10316 0.994594 -0.0118623
-0.153779 0.180055 -0.007619 0.281749 0.912016 0.298067
-0.317573 -0.060348 -0.081866 0.166742 -0.685129 -0.709081
0.271351 -0.289732 -0.06973 -0.32785 -0.517185 -0.790591
-0.136477 -0.339741 -0.024206 -0.268247 -0.553257 0.788638
-0.108757 0.126573 -0.057666 0.415827 0.616518 0.668576
0.010562 -0.053784 0.031897 -0.0831159 -0.729687 -0.678711
-0.184325 -0.027057 0.004107 0.246635 -0.354163 0.902075
-0.426437 -0.129081 -0.036679 0.656635 0.753574 -0.0309402
-0.167463 -0.326523 -0.037065 -0.578695 -0.201331 0.790303
0.239714 0.177204 0.008182 0.207931 -0.964759 0.161259
0.467562 -0.068423 -0.030049 0.411996 0.803362 0.429963
-0.410999 0.030195 -0.04312 -0.739793 0.267332 0.617446
-0.062019 0.103372 0.055074 -0.123451 0.243908 0.961909
-0.367821 -0.000941 -0.03563 -0.264394 0.964369 0.00934405
-0.080403 0.120284 0.045197 -0.151032 0.626285 0.764825
0.199893 -0.233794 -0.047761 -0.128001 0.958027 0.256516
0.080824 -0.307814 0.013079 -0.254106 -0.71906 0.646825
0.246966 -0.053173 -0.075437 -0.49384 -0.69794 -0.518654
0.493842 -0.13521 -0.045688 0.817006 0.121631 -0.563655
-0.381683 -0.211548 -0.048503 -0.162297 0.109116 0.98069
0.44637 -0.161387 -0.046097 -0.822287 0.537369 -0.187294
-0.021678 -0.055185 0.014319 -0.434663 -0.774079 -0.460294
0.074389 -0.01405 0.055378 0.663419 -0.522359 0.535739
0.252989 0.128427 -0.017768 0.324827 0.612571 -0.720586
-0.460513 -0.062738 -0.0421 -0.951463 0.174119 -0.253774
0.16396 -0.01936 -0.033834 -0.71016 -0.593733 0.378357
-0.067417 0.038371 0.066629 -0.0135836 -0.227754 0.973624
-0.315561 0.008677 -0.041183 -0.231362 0.958862 -0.164487
-0.467708 -0.168011 -0.035646 -0.734369 -0.549976 0.397779
-0.099161 -0.352193 -0.010804 0.518107 -0.379631 0.76645
-0.362208 -0.001543 -0.030957 -0.126545 0.991809 0.0173738
0.155066 0.135945 -0.055919 0.24855 0.914144 -0.320256
0.121351 -0.239171 -0.067911 -0.0349784 0.990229 0.134989
-0.212224 -0.046334 0.004289 -0.000449115 -0.247286 0.968942
-0.053322 -0.250342 -0.084259 0.262646 0.635351 0.726186
0.488548 -0.169861 -0.022491 0.768594 -0.33141 0.547203
0.173697 -0.275516 -0.0903795 0.02827 -0.337876 -0.940766
-0.482742 0.106894 -0.065627 -0.497811 0.69174 0.523145
-0.190978 0.184445 -0.004309 -0.160098 0.690888 -0.705012
0.048289 -0.007465 -0.022675 0.566143 -0.487534 -0.664675
0.320463 -0.054313 0.000111 -0.211985 -0.291819 0.932686
0.211393 -0.288102 -0.076542 0.272492 -0.711372 -0.647841
0.015087 -0.128869 0.049717 0.40643 0.112209 -0.906765
0.17871 -0.233946 -0.04681 -0.117242 0.969461 0.215406
-0.218991 0.193507 0.011981 -0.065543 0.706191 -0.704981
-0.201566 0.041594 -0.025799 -0.333616 0.939505 0.0776604
0.305102 -0.000963 -0.051701 0.255797 0.897751 -0.358625
-0.108073 0.202984 0.002092 0.485338 0.668364 0.563682
-0.380633 -0.036703 -0.083315 -0.317124 0.620351 -0.717354
0.006058 0.185693 -0.001582 -0.226962 0.960271 -0.162381
0.338075 -0.275108 -0.069099 -0.250401 -0.782384 -0.570241
-0.387876 -0.065352 0.015938 0.503757 -0.502228 0.702849
-0.450259 -0.173709 -0.015967 -0.531521 -0.643783 0.55048
0.182398 0.020851 -0.075197 -0.0560415 0.353048 -0.933925
-0.100441 0.185895 0.001177 -0.120871 -0.719433 0.683964
