ply
format ascii 1.0
element vertex 844
property float x
property float y
property float z
property float nx
property float ny
property float nz
element face 0
property list uchar int vertex_index
end_header
0.22724 -0.392346 -0.056024 0.800243 -0.483031 -0.355375
-0.225418 -0.442113 -0.152341 -0.645128 -0.533745 -0.546741
-0.346784 0.13637 0.157741 -0.568538 -0.547379 0.614118
-0.322214 -0.001367 0.036507 -0.905159 -0.0459444 -0.422583
-0.032438 -0.306225 0.048237 0.0249957 -0.0446694 0.998689
-0.117462 -0.451735 -0.136882 0.00523972 -0.972108 -0.234477
0.316214 0.023776 0.007806 0.513267 0.257621 -0.81865
0.18102 -0.203422 -0.15667 0.345761 0.199269 -0.916919
0.056559 -0.493087 -0.046366 0.127928 -0.81853 0.560039
-0.117441 -0.468923 -0.089032 -0.0135034 -0.910417 -0.413471
0.000306 0.317339 0.055954 -0.0653203 0.48798 -0.870407
0.312585 -0.059189 -0.030677 0.629964 0.203706 -0.749432
-0.203085 0.184872 0.110807 -0.983904 -0.0795798 0.159998
0.240917 0.028814 0.041359 -0.890536 0.387795 0.237823
0.300687 0.097284 0.053848 -0.155284 0.963358 -0.218699
-0.040618 0.362352 0.159687 -0.954233 -0.0571392 0.293556
0.0213625 -0.28612 -0.188928 0.0492282 0.230419 -0.971846
0.341389 -0.05301 0.016218 0.951605 -0.0274392 -0.306096
0.042296 0.252227 0.04962 0.753706 0.203477 -0.624919
0.13597 -0.123161 0.047457 0.301706 0.299802 0.905037
-0.23007 -0.393539 -0.156585 -0.727112 0.18507 -0.661104
-0.045775 -0.079878 -0.124469 -0.18726 0.365453 -0.911799
0.035736 0.130968 0.009998 0.890046 0.0653668 -0.451161
0.111752 -0.037014 -0.117423 0.271271 0.292885 -0.916859
0.323843 -0.12211 -0.013723 0.897421 -0.131864 -0.421008
-0.058932 0.157608 -0.001581 -0.746151 0.277783 -0.605058
-0.147858 0.079701 0.118182 -0.0291015 -0.440427 0.897316
-0.157977 0.275897 0.191556 -0.168143 -0.403995 0.899175
0.207699 -0.109539 0.044304 -0.301623 0.0781691 0.950217
0.223994 -0.020666 0.007273 -0.58594 0.547788 -0.597163
-0.298048 -0.269029 0.00496 -0.984764 -0.162119 0.0629066
0.154238 0.169251 -0.010041 0.0287753 0.456607 -0.889203
-0.150454 0.216727 0.057071 0.00536675 0.529189 -0.848487
-0.345721 0.100628 0.124453 -0.89675 -0.348037 0.273331
0.183294 0.387374 0.148217 -0.185168 0.734936 -0.652366
-0.17209 0.394353 0.165306 -0.147 0.536769 -0.830825
0.215157 -0.09583 0.048012 -0.446084 0.0546852 0.893319
0.045506 -0.434205 -0.201995 0.0402243 -0.793444 -0.607312
-0.063546 0.05731 -0.053319 -0.48396 0.433217 -0.760332
-0.168961 0.27829 0.094932 -0.286313 0.483327 -0.827296
0.147956 -0.362698 0.071655 -0.0364845 -0.545235 0.837489
-0.067754 -0.421467 -0.221775 -0.066211 -0.126659 -0.989734
-0.122341 0.180072 0.143854 0.511291 -0.324048 0.795974
-0.169064 -0.178502 0.079665 0.207386 -0.148933 0.966856
0.171916 -0.34078 -0.148874 0.591571 -0.177065 -0.78657
-0.03926 0.373638 0.164674 -0.959773 -0.0662797 0.272843
-0.135201 -0.492624 -0.013197 -0.0750669 -0.744932 0.662904
0.175647 0.382277 0.226185 -0.188951 -0.0195088 0.981793
0.001876 0.146299 -0.026374 0.475629 0.27615 -0.835175
0.004415 0.366067 0.084753 -0.0756862 0.510935 -0.856281
0.147361 0.175524 0.114743 -0.17368 -0.302041 0.93734
0.080516 0.103773 0.002688 -0.855943 0.431341 -0.285142
-0.273902 -0.001827 0.103724 -0.00955329 -0.192587 0.981233
-0.293351 -0.285941 0.013073 -0.951688 -0.218588 0.215661
-0.066736 0.11296 0.052735 -0.666813 0.131655 0.733504
-0.167155 0.256216 0.08289 -0.325531 0.466448 -0.822469
0.239911 0.315147 0.139381 0.99359 -0.112916 0.00528605
-0.117401 -0.480711 -0.056687 -0.03089 -0.921171 -0.38793
-0.081412 -0.421006 -0.221189 -0.0839469 -0.153378 -0.984595
0.147786 0.273559 0.155571 -0.577986 -0.324389 0.748802
-0.281809 -0.037038 -0.00678 -0.406413 0.202501 -0.890967
-0.269313 0.097419 0.121814 0.686243 -0.235381 0.688234
0.189686 -0.008033 -0.016405 0.971547 0.0566729 -0.229966
0.228179 -0.068218 0.047911 -0.775468 0.0499087 0.629412
-0.134268 -0.26072 -0.154997 -0.251738 0.329355 -0.910029
-0.117434 -0.462663 -0.10635 -0.0236012 -0.920608 -0.389774
-0.086869 0.044072 0.083556 0.319977 -0.0443088 0.946389
-0.008808 0.336566 0.176808 -0.194956 -0.389593 0.900116
-0.001635 -0.28001 -0.188671 -0.0436789 0.263185 -0.963756
0.200425 0.075854 0.042954 0.858486 -0.310391 0.408238
-0.165391 0.221126 0.062543 -0.397437 0.452154 -0.798499
-0.119404 0.40713 0.203227 0.919649 0.37173 -0.126741
0.160669 0.188112 -0.000311 0.181732 0.436601 -0.881109
0.126576 -0.456661 -0.141306 0.554336 -0.593398 -0.583601
-0.315661 0.132691 0.164489 0.0560409 -0.594377 0.802232
0.220194 0.175723 0.056583 0.987001 -0.0864626 -0.135471
-0.260388 0.068461 0.104508 0.548146 -0.132598 0.825805
-0.100256 0.225723 0.109431 0.976026 0.204982 -0.0731756
-0.25347 -0.405422 -0.033203 -0.840324 -0.430749 0.329106
0.324518 -0.128015 -0.004197 0.946582 -0.189349 -0.261016
0.276718 0.025691 -0.004322 -0.0728337 0.441051 -0.894522
0.023193 -0.268772 -0.184509 0.0182092 0.25941 -0.965595
0.212261 0.164348 0.030635 0.861203 0.0849762 -0.501107
-0.173628 -0.156824 0.083554 0.216806 -0.164623 0.962234
0.033235 0.286406 0.154912 0.362452 -0.369725 0.85553
-0.244249 -0.054442 0.098319 -0.212582 -0.0136505 0.977048
0.306439 -0.087496 -0.040354 0.513646 0.132121 -0.847769
0.270891 -0.327903 -0.046392 0.828552 -0.447689 -0.336267
0.200835 -0.06421 -0.018343 0.561139 0.607898 -0.561768
-0.284458 -0.12312 -0.022148 -0.654882 0.196217 -0.729814
0.233495 -0.235606 -0.131707 0.587802 0.15471 -0.794074
0.274866 0.078226 0.039483 -0.574975 0.77021 -0.276007
0.232524 -0.291065 0.058058 0.58415 -0.134497 0.800425
0.011448 0.268257 0.031783 0.264406 0.406842 -0.874397
0.300933 -0.00592 0.108294 0.0125307 -0.153699 0.988038
-0.165543 0.191851 0.044345 -0.372731 0.43623 -0.819008
0.271567 -0.330477 -0.03113 0.868878 -0.490814 -0.0644479
-0.16142 -0.038341 -0.057271 -0.371248 0.420012 -0.828109
0.040333 0.117817 0.034359 0.988942 -0.0405856 -0.142645
-0.092272 0.062791 -0.014825 -0.464356 0.540922 -0.701268
-0.270211 -0.166683 0.088873 -0.336735 -0.188614 0.922515
-0.222212 -0.452793 -0.124039 -0.488501 -0.799299 -0.349982
0.245775 -0.267456 -0.121043 0.673056 -0.0578905 -0.737322
-0.200358 0.016545 0.05513 -0.727503 0.560079 0.396297
-0.313564 -0.065202 0.025214 -0.974018 -0.017705 -0.225778
-0.001944 0.148361 -0.026251 0.392693 0.306451 -0.86711
0.049095 -0.435293 -0.200708 0.0595721 -0.810708 -0.582412
0.263529 -0.317064 -0.073132 0.775728 -0.399621 -0.488416
-0.257287 -0.182646 -0.064004 -0.542466 0.27926 -0.792303
-0.325288 -0.00866 0.063241 -0.959058 -0.243253 0.145034
0.169579 0.256784 0.044526 -0.105809 0.58822 -0.801749
0.240568 -0.378981 -0.02269 0.825302 -0.559 0.0799771
0.125917 -0.15693 0.066906 0.0359433 0.284889 0.957886
0.000154 -0.427424 -0.21595 -0.00458314 -0.247996 -0.96875
-0.143437 -0.108058 -0.099363 -0.386421 0.310677 -0.868423
-0.228851 -0.022043 0.089471 0.00798135 0.199205 0.979925
0.221998 -0.027773 0.004717 -0.610555 0.522883 -0.594825
0.174268 0.319185 0.088061 -0.203622 0.587828 -0.782941
0.081463 -0.404118 -0.20501 0.41072 0.109005 -0.905222
-0.231455 0.034173 0.072588 0.755741 0.480027 0.445456
-0.074324 0.104981 0.04918 -0.438668 0.602729 0.666549
-0.335896 0.234538 0.158046 -0.491206 0.706962 -0.508844
0.130699 0.092983 0.088971 -0.114375 -0.34871 0.930226
-0.227287 -0.452798 -0.123651 -0.61525 -0.71599 -0.329888
0.10201 0.184761 0.040202 -0.890377 0.388625 -0.237065
0.053582 0.23807 0.072847 0.961231 -0.00088701 -0.275742
0.091043 -0.107404 0.04955 0.0456504 0.094367 0.99449
0.063769 -0.297518 -0.183215 0.1408 0.183273 -0.972927
0.00482 -0.450382 -0.15697 -0.0744381 -0.960401 -0.268495
0.025573 0.031315 -0.061658 0.0448577 0.698098 -0.714596
-0.23144 -0.466064 -0.075015 -0.688247 -0.725475 -0.00137349
-0.204803 0.349597 0.180552 -0.995874 -0.0530854 0.0736013
-0.336884 0.05079 0.068483 -0.972971 -0.0999949 -0.208153
0.26927 -0.32537 -0.054995 0.814652 -0.428713 -0.390572
0.001724 -0.012397 0.062999 0.13213 -0.129451 0.982743
0.214818 -0.055245 -0.009082 -0.149059 0.72537 -0.672027
0.057214 -0.260944 0.07438 -0.276341 -0.0301691 0.960586
0.222942 -0.050443 0.042312 -0.884647 0.0670553 0.461415
-0.287402 -0.281048 0.0308 -0.797808 -0.246793 0.550087
-0.16704 0.213785 0.058126 -0.403007 0.447856 -0.798129
-0.171467 0.360548 0.141993 -0.0967852 0.498744 -0.861329
-0.310726 -0.191172 0.026374 -0.942944 -0.227564 0.243047
-0.313083 -0.064959 0.023063 -0.941136 0.00340757 -0.338012
-0.276987 -0.287575 0.043224 -0.608072 -0.296154 0.736574
0.174854 0.371501 0.224188 -0.131824 -0.251001 0.958969
0.134339 0.076233 -0.065592 0.164433 0.385139 -0.908091
0.229948 0.297978 0.102846 0.821331 0.231662 -0.521295
0.198957 -0.366066 -0.113505 0.708106 -0.334874 -0.621648
0.133764 -0.174422 -0.159236 0.151983 0.276069 -0.949045
0.086853 0.124863 0.054287 -0.971127 0.151431 0.184338
-0.347728 0.136892 0.157092 -0.649463 -0.521588 0.553303
-0.092637 0.134562 0.076978 0.824044 -0.184304 0.535709
0.142254 -0.470204 -0.105169 0.537932 -0.808261 -0.239463
0.141382 0.155953 0.110219 -0.122053 -0.263245 0.956977
0.114744 0.087839 0.080431 -0.410686 -0.312973 0.856379
-0.066374 0.117786 0.056662 -0.645275 -0.105378 0.756648
0.033233 0.288624 0.155987 0.386616 -0.362517 0.848003
0.028397 0.058953 0.054038 0.253288 0.127754 0.958918
-0.110869 0.29935 0.149029 0.97341 0.175971 -0.146652
-0.04263 0.362346 0.123368 -0.911186 0.283946 -0.29852
0.233866 0.259735 0.105847 0.994813 -0.0997593 0.0199019
-0.108985 0.279664 0.139734 0.986105 0.164057 -0.0261163
0.155649 0.202131 0.127556 -0.10556 -0.406932 0.907339
-0.121243 0.312932 0.132256 0.75992 0.359132 -0.541798
-0.280612 0.141496 0.151043 0.641524 -0.338435 0.68841
0.216072 -0.411956 -0.029512 0.57998 -0.76221 0.287506
0.090088 -0.058586 -0.125083 0.052939 0.305038 -0.950868
-0.28346 0.140163 0.15334 0.577945 -0.388064 0.717904
0.019046 -0.118199 -0.144194 -0.11962 0.306235 -0.944411
0.207761 0.109054 0.02482 0.989195 -0.122624 -0.0803493
0.174736 0.35362 0.218341 -0.117443 -0.378714 0.918032
0.230836 0.297136 0.104474 0.885524 0.169719 -0.432484
-0.284241 0.163581 0.169864 0.586897 -0.465813 0.662246
0.169033 0.174705 -0.004813 0.3407 0.379529 -0.860164
-0.058243 0.224585 0.09976 -0.844973 -0.105504 0.524298
0.021881 0.163143 0.110375 0.311968 -0.340458 0.886997
-0.171928 -0.001134 0.096896 -0.0173723 0.0624006 0.9979
0.114233 -0.389076 -0.182449 0.525994 -0.0367823 -0.849693
0.195314 -0.208019 -0.152505 0.413285 0.207476 -0.886651
0.053346 0.354649 0.156337 0.879963 -0.235096 0.412788
0.224249 -0.300248 -0.125366 0.548729 -0.286617 -0.785332
-0.345849 0.101933 0.125295 -0.866347 -0.379018 0.325252
-0.249376 -0.30464 -0.102308 -0.783641 0.0834673 -0.615582
-0.112665 0.291874 0.170364 0.933869 -0.111107 0.339918
-0.269802 -0.370359 -0.018868 -0.853112 -0.417693 0.312623
-0.164433 0.005745 -0.034057 -0.427441 0.447575 -0.785475
-0.28197 -0.335588 -0.010856 -0.86496 -0.403634 0.298199
0.079304 -0.491747 -0.058131 0.16857 -0.877485 0.449003
0.230401 0.281103 0.140745 0.801642 -0.389613 0.453401
0.216573 -0.267031 0.069486 0.490038 0.00545109 0.871684
0.018719 0.456993 0.14273 0.0231532 0.59108 -0.80628
-0.14485 0.191027 0.154024 0.131292 -0.400111 0.907013
-0.170403 0.331937 0.12761 -0.205337 0.442896 -0.872743
-0.288446 -0.309801 0.006022 -0.839196 -0.381239 0.387822
-0.063686 -0.421762 -0.222094 -0.0585547 -0.151052 -0.98679
-0.092536 0.131364 0.081481 0.947903 -0.0530643 0.314108
0.257201 -0.023773 0.087864 -0.585042 -0.168415 0.793324
-0.024575 0.076569 0.0739 -0.0485089 -0.215767 0.975239
-0.169127 0.280232 0.096293 -0.247556 0.493359 -0.833854
0.17348 -0.304965 0.082184 0.137379 -0.196818 0.970767
0.044611 0.373339 0.10643 0.645818 0.347364 -0.679895
-0.009221 -0.187481 0.048422 -0.0103141 0.0443972 0.998961
0.153187 0.073727 0.082655 0.31551 -0.41431 0.853698
-0.165931 -0.270939 -0.15251 -0.303599 0.327815 -0.894631
-0.117456 -0.260719 0.062328 0.21656 -0.002477 0.976266
-0.055043 0.057081 0.073792 0.192044 -0.00176424 0.981385
-0.202086 0.259299 0.143376 -0.981776 -0.062809 0.179361
-0.095375 0.190224 0.08989 0.823275 0.476394 0.308655
0.16383 -0.334307 -0.157514 0.473041 -0.0731889 -0.877995
-0.353991 0.136283 0.126748 -0.985652 -0.100827 -0.135368
0.155972 -0.100008 0.02746 0.267061 0.153608 0.951358
-0.199466 0.109896 0.06776 -0.990119 0.00731658 -0.140035
-0.32545 -0.006607 0.053682 -0.978414 -0.167701 -0.120761
-0.202232 -0.029029 -0.032721 -0.407239 0.462362 -0.787641
-0.299488 -0.256997 0.008038 -0.978049 -0.164484 0.127927
-0.03947 0.380697 0.16843 -0.967755 -0.0506897 0.24674
-0.161119 0.138305 0.017409 -0.258931 0.36593 -0.893896
0.021237 0.061271 0.057296 0.359665 0.0604989 0.931118
-0.164111 0.16242 0.141251 -0.216556 -0.326797 0.91995
0.21763 -0.361174 0.036789 0.536039 -0.521705 0.663691
-0.15793 0.078311 -0.00769 -0.428266 0.29815 -0.853051
-0.041994 0.363292 0.121888 -0.876049 0.313916 -0.366054
0.064344 -0.099509 0.048332 0.000896117 0.0248479 0.999691
0.195123 -0.241096 0.071052 0.324002 0.224445 0.919047
-0.193707 -0.000652 0.087874 -0.140039 0.248892 0.958354
-0.262977 0.084189 0.110696 0.638922 -0.197373 0.74352
0.072903 -0.29847 -0.18178 0.150593 0.176138 -0.972778
0.169108 -0.028547 0.037047 0.432106 -0.261898 0.862957
-0.245513 -0.437225 -0.049338 -0.845733 -0.466696 0.258708
-0.332992 0.257456 0.187723 -0.33848 0.940955 -0.00593239
0.06076 -0.108739 -0.14361 0.0170936 0.320693 -0.947029
0.234443 0.276525 0.11474 0.993058 -0.117481 0.00589042
0.273331 0.026584 -0.003391 -0.169456 0.470186 -0.866146
-0.239722 -0.320448 -0.116066 -0.755993 0.146965 -0.637868
-0.316207 -0.126722 0.039538 -0.958907 0.00236784 0.283712
-0.147999 0.320389 0.119826 0.309178 0.494515 -0.81232
0.322208 -0.133164 0.022335 0.877079 -0.34737 0.331762
-0.001384 0.295018 0.044323 -0.0374198 0.476109 -0.87859
0.0430695 0.066452 0.032403 0.436623 0.66694 0.603782
-0.360873 0.182199 0.176669 -0.921927 -0.16873 0.348685
-0.207111 -0.08195 0.106564 -0.000433189 -0.0480342 0.998846
-0.283901 0.018982 0.004879 -0.110917 0.303077 -0.946489
0.12807 -0.458096 -0.138275 0.555423 -0.611593 -0.563435
0.03845 0.220114 0.114602 0.69773 -0.321959 0.639934
-9.4e-05 0.312188 0.05301 -0.0797022 0.488803 -0.868746
0.139477 -0.1783 -0.159446 0.167677 0.258976 -0.951218
0.178931 0.165608 0.113759 0.339131 -0.387741 0.857115
-0.178082 0.208534 0.062826 -0.629906 0.352404 -0.69212
-0.201685 0.165925 0.103662 -0.992122 -0.0684655 0.104916
0.172878 0.286131 0.063065 -0.101669 0.589159 -0.801595
0.206751 -0.062865 0.009985 -0.236435 0.366055 0.900057
0.230841 0.40826 0.201861 0.853677 0.442592 0.274497
0.011771 -0.260937 0.056938 -0.267778 -0.0242553 0.963175
0.098919 0.17842 0.054334 -0.940137 0.331598 -0.0786389
-0.015185 0.204752 0.124205 -0.233757 -0.347572 0.908048
-0.335697 0.227808 0.151718 -0.495494 0.63692 -0.590609
0.212558 -0.081479 -0.033791 0.281987 0.621632 -0.730792
-0.081195 -0.074742 0.071203 0.299341 -0.116148 0.947051
-0.168464 -0.136963 -0.096144 -0.38208 0.300731 -0.873828
-0.294667 0.135535 0.159289 0.34162 -0.506767 0.791507
-0.118248 0.310478 0.136354 0.826767 0.319207 -0.46321
-0.143919 0.24447 0.179084 0.196825 -0.363216 0.910678
0.138812 0.096198 -0.056334 0.0924236 0.413957 -0.905592
0.164222 0.239544 0.15044 -0.0740897 -0.443211 0.893351
-0.307699 -0.211285 0.020935 -0.956769 -0.209311 0.201948
-0.099545 -0.459146 -0.118275 -0.0625584 -0.941899 -0.330019
-0.17214 0.375523 0.152296 -0.171787 0.519265 -0.837169
0.228996 -0.003172 0.04647 -0.919172 0.222103 0.32526
-0.189356 0.199104 0.070803 -0.803746 0.261066 -0.534638
0.188781 0.172437 0.00384 0.563836 0.289944 -0.773318
0.306598 -0.253734 -0.02051 0.984513 -0.167794 0.0507795
0.12239 0.00416 -0.099705 0.387281 0.383674 -0.838336
-0.350278 0.126112 0.141631 -0.824449 -0.42057 0.37869
0.085317 0.104642 -0.013237 -0.794226 0.469259 -0.386007
0.042433 0.139943 0.047499 0.994824 -0.0470476 -0.0900609
-0.202721 0.17539 0.107375 -0.99256 -0.0608348 0.105472
-0.013726 -0.228385 0.049259 -0.0486246 0.0316196 0.998317
-0.293337 -0.296359 -0.002278 -0.979783 -0.199374 -0.0165871
-0.166832 0.252445 0.080963 -0.333841 0.46308 -0.821041
0.240444 0.025702 0.022416 -0.827391 0.490706 -0.273187
-0.193595 -0.002539 0.089439 -0.123516 0.239885 0.962912
-0.183578 -0.272918 -0.144895 -0.434254 0.306484 -0.847049
-0.222342 -0.471745 -0.055437 -0.60666 -0.771645 0.19112
-0.117414 -0.458549 -0.117743 -0.0212527 -0.93587 -0.351705
0.217655 0.160168 0.049757 0.982568 -0.185137 -0.0168955
0.244225 -0.045143 0.071533 -0.659623 -0.196279 0.725515
-0.312889 -0.172139 0.031232 -0.985592 -0.126154 0.112666
-0.279885 -0.188545 -0.046902 -0.748051 0.172759 -0.64076
-0.201408 0.295142 0.148423 -0.994797 0.0441565 -0.091815
0.043807 0.151141 0.053081 0.996821 -0.0573427 -0.0553194
-0.286406 -0.064072 0.087553 -0.439653 -0.131939 0.888424
-0.277858 0.125564 0.142076 0.638665 -0.308278 0.705033
-0.032738 0.165341 -0.017749 -0.450813 0.386126 -0.804782
-0.346363 0.104051 0.126709 -0.890831 -0.363176 0.272988
-0.040022 -0.365367 0.05027 0.0616995 -0.298586 0.952386
0.31338 -0.044232 -0.023697 0.595834 0.253471 -0.762059
0.233719 0.257398 0.104519 0.989732 -0.129634 0.0602072
-0.069145 0.086131 0.057989 0.138823 0.179419 0.973929
-0.112446 0.319663 0.159588 0.968251 0.148375 -0.201182
-0.125592 0.14397 0.020231 0.315743 0.341312 -0.885332
-0.066798 -0.082029 -0.122025 -0.220499 0.358615 -0.90707
-0.095725 0.194558 0.09204 0.867354 0.434815 0.242142
-0.024642 -0.080128 0.053468 0.201312 -0.126976 0.971262
0.200013 -0.326666 -0.132133 0.559693 -0.28652 -0.777592
0.005747 -0.441685 -0.181225 -0.0303577 -0.943937 -0.328726
0.310349 -0.213882 -0.008077 0.989223 -0.112607 0.0935815
0.157294 0.192294 0.002051 0.0295281 0.482001 -0.875673
0.019875 0.478339 0.157276 0.125216 0.689592 -0.713291
-0.315688 -0.084005 0.041434 -0.949926 -0.0509897 0.308286
-0.285161 -0.303453 0.02208 -0.743848 -0.376378 0.552295
-0.041522 0.347159 0.153491 -0.915725 -0.0611893 0.39712
0.313466 -0.030504 -0.016806 0.582541 0.289464 -0.759511
-0.165362 0.222582 0.063455 -0.391232 0.452677 -0.801262
0.170246 0.270912 0.163484 -0.0961799 -0.507426 0.856311
0.051479 0.353825 0.159838 0.785458 -0.279607 0.552156
0.313997 -0.176419 0.004613 0.962419 -0.188726 0.195274
-0.273533 0.111389 0.132867 0.747752 -0.20279 0.632253
0.280709 -0.140693 0.060743 0.14618 -0.27717 0.949636
-0.167045 -0.081415 -0.074016 -0.407128 0.381324 -0.829963
0.11527 0.192653 0.097329 -0.911709 0.101322 0.398146
0.120355 -0.26453 0.089493 -0.145734 0.00138234 0.989323
-0.312181 0.232731 0.216458 0.0562747 0.225144 0.972699
0.355868 0.059695 0.089264 0.857418 0.268191 0.439212
0.221988 -0.303858 -0.125483 0.557153 -0.298433 -0.774931
-0.165171 -0.059793 -0.065331 -0.388543 0.400784 -0.829703
0.315297 -0.147016 0.029818 0.678222 -0.352057 0.645035
-0.169896 0.302388 0.111018 -0.251194 0.501042 -0.828166
0.228784 -0.393574 -0.015634 0.621873 -0.686784 0.376299
-0.092373 0.108195 0.05888 0.909036 0.34371 0.235621
-0.232983 -0.346681 -0.130326 -0.742545 0.208982 -0.636359
0.000726 -0.041481 0.057737 0.119454 -0.149502 0.981519
-0.161782 -0.209798 0.074743 0.203564 -0.110474 0.972809
-0.160719 0.32011 0.120194 0.0216928 0.50262 -0.864235
-0.167475 -0.088957 -0.077251 -0.413817 0.371532 -0.831095
-0.103597 0.246619 0.121806 0.971907 0.22345 -0.0739321
-0.062911 0.118959 0.070385 -0.599542 -0.208297 0.772762
-0.112339 0.32952 0.164369 0.970485 0.142129 -0.194826
-0.221908 0.020917 0.056789 0.00342443 0.92614 0.377164
0.112023 0.192033 0.02345 -0.766429 0.454984 -0.453405
0.249642 0.041456 0.027949 -0.734969 0.594086 -0.326929
0.055663 0.251468 0.09093 0.99498 -0.0354553 -0.0935836
-0.247153 -0.282417 0.067991 -0.376563 -0.245848 0.893173
-0.008154 0.037219 -0.07253 0.0449308 0.430994 -0.901236
0.061048 0.390666 0.148545 0.992399 0.00617123 -0.122908
-0.214656 -0.152386 -0.080878 -0.46132 0.309579 -0.831471
0.043191 0.067845 0.013342 0.545602 0.785616 -0.291764
-0.340351 0.064526 0.096409 -0.964501 -0.23769 0.115071
-0.272373 0.168274 0.134132 0.922703 0.326233 -0.205405
-0.276694 -0.297285 0.039322 -0.62444 -0.341325 0.702547
-0.136089 -0.456651 -0.120896 0.0446644 -0.949786 -0.309696
0.126263 -0.306268 -0.177274 0.239162 0.0805599 -0.967632
0.197368 -0.328049 -0.133691 0.554123 -0.259551 -0.790937
0.181971 0.084255 -0.029081 0.785446 0.103794 -0.610165
-0.331609 0.028607 0.07932 -0.90156 -0.269073 0.338805
0.184951 0.395287 0.15728 -0.151131 0.748829 -0.645302
0.0728985 -0.25902 0.078181 -0.260214 -0.025113 0.965224
0.161897 -0.466442 -0.07198 0.466155 -0.865385 0.183869
-0.238096 0.056415 0.070712 0.940323 0.337259 0.0452704
-0.24121 0.065759 0.073193 0.944353 0.328491 -0.017084
-0.164824 -0.056563 -0.064112 -0.381394 0.406564 -0.830207
-0.12428 -0.457415 -0.120101 0.0163097 -0.948682 -0.315811
-0.028124 -0.281778 0.048763 -0.0222409 -0.0108539 0.999694
-0.036161 0.423037 0.188658 -0.975256 0.0484575 0.215705
-0.025335 0.339812 0.171974 -0.438214 -0.336321 0.833581
-0.20167 -0.091576 0.105598 0.0658701 -0.108075 0.991958
-0.20333 -0.029914 -0.032749 -0.393001 0.465085 -0.79325
0.256916 -0.009051 -0.015858 -0.371005 0.406435 -0.834964
-0.23664 -0.459831 -0.094371 -0.739534 -0.656656 -0.147963
-0.028539 0.471559 0.208369 -0.878803 0.357103 0.316515
-0.238582 0.00603 0.087574 0.347933 0.136065 0.927593
-0.145327 0.32172 0.21426 0.190015 -0.46711 0.863541
-0.294201 -0.165696 0.075483 -0.496251 -0.179593 0.849401
0.016751 0.109556 0.085703 0.291936 -0.410778 0.863733
0.208835 -0.095234 -0.048121 0.399631 0.595376 -0.69701
-0.149799 0.320588 0.119429 0.235321 0.497192 -0.835119
-0.14628 0.379656 0.242401 0.14893 -0.156721 0.97635
-0.17134 0.27547 0.188921 -0.401226 -0.383319 0.831916
-0.061168 -0.461958 -0.115308 -0.0575599 -0.935043 -0.34983
0.32652 0.067953 0.02532 0.497853 0.414067 -0.762031
0.250417 -0.034133 0.080594 -0.64795 -0.173996 0.741543
0.345024 -0.037647 0.06973 0.875405 -0.295576 0.382492
-0.325898 0.171124 0.103146 -0.357644 0.521986 -0.774352
-0.117581 -0.482229 -0.052503 -0.0255385 -0.934903 -0.353982
0.034152 -0.221381 -0.171406 -0.0318703 0.256406 -0.966044
-0.249387 0.091528 0.081424 0.885815 0.440671 -0.1454
-0.300569 0.010198 0.009748 -0.586899 0.130908 -0.799007
-0.170276 -0.2436 -0.137238 -0.364086 0.35504 -0.861039
0.198939 -0.327288 -0.132722 0.553424 -0.273374 -0.786758
-0.315363 -0.077803 0.041858 -0.959463 -0.0636569 0.27455
0.076244 -0.101306 0.04767 0.012877 0.034986 0.999305
0.09673 -0.401211 -0.194846 0.47381 0.0343055 -0.879959
0.242458 0.349997 0.162742 0.99591 0.0343101 0.0835878
-0.356924 0.155368 0.159152 -0.902233 -0.310823 0.29894
-0.188762 -0.428551 -0.192297 -0.463106 -0.169951 -0.869856
0.051283 0.227568 0.095103 0.957308 -0.201565 0.207201
0.342303 -0.054134 0.020577 0.961531 -0.0498652 -0.270131
0.259393 -0.009686 -0.016764 -0.308501 0.411568 -0.857577
0.196044 0.063452 0.002834 0.966775 -0.0942334 -0.237627
0.057527 0.361618 0.129904 0.95523 0.11066 -0.274389
-0.288994 -0.314921 -0.010437 -0.96491 -0.262307 0.0119764
0.119951 -0.147885 0.062866 -0.00176987 0.291695 0.95651
-0.169948 -0.377045 0.065668 -0.146539 -0.38776 0.910038
0.070852 -0.259159 0.077671 -0.265804 -0.0233122 0.963745
0.226752 -0.391504 -0.059789 0.788249 -0.474368 -0.391967
-0.038766 0.344408 0.159751 -0.760958 -0.190298 0.620266
-0.272974 -0.311997 -0.070157 -0.883933 -0.0296922 -0.46667
0.111638 -0.020187 -0.112339 0.312286 0.350978 -0.882775
-0.278816 0.207555 0.166949 0.940717 0.324234 -0.0996188
0.228692 -0.285754 0.061808 0.561705 -0.102255 0.820994
-0.112711 -0.458194 -0.119271 -0.0445654 -0.942213 -0.332036
0.21153 -0.11833 -0.075366 0.511247 0.504487 -0.695787
-0.325381 0.168934 0.101515 -0.389013 0.514314 -0.764297
0.147286 0.320221 0.10645 -0.677565 0.506879 -0.532897
0.010781 0.079716 0.067605 0.421903 -0.362731 0.830918
0.313318 0.101767 0.063042 0.0247808 0.999589 0.0144224
-0.19776 0.071084 0.054518 -0.998133 -0.0292849 -0.0535926
-0.229875 -0.389766 -0.153952 -0.726726 0.198227 -0.657705
-0.283908 -0.110488 -0.019467 -0.638693 0.197589 -0.74366
-0.083489 0.065308 -0.027986 -0.586793 0.501669 -0.635612
-0.230181 -0.162356 0.093519 -0.107992 -0.182854 0.977191
0.230706 0.237207 0.092171 0.995097 -0.0987612 0.00526577
-0.12193 0.100036 0.122704 0.538724 -0.265991 0.799391
0.20065 0.079439 0.011181 0.974634 -0.139041 -0.175375
-0.085666 -0.496542 -0.015948 0.0196782 -0.80959 0.586665
0.043329 0.017797 -0.079637 -0.200404 0.597204 -0.77665
-0.28246 0.221864 0.178548 0.919362 0.393381 -0.00494146
-0.278984 -0.057215 -0.012301 -0.452206 0.237497 -0.859712
-0.07472 0.062098 -0.041755 -0.564248 0.457065 -0.687543
-0.308983 -0.063738 0.015325 -0.885216 0.0320669 -0.464073
-0.298437 0.055348 0.020642 -0.296303 0.262346 -0.918357
0.005587 -0.444275 -0.174043 -0.0540015 -0.961006 -0.271203
-0.13824 -0.490496 -0.02688 -0.0785394 -0.91359 0.39898
-0.277103 0.198828 0.159537 0.907234 0.374199 -0.192098
-0.23834 -0.168764 -0.071306 -0.499641 0.296488 -0.813913
-0.330045 0.014701 0.074431 -0.934588 -0.222817 0.277306
0.039261 0.10277 0.025121 0.981016 0.0296522 -0.191644
0.150889 -0.210242 0.075903 0.123925 0.274975 0.953431
0.236502 0.287654 0.122631 0.978031 -0.189138 0.0876519
0.192404 -0.10042 -0.091894 0.641423 0.432935 -0.633359
0.175081 -0.214286 0.069282 0.222859 0.304039 0.926226
0.092788 -0.109231 0.050447 0.0408254 0.119941 0.991941
-0.048058 0.306868 0.1381 -0.91083 -0.0521018 0.40948
-0.037289 0.414778 0.185139 -0.980294 0.0436011 0.19267
0.184895 0.42286 0.213201 0.00937497 0.922766 0.385247
0.023781 0.366554 0.190849 0.263802 -0.527293 0.807694
0.104615 0.184934 0.076685 -0.950216 0.239319 0.199537
-0.112815 -0.080892 0.08196 0.300303 -0.113925 0.947016
-0.337992 0.122094 0.152386 -0.370558 -0.579567 0.725802
0.22595 0.200475 0.069883 0.994768 -0.0947733 -0.0381452
-0.014172 -0.230606 0.049318 -0.0543646 0.0269457 0.998158
0.205873 -0.336154 0.058237 0.511338 -0.388992 0.766302
-0.093682 0.13897 0.070441 0.957809 -0.223264 0.180986
-0.049246 0.253606 0.047494 -0.749438 0.39131 -0.53406
0.206174 -0.373273 -0.102327 0.719522 -0.359458 -0.594204
-0.198374 0.078903 0.060171 -0.997204 -0.0742152 0.0087896
-0.160319 -0.12711 0.087422 0.255987 -0.171079 0.951421
0.217355 0.41763 0.208366 0.68507 0.656554 0.315621
0.315278 0.01348 0.002782 0.500098 0.278887 -0.819831
0.208909 -0.254399 0.070647 0.430648 0.0970322 0.897289
-0.264886 0.084065 0.111914 0.549701 -0.255398 0.795362
-0.227507 0.028635 0.059908 0.471718 0.833721 0.287039
0.29686 -0.006199 0.107647 -0.033808 -0.156088 0.987164
-0.190413 0.124514 0.038393 -0.851906 0.159841 -0.498706
-0.001477 0.019055 0.067288 0.142117 -0.0852922 0.986168
-0.314806 0.003849 0.021999 -0.784457 0.0324265 -0.619335
-0.062359 0.239992 0.07148 -0.94397 0.277943 -0.177958
0.149401 0.074774 0.083233 0.229348 -0.406533 0.884381
-0.117389 -0.479619 -0.059698 -0.0241453 -0.915969 -0.400523
0.158933 0.270402 0.16078 -0.381548 -0.406086 0.830371
-0.210763 -0.008892 -0.00552 -0.347525 0.626634 -0.697536
0.142641 0.101071 -0.052353 0.23079 0.427054 -0.874277
-0.273301 0.170099 0.128332 0.840712 0.418175 -0.343996
0.169914 0.071635 0.077721 0.485398 -0.395841 0.779551
-0.021519 0.106627 -0.043142 -0.0313432 0.355071 -0.934314
-0.007032 -0.080898 0.05207 0.12262 -0.138566 0.982733
-0.064278 0.153469 0.006616 -0.771603 0.242543 -0.588049
0.048886 0.22479 0.10142 0.899179 -0.246515 0.361534
-0.159029 0.102448 0.001374 -0.321356 0.315909 -0.89271
0.066342 0.072782 0.002232 -0.506132 0.795654 -0.332814
-0.012901 0.184872 -0.010535 0.0513914 0.440505 -0.896278
0.062892 -0.10026 -0.139858 0.00130682 0.334934 -0.942241
-0.211683 -0.000908 0.001446 -0.369288 0.655438 -0.658807
0.240321 -0.08626 0.058901 -0.372078 -0.184917 0.909595
0.176518 0.313302 0.083663 -0.135292 0.582435 -0.80154
0.139887 0.100208 -0.053795 0.125502 0.441289 -0.888545
0.135539 -0.140366 0.057369 0.258977 0.329426 0.90797
0.026998 0.134693 -0.008724 0.782583 0.13076 -0.608659
0.334386 -0.086449 0.044766 0.83056 -0.402839 0.384565
-0.272324 0.168333 0.131659 0.902027 0.349491 -0.253384
-0.016943 0.377972 0.098286 -0.49662 0.470595 -0.729321
0.125569 -0.046551 -0.114504 0.433022 0.295226 -0.851665
-0.278746 0.153702 0.154617 0.742897 -0.349545 0.570896
-0.095285 0.079952 0.002491 -0.295388 0.543729 -0.78556
-0.249879 0.088689 0.084254 0.930832 0.365358 0.00805817
-0.117859 0.217192 0.066493 0.453542 0.59288 -0.665426
-0.169449 -0.147746 -0.099636 -0.368036 0.30185 -0.879452
0.175808 0.39704 0.225149 -0.18742 0.144124 0.971649
-0.280273 0.213577 0.172222 0.931627 0.349989 -0.0978704
0.120354 0.05626 0.068955 -0.0823246 -0.239922 0.967295
0.058935 0.31206 0.119672 0.995599 0.0432248 -0.0831561
-0.155053 0.037514 -0.022824 -0.421315 0.393537 -0.817082
-0.166839 -0.073342 -0.071022 -0.398242 0.392 -0.8293
0.17276 0.285085 0.062319 -0.0825023 0.592165 -0.801582
-0.175619 -0.269437 -0.147458 -0.380533 0.319213 -0.867927
-0.022576 -0.261224 0.049505 -0.0597743 -0.00344048 0.998206
0.198588 0.163045 0.104498 0.585573 -0.389306 0.711017
-0.17069 0.345829 0.134872 -0.242019 0.462792 -0.852789
-0.038139 0.045224 -0.071988 -0.19475 0.397772 -0.896577
0.242472 0.023173 0.058438 -0.863609 0.322047 0.387899
0.214133 -0.053446 -0.003787 -0.530262 0.762289 -0.37113
-0.176244 -0.260379 0.075689 0.0919065 -0.0456786 0.994719
0.241807 0.322702 0.144523 0.993702 -0.107635 0.0311626
0.030669 0.132713 -0.00154 0.83899 0.105108 -0.533899
0.17833 0.329643 0.095863 -0.0845352 0.599183 -0.796137
0.166829 0.241323 0.032391 -0.0263248 0.582026 -0.812744
0.270428 0.004809 0.099115 -0.512218 0.0691024 0.856071
-0.025524 0.089686 -0.049707 0.0339626 0.389431 -0.920429
0.173943 -0.082021 -0.098329 0.612311 0.390349 -0.687534
-0.194367 -0.484175 -0.02775 -0.421725 -0.802035 0.42295
0.260945 -0.127602 0.065429 -0.039606 -0.225154 0.973518
-0.160227 0.123018 0.009925 -0.265757 0.330815 -0.905502
-0.039268 0.067238 0.073815 0.0576618 -0.0511059 0.997027
-0.262378 -0.30788 -0.086011 -0.8402 0.0184941 -0.541962
0.028469 0.337572 0.172438 0.320119 -0.368852 0.872624
0.306715 -0.253059 -0.020326 0.985639 -0.163503 0.0422203
0.043998 0.060863 -0.008878 0.248316 0.802641 -0.542317
0.328159 0.073056 0.028022 0.493073 0.505975 -0.70772
-0.066495 -0.251976 0.051947 0.166669 -0.0167447 0.985871
0.124596 0.05273 0.068384 -0.0249718 -0.259449 0.965434
0.033278 0.304603 0.162653 0.376495 -0.332236 0.864795
0.091864 0.141389 0.062493 -0.958583 0.127885 0.254489
0.115612 -0.012018 -0.108646 0.3655 0.375406 -0.851751
-0.290912 -0.306178 -0.004799 -0.971148 -0.238361 0.00745903
0.213828 0.144249 0.041628 0.985065 -0.169483 -0.0303702
-0.133896 -0.10398 -0.103716 -0.3644 0.318525 -0.875074
0.110379 -0.135219 0.059263 -0.0300666 0.278449 0.95998
-0.33791 0.056575 0.093212 -0.905533 -0.307359 0.292473
0.18889 0.009893 -0.016162 0.952948 0.0387452 -0.300647
-0.27913 -0.166641 0.085326 -0.391249 -0.180059 0.902498
0.146189 -0.108462 0.03614 0.29473 0.186554 0.937194
0.113603 0.21543 0.089603 -0.962276 0.24668 0.114773
-0.094592 0.118395 0.09701 0.878151 -0.056328 0.475055
-0.243674 0.02262 0.092854 0.464083 0.0331974 0.88517
0.169615 -0.077468 -0.099591 0.593611 0.37712 -0.710919
0.019047 0.018146 -0.075988 -0.079133 0.526265 -0.84663
0.105428 -0.127246 0.056917 -0.00950664 0.23541 0.97185
-0.199114 0.041077 0.035462 -0.951396 0.235731 -0.198183
0.025553 -0.255453 -0.180579 0.00146967 0.268944 -0.963155
-0.237814 -0.457093 -0.104715 -0.769681 -0.609757 -0.189175
0.18533 -0.151559 0.036498 0.0482718 0.181952 0.982122
0.18249 0.383576 0.143588 -0.152288 0.713698 -0.683698
0.24979 -0.115484 -0.0641 0.35592 0.363422 -0.860956
0.000967 0.492461 0.215765 -0.420283 0.758755 0.497647
0.226424 -0.001551 0.030388 -0.839615 0.356479 0.40984
0.199701 -0.323197 0.067288 0.470581 -0.321293 0.821781
0.267879 -0.330554 -0.005181 0.803096 -0.414966 0.427598
-0.053683 0.058269 0.074042 0.1876 0.00677966 0.982222
0.118239 -0.450028 -0.154881 0.542782 -0.555929 -0.629548
0.275065 -0.32567 -0.022217 0.878441 -0.461278 0.124759
0.102768 -0.397681 -0.190009 0.499057 0.000992037 -0.866569
0.156385 0.024696 0.058403 0.338387 -0.303452 0.890736
-0.064044 -0.084376 -0.123573 -0.212186 0.349582 -0.912562
0.125774 0.195708 0.011156 -0.590635 0.499614 -0.633669
-0.32164 -0.027673 0.055108 -0.964872 -0.218808 0.145413
-0.303392 -0.06215 0.006049 -0.78723 0.0684021 -0.612854
0.101994 -0.436485 -0.180819 0.471157 -0.506161 -0.722366
-0.00334 0.278102 0.034789 -0.0508128 0.46312 -0.884838
-0.18932 -0.110771 0.100185 0.146823 -0.157402 0.976559
0.135122 0.294315 0.134962 -0.985808 0.094552 0.138718
0.318438 0.041253 0.014828 0.473237 0.286964 -0.832885
0.024537 0.394943 0.210198 0.280471 -0.478843 0.831893
-0.31547 -0.067731 0.051206 -0.869113 -0.113843 0.481334
0.001302 0.329797 0.061628 -0.0690213 0.495509 -0.865856
-0.263908 0.135521 0.11095 0.910979 0.387692 -0.140752
-0.312085 -0.177421 0.036896 -0.93234 -0.200929 0.300616
0.274411 0.07776 0.03928 -0.579798 0.768779 -0.269838
-0.128298 0.165302 0.140572 0.448946 -0.284786 0.846962
-0.084167 -0.263272 -0.173047 -0.217435 0.310137 -0.925493
-0.295654 0.038583 0.015157 -0.349048 0.263895 -0.89918
0.352779 0.005892 0.0846245 0.918035 -0.150826 0.366692
0.31911 -0.112817 -0.026876 0.807397 -0.0613125 -0.586814
-0.0108 0.241287 0.018379 0.000255443 0.435718 -0.900083
0.027322 0.440861 0.230195 0.327366 -0.138107 0.93475
-0.01272 0.487928 0.213853 -0.65577 0.621665 0.428368
-0.240666 0.056399 0.043552 0.738358 0.445261 -0.506528
-0.315734 -0.147898 0.036627 -0.984263 -0.0250219 0.174929
0.312673 -0.030517 -0.017469 0.533083 0.308331 -0.787879
-0.335717 0.252339 0.175522 -0.386962 0.908186 -0.159555
0.352101 -0.013106 0.07153 0.977639 -0.187928 0.0943628
0.33173 -0.062377 0.075959 0.456409 -0.473659 0.753218
0.049671 0.050605 0.0574 0.0249688 0.110346 0.99358
-0.244378 0.073611 0.075245 0.935369 0.349621 -0.0533744
-0.169539 -0.394296 0.060494 -0.150464 -0.437437 0.886572
-0.012502 -0.493947 -0.026723 0.139307 -0.78637 0.601844
0.192542 -0.039899 -0.018997 0.963403 0.132041 -0.233279
-0.329081 0.182599 0.111073 -0.346002 0.547281 -0.76208
-0.329806 0.013446 0.073967 -0.925795 -0.224839 0.303894
0.174359 0.334856 0.208622 -0.166662 -0.470192 0.866685
-0.272854 -0.362662 -0.016632 -0.854248 -0.41713 0.310261
0.005918 0.380955 0.094358 -0.0346956 0.507337 -0.861049
0.173035 0.287396 0.063887 -0.088673 0.584571 -0.806482
-0.276081 -0.209284 -0.057052 -0.732052 0.155051 -0.663369
-0.09289 0.125591 0.088733 0.925591 -0.0452339 0.375813
-0.253628 -0.166136 0.092276 -0.237441 -0.183047 0.954
0.178289 0.329195 0.095522 -0.0811574 0.598254 -0.797186
0.031406 -0.431927 -0.208077 0.0605615 -0.629017 -0.775029
-0.122302 -0.101349 -0.107594 -0.338668 0.335661 -0.878997
0.023139 0.104201 0.078727 0.529478 -0.420388 0.736836
0.246679 -0.269731 -0.119243 0.690805 -0.0966195 -0.716556
-0.199168 0.105489 0.077235 -0.99489 -0.0734159 0.0693109
-0.146217 0.357534 0.233847 0.163346 -0.342621 0.925164
-0.146154 0.382149 0.24262 0.130242 -0.114105 0.984894
0.002452 -0.473478 -0.092311 -0.0246351 -0.912344 -0.408682
-0.1174 -0.45648 -0.123496 -0.00572795 -0.957424 -0.288627
-0.162157 0.092491 0.12341 -0.337022 -0.382881 0.860127
-0.257594 -0.397107 -0.030322 -0.841953 -0.421367 0.336996
-0.013189 0.209989 0.002179 0.0617596 0.429801 -0.900809
0.205748 -0.118066 -0.088519 0.554632 0.474939 -0.68324
-0.288326 0.236417 0.189492 0.787208 0.596669 0.155851
-1.6e-05 -0.487 -0.054142 0.105918 -0.970672 0.215819
0.152917 0.154997 -0.017632 0.00952185 0.49288 -0.870045
-0.152419 0.437153 0.215078 0.184815 0.962448 0.198842
0.026871 0.424632 0.225429 0.317861 -0.292843 0.90178
-0.203532 0.329059 0.171593 -0.985033 -0.118881 0.124808
0.030586 0.247287 0.135403 0.364875 -0.427812 0.826948
0.163595 -0.327707 0.079042 -0.0457386 -0.386481 0.921163
0.236768 0.393286 0.192282 0.913336 0.341253 0.222178
-0.108964 -0.494398 -0.013601 0.00277014 -0.784794 0.61975
-0.032629 0.063307 -0.061467 -0.0286497 0.432096 -0.901372
-0.156319 0.053381 -0.016278 -0.435055 0.34542 -0.831512
-0.162685 -0.288043 -0.161967 -0.298642 0.330242 -0.895407
0.251879 -0.293936 -0.102275 0.727451 -0.345576 -0.592784
0.347689 -0.013132 0.085026 0.763595 -0.25987 0.591092
0.191753 -0.137852 0.035582 -0.0555358 0.145898 0.98774
-0.200707 -0.02766 -0.032798 -0.416565 0.466109 -0.780523
-0.167404 -0.105447 -0.083758 -0.418877 0.352744 -0.836728
0.059304 0.464162 0.189071 0.946151 0.321898 -0.0343596
0.174286 0.328944 0.204993 -0.106995 -0.51189 0.852362
-0.218146 -0.437975 -0.164962 -0.5949 -0.434037 -0.676539
0.185167 0.07203 0.067732 0.648241 -0.369567 0.665735
0.073316 0.056233 0.059813 -0.136297 0.0603681 0.988827
0.062629 -0.402604 -0.213382 0.31632 0.172263 -0.932881
0.143431 0.35842 0.178843 -0.981198 0.174878 0.0816567
0.097995 0.094482 0.072062 -0.658019 -0.161144 0.735556
0.043541 -0.473805 -0.099251 -0.12933 -0.936451 -0.326087
-0.264495 -0.0542 -0.017322 -0.36204 0.320518 -0.875326
0.260555 0.029389 0.002168 -0.337029 0.490964 -0.803346
0.143777 0.112063 -0.045294 0.162144 0.492609 -0.855012
-0.230561 0.038941 0.057659 0.793804 0.567743 -0.218042
-0.203673 -0.088209 0.106212 0.0372843 -0.0879784 0.995424
0.219961 -0.407164 -0.028165 0.599835 -0.741258 0.301221
-0.09366 0.15425 0.075205 0.831313 -0.113809 0.544028
-0.214562 -0.157699 0.092883 -0.0133344 -0.175442 0.984399
-0.047072 0.313935 0.14135 -0.906032 -0.0513171 0.420086
-0.286911 -0.32118 -0.008127 -0.901357 -0.365129 0.232885
0.236042 -0.096982 0.059323 -0.30912 -0.168024 0.936063
-0.027787 0.340198 0.170534 -0.549316 -0.298032 0.78066
0.267285 -0.002473 0.096798 -0.55026 0.01 0.834934
0.026337 -0.287205 -0.188741 0.0749336 0.22224 -0.972108
-0.117438 -0.464304 -0.101797 -0.0172935 -0.916748 -0.399091
0.164573 0.268961 0.162563 -0.232318 -0.453144 0.860633
0.000189 -0.047365 0.056465 0.125662 -0.151147 0.980492
-0.170725 0.409313 0.176312 -0.15549 0.601483 -0.783607
-0.2093 -0.148984 -0.082594 -0.442926 0.315595 -0.839176
0.041366 0.061373 -0.011934 0.214257 0.787974 -0.577228
-0.045036 -0.272408 -0.184826 -0.154793 0.299886 -0.941333
-0.033905 0.445133 0.197727 -0.962094 0.143046 0.232193
0.128795 0.183671 0.108638 -0.654914 -0.110954 0.747514
-0.16767 0.266586 0.088844 -0.252415 0.485708 -0.836884
0.058889 -0.117322 -0.146396 0.0198277 0.305624 -0.951946
-0.337571 0.055497 0.0924705 -0.918504 -0.295906 0.262279
-0.205333 0.352685 0.182223 -0.987334 -0.062974 0.145625
0.221798 -0.131603 -0.078032 0.51117 0.438376 -0.739278
-0.283027 -0.287681 0.034281 -0.720239 -0.300799 0.625121
-0.198767 0.407065 0.208372 -0.909897 0.358328 0.209015
0.210497 -0.111086 -0.065019 0.466961 0.541025 -0.699457
-0.113482 -0.263062 -0.160299 -0.240431 0.325495 -0.914465
-0.309465 0.106005 0.04488 -0.310351 0.555016 -0.771777
-0.062574 0.071622 0.066875 0.18772 0.0310802 0.981731
0.257959 -0.009337 -0.016378 -0.344457 0.408894 -0.845077
0.007175 0.031181 -0.070569 0.0643823 0.483039 -0.873228
0.143328 -0.110135 0.037918 0.311599 0.191994 0.930615
0.340601 -0.060945 0.058554 0.844276 -0.387255 0.370448
-0.038515 -0.351745 0.049566 0.0586072 -0.262384 0.963182
0.209104 -0.212757 -0.146216 0.476711 0.209005 -0.853852
-0.04855 0.217692 0.112403 -0.616555 -0.261293 0.742688
0.083304 0.082288 0.053038 -0.702039 0.244764 0.668754
-0.100335 0.066811 -0.007815 -0.299195 0.560471 -0.77224
-0.025067 0.375854 0.101757 -0.625338 0.4406 -0.644069
-0.316139 -0.105886 0.040647 -0.948571 -0.0234435 0.315695
0.000891 -0.427439 -0.215681 -0.000863533 -0.291672 -0.956518
-0.249351 0.015322 0.097455 0.325232 -0.0738737 0.942744
0.016979 0.443755 0.131447 0.00986753 0.566077 -0.824294
-0.142526 -0.259861 0.067614 0.213657 0.00999769 0.976857
-0.214929 -0.068666 0.106744 -0.0676819 -0.00250578 0.997704
-0.153255 0.015902 0.095863 0.0507121 -0.0475212 0.997582
0.088387 0.105126 -0.01869 -0.753367 0.484937 -0.444156
0.020203 0.147905 0.104923 0.304332 -0.344098 0.888245
0.040892 0.060618 0.048784 0.200927 0.263021 0.943636
0.227555 -0.381597 0.010407 0.579847 -0.611356 0.538536
-0.123448 0.099516 0.123105 0.497563 -0.279446 0.821183
-0.278752 -0.195049 -0.049973 -0.73908 0.180483 -0.648989
0.116029 0.192046 0.098347 -0.885697 0.0733629 0.458432
0.131392 0.278296 0.126428 -0.972907 0.170801 0.155817
0.322126 0.008405 0.005872 0.683953 0.185865 -0.705452
-0.150987 0.022021 -0.032054 -0.366204 0.460884 -0.808381
-0.164862 -0.325758 0.073482 -0.0520422 -0.239114 0.969596
0.061281 0.013643 -0.09273 -0.221458 0.562822 -0.796359
0.084945 -0.446486 -0.177439 0.207728 -0.792357 -0.573603
-0.193646 -0.429575 -0.188372 -0.492602 -0.216776 -0.842823
-0.200207 0.283686 0.165935 -0.896759 -0.179662 0.404406
0.149996 -0.470536 -0.087805 0.511079 -0.859532 -0.00142285
0.024207 0.380007 0.20156 0.250017 -0.520433 0.816481
-0.034325 0.107473 0.088895 -0.30366 -0.314825 0.899264
0.19439 0.427278 0.196969 0.295637 0.955021 0.0230971
0.052947 0.224575 0.079174 0.990582 -0.0855567 -0.106901
-0.120287 0.410215 0.204781 0.925813 0.375363 -0.0444234
-0.272437 0.169461 0.129788 0.860069 0.397842 -0.319379
-0.170459 -0.172891 0.080438 0.208137 -0.154529 0.965816
0.079527 0.057425 0.059964 -0.164649 0.0319938 0.985833
-0.185284 0.426918 0.213396 -0.720442 0.63136 0.286963
-0.281114 0.138204 0.150079 0.617875 -0.340896 0.708534
0.275658 -0.13844 0.062991 0.0735316 -0.256014 0.963872
-0.063738 -0.081489 -0.122872 -0.209078 0.359618 -0.909374
-0.10207 0.146423 0.042469 -0.0240743 0.238051 -0.970954
0.264136 -0.074157 -0.048476 -0.0623093 0.367963 -0.92775
-0.153166 0.216144 0.057194 -0.077869 0.524647 -0.847751
-0.134266 0.21779 0.059968 0.24239 0.54986 -0.799313
-0.04229 0.051115 -0.068168 -0.240066 0.404176 -0.882615
-0.028392 -0.088172 -0.126015 -0.168366 0.358189 -0.918343
-0.207361 0.015099 0.029806 -0.480962 0.71261 -0.510748
-0.086229 0.063011 -0.024254 -0.524672 0.523419 -0.671381
0.33668 -0.049715 0.004785 0.915873 0.0335903 -0.40006
-0.067365 0.149138 0.066102 -0.72468 -0.294359 0.62305
-0.102931 -0.263126 -0.163288 -0.230062 0.317468 -0.919938
-0.304694 0.008513 0.012818 -0.651719 0.103852 -0.751317
0.156773 0.208124 0.130824 -0.128705 -0.413219 0.90149
-0.199485 0.116459 0.084634 -0.981978 -0.0858006 0.168397
-0.208338 -0.035302 0.101024 0.0213595 0.169791 0.985249
0.124615 0.010915 -0.095831 0.397284 0.380436 -0.835125
0.292152 -0.019138 -0.023618 0.0825501 0.401324 -0.912209
0.207204 -0.25151 0.07077 0.410316 0.122498 0.903679
-0.137613 0.032849 0.095196 0.149982 -0.135423 0.97937
-0.36085 0.187953 0.180176 -0.914399 -0.150174 0.375929
0.115834 -0.473583 -0.115922 0.24486 -0.914577 -0.321857
-0.09908 0.222484 0.112091 0.99144 0.0968539 0.0875571
0.144379 -0.198685 0.076231 0.122815 0.283324 0.951128
-0.145459 0.325715 0.216388 0.159801 -0.469402 0.868404
0.181537 0.37322 0.130671 -0.149279 0.694811 -0.703529
0.098843 0.177848 0.055666 -0.948274 0.316187 -0.028315
-0.154382 -0.491762 -0.015349 -0.169122 -0.799126 0.576885
-0.093661 0.152544 0.074597 0.859857 -0.166151 0.482742
0.167532 0.255395 0.157982 -0.0429816 -0.445402 0.894298
0.161483 -0.220953 0.078645 0.172595 0.288253 0.941871
0.015599 0.435356 0.125078 0.00862619 0.53732 -0.843334
-0.173974 0.275375 0.188236 -0.455418 -0.372827 0.808452
-0.279147 -0.345514 -0.012721 -0.85315 -0.414113 0.317248
0.159254 0.219665 0.138617 -0.103836 -0.434163 0.89483
-0.159439 -0.236419 0.07173 0.202175 -0.0722829 0.976678
0.352323 -0.010353 0.056248 0.97275 -0.0920463 -0.212802
0.270463 -0.007067 0.099326 -0.436807 -0.0822288 0.895789
0.283985 -0.308363 -0.023288 0.909967 -0.394473 0.127869
-0.287856 -0.008399 0.102741 -0.191841 -0.230139 0.954061
0.248753 -0.309547 0.034069 0.675478 -0.247452 0.69462
0.255912 -0.007445 0.087516 -0.725324 0.0200318 0.688116
0.24095 0.029454 0.039606 -0.893938 0.422367 0.149937
-0.18045 0.091699 0.115007 -0.586543 -0.331488 0.738974
0.017449 0.115773 0.089652 0.286086 -0.392568 0.874097
0.303677 -0.101209 -0.04485 0.559397 0.0870078 -0.824321
0.038469 0.086335 0.011969 0.868448 0.37579 -0.323387
0.229234 -0.082544 0.052391 -0.515469 -0.0143183 0.856789
-0.247253 -0.299929 -0.103656 -0.723468 0.127317 -0.678516
0.236789 0.290204 0.122347 0.992553 -0.105283 -0.0612699
0.134762 0.078944 -0.064382 0.127044 0.393865 -0.910346
0.290765 -0.294139 -0.023967 0.939689 -0.329304 0.0924291
0.24494 -0.006695 0.075721 -0.806316 0.0768319 0.586474
-0.247526 -0.422008 -0.040363 -0.830524 -0.448912 0.329708
-0.102378 0.238473 0.117073 0.962813 0.248295 -0.106495
-0.292176 0.193746 0.197695 0.565812 -0.288047 0.772584
0.190603 -0.310217 0.075344 0.389577 -0.242276 0.888556
0.328172 -0.108831 0.033772 0.841037 -0.370613 0.394085
0.118143 0.194489 0.016654 -0.68583 0.48348 -0.543952
0.226647 -0.058553 0.045259 -0.828732 0.0154075 0.559433
0.138256 0.315831 0.122433 -0.921154 0.317461 -0.225151
-0.355585 0.219034 0.197197 -0.837513 0.135495 0.529352
-0.234371 0.045602 0.067553 0.910081 0.411074 0.0526346
-0.316365 -0.013856 0.087974 -0.523214 -0.288815 0.801769
-0.111367 0.29381 0.166707 0.961599 -0.0668155 0.2662
-0.250936 0.093933 0.062995 0.771967 0.511773 -0.377034
0.039021 0.487807 0.208154 0.671963 0.654686 0.346198
-0.196294 -0.153423 0.090291 0.0830026 -0.181932 0.979802
-0.032226 0.047567 -0.070698 -0.127008 0.393936 -0.910321
0.237427 0.301721 0.130029 0.991161 -0.131039 -0.0207182
-0.229168 -0.467953 -0.069221 -0.639203 -0.765995 0.068349
-0.160863 -0.216503 0.073744 0.205452 -0.101818 0.973356
0.027153 -0.265142 0.064779 -0.286359 -0.0655341 0.955879
-0.028794 0.209879 0.12245 -0.369444 -0.338977 0.86522
-0.062776 0.203165 0.087559 -0.911227 0.0890708 0.402159
0.18869 0.415362 0.177149 -0.0243622 0.88199 -0.470637
0.173643 0.321079 0.200084 -0.0907034 -0.535382 0.839726
0.263576 -0.010976 0.093629 -0.576434 -0.0794047 0.813277
-0.164044 0.171912 0.03397 -0.36866 0.410812 -0.83386
-0.165487 0.207839 0.054039 -0.324309 0.466576 -0.82288
-0.099256 0.20839 0.123489 0.928878 -0.0910214 0.359029
-0.19122 -0.485326 -0.026432 -0.41188 -0.800727 0.434961
0.352265 -0.010428 0.058439 0.982032 -0.116003 -0.148848
-0.27391 0.178047 0.141924 0.905214 0.344777 -0.248427
-0.097922 0.211076 0.100913 0.988984 0.146142 -0.023537
0.181235 -0.452686 -0.045109 0.37641 -0.855437 0.355729
0.155783 0.181 -0.004392 0.0510929 0.45351 -0.889785
0.274538 -0.006695 0.101261 -0.349656 -0.0818834 0.933293
-0.001553 -0.467554 -0.10813 -0.0404995 -0.926585 -0.373898
-0.052257 0.160369 -0.007255 -0.6772 0.31485 -0.665034
0.16221 0.404724 0.20917 -0.775448 0.479109 0.41126
-0.043347 -0.399288 0.04838 0.0901526 -0.390753 0.91607
0.027187 0.433892 0.229109 0.267121 -0.23289 0.935098
-0.179337 0.316105 0.123907 -0.521393 0.396015 -0.755858
0.222212 -0.219919 -0.135766 0.547181 0.20358 -0.811879
0.103878 0.060931 0.066347 -0.173566 -0.131889 0.975951
-0.007011 0.258963 0.025768 0.0359271 0.444591 -0.895013
0.281847 0.023343 0.103142 -0.393756 0.183932 0.900625
-0.157755 -0.424085 -0.208409 -0.299632 -0.0992891 -0.948874
0.080024 -0.072721 -0.128858 0.0293976 0.317166 -0.947914
0.056024 0.262576 0.096447 0.997431 -0.0305263 -0.0648108
-0.168302 0.319824 0.120608 -0.188083 0.476721 -0.858698
-0.245831 -0.303824 -0.106061 -0.733035 0.130956 -0.667466
0.160101 0.223153 0.140734 -0.0653073 -0.443647 0.893819
0.075354 -0.00228 -0.106054 -0.142621 0.487796 -0.861228
0.199245 -0.433008 -0.03694 0.499099 -0.814737 0.295133
0.223292 -0.371743 0.024223 0.539359 -0.589064 0.601744
-0.179891 -0.426391 -0.19736 -0.402534 -0.12847 -0.906345
-0.146254 0.380224 0.242545 0.140053 -0.140158 0.980174
-0.254109 0.052385 0.099987 0.529059 -0.0607733 0.846406
0.064135 -0.414474 -0.213452 0.32667 -0.00878056 -0.945098
-0.033638 -0.315102 0.048509 0.0440156 -0.15338 0.987186
0.24202 0.359726 0.169518 0.994156 0.0861927 0.065004
0.058177 0.276776 0.103665 0.996061 0.00431705 -0.0885687
-0.2972 -0.274579 0.003551 -0.985395 -0.164107 0.0454484
0.056185 0.267501 0.098824 0.998908 -0.0345249 -0.0314683
0.190945 0.418886 0.181671 0.0924022 0.93992 -0.328653
-0.055226 0.257652 0.111194 -0.927181 -0.0470417 0.371648
0.301919 -0.269338 -0.023496 0.97492 -0.21947 0.0369272
-0.035578 0.431483 0.192367 -0.968943 0.0761372 0.23527
0.162315 0.218602 0.014272 0.00493708 0.557488 -0.83017
