ply
format ascii 1.0
element vertex 840
property float x
property float y
property float z
property float nx
property float ny
property float nz
element face 0
property list uchar int vertex_index
end_header
-0.010643 0.072075 0.031167 -0.0986629 0.744016 0.660837
-0.027445 0.055575 -0.037273 -0.764515 0.096326 -0.637368
-0.027399 0.099825 -0.030772 -0.550022 -0.696653 -0.460597
-0.023674 0.206825 -0.010773 -0.670379 0.0134129 0.741897
-0.010643 0.209053 0.003728 -0.761966 0.647595 -0.00532555
-0.045679 0.068325 -0.003023 -0.960855 0.264627 0.0820339
-0.026076 0.185325 -0.025523 -0.715659 -0.430752 -0.549805
0.000107 0.080015 0.024977 -0.00237112 0.999964 -0.00812303
-0.002393 0.166075 -0.031002 -0.183408 0.169541 -0.968307
-0.026643 0.116264 -0.001522 -0.889659 0.140958 0.434325
0.018607 0.153325 0.015023 0.635917 -0.152262 0.756588
0.005601 0.152825 0.020978 0.1449 0.0176313 0.989289
-0.041393 0.076575 -0.015616 -0.908254 -0.355274 -0.221029
0.018463 0.217109 -0.015297 -0.844932 0.519546 0.127128
-0.002143 0.078575 -0.043798 0.080516 0.68291 -0.726052
0.003971 0.241325 -0.026272 0.330661 -0.170816 -0.928162
-0.005143 0.135575 0.012685 -0.381151 -0.50109 0.776938
-0.009143 0.061455 0.008477 -0.00309073 -0.99928 0.0378265
0.001107 0.174075 -0.030649 -0.0633946 0.0772005 -0.994998
0.002586 0.089187 -0.033373 -0.207125 -0.900003 0.383527
0.028856 0.143502 -0.021272 0.146063 -0.848391 -0.50882
-0.009503 0.146325 0.015978 -0.41667 -0.538182 0.73263
-0.026284 0.218325 -0.016022 -0.798492 0.530323 0.284901
-0.015143 0.244332 -0.022773 -0.337728 0.940117 -0.0460483
-0.032597 0.097825 -0.011522 -0.824399 0.434762 -0.362419
0.025356 0.215075 -0.031581 -0.0602962 0.199694 -0.978001
-0.023893 0.178075 -0.017821 0.0602784 -0.440334 0.895808
-0.001511 0.098325 0.004728 0.57827 -0.308498 0.75527
0.025549 0.132825 -0.022522 0.920597 -0.177205 -0.347994
-0.022143 0.126825 0.00465 0.272505 -0.026852 0.96178
-0.027643 0.063075 -0.040345 -0.525838 -0.286566 -0.800859
0.009856 0.126075 0.004688 0.426888 -0.39417 0.813878
0.028607 0.064989 -0.028523 0.834997 -0.0852934 -0.543603
-0.019143 0.098575 -0.030885 -0.295836 0.101178 -0.949865
-0.027643 0.111531 -0.025272 0.151234 0.859411 -0.488407
0.031606 0.148379 -0.013523 0.846475 0.412592 -0.336524
-0.023144 0.069575 0.029137 -0.40695 0.409167 0.816685
-0.006644 0.242325 -0.025434 -0.483633 -0.46726 -0.740112
-0.038692 0.086841 -0.011925 0.0618827 -0.926949 0.370049
-0.020893 0.088993 -0.034522 -0.271563 0.59815 -0.75397
-0.012842 0.075575 -0.042273 -0.187735 -0.473692 -0.860448
0.004107 0.082825 -0.025529 -0.00176431 0.0670625 -0.997747
0.02053 0.060825 -0.036272 0.560766 -0.517572 -0.646267
0.006357 0.137075 -0.03615 -0.267182 0.104658 -0.957946
-0.00906 0.098075 -0.031523 0.0350312 -0.0216842 -0.999151
0.031761 0.177825 -0.022023 0.999322 0.0138506 0.034118
-0.034999 0.053575 0.018727 -0.753756 0.143688 0.641253
0.018607 0.215764 -0.011522 -0.287523 0.826398 0.484145
-0.019644 0.139075 -0.026458 -0.617288 -0.0132274 -0.786626
-0.022394 0.052325 -0.037786 -0.388846 -0.906211 0.166075
-0.025144 0.100575 -0.031341 0.651671 -0.132585 -0.746824
-0.030505 0.105575 -0.000522 -0.847228 -0.262909 0.46161
0.026572 0.142075 0.002977 0.791776 0.0933563 0.603635
0.015356 0.086304 -0.013523 0.751992 0.558488 -0.350142
-0.041022 0.075075 -0.005023 -0.993441 -0.0976311 0.0595259
-0.020143 0.079901 0.016228 0.00367846 0.999822 -0.0185284
-0.030778 0.135359 -0.015748 0.172711 -0.914 -0.367117
0.029607 0.235143 -0.013023 -0.108404 0.55135 0.827201
-0.029393 0.055622 -0.028273 -0.261575 -0.965182 0.00173693
-0.044144 0.066575 0.005718 -0.952794 0.0177878 0.303095
-0.009406 0.194325 0.008228 -0.671799 -0.287964 0.682468
-0.027144 0.122044 -0.016273 -0.977086 0.132449 -0.166614
0.024857 0.166822 -0.015522 0.966736 0.182359 -0.179353
-0.013893 0.213825 -0.03056 0.319614 0.0410506 -0.946658
-0.030824 0.114977 -0.025799 0.787352 0.513451 -0.34124
0.011356 0.057004 -0.034022 0.263368 -0.945023 -0.193829
-0.02046 0.199325 -0.007023 -0.471586 0.269593 0.839599
-0.033144 0.054571 0.003728 0.807499 -0.477486 -0.346342
-0.011893 0.198575 -0.030026 -0.146267 -0.19496 -0.969844
-0.017401 0.120325 -0.028523 -0.55465 0.00621331 -0.832061
0.026952 0.17833 -0.018307 0.665905 -0.61344 0.424573
0.021505 0.220075 -0.015772 -0.593998 0.802977 0.0489311
-0.015294 0.120575 -0.030772 -0.892541 0.197593 -0.405374
-0.014643 0.050315 -0.040022 0.0473533 -0.977192 0.207009
0.007352 0.056825 -0.040273 0.388991 -0.791945 -0.470648
0.030607 0.192325 -0.01205 0.892704 0.062795 -0.446247
0.007107 0.117075 0.011063 -0.0570466 -0.213371 0.975304
0.003354 0.079448 -0.028274 -0.00392989 0.99997 0.00662871
-0.036745 0.086792 -0.013895 0.188747 -0.950543 0.246664
0.002356 0.153159 -0.034522 0.161264 0.336973 -0.927601
0.030607 0.143825 -0.023419 0.416683 -0.713096 -0.563799
0.003672 0.121575 0.004728 -0.821753 0.307407 0.479816
0.002837 0.079439 -0.027036 -0.0298568 0.999361 -0.0196613
-0.039143 0.058089 -0.015272 -0.280557 -0.957256 -0.0703497
0.023594 0.110575 -0.015023 0.982451 0.110536 -0.150242
0.013357 0.098325 -0.028638 0.294235 0.248791 -0.922783
0.002356 0.220427 -0.014272 -0.567671 0.728937 -0.382623
0.001607 0.220925 0.005478 -0.33561 0.780135 0.527974
-0.022893 0.074325 -0.037921 -0.494345 -0.0713981 -0.866329
0.02747 0.151825 -0.026022 -0.627576 -0.217574 -0.747536
-0.034144 0.067575 0.022054 -0.697849 0.141666 0.702095
-0.0183 0.076075 0.026727 -0.337356 -0.347616 0.874845
0.009607 0.199325 -0.031977 -0.0878889 0.210984 -0.97353
-0.028307 0.102825 -0.020023 -0.996141 0.0570704 -0.0666732
0.024347 0.226075 -0.025523 -0.697127 0.346534 -0.627637
0.013104 0.096371 -0.017373 0.923866 -0.254206 -0.286097
0.010107 0.129374 -0.035023 0.474282 -0.14504 -0.868343
-0.004143 0.141325 0.015774 -0.192274 0.157255 0.96866
0.009607 0.193825 0.003972 0.858691 -0.313286 0.405589
0.016857 0.137636 0.010478 0.47059 -0.750144 0.464574
-0.027401 0.213575 -0.017772 -0.848935 -0.337034 0.407084
-0.017043 0.175075 -0.015772 -0.910619 -0.25643 -0.324063
0.014856 0.132575 0.005118 0.479132 -0.429392 0.765543
0.007606 0.056075 -0.035049 0.254391 -0.965342 -0.0583062
0.021107 0.21985 -0.013523 -0.560418 0.812316 0.161475
-0.033964 0.075325 -0.028772 -0.732278 -0.394459 -0.555131
-0.011008 0.140325 -0.032022 -0.689564 0.116714 -0.714758
-0.014775 0.079547 0.004076 -0.00433956 0.999579 -0.0286828
0.014607 0.175075 0.010224 0.226998 0.692228 0.685049
-0.021912 0.235075 -0.028022 0.749668 -0.33195 -0.572545
-0.001394 0.060075 -0.045197 0.0812431 -0.620138 -0.780275
-0.026512 0.086463 -0.024393 0.137098 -0.990036 0.0321504
-0.024622 0.131075 0.003478 0.514704 0.505381 0.692582
-0.005393 0.202575 0.007387 -0.472766 -0.177519 0.863122
-0.011027 0.218233 -0.025229 0.869444 0.486994 -0.083085
0.032753 0.215575 -0.011773 0.884174 -0.0718148 -0.461606
0.029293 0.061075 0.011727 0.727658 -0.564891 0.389118
-0.023643 0.123575 0.001618 -0.993021 0.0212253 -0.116011
-0.021893 0.186075 -0.027955 0.562686 -0.220096 -0.796833
-0.031643 0.07199 -0.033273 -0.440095 0.771596 -0.459299
-0.009894 0.185575 -0.028491 -0.229102 -0.158212 -0.960459
0.015615 0.079208 -0.027022 -0.0181878 0.999646 0.0194266
0.032995 0.052325 -0.001772 0.928807 -0.367971 -0.0437654
-0.022267 0.234325 -0.018022 0.863141 -0.17102 0.475121
-0.019131 0.156575 0.010478 -0.81594 0.0220539 0.577716
-0.012727 0.219647 -0.024234 0.824726 0.551109 0.126906
-0.014394 0.176325 -0.023747 -0.699359 -0.194102 -0.68791
0.032857 0.192575 -0.021559 0.884462 0.387182 0.260417
-0.039894 0.092188 -0.010273 -0.594411 0.599396 -0.536097
0.009107 0.061353 0.017477 -0.219554 -0.925165 -0.30962
0.007919 0.103253 0.004104 -0.571689 -0.619127 0.53838
0.032357 0.195825 -0.004574 -0.016895 -0.436312 0.899637
-0.005894 0.111075 0.005277 0.359609 -0.0142936 0.932994
-0.016393 0.210572 -0.032022 -0.0608205 0.366731 -0.928337
-0.029431 0.188825 -0.019023 -0.928564 -0.297401 -0.222084
-0.016144 0.221695 -0.028772 0.081794 0.922258 -0.377823
-0.026244 0.200075 -0.028772 -0.962846 -0.0442142 -0.266406
0.019106 0.213825 -0.009783 0.394988 0.656566 0.642578
-0.029449 0.148575 -2.3e-05 -0.822977 -0.456399 0.338245
0.015591 0.114825 -0.003023 0.76741 -0.168287 -0.618677
-0.018477 0.223075 -0.028273 0.511179 0.505712 -0.694948
0.019357 0.213075 -0.00923 0.566003 0.505744 0.651048
-0.033291 0.097075 -0.011022 -0.771612 0.516122 -0.371796
-0.009894 0.049801 -0.043272 -0.0138236 -0.993538 -0.112652
-0.001006 0.089827 -0.025628 0.183574 -0.963819 0.193269
-0.032644 0.115325 -0.026834 -0.182626 0.42324 -0.887421
0.030856 0.143325 -0.011839 0.704445 -0.441161 -0.555999
0.017412 0.058825 -0.035273 0.252483 -0.935619 -0.246718
0.032607 0.054956 -0.009023 0.965941 0.0752891 -0.247568
-0.030143 0.08584 0.002977 -0.489054 0.868061 -0.0854161
-0.020143 0.163825 -0.016643 -0.579487 0.701977 -0.414033
-0.025643 0.054075 -0.035611 -0.355785 -0.926103 0.1255
-0.021478 0.062575 -0.043522 -0.381172 -0.316142 -0.868771
-0.003517 0.079315 -0.014136 0.0101965 0.999947 0.00155394
0.006357 0.176575 -0.030415 0.118142 0.00744887 -0.992969
-0.029976 0.152575 -0.024773 -0.877926 -0.013947 -0.478593
0.018913 0.144825 -0.028523 0.680291 0.000242942 -0.732942
0.030989 0.202575 -0.015272 0.992328 0.107757 0.0606116
0.002356 0.236825 -0.024477 0.0530536 -0.560971 -0.826134
-0.000256 0.079093 -0.020607 -0.106644 0.993584 -0.0376654
-0.018894 0.171575 -0.011341 -0.963411 0.172996 -0.204722
0.015857 0.117075 -0.02849 0.295055 -0.0904519 -0.951189
0.031204 0.201325 -0.029022 0.993168 -0.0221808 -0.114564
0.030848 0.206825 -0.030023 0.844563 0.125738 -0.520484
0.003216 0.160575 0.020477 0.559519 -0.116074 0.820649
0.021514 0.079314 0.006445 -0.255465 0.925314 0.280234
0.016863 0.216325 -0.026022 -0.828358 0.472172 -0.301459
-0.014894 0.119575 0.00337 -0.54263 0.0198752 0.839737
0.029978 0.062325 0.011978 0.805538 -0.413264 0.424643
-0.025337 0.131612 -0.017493 -0.991663 0.116593 0.0548608
-0.001143 0.079897 0.020227 -0.00156365 0.99957 -0.0292961
-0.018393 0.214575 -0.031328 0.0726245 -0.405882 -0.911035
-0.031643 0.156893 -0.021023 -0.984747 0.17175 0.027833
0.008481 0.244575 -0.016523 0.878159 0.476122 -0.0463185
0.0325 0.171825 -0.002773 0.821312 0.0754253 0.565472
-0.040943 0.070075 -0.023773 -0.742469 0.568226 -0.354768
0.0259 0.125075 -0.012523 0.968558 -0.224103 0.108046
-0.025643 0.054548 -0.031023 -0.250341 -0.962373 0.105675
-0.026144 0.237325 -0.030162 -0.389531 -0.0759314 -0.917878
-0.013644 0.169647 0.009728 -0.601807 0.655903 0.455653
-0.005296 0.051825 -0.045272 0.116806 -0.200376 -0.972731
0.028856 0.055937 0.008228 0.765444 0.558549 0.31956
0.002356 0.079142 -0.039272 -0.000561345 0.999994 -0.00339336
0.007857 0.221658 0.005728 0.169495 0.800369 0.575049
0.020606 0.115325 -0.026489 0.851054 -0.0935276 -0.516681
0.003578 0.064075 0.032727 0.208621 -0.252081 0.944951
-0.042394 0.070325 0.007362 -0.77517 0.558828 0.294657
0.010607 0.079482 0.002477 0.00304785 0.997332 -0.0729404
0.033696 0.068075 0.003728 0.926411 0.294551 0.234528
0.006357 0.117825 0.003194 0.734586 -0.16391 0.65842
-0.003963 0.090364 -0.020161 0.0862186 -0.988684 0.12276
-0.001461 0.079331 0.002201 -0.0336777 0.998394 0.0455533
0.000117 0.208825 -0.022773 -0.28859 0.162955 -0.943484
-0.022074 0.187075 -0.012523 -0.875276 -0.288737 0.387972
-0.016774 0.221865 -0.022359 0.465368 0.88222 0.071553
0.023606 0.108715 -0.016273 0.936468 0.195938 -0.290923
0.020606 0.053575 0.017186 -0.252737 -0.910535 0.327186
0.012014 0.097201 -0.020223 0.829203 -0.521492 -0.20117
-0.013393 0.061128 -0.007773 -0.0106507 -0.999942 0.00148705
0.001857 0.209575 0.010857 0.0423212 0.321995 0.945795
0.012857 0.061323 0.012978 -0.138056 -0.984859 -0.104849
-0.017389 0.164735 -0.018197 -0.682031 0.64125 -0.351614
-0.028508 0.144825 -0.024022 -0.856655 0.19597 -0.477219
0.016229 0.054075 0.014728 -0.579092 -0.753826 -0.310482
0.019106 0.073575 0.01978 0.599494 0.465076 0.651392
-0.001394 0.102825 0.006898 -0.445838 0.141551 0.883851
0.006607 0.073575 -0.040406 0.330619 0.133206 -0.934317
0.002259 0.219858 -0.015372 -0.508783 0.78115 -0.361863
0.034782 0.187325 -0.011022 0.859096 0.1207 -0.497378
-0.014643 0.056575 0.024352 0.132574 -0.970805 0.199906
0.004606 0.061205 -0.000272 0.00790413 -0.99968 0.0240371
0.007107 0.174972 0.010478 -0.633542 0.503078 0.587824
-0.012094 0.205575 -0.002522 -0.873149 0.480975 0.0792068
-0.010143 0.075325 0.02854 -0.141996 -0.144646 0.979242
-0.017703 0.053797 -0.033449 0.414686 -0.365229 0.833452
-0.005894 0.078075 0.030557 -0.0348591 -0.0274071 0.999016
-0.037143 0.096156 -0.004773 -0.0418998 0.953319 0.299043
0.016746 0.185825 -0.029022 0.304673 -0.196966 -0.931868
0.006107 0.198325 -0.032481 0.0652909 0.0131801 -0.997779
-0.019644 0.181575 -0.006496 -0.842729 -0.229165 0.487126
-0.019258 0.149075 0.007977 -0.806923 -0.330109 0.4898
0.031856 0.143575 -0.014854 0.550846 -0.753521 0.358851
-0.029143 0.135626 -0.014272 -0.429921 -0.626281 0.650339
-0.015066 0.086455 -0.034127 0.142354 -0.96849 0.204361
-0.030644 0.156609 -0.018522 -0.670913 0.457145 0.583861
0.017357 0.059389 0.023478 0.467233 -0.632527 0.61774
-0.028292 0.166325 -0.025523 -0.907518 0.108329 -0.405804
-0.011644 0.136575 0.011085 -0.287305 -0.420295 0.860702
-0.02691 0.130351 -0.018867 -0.871218 0.175397 0.458492
0.021107 0.178575 -0.003046 0.246305 -0.20451 0.94737
0.014607 0.125075 0.002092 0.35184 -0.279423 0.893382
0.009207 0.101075 0.001978 -0.0139196 -0.580835 0.813902
-0.021627 0.087859 -0.021999 0.228734 -0.949896 0.213023
0.005744 0.134825 0.014228 -0.355359 -0.779923 0.515209
-0.026944 0.177325 -0.026523 -0.980019 0.15965 0.118634
0.018607 0.217325 -0.027557 -0.71587 0.437834 -0.543903
-0.000893 0.056075 -0.035729 -0.14009 -0.139523 0.980259
-0.02587 0.204825 -0.016273 -0.951422 -0.0268901 0.306714
-0.044393 0.068825 -0.016358 -0.89351 0.386979 -0.227787
0.018024 0.208325 -0.001522 0.911381 -0.224575 0.344891
-0.012893 0.207217 -0.008023 -0.392829 0.909076 0.138806
-0.035643 0.051088 0.012478 0.0253952 -0.981323 -0.190685
-0.028467 0.109825 -0.017523 -0.86247 0.0308511 -0.505168
0.031089 0.215075 -0.024523 0.976464 -0.0580276 -0.207729
-0.017221 0.210575 -0.031523 -0.181125 0.334619 -0.924783
-0.032143 0.078415 -0.033023 -0.640534 0.425524 -0.639254
-0.027293 0.109825 -0.020023 -0.999657 0.0256218 -0.00537215
-0.014643 0.050984 -0.037273 0.130218 -0.898096 0.420079
-0.032541 0.139075 -0.000522 -0.875503 -0.458676 0.152021
0.024064 0.072947 0.015009 0.610787 0.651249 0.450348
0.011356 0.17527 0.010478 0.206832 0.599875 0.772898
0.011107 0.177075 -0.028308 0.172614 0.119945 -0.977659
-0.030953 0.128434 -0.020509 -0.256308 0.0210911 0.966365
0.024606 0.140325 -0.025541 0.778651 0.00819575 -0.627404
-0.011602 0.088495 -0.01362 0.965371 -0.238222 0.106349
-0.009563 0.209325 -0.006522 -0.639474 0.747155 0.1812
0.010856 0.101075 -0.029428 0.506778 0.0284192 -0.861608
-0.028144 0.085325 0.009639 -0.387894 0.822598 0.415778
-0.030505 0.136234 -0.016517 0.0916873 -0.937393 -0.335988
-0.029524 0.157575 -0.025523 -0.826339 -0.106521 -0.553007
-0.024751 0.120325 -0.021522 -0.745238 0.141039 -0.651712
0.029607 0.075908 -0.017772 0.855093 -0.438398 -0.27681
0.031606 0.231325 -0.027391 0.324051 -0.256961 -0.910473
0.002856 0.061244 0.001727 0.00539044 -0.999634 0.0265149
0.012487 0.092575 -0.017022 0.920967 -0.0988495 -0.376893
-0.014465 0.176075 0.009228 -0.506283 0.279023 0.815981
0.012606 0.07976 0.010478 0.00538054 0.999615 -0.0272228
0.001053 0.195325 0.010478 -0.196746 0.352463 0.91491
0.007107 0.230825 -0.011525 0.934482 0.125197 0.333269
-0.007393 0.243075 -0.025543 -0.389943 -0.474748 -0.789024
0.029357 0.187325 -0.029524 0.501612 -0.031557 -0.864517
-0.034894 0.090691 -0.017523 -0.583875 0.730517 -0.354169
-0.020394 0.100825 -0.030117 -0.359664 0.0759423 -0.929986
0.009564 0.099075 -0.008523 0.610329 -0.664156 0.431735
-0.025447 0.058095 -0.026945 0.704846 -0.120104 0.699118
-0.000475 0.098825 0.004227 0.560761 -0.216845 0.799078
-0.013144 0.09976 0.001477 -0.537628 -0.586892 0.605404
-0.021753 0.147575 -0.032022 -0.747135 0.139544 -0.649859
0.025356 0.140075 -0.024549 0.828763 -0.0084484 -0.559536
-0.022394 0.216075 -0.011365 -0.182378 0.228788 0.95624
0.007606 0.130298 -0.036272 0.271384 -0.101445 -0.95711
0.008606 0.138575 0.017162 0.367411 -0.164271 0.915437
-0.030584 0.129509 -0.020392 -0.245103 0.100773 0.964245
-0.038394 0.076325 0.008456 -0.794407 -0.476137 0.377109
-0.034394 0.079825 0.015333 -0.49548 0.776184 0.389919
-0.026819 0.217325 -0.025773 -0.934097 -0.012841 -0.356789
-0.02839 0.079459 -0.021999 -0.0101792 0.99987 0.0124821
0.008357 0.107403 0.006227 0.794711 -0.255354 0.550662
-0.033393 0.079309 -0.028022 -0.0701427 0.996553 -0.0442884
-0.023643 0.180325 -0.027697 0.558115 -0.158739 -0.814438
-0.004906 0.171325 0.013728 0.230663 0.827437 0.511999
-0.003549 0.238325 -0.012772 -0.724935 -0.625085 0.289375
-0.032529 0.143325 -0.020772 -0.796755 -0.401701 -0.451463
-0.025894 0.059325 -0.038767 -0.38731 -0.685761 -0.616217
-0.008182 0.106575 -0.033023 0.096172 -0.196558 -0.975764
-0.013644 0.202575 -0.031241 -0.0376984 -0.213429 -0.976231
0.005106 0.124825 0.011287 -0.974309 -0.117174 0.192335
-0.027144 0.189575 -0.027278 -0.880058 0.0338544 -0.473657
0.033751 0.241825 -0.019023 0.721636 0.674127 -0.157464
0.020107 0.211825 -0.030749 -0.375423 -0.0345854 -0.926208
-0.030143 0.079379 -0.031273 -0.0358293 0.998262 -0.0467802
-0.014394 0.061159 -0.004023 -0.0154893 -0.99981 0.0118173
0.018962 0.219575 -0.027022 -0.582463 0.647121 -0.491906
0.010607 0.066825 0.030818 0.389798 0.0508196 0.919497
0.000607 0.11051 0.002977 -0.47935 0.276029 0.833086
-0.003027 0.088475 -0.027376 0.0576586 -0.971745 0.228881
0.015857 0.198575 -0.031227 0.219002 -0.0629629 -0.973691
-0.006894 0.244553 -0.016772 0.672628 0.738551 -0.0459787
0.032813 0.223575 -0.021272 0.990459 -0.134281 -0.030976
-0.027033 0.188325 -0.022522 -0.960428 0.0170555 -0.278007
0.011255 0.092332 -0.030518 -0.107647 -0.602207 0.791049
-0.019152 0.163825 0.007977 -0.813046 0.396359 0.426446
0.015429 0.147825 0.015978 0.538234 -0.407303 0.73784
0.031356 0.240597 -0.025523 0.383511 0.920458 -0.0753349
-0.026393 0.066997 -0.041522 -0.512339 0.157165 -0.844279
0.013857 0.090575 -0.034274 0.139657 -0.242786 -0.959974
-0.033352 0.143075 -0.014272 -0.994496 -0.0982271 -0.0364508
0.002107 0.156686 0.021728 0.317571 0.040527 0.947368
-0.030393 0.056167 -0.033273 -0.674947 -0.608959 -0.416672
0.01902 0.179325 -0.003522 0.371031 -0.08041 0.925133
0.022111 0.093901 -0.02639 -0.205595 -0.821959 0.531144
0.013106 0.244484 -0.015272 -0.605813 0.786213 -0.1219
-0.009143 0.061154 -0.001273 -0.00963171 -0.99963 0.0254514
0.002856 0.165539 -0.031773 -0.0304671 0.196816 -0.979967
-0.017143 0.061144 -0.011273 -0.00478843 -0.999985 0.00259137
0.011022 0.195075 0.001727 0.88444 -0.222378 0.41026
-0.021394 0.159825 0.006425 -0.886106 0.187396 0.423908
0.011141 0.102325 -0.029273 0.5102 -0.0211582 -0.859795
0.026356 0.157825 -0.019058 0.933839 0.331027 0.13552
-0.013644 0.063325 -0.046223 -0.192621 -0.260105 -0.946173
0.025107 0.164825 -0.00109 0.748539 0.580408 0.32065
0.024356 0.245792 -0.022522 0.0616002 0.533546 -0.843525
-0.036985 0.07954 -0.013602 0.0260786 0.999312 -0.0263554
0.031106 0.240517 -0.024523 0.206135 0.977844 -0.0364603
-0.029894 0.165825 -0.021161 -0.71479 0.0788713 0.694878
-0.015894 0.111575 0.00307 -0.214216 -0.051871 0.975408
0.001607 0.188825 0.008015 0.0842194 -0.819462 0.566912
0.017607 0.216863 -0.005023 0.858108 0.512969 -0.0226481
-0.014394 0.134575 0.010964 -0.267822 0.050571 0.96214
-0.034398 0.126075 -0.022272 -0.901164 0.254295 0.351053
-0.011893 0.061748 0.013977 2.27451e-05 -0.999425 0.0339192
-0.004298 0.168325 0.018978 -0.24173 0.816543 0.524236
0.009356 0.240575 -0.011206 0.355471 -0.0809476 0.931175
-0.02496 0.057363 -0.027555 0.6883 -0.0704411 0.721999
0.020856 0.174075 -0.005913 0.711308 -0.341648 0.614262
0.014356 0.158559 -0.030273 0.234861 -0.175721 -0.956014
0.018607 0.10406 -0.028523 0.537908 0.151715 -0.829239
0.01079 0.094666 -0.028767 0.182763 -0.905259 0.383542
-0.028308 0.137624 -0.013217 -0.41175 -0.670206 0.617483
-0.001644 0.206825 -0.025056 0.550227 0.834146 0.0381037
0.007255 0.223075 -0.009023 0.531147 0.843537 0.0795496
-0.003156 0.21076 -0.020656 -0.599198 0.430945 -0.67472
-0.007143 0.071075 -0.044902 -0.0150049 0.73943 -0.673067
-0.019941 0.137575 0.003728 -0.755541 -0.402536 0.516839
-0.039894 0.07946 -0.017772 -0.370493 0.917748 -0.143084
0.024827 0.174157 -0.010696 0.839494 -0.46152 0.286792
-0.033294 0.079335 -0.025686 -0.00565072 0.999884 -0.0141479
-0.009329 0.089913 -0.031283 0.490956 -0.843455 0.218051
0.020156 0.141575 -0.028022 0.364516 0.0481164 -0.929953
-0.022394 0.061111 -0.005772 -0.0202454 -0.999699 0.0138919
-0.012549 0.158575 0.017228 -0.657398 0.253412 0.709655
0.027754 0.172747 -0.023338 -0.986017 -0.145073 0.0820035
-0.027697 0.095825 -0.022272 -0.780884 0.136095 -0.609671
0.002685 0.186272 0.000999 -0.0843925 0.233123 0.968778
0.031606 0.055825 -0.006054 0.836157 0.548226 0.0170013
0.010607 0.212075 -0.022079 0.303848 0.290931 -0.907213
-0.028894 0.085679 0.007977 -0.402112 0.861818 0.309153
0.017357 0.056767 -0.025022 -0.52275 -0.786616 0.328585
0.019041 0.109825 -0.010773 0.627411 -0.250221 0.737391
-0.016864 0.087295 -0.019464 -0.411195 -0.87679 -0.249317
0.030349 0.221825 -0.014523 0.977329 -0.0992284 -0.187034
-0.024893 0.241575 -0.021235 0.0850961 0.791604 -0.60508
0.028635 0.079339 -0.018472 0.259582 0.963564 -0.0645099
0.003422 0.144075 -0.035772 0.426516 0.0328089 -0.903885
-0.030644 0.150169 -0.019023 -0.816104 -0.383097 -0.432679
0.019106 0.138575 -0.028686 0.426485 0.00954023 -0.904444
0.023857 0.058888 -0.029772 0.326166 -0.88389 -0.335192
0.020856 0.240825 -0.019469 -0.584348 -0.811498 -0.00304575
-0.010143 0.167325 0.015655 -0.518541 0.496513 0.696125
-0.029143 0.242352 -0.022272 -0.592345 0.709549 -0.381663
0.034402 0.187325 -0.010022 0.987871 0.0626131 -0.142092
0.029405 0.073825 0.002228 0.94307 0.243758 0.226276
-0.019393 0.050545 -0.040773 -0.336625 -0.94021 -0.0518593
0.020451 0.188075 -0.004023 0.614099 0.20309 0.762651
-0.037232 0.067075 -0.032022 -0.774057 0.151401 -0.614746
-0.000143 0.071304 0.031978 0.0932078 0.663647 0.742216
-0.040046 0.091325 -0.001772 -0.527713 0.212775 0.822342
-0.026643 0.231075 -0.017488 -0.455571 -0.0156282 0.890062
-0.016643 0.118325 -0.028931 -0.749722 0.125771 -0.649691
0.002856 0.133825 0.011905 -0.037241 -0.534878 0.844108
-0.014143 0.201825 0.004078 -0.985257 0.0648205 0.158323
0.032912 0.177575 -0.007773 0.780219 0.0496826 0.62353
-0.032757 0.123118 -0.012837 -0.393749 -0.744279 -0.539454
-0.006394 0.117825 -0.034893 0.0550257 -0.139256 -0.988726
-0.017393 0.243352 -0.026022 -0.155204 0.944129 -0.290745
-0.010643 0.186825 6.4e-05 -0.157538 0.58162 0.79806
-0.020949 0.089503 -0.015107 -0.0470193 -0.99563 0.0806867
0.000357 0.210825 -0.022473 -0.341012 0.228417 -0.911886
0.029107 0.079493 -0.004718 0.44088 0.86561 -0.237369
0.0278 0.153825 -0.018022 0.862343 0.482257 0.154245
0.03414 0.195575 -0.008772 0.931274 -0.355023 -0.0817779
0.001356 0.109789 0.007728 -0.936574 0.0587025 0.345519
-0.040394 0.055914 0.007728 -0.900649 0.361517 0.241115
-0.033558 0.113075 -0.007023 0.0587857 0.585115 0.808817
-0.005829 0.088469 -0.03083 -0.515797 -0.850683 0.101454
-0.029114 0.206075 -0.021272 -0.868429 -0.294447 0.398914
-0.009894 0.060575 0.031558 -0.0965755 -0.632914 0.768175
-0.028335 0.146757 -0.010714 -0.33936 0.138879 0.930348
0.004699 0.124825 0.006727 -0.689455 -0.190021 0.698959
0.030429 0.171841 -0.009545 -0.98122 -0.1238 -0.147925
0.030986 0.202325 -0.016523 0.978539 0.0305843 0.20378
-0.005393 0.128825 -0.036512 -0.164819 -0.085893 -0.982577
0.031747 0.163575 -0.024523 0.993845 -0.0595759 0.0933929
-0.012893 0.079959 0.021477 0.00511456 0.999652 -0.0258875
-0.005143 0.160075 0.019975 -0.0566873 0.106582 0.992687
0.025853 0.104575 -0.010773 -0.522367 -0.418311 0.743067
0.006357 0.22403 -0.004273 0.0572134 0.994464 -0.0881335
0.00529 0.106461 0.0067 0.281421 -0.886176 0.368096
-0.036644 0.090824 -0.014772 -0.566713 0.683325 -0.460329
-0.005644 0.147875 -0.035273 -0.251334 0.216329 -0.943415
0.034304 0.195825 -0.006772 0.928403 -0.316341 0.194924
0.005356 0.185112 0.001727 -0.0241326 0.504668 0.862976
-0.009643 0.062075 -0.04643 -0.0961355 -0.403273 -0.910016
0.018427 0.113075 -0.028772 0.376765 -0.0491749 -0.925003
0.018189 0.144325 -0.029772 0.746794 -0.0216898 -0.664702
0.00763 0.079249 -0.025239 0.210493 0.940634 -0.266273
-0.005891 0.241135 -0.01668 -0.758219 -0.651868 -0.0130865
0.031735 0.164575 -0.024272 0.982621 -0.0482693 0.179235
0.010856 0.079163 -0.033273 0.00832703 0.999577 -0.0278717
-0.005644 0.061078 -0.016772 -0.00968084 -0.999911 -0.00916351
-0.041644 0.075884 -0.005772 -0.908931 -0.416067 0.0270702
0.015513 0.206825 0.003478 0.81129 -0.334852 0.479252
0.027607 0.195825 -0.008392 0.17087 -0.117645 0.978245
0.023853 0.175248 -0.007978 0.824534 -0.263738 0.500585
0.02417 0.238202 -0.016387 -0.633633 -0.768822 -0.0861483
0.015265 0.088512 -0.00829 0.301775 0.936261 0.179852
-0.013893 0.050825 -0.037969 0.0908614 -0.936763 0.337963
-0.008394 0.191357 0.007227 -0.66194 -0.646849 0.378711
0.009107 0.122256 0.003728 0.361062 -0.290734 0.886063
-0.023071 0.139075 0.002977 -0.335154 -0.87214 0.356432
0.010597 0.081422 -0.006409 -0.810258 0.166018 0.562067
-0.033579 0.124313 -0.013941 -0.625343 -0.55728 -0.546246
-0.036893 0.056381 -0.005772 -0.210499 -0.962897 -0.168876
-0.00376 0.079104 -0.021178 0.00719104 0.999189 -0.0396199
0.025898 0.082916 0.001661 0.708502 0.634408 0.309114
-0.034644 0.140539 -0.010273 -0.92687 0.346008 -0.145569
-0.016063 0.083075 -0.001772 0.921403 -0.0692669 0.382386
0.025601 0.134825 -0.023272 0.913115 -0.129043 -0.38674
-0.004393 0.200325 0.00759 -0.309871 0.294476 0.904026
0.029856 0.142325 -0.012632 0.852207 -0.379399 -0.360276
-0.011735 0.166075 -0.027273 -0.616314 0.227885 -0.753807
0.032468 0.197575 -0.023522 0.967955 0.065543 0.242418
0.022606 0.094325 -0.029291 0.852014 0.0881689 -0.516042
0.019453 0.066575 -0.038523 0.614041 0.123354 -0.779575
-0.000143 0.189123 0.008477 -0.0495266 -0.781606 0.621804
0.01683 0.112825 -0.000772 0.795284 -0.260291 0.547515
-0.013893 0.129075 -0.030873 -0.736881 0.0799265 -0.671281
-0.003394 0.090325 -0.03791 -0.270244 0.118952 -0.955415
0.031356 0.206575 -0.007671 -0.0668903 -0.0652089 0.995627
0.0305 0.078797 0.003244 0.74412 0.630393 0.221112
0.002278 0.079488 -0.019075 -0.611696 0.77914 0.136996
0.018856 0.155764 -0.028022 0.333778 -0.28196 -0.899495
0.031066 0.171965 -0.006163 -0.978548 -0.166411 0.121452
-0.023643 0.161354 -0.011522 -0.917863 0.382025 0.10763
0.025107 0.142575 0.004299 0.692957 0.177233 0.698855
0.010666 0.077075 -0.040523 0.44465 -0.101185 -0.889971
-0.000643 0.061017 0.031978 0.0841899 -0.60795 0.789499
0.018946 0.147575 -0.028772 0.718375 0.0463235 -0.694113
0.009972 0.178575 -0.029522 0.47569 -0.13711 -0.868861
-0.023394 0.128825 -0.023116 -0.746538 0.0118878 -0.665236
0.010856 0.07986 0.013728 0.00113747 0.99997 -0.00760731
-0.010894 0.173075 0.009144 -0.179244 0.030204 0.983341
0.032107 0.207325 -0.011054 0.754726 -0.0726221 -0.652008
-0.026643 0.201825 -0.017828 -0.913643 -0.0169619 0.406162
-0.041469 0.073228 -0.006118 -0.818941 0.573831 -0.00738326
0.028112 0.172075 -0.028022 -0.916303 -0.0168202 -0.400133
0.012606 0.056825 -0.031823 0.156551 -0.983402 -0.0917174
-0.027393 0.124325 -0.020065 -0.123058 0.290485 -0.948934
-0.028644 0.061429 -2.3e-05 0.0134699 -0.999855 0.01039
-0.023178 0.077075 -0.039772 -0.462952 -0.240972 -0.852999
0.000857 0.220325 0.00584 -0.370652 0.754023 0.542279
0.011316 0.147575 0.018228 0.394026 -0.383521 0.835257
-0.027815 0.182075 -0.019522 -0.945068 -0.222828 -0.239154
0.023663 0.120575 -0.020772 0.947253 -0.197473 -0.252419
-0.028644 0.243485 -0.018772 -0.769202 0.549036 0.326936
0.017357 0.066325 -0.040132 0.57368 0.0807978 -0.815084
0.004357 0.247325 -0.016071 0.157072 0.987536 -0.0100514
0.022357 0.106825 -0.011113 -0.33877 -0.290117 0.895023
0.017042 0.217325 -0.007523 0.79964 0.57635 -0.168513
0.033856 0.166075 -0.007469 0.852362 3.38212e-06 0.522952
0.017357 0.245683 -0.024272 0.530239 0.750509 -0.394441
-0.024643 0.136575 0.000862 -0.453785 -0.418254 0.786856
-0.008894 0.246952 -0.023272 0.460958 0.886257 -0.0454523
0.024032 0.098651 -0.018931 -0.297242 -0.836337 0.460639
0.030155 0.145325 -0.000522 0.724968 -0.124947 0.677355
-0.020143 0.070075 -0.04312 -0.28958 0.594487 -0.750152
-0.024643 0.055473 0.025977 -0.152999 -0.130364 0.97959
0.025572 0.175508 -0.009777 0.580348 -0.628418 0.517964
-0.037393 0.091075 -0.003401 0.552361 -0.421553 0.719159
-0.026144 0.147213 0.000477 0.136345 -0.771654 0.621257
-0.003054 0.168575 -0.030522 -0.205195 0.11955 -0.971392
0.031054 0.180325 -0.019023 0.79624 -0.314875 0.51658
-0.019644 0.064825 -0.044816 -0.342361 -0.0904316 -0.935206
-0.035893 0.059379 -0.029522 -0.589122 -0.686757 -0.425793
-0.023144 0.205075 -0.01029 -0.617559 -0.0198228 0.786275
-0.006644 0.213075 -0.012084 -0.772716 0.477994 -0.417649
0.005106 0.241325 -0.025596 0.42901 -0.135338 -0.893104
-0.033893 0.071325 0.019726 -0.546413 0.671244 0.500864
-0.027802 0.145575 -0.025022 -0.832863 0.218221 -0.508644
-0.009643 0.140575 0.014943 -0.279485 0.484752 0.828796
0.015854 0.211575 0.004227 0.865052 -0.0177261 0.501368
-0.008176 0.245075 -0.011022 -0.064391 -0.0289831 0.997504
0.022816 0.115075 -0.020522 0.968161 -0.0934456 -0.232234
-0.024893 0.223075 -0.028531 -0.480567 -0.0125602 -0.876868
0.005965 0.088761 -0.034567 0.115786 -0.98202 -0.149097
-0.015143 0.113575 0.009091 -0.729391 -0.0160893 0.683907
-0.019143 0.144729 0.006477 -0.678264 0.362826 0.638995
0.021999 0.081825 -0.010022 0.605414 0.347337 -0.716122
0.008856 0.215325 0.009723 0.218086 0.239034 0.946204
-0.01325 0.106075 -0.033772 0.0151688 -0.132565 -0.991058
-0.03283 0.115618 -0.011352 0.00869562 0.992063 0.125442
-0.032143 0.115961 -0.026272 0.229156 0.612774 -0.756304
0.008354 0.114075 -0.033023 0.43318 -0.187667 -0.881553
-0.001764 0.220325 0.002477 -0.614148 0.749534 0.247026
0.020357 0.191964 -0.029522 0.207798 -0.257374 -0.943705
-0.001402 0.075575 0.028727 0.10622 -0.205575 0.97286
-0.002143 0.216815 0.007728 -0.505371 0.559438 0.656985
0.009107 0.089575 -0.011512 -0.583659 0.053831 0.810212
-0.043473 0.061825 -0.017772 -0.863209 -0.443662 -0.240905
0.017607 0.061075 -0.009365 -0.0251186 -0.999546 0.0166641
0.02052 0.240825 -0.022522 -0.587752 -0.808942 0.0126693
-0.005894 0.172325 0.012376 0.474943 0.772429 0.421642
0.001356 0.108325 -0.034964 0.210295 -0.0999066 -0.97252
-0.022224 0.086869 -0.029579 -0.0299707 -0.996344 0.0800029
-0.023394 0.116811 -0.024523 -0.691746 0.111109 -0.713542
-0.017661 0.221075 -0.030772 -0.00386517 0.80878 -0.588098
-0.029514 0.089523 -0.01095 0.32897 -0.718926 0.612311
0.01347 0.209345 -0.022424 -0.491318 0.693445 -0.527011
-0.025962 0.115575 -0.000522 -0.870054 0.197672 0.451589
0.024584 0.079167 -0.018788 -0.0221639 0.998661 0.046751
-0.014314 0.152575 -0.028022 -0.217215 0.267807 -0.938668
-0.012644 0.215325 -0.029919 0.652427 0.00347707 -0.757843
0.002107 0.222575 0.002421 -0.332547 0.899525 0.283314
0.023229 0.155825 0.010228 0.849842 -0.0711782 0.522209
-0.000393 0.212325 0.00964 -0.184681 0.07438 0.97998
-0.025643 0.095325 -0.025302 -0.95015 0.265832 -0.162937
-0.012043 0.195325 0.004728 -0.835561 -0.514537 0.192584
0.023219 0.056344 -0.000593 -0.965639 -0.174189 -0.192874
-0.025542 0.146075 -0.028022 -0.681202 0.291712 -0.671467
-0.027393 0.234325 -0.017674 -0.590997 -0.123337 0.797189
-0.010669 0.174075 0.009477 -0.0444914 -0.0537357 0.997564
-0.027418 0.192825 -0.016772 -0.863501 0.218888 0.454372
-0.014943 0.088075 -0.004523 0.877658 -0.105683 0.467491
0.01499 0.087325 -0.012523 0.778935 0.572994 -0.254829
0.032841 0.227575 -0.025523 0.896946 -0.120994 -0.425263
-0.011893 0.170644 0.010478 -0.535194 0.680319 0.500733
0.018361 0.218978 -0.020154 -0.730944 0.652167 0.200996
-0.001394 0.199075 0.00937 -0.113162 -0.196426 0.973967
0.005319 0.079426 -0.025347 0.118237 0.842837 -0.52502
0.022606 0.120817 -0.024272 0.910789 -0.177955 -0.372552
0.027356 0.189325 -0.029708 -0.225642 -0.195711 -0.95435
0.027106 0.055822 -0.017273 0.212443 -0.933486 -0.288915
-0.021893 0.119704 -0.025523 -0.629227 0.080054 -0.773088
0.02088 0.130109 -0.002865 0.359435 -0.120258 -0.925389
0.005981 0.115325 -0.034272 0.364121 -0.178795 -0.914028
0.015857 0.132038 -0.030273 0.725389 -0.144194 -0.673067
0.000866 0.079318 -0.023647 -0.446299 0.892567 -0.0643512
-0.012215 0.084201 -0.01674 0.801921 0.165013 -0.574189
0.030357 0.208575 -0.008288 -0.747236 0.0204096 0.664245
0.003308 0.123825 -0.035772 -0.321213 -0.00339832 -0.947001
-0.018644 0.118575 0.000403 -0.74185 0.108072 0.6618
-0.018593 0.222772 -0.015635 0.414981 0.782106 0.464867
0.008357 0.183825 -0.031006 0.103384 -0.174436 -0.979226
-0.008144 0.09175 -0.033023 -0.153868 0.463506 -0.872632
-0.013144 0.21426 -0.013772 0.679473 0.320124 0.66018
-0.011644 0.216075 -0.028923 0.841254 0.135658 -0.523344
0.033106 0.194575 -0.010485 0.706328 -0.257832 -0.65926
0.01431 0.215075 -0.017273 0.380844 0.84155 -0.383081
0.016106 0.203325 -0.001148 0.849042 -0.299348 0.435337
0.030497 0.072616 0.000382 0.754063 0.640904 0.143635
0.004357 0.073075 -0.041208 0.255622 0.396721 -0.881629
-0.022643 0.244075 -0.020554 -0.54242 0.259019 -0.799181
0.025857 0.191453 -0.029522 -0.440809 -0.258981 -0.859428
0.021856 0.185825 -0.02723 0.359494 -0.264081 -0.895
-0.00588 0.212447 -0.014109 -0.751236 0.50216 -0.428346
-0.010143 0.058299 -0.043272 -0.0982362 -0.564677 -0.819444
-0.004643 0.079141 -0.039772 0.000941848 0.999946 -0.0103223
0.016356 0.066325 -0.040802 0.550026 0.0842759 -0.830884
0.005857 0.061325 0.030869 0.23248 -0.550099 0.802088
-0.003743 0.079492 -0.002136 -0.00548475 0.999481 -0.0317508
-0.014894 0.110575 -0.032148 -0.380506 0.0343532 -0.92414
-0.030622 0.161325 -0.024022 -0.805014 0.00683746 -0.593216
-0.022459 0.191575 -0.029522 0.178729 -0.164865 -0.969987
-0.02628 0.133825 -0.008523 -0.792542 0.400003 0.460299
0.014856 0.111575 -0.02821 0.377993 -0.149011 -0.913738
0.010856 0.165075 0.017795 0.42759 0.415379 0.802886
-0.026643 0.202075 -0.02579 -0.698119 0.0109491 -0.715898
0.013606 0.244575 -0.0246 0.358098 -0.448852 -0.818717
-0.008643 0.055066 -0.044023 -0.0609529 0.574827 -0.816002
-0.030894 0.051783 0.013477 0.335982 -0.908586 -0.248171
-0.01924 0.079847 0.00613 0.64235 0.75075 0.154146
0.024803 0.121075 -0.011522 0.950381 -0.208349 0.231013
-0.021644 0.148974 -0.031273 -0.75295 0.503248 -0.424037
-0.028287 0.158325 -0.000522 -0.655726 0.715438 -0.241187
0.023107 0.186825 -0.006192 0.476059 0.069811 0.876638
0.023107 0.051325 0.010679 -0.26081 -0.956633 -0.129738
-0.019644 0.214325 -0.011243 0.00671274 0.0976879 0.995194
-0.010643 0.215167 -0.026022 0.90474 0.337959 -0.259286
0.026106 0.16304 -0.000272 0.779509 0.526987 0.338599
-0.004893 0.061013 -0.024523 -0.0105493 -0.999944 0.000827023
-0.019898 0.197575 -0.030273 0.259231 -0.271871 -0.926761
-0.025774 0.127897 0.00369 -0.793378 -0.504562 -0.34054
0.015607 0.168411 0.011227 0.544903 0.620271 0.56422
-0.009643 0.209325 -0.002539 -0.805327 0.589299 -0.0646156
0.019357 0.188075 -0.028236 0.22771 -0.264567 -0.937098
0.006107 0.061413 0.006727 0.00464167 -0.999108 0.0419701
-0.002393 0.213325 0.009059 -0.371225 0.116164 0.921248
0.031356 0.199325 -0.014118 0.878137 0.0623645 -0.474327
-0.012144 0.061149 -0.015772 -0.00282876 -0.999995 -0.00137908
0.019106 0.079869 0.014728 -0.0102868 0.99993 -0.00591311
0.020357 0.168075 0.001974 0.707963 0.664171 0.240136
-0.020394 0.14297 0.009228 -0.451388 0.760682 0.466489
0.026176 0.059075 -0.027772 0.532263 -0.754473 -0.384014
0.009856 0.105075 -0.030467 0.538574 -0.125224 -0.833221
0.000357 0.213018 -0.021773 -0.388583 0.341946 -0.855614
0.010829 0.198825 0.004227 0.891546 -0.143956 0.429445
0.016857 0.057575 -0.03065 0.213875 -0.94477 -0.24833
0.009575 0.092349 -0.022086 0.768725 -0.186563 -0.611765
-0.010894 0.067075 0.033604 -0.130316 0.0683425 0.989114
0.003107 0.207825 0.010239 0.292915 0.064132 0.953985
-0.025891 0.206825 -0.030522 -0.842271 0.00110455 -0.539054
0.021107 0.149075 -0.026774 0.422394 0.154612 -0.893128
-0.026818 0.138799 0.005024 -0.240251 -0.879421 0.410973
-0.02464 0.113409 0.002653 -0.0464359 -0.0873575 0.995094
0.007606 0.204861 -0.028523 -0.265004 0.936231 -0.230746
0.035202 0.066325 -0.007523 0.998517 0.045622 -0.0297168
-0.003643 0.125575 0.007817 0.195132 -0.465091 0.863489
-0.021597 0.141325 -0.024773 -0.534352 -0.287967 -0.794697
0.004782 0.090374 -0.026907 0.631416 -0.505444 -0.588082
-0.011143 0.054325 -0.035596 0.217096 -0.275904 0.936347
0.008856 0.137497 0.016228 0.435587 -0.579853 0.688502
-0.022345 0.087005 -0.028193 -0.00624485 -0.997738 0.0669268
0.013747 0.086825 -0.016022 0.78301 0.341842 -0.519654
-0.008404 0.088985 -0.021299 0.676853 -0.730486 0.0908854
-0.033861 0.079629 -0.001327 -0.0689438 0.995094 -0.07096
0.007344 0.191825 0.006977 0.785289 -0.466119 0.407498
-0.006394 0.050317 -0.041272 0.189674 -0.96416 0.185527
0.026607 0.140575 0.001679 0.66569 -0.702046 0.252959
0.005207 0.123575 0.010228 -0.996109 0.0810499 0.0346196
-0.016144 0.060759 -0.031523 0.158743 -0.926407 0.341425
-0.000972 0.090189 -0.015795 -0.00763569 -0.990256 0.139052
-0.019644 0.056325 0.026456 -0.00577758 -0.701876 0.712276
-0.029716 0.086373 -0.024632 -0.0124706 -0.994583 -0.103194
-0.013318 0.108325 0.006477 -0.970903 -0.206758 -0.120827
-0.043143 0.068539 -0.020772 -0.873543 0.356197 -0.331734
0.009815 0.091973 -0.03112 0.144643 -0.615657 0.774626
0.030256 0.207325 -0.014023 0.985205 0.0683897 0.157146
-0.028393 0.055325 -0.030964 -0.271593 -0.961696 0.0371199
-0.036893 0.078564 -0.026772 -0.705077 0.554504 -0.442032
0.019607 0.057825 -0.021799 -0.833484 -0.310313 0.457177
-0.027894 0.184575 -0.015038 -0.351907 -0.328817 0.876379
0.014356 0.09956 -0.013023 0.933479 -0.325418 0.15073
0.033356 0.190776 -0.019023 0.900426 0.30826 0.306936
0.004206 0.121575 0.006727 -0.877071 0.431846 0.210369
-0.015206 0.132575 0.010727 -0.44796 0.0404057 0.89314
0.008106 0.061121 -0.005273 0.00232152 -0.99982 0.0188301
0.02248 0.055924 -0.013739 -0.959543 -0.187778 0.2098
0.015607 0.140825 0.012556 0.56661 0.08677 0.819404
0.017724 0.107075 -0.010273 0.819568 -0.210641 0.53286
-0.031393 0.073015 0.019227 -0.49983 0.712163 0.492944
0.030498 0.076575 -0.016523 0.897866 -0.355855 -0.259238
-0.015638 0.175075 -0.021773 -0.798927 -0.240124 -0.551412
0.02282 0.134825 0.002228 0.593008 -0.304867 0.74525
-0.019644 0.238575 -0.028561 0.628557 -0.518383 -0.579824
0.024466 0.222825 -0.026772 -0.445259 0.277378 -0.851355
0.005857 0.094575 -0.033349 0.402977 0.267635 -0.875203
-0.026184 0.201575 -0.014272 -0.943362 0.0195055 0.331192
-0.007341 0.095279 -0.00067 -0.733171 -0.522183 0.435644
0.005356 0.061679 0.014228 -0.0317875 -0.999477 -0.00597802
-0.022893 0.162825 -0.019136 0.0175293 0.460799 0.887331
-0.027425 0.079451 -0.019989 -0.016375 0.999509 0.0267106
0.029857 0.183075 -0.004273 -0.217786 0.2537 0.942446
-0.026144 0.087223 0.006477 -0.30185 0.91488 0.268105
-0.015643 0.209847 -0.010022 0.105666 0.512045 0.852434
-0.002643 0.242545 -0.013023 -0.337547 0.511583 0.790155
-0.007893 0.052325 -0.036998 0.0679106 -0.562623 0.82392
0.030674 0.108325 -0.010522 0.720494 0.679268 -0.139583
0.01046 0.094698 -0.024712 0.600284 -0.791582 0.114266
0.021279 0.097575 -0.028022 0.717829 0.430189 -0.54741
0.02428 0.184075 -0.007023 0.521659 -0.00633338 0.853131
-0.022143 0.148811 -0.030273 -0.757706 0.591371 -0.275973
0.031408 0.161825 -0.001522 0.759075 -0.197407 0.620352
-0.024334 0.155575 -0.023773 0.573332 -0.141198 -0.807065
-0.005195 0.093216 0.005089 0.0542637 -0.896378 0.439957
0.013681 0.078075 -0.038773 0.452422 0.488731 -0.74596
-0.007643 0.14665 -0.034773 -0.66057 0.257155 -0.70535
0.007528 0.132075 0.013977 0.978155 0.165093 0.126323
0.028631 0.071825 -0.022522 0.614656 0.730828 -0.296796
-0.031802 0.152575 -0.015272 -0.684936 0.61396 0.39232
0.000489 0.105075 -0.034773 0.0443973 -0.130479 -0.990457
0.019443 0.091433 -0.032069 0.431007 -0.891957 -0.136545
-0.021867 0.057067 -0.030105 0.597519 -0.0960366 0.796083
0.002356 0.179075 -0.030614 -0.0398037 -0.0519907 -0.997854
-0.016309 0.165675 -0.021831 -0.845388 0.327395 -0.422056
-0.023643 0.159075 -0.023677 0.714101 -0.083676 -0.695024
-0.026393 0.072075 -0.037418 -0.382688 0.741831 -0.550669
-0.035936 0.129575 -0.011273 -0.979523 0.178225 -0.0936495
-0.010823 0.089624 -0.016138 0.62923 -0.720065 0.292533
0.012606 0.180825 0.003227 0.490733 0.648901 0.581472
-0.035643 0.058825 -0.028796 -0.558412 -0.736576 -0.381617
-0.019644 0.213325 -0.030945 -0.0437096 -0.244896 -0.968564
-0.025894 0.061075 -0.020631 0.0252768 -0.998829 0.0412577
0.031721 0.210575 -0.019273 0.898136 -0.278481 0.340295
0.020474 0.164825 -0.025523 0.62691 0.294151 -0.721429
0.032922 0.226325 -0.012273 0.952049 -0.267076 -0.149239
-0.011393 0.146075 0.014581 -0.5013 -0.529941 0.684003
0.014638 0.099363 -0.018717 0.452782 -0.890309 0.0483615
0.034773 0.185075 -0.008272 0.973153 -0.0157073 0.229624
0.026342 0.156325 0.003977 0.894816 0.0207945 0.44595
-0.019893 0.201825 -0.031509 0.0041843 -0.224904 -0.974372
-0.005633 0.112825 0.004978 0.382889 -0.024257 0.923476
-0.013893 0.245194 -0.015522 -0.51797 0.854479 -0.0396602
-0.008366 0.079404 -0.016999 0.0233418 0.99938 -0.0263658
0.023274 0.114575 -0.010773 0.849954 -0.0754397 0.521428
0.008606 0.181575 -0.03058 0.194351 -0.174925 -0.965209
-0.026849 0.192325 -0.016022 -0.828385 0.167567 0.534509
-0.014643 0.211325 -0.031478 0.169773 0.293944 -0.940624
-0.016894 0.219325 -0.013777 0.405089 0.401146 0.821574
0.012857 0.127825 -0.032819 0.642318 -0.169352 -0.747494
-0.021984 0.073575 -0.038523 -0.453663 0.222636 -0.862915
-0.016099 0.060061 -0.032923 0.315039 -0.62301 0.715967
-0.028123 0.055956 -0.024197 0.540045 -0.665317 0.515466
0.019357 0.057575 0.009226 -0.832521 -0.23279 -0.502711
-0.012393 0.128731 -0.033772 -0.690586 0.0610901 -0.720666
0.010107 0.189665 -0.032022 0.107924 -0.210628 -0.971591
0.021499 0.10306 -0.013609 -0.511983 -0.50476 0.695048
0.02743 0.064075 -0.030023 0.8034 -0.163527 -0.572544
-0.019143 0.061609 0.010228 0.000386145 -0.999705 0.0242851
-0.026149 0.090074 -0.007226 0.502963 0.724303 0.471607
0.031356 0.158715 -0.024773 0.981865 -0.0363166 -0.186069
0.004357 0.055074 -0.035772 0.223162 -0.952739 0.206123
-0.021644 0.218575 -0.012556 -0.0574249 0.365018 0.929228
-0.027894 0.162075 -0.027421 -0.0410731 -0.14566 -0.988482
-0.009643 0.173325 0.009295 -0.26448 0.181699 0.94712
-0.007772 0.096294 0.000397 -0.470025 -0.747379 0.469575
-0.001893 0.058575 0.02208 -0.0990432 -0.280031 -0.954868
0.004606 0.10125 0.001978 0.377662 -0.193448 0.90551
-0.017894 0.124325 0.000689 -0.419621 -0.121777 0.899494
0.009503 0.080029 -0.008287 -0.742065 0.497327 0.449451
0.008606 0.068825 -0.043903 0.327013 0.449084 -0.831496
0.028331 0.168075 -0.028273 -0.767818 0.0372351 -0.639585
0.024907 0.125075 -0.019522 0.947119 -0.19888 -0.251817
0.015444 0.243304 -0.016906 -0.161352 -0.976824 -0.140642
0.024356 0.168322 -0.016523 0.948314 0.142144 -0.283716
-0.013293 0.096075 -0.031773 0.00768747 0.0507564 -0.998681
0.01003 0.202075 0.006977 0.847225 -0.19192 0.495355
-0.006644 0.163407 0.019728 -0.166853 0.105402 0.980332
-0.029143 0.121825 -0.02042 0.286696 -0.0893904 -0.953842
0.017828 0.217988 -0.020081 -0.857681 0.471294 0.205587
0.007357 0.177825 -0.030312 0.163887 -0.046275 -0.985393
-0.041143 0.058596 -0.014272 -0.41872 -0.902287 -0.102725
-0.001107 0.217119 -0.016223 -0.636135 0.69126 -0.342772
-0.015696 0.22187 -0.017134 0.554514 0.824131 0.115422
-0.027643 0.056498 0.023227 -0.478405 0.590514 0.64994
-0.016191 0.086772 -0.033606 0.0448478 -0.94086 0.335815
-0.000954 0.114325 0.003728 0.406807 -0.000848237 0.913514
0.007316 0.181825 -0.030772 0.089432 -0.141036 -0.985957
0.025629 0.102325 -0.018772 0.625683 0.509692 -0.590537
0.008357 0.097575 -0.000335 0.396741 -0.510795 0.762683
0.012213 0.208091 -0.023379 -0.431694 0.682979 -0.58922
0.022452 0.056595 -0.014589 -0.962821 -0.0806608 0.257819
-0.025643 0.241325 -0.021885 0.20202 0.861875 -0.465145
0.001857 0.180075 -0.030647 -0.0527658 -0.0718925 -0.996016
0.031356 0.069377 -0.021272 0.808373 0.48861 -0.328319
0.000107 0.186075 -0.031263 -0.0818033 -0.168006 -0.982386
0.01599 0.211575 -0.027523 -0.789396 0.348085 -0.505659
0.025623 0.124825 -0.016022 0.963092 -0.222695 -0.151196
-0.044512 0.061325 -0.010273 -0.85422 -0.51515 -0.0702007
-0.004143 0.203629 -0.031273 0.160814 0.310604 -0.936837
-0.031443 0.11585 -0.024526 0.872757 0.477956 -0.0992598
-0.015643 0.080024 0.026727 -0.0219071 0.996611 0.0792878
0.014953 0.178575 0.003478 0.626211 0.660571 0.414134
0.02468 0.164075 -0.018522 0.932961 0.248868 -0.260093
-0.005143 0.093575 -0.032773 -0.348557 0.432947 -0.831303
0.016857 0.115168 -0.001772 0.742961 -0.603959 -0.288519
-0.013012 0.078825 -0.043022 -0.116212 0.782405 -0.611831
-0.004143 0.059075 0.029459 0.0462992 -0.917788 0.394361
0.006607 0.182429 0.004728 -0.0413452 0.736404 0.675277
-0.007893 0.153825 -0.030365 -0.39461 0.30196 -0.867815
0.006107 0.207575 0.010374 -0.0196917 0.0391407 0.99904
0.017607 0.207825 -0.000831 0.905462 -0.245514 0.34621
-0.032143 0.056491 -0.028273 -0.421264 -0.901887 -0.0955841
0.006301 0.089244 -0.024091 0.641001 -0.20186 -0.74052
0.000857 0.106575 0.007731 -0.460541 0.042948 0.886599
0.03296 0.167825 -0.005772 0.927669 -0.0552922 0.369287
0.034357 0.183825 -0.01204 0.639718 0.145416 -0.754729
-0.023024 0.080306 0.013757 0.415452 0.835337 0.360016
0.010607 0.167687 0.016228 0.416751 0.559249 0.716631
-0.011795 0.214954 -0.018424 0.911853 0.353476 0.208756
0.025356 0.077075 0.014506 0.772707 -0.330515 0.541926
0.016547 0.1088 -0.002511 0.994814 -0.101702 0.00120015
-0.02821 0.215825 -0.018273 -0.967159 0.242898 -0.0748594
-0.023067 0.080887 0.012877 0.580149 0.63825 0.506027
0.033106 0.218325 -0.010427 0.991034 -0.122437 0.053488
0.020801 0.170075 -0.023522 0.761746 0.123064 -0.636081
-0.003377 0.079139 -0.034524 -0.00386847 0.99943 0.0335385
0.018607 0.151075 0.014476 0.668315 -0.210033 0.713612
0.027066 0.077075 -0.025022 0.858372 -0.177259 -0.481433
-0.016144 0.178127 0.004477 -0.853144 0.395502 0.340182
-0.016393 0.174447 0.003478 -0.961633 -0.237749 0.136883
0.033085 0.226575 -0.022773 0.989413 -0.117829 -0.0847224
-0.030598 0.108825 -0.023522 -0.836805 0.263898 0.479703
0.032241 0.208325 -0.010773 0.830785 -0.0674008 -0.552498
0.001607 0.054575 -0.03538 0.0342862 -0.674647 0.737343
0.034107 0.162575 -0.009528 0.991365 -0.0262346 0.128481
-0.030511 0.168075 -0.023773 -0.918301 0.119858 -0.377302
0.026667 0.160575 -0.024523 -0.834581 0.103216 -0.541129
-0.004393 0.090575 -0.037726 -0.463983 0.256198 -0.847987
0.027106 0.132825 -0.005161 0.845214 -0.375169 0.380606
0.006777 0.221715 -0.014902 0.457067 0.600452 -0.656161
0.018086 0.077075 -0.034022 0.83439 0.00434048 -0.551157
-0.033694 0.086558 -0.016833 0.170748 -0.963388 0.20671
0.007107 0.241325 -0.024535 0.0659138 0.20891 -0.975711
0.019259 0.168575 0.003977 0.838726 0.495582 0.225692
0.010607 0.115075 0.000848 0.355387 -0.192385 0.914707
0.021856 0.180232 -0.004523 0.825523 0.125222 0.550301
0.006607 0.161575 -0.032277 0.0241801 -0.188468 -0.981782
-0.027894 0.118075 -0.017048 -0.909126 0.416222 0.0157882
-0.002737 0.212462 -0.02007 -0.681798 0.42806 -0.593226
-0.018143 0.166019 -0.016523 -0.653709 0.478501 -0.58626
-0.040893 0.079191 0.003728 -0.673801 0.713985 0.190308
0.007606 0.063575 0.031477 0.301321 -0.287912 0.909017
0.017473 0.197075 -0.031273 0.188849 -0.111443 -0.975662
-0.029866 0.101825 -0.015023 -0.965596 0.122628 -0.229319
0.029106 0.187992 -0.005023 -0.543978 0.104482 0.832569
0.025901 0.161677 -0.021224 0.520456 0.287331 0.804094
-0.022893 0.241825 -0.015118 -0.516598 0.56642 0.642102
0.032357 0.221825 -0.012957 0.772974 0.00342232 -0.634429
0.027857 0.054997 0.012478 0.75126 0.51951 0.407084
-0.023906 0.126825 -0.000772 -0.87825 0.0580842 0.474661
