ply
format ascii 1.0
element vertex 837
property float x
property float y
property float z
property float nx
property float ny
property float nz
element face 0
property list uchar int vertex_index
end_header
-0.007557 0.085135 0.069029 0.229531 0.876598 -0.422956
-0.004834 -0.088016 -0.074724 -0.334564 -0.940848 -0.0535994
-0.000635 0.041283 -0.006652 -0.102027 0.905708 -0.411441
0.015958 -0.054671 -0.003889 -0.00956511 -0.0679757 -0.997641
-4.9e-05 0.023277 -0.026934 0.515486 -0.846988 -0.129945
-0.008133 0.039961 -0.076285 -0.232436 -0.0558791 -0.971005
0.005244 -0.06567 0.001054 0.213374 -0.485274 -0.847927
-0.006731 0.028133 -0.01888 -0.798698 -0.401388 -0.448297
-0.041072 0.085603 0.039928 -0.614208 -0.764791 -0.194534
0.033355 0.014344 -0.063945 0.888432 0.458978 -0.00524412
-0.002874 0.035937 -0.055426 -0.265359 0.933103 0.242702
0.018573 -0.054359 -0.004056 -0.0603976 0.0193912 -0.997986
-0.00178 0.028412 -0.057129 0.164439 -0.963093 -0.2131
-0.003846 -0.08796 -0.064834 -0.301108 -0.882949 -0.360187
-0.003358 0.024482 -0.041826 -0.440828 -0.874467 -0.202429
0.014276 0.015264 0.036906 0.0782569 -0.536089 0.840526
0.001094 0.022701 -0.020703 0.61031 -0.78359 -0.116226
0.02453 0.031548 -0.016517 -0.15823 0.714957 -0.681028
-0.004249 0.02749 -0.022676 -0.925487 -0.359529 -0.119215
-0.001554 0.05818 0.068687 -0.258774 -0.519115 0.814589
0.029361 -0.069188 -0.056981 -0.915747 -0.280807 0.287322
0.002013 0.038574 -0.071865 0.991775 -0.0369086 0.122557
0.029648 -0.070752 0.012009 0.0452117 -0.97814 -0.202973
0.031576 -0.060124 -0.012498 0.607589 -0.791861 0.0615777
-0.039207 0.083682 0.039997 -0.949214 -0.0749177 0.30558
-0.003179 -0.088511 -0.064254 -0.172109 -0.754008 -0.633917
0.037071 -0.017512 -0.002439 0.792545 -0.178445 -0.583121
-0.000458 -0.059208 -0.005046 0.249126 -0.689912 -0.679675
-0.006627 -0.071873 -0.022928 -0.812839 -0.582449 0.00670869
-0.0067 -0.036959 0.00747 -0.911629 0.302269 -0.278506
-0.026589 0.088523 0.040634 0.463201 0.88599 0.0215933
-0.011887 -0.048813 0.000226 -0.90542 0.0853003 -0.415858
0.031775 0.016449 -0.057021 0.572792 0.819622 -0.0113407
-0.005129 -0.08688 -0.065075 -0.818379 -0.573811 -0.0315695
-0.003297 -0.081146 -0.051447 -0.059717 0.995238 -0.0770452
-0.016754 0.065512 0.069314 0.116365 -0.959074 0.25814
0.040089 -0.058183 0.005325 0.858489 -0.457819 -0.23108
-0.005963 0.029216 -0.035091 -0.967051 0.0390029 0.251577
0.036286 -0.064709 -0.059387 0.65687 0.748698 -0.0892897
0.031942 0.020368 -0.03815 0.96854 0.185618 -0.165758
-0.019335 0.087027 0.051954 -0.0145445 0.998857 0.0455305
0.016398 0.013074 0.03494 0.508088 -0.412234 0.756247
-0.013064 0.086756 0.050824 0.426015 0.903479 -0.0472954
-0.025837 0.068767 0.056255 -0.773161 -0.634009 -0.0159608
0.027276 0.018236 -0.050703 -0.546154 0.789976 -0.278663
0.031463 -0.06512 -0.023345 -0.167579 -0.898259 0.406261
-0.002064 -0.088771 -0.049399 -0.377985 -0.885774 0.269318
-0.003398 -0.086917 -0.045689 -0.797892 -0.596996 0.0834569
-0.005415 -0.075286 -0.032445 -0.768092 0.54701 -0.332887
0.002173 0.026309 -0.03348 0.855271 -0.51577 -0.0499196
0.035735 -0.064469 -0.052898 0.793604 0.606852 0.0438528
0.032034 0.024123 -0.013657 0.95218 -0.276817 -0.129324
-0.003946 0.028864 -0.060333 -0.818651 -0.573346 -0.0329437
-0.009505 0.082293 0.042218 0.354716 0.616695 -0.702754
0.028311 -0.05106 -0.022687 -0.767723 0.587935 -0.254821
-0.002349 -0.088018 -0.06494 0.162463 -0.889056 -0.428001
0.017754 0.037435 -0.01182 -0.0637369 0.651227 -0.756201
0.029219 -0.06667 -0.057128 -0.958461 0.217269 0.184786
0.035249 -0.064034 -0.054077 0.602511 0.798105 -0.00299957
-0.007713 0.039948 -0.071036 -0.929364 0.227665 0.290604
0.030016 -0.061269 -0.068163 -0.561342 0.534831 0.631546
-0.008116 0.083029 0.06447 0.506389 0.862004 0.0227958
-0.004816 0.037829 -0.006351 -0.460984 0.832655 -0.306886
0.032894 -0.057362 -0.035655 -0.0384019 0.890791 -0.452788
0.000709 0.037104 -0.06495 0.893035 0.449373 0.0234964
-0.011786 0.086185 0.059163 0.770854 0.632513 -0.0755699
0.033091 0.011989 -0.055218 0.940634 -0.0572325 0.334562
0.036271 -0.062372 0.000912 0.877264 -0.479989 -0.00425864
-0.004871 0.031929 -0.025532 -0.955644 0.244172 -0.164693
-0.016848 0.086085 0.061857 -0.19865 0.555049 0.807749
-0.007917 -0.085018 -0.073425 -0.950824 -0.2995 -0.0789582
0.029964 0.014572 -0.000227 0.910934 -0.286707 -0.296646
0.030525 0.019376 -0.045756 0.641296 0.725076 -0.251007
0.034156 -0.062683 -0.048867 0.477925 0.843609 -0.244767
0.026104 0.0133 -0.039979 -0.348877 -0.937165 0.00257384
-0.006395 0.069549 0.039608 0.511657 0.429859 -0.743928
-0.004859 0.03573 -0.015957 -0.239209 0.938637 -0.248476
-0.005427 0.035272 -0.067307 -0.858354 -0.458053 -0.231119
-0.033333 0.078662 0.039648 -0.512665 -0.842553 -0.165162
-0.00362 -0.091355 -0.058358 -0.436567 -0.883234 0.17119
-0.003009 -0.075759 -0.019167 -0.981436 -0.187329 0.0411286
-0.007672 0.08461 0.074458 0.862651 -0.0103332 0.505695
-0.001889 0.030441 -0.063977 0.195815 -0.582449 -0.788929
-0.004143 0.024727 -0.039865 -0.796158 -0.600808 -0.071849
0.005042 -0.066789 0.001483 0.592635 0.010679 -0.8054
-0.003836 0.075826 0.067548 0.639561 0.552414 0.534604
-0.000985 -0.063361 -0.013957 0.725612 0.669974 -0.156915
0.029571 -0.06723 -0.072356 -0.714246 -0.659918 -0.233155
0.031216 -0.064162 -0.053323 -0.412868 0.9038 -0.112627
0.003775 0.015702 -0.014818 -0.775911 -0.611615 -0.154562
0.028718 -0.06492 -0.074494 -0.803772 -0.31752 -0.503122
-0.004384 0.029943 -0.061284 -0.720629 -0.631802 -0.285517
0.002308 -0.075544 -0.017266 0.848207 -0.395861 0.351908
-0.003661 0.028946 -0.058489 -0.866458 -0.490742 0.0917748
-0.005947 -0.073194 -0.025889 -0.962208 -0.271712 -0.0180966
0.003151 0.059041 0.069526 0.322363 -0.123648 0.938506
0.033948 0.016791 -0.068327 0.675788 0.485136 0.554936
-0.00074 -0.044227 -0.002775 -0.146223 0.390602 -0.908872
-0.00135 0.01995 -0.018377 -0.497534 -0.614413 -0.612337
0.035848 -0.065325 0.012912 0.922762 -0.380708 -0.059768
0.003475 -0.069905 -0.017454 0.965808 0.173291 0.192835
-0.004106 -0.079301 -0.042534 -0.587585 0.762747 -0.270112
-0.008987 0.070843 0.038867 0.338228 0.233004 -0.911763
0.025692 0.046777 0.012669 0.282641 0.959036 -0.0191053
0.010561 0.010732 0.03426 -0.0407694 -0.535693 0.843428
0.001855 0.039611 -0.072043 0.967591 0.252474 0.00500792
0.03553 -0.064189 -0.050942 0.749415 0.659615 -0.0573206
-0.002223 0.022756 -0.027561 -0.00199959 -0.990135 -0.140104
-0.024727 0.069098 0.05204 -0.649597 -0.742677 0.162649
-0.000242 -0.019937 0.026306 -0.567406 0.113658 0.815557
-0.009268 -0.019751 0.017445 -0.828095 -0.010631 0.560487
0.028208 0.01083 -0.049369 -0.41593 -0.872913 0.255
0.026005 0.031897 -0.016428 -0.0141993 0.853068 -0.521606
0.030877 0.024067 -0.033348 0.828402 0.560114 -0.00486241
-0.033435 0.083483 0.050189 -0.68628 0.198106 0.699838
0.037328 -0.058583 -0.006162 0.789104 -0.408323 -0.458898
0.029497 0.021108 -0.074855 0.103456 0.719403 -0.686845
0.03505 -0.059305 -0.007882 0.477221 -0.649037 -0.592462
0.023064 0.045353 0.00377 0.134344 0.912735 -0.385833
-0.009116 0.078892 0.071085 0.163045 -0.760925 0.628021
0.038166 -0.064374 -0.073149 0.940546 -0.297836 -0.163299
0.004471 0.048229 0.014413 -0.253355 0.902429 -0.348472
-0.004021 0.034112 -0.067705 -0.287341 -0.860335 -0.42102
-0.001168 -0.0444 -0.002746 -0.162054 0.398694 -0.902653
0.015754 0.016842 0.037553 0.528653 -0.429098 0.732393
0.015224 -0.070961 0.016854 0.0981268 -0.986345 -0.132269
0.030549 -0.05618 -0.03261 -0.253454 0.800233 -0.543496
0.036273 -0.047412 -0.017827 0.6304 0.676912 -0.379981
-0.003555 -0.083171 -0.028937 -0.696881 -0.709531 0.104509
4.9e-05 -0.08279 -0.053495 0.772367 0.630971 0.0729653
-0.000399 0.02451 -0.040119 0.415071 -0.889461 -0.191246
-0.005213 -0.083249 -0.044407 -0.997078 -0.0760045 -0.0076219
-0.000526 0.02775 -0.049682 0.674318 -0.723444 -0.148066
0.01835 0.008771 -0.018343 -8.02176e-05 -0.000672753 -1
-0.002881 0.028594 -0.058823 0.161539 -0.977864 -0.132993
-0.004306 -0.051169 -0.005845 -0.114675 0.613159 -0.781592
0.029521 -0.049482 -0.021915 -0.450462 0.763362 -0.462993
-0.004889 0.025723 -0.038004 -0.84669 -0.532084 0.00165401
0.000419 0.028766 -0.048833 0.903882 -0.397704 -0.157574
0.032241 -0.053846 -0.029562 0.018918 0.842904 -0.537731
0.001651 0.031897 -0.061974 0.898451 -0.419544 -0.129498
0.000101 -0.069949 0.022086 -0.586302 -0.703705 0.40131
-0.039909 0.084582 0.043127 -0.808656 -0.165198 0.56461
-0.001912 -0.091542 -0.058697 0.245237 -0.964252 0.10038
-0.005178 0.023471 -0.013995 -0.838011 -0.434675 -0.329842
-0.012315 -0.055991 0.00666 -0.991273 -0.0217461 0.130017
0.019347 0.048872 0.018762 0.229614 0.934394 -0.272371
0.028337 -0.060488 -0.015545 -0.715319 -0.67792 0.169534
0.033611 -0.057145 -0.034903 0.31632 0.835869 -0.448625
-0.007795 0.062486 0.046108 -0.220102 -0.974429 -0.0452086
-0.004534 0.030269 -0.061665 -0.760621 -0.629882 -0.157177
0.027454 0.015739 -0.067264 -0.831947 0.477509 0.282576
0.004817 0.053251 0.02329 -0.170576 0.840945 -0.513533
-0.008677 -0.063758 -0.00781 -0.996097 -0.0770972 0.0429784
0.006431 -0.070182 -0.002498 0.748222 0.221975 -0.625213
-0.033116 0.091206 0.041581 -0.0578139 0.991345 -0.117871
-0.002345 -0.06969 -0.026736 0.238345 0.746417 -0.621332
-0.005732 -0.073488 -0.027669 -0.956694 0.212706 -0.198727
0.034977 -0.059632 -0.037911 0.864217 0.466043 -0.189558
0.034926 -0.063858 -0.059995 0.471894 0.881526 -0.0151229
0.032293 0.020642 -0.075024 0.158516 0.806609 -0.569434
-0.001211 -0.084114 -0.030898 0.123502 -0.982646 0.1384
0.001796 -0.085259 -0.05654 0.968988 0.23465 0.0774682
-0.00049 0.034979 -0.043783 0.351139 0.933781 -0.0689473
-0.01211 -0.047515 0.001148 -0.940363 0.186396 -0.28456
0.035459 -0.062348 -0.042186 0.990355 0.126067 -0.057477
0.029761 0.021443 -0.042411 0.485067 0.784372 -0.386614
-0.026737 0.070032 0.059795 -0.885361 -0.399845 0.23719
0.000874 -0.078358 -0.018561 0.191332 -0.669155 0.718069
0.037993 -0.062034 -0.074471 0.50652 0.0484382 -0.860867
0.033078 0.035559 0.001609 0.834386 0.514716 -0.197149
0.030217 0.014567 -0.041199 0.875917 -0.452213 0.168147
0.029729 -0.058163 -0.073724 -0.683007 0.729435 0.0377615
0.009671 -0.070581 0.002551 0.614692 -0.0356552 -0.787961
-0.024441 0.074661 0.061512 -0.673557 0.254301 0.694012
0.005134 0.051953 0.020886 -0.180072 0.863422 -0.471249
-0.000135 0.032828 -0.065005 0.474295 -0.576997 -0.66492
0.003623 0.030061 -0.017995 0.841914 0.450943 -0.296363
0.030103 -0.055568 -0.018155 -0.973369 -0.227811 0.0255836
-0.027338 0.072612 0.043003 -0.622684 -0.734262 -0.270414
5.4e-05 0.044062 -0.075727 0.7274 0.664674 -0.170579
0.032905 -0.067975 -0.039313 -0.0666086 -0.975501 0.209669
0.029855 0.025326 -0.032112 0.701962 0.710162 -0.0540304
0.016739 0.053659 0.047263 0.940563 0.254132 0.225295
-0.03799 0.088162 0.044217 -0.550731 0.432787 0.713716
0.026108 -0.071362 0.014767 -0.0783478 -0.973304 -0.215733
-0.009875 0.083351 0.066324 -0.0811656 0.917434 0.389521
-0.017068 0.070041 0.070636 -0.973444 0.220409 0.0618537
-0.001521 -0.080502 -0.068338 0.411633 0.812518 0.412763
-0.003709 -0.027357 0.024584 -0.820528 0.321317 0.472746
-0.002856 0.038805 -0.007546 -0.649881 0.6429 -0.405381
-0.018055 0.06994 0.068002 -0.896696 0.0581462 0.438812
-0.007255 -0.027802 -0.00319 -0.793387 -0.368853 -0.484236
0.037652 -0.055645 -0.014148 0.916942 -0.387259 0.0961691
0.009943 0.031274 -0.01564 -0.010013 0.390291 -0.920637
-0.001547 0.044598 0.020607 -0.727372 0.678971 0.0996384
-0.041609 0.088607 0.039037 -0.890723 0.438866 0.118363
0.000925 -0.082727 -0.043285 0.99013 -0.0578558 -0.12765
-0.002558 -0.086842 -0.042498 -0.257914 -0.940804 0.219929
0.036006 -0.032903 0.007586 0.768894 0.638621 -0.0310638
0.003041 -0.075976 -0.029846 0.972989 0.169166 -0.157085
0.022698 0.017121 -0.029024 -0.868732 -0.494784 -0.0222288
0.035611 -0.067541 -0.067707 0.562115 -0.817172 0.127504
0.037381 -0.030632 0.017339 0.994039 -0.0468664 0.0984381
0.003581 0.028518 -0.024984 0.997959 -0.000905757 -0.063847
0.030955 0.010774 -0.06873 -0.115486 -0.991768 0.0553124
-0.018197 0.06635 0.072487 0.216612 -0.881846 0.418839
0.009382 -0.070846 0.002323 0.690629 -0.127919 -0.711807
0.01619 -0.061447 0.033424 -0.0271439 -0.437201 0.898954
0.00042 0.052584 0.029442 -0.924963 0.130386 -0.356991
-0.003724 0.028694 -0.059387 -0.751809 -0.63163 0.189278
-0.006401 -0.084474 -0.05884 -0.934382 0.354757 -0.0328446
0.030783 0.01872 -0.047015 0.80665 0.573948 -0.141066
0.035793 -0.052551 -0.024124 0.755317 0.496266 -0.428037
0.006042 0.052563 0.021983 0.0919169 0.865576 -0.49227
0.004529 0.029519 -0.017066 0.500511 0.323222 -0.803129
0.033194 -0.059455 -0.015286 0.478664 -0.862801 0.162652
0.029249 0.011306 -0.074892 -0.152653 -0.926397 -0.344218
-0.004773 0.032472 -0.057249 -0.979265 -0.171868 0.107248
0.030681 -0.06716 -0.044232 -0.924518 -0.379951 0.0300521
-0.005246 -0.043325 -0.001367 -0.370701 0.350052 -0.860258
0.030089 -0.065357 -0.05081 -0.995544 0.0933205 0.0135717
0.01476 -0.018073 -0.016443 0.132823 -0.284804 -0.949339
0.033864 -0.067902 -0.074359 0.0259015 -0.696618 -0.716975
-0.019052 0.068381 0.066781 -0.825506 0.503819 0.254375
0.03477 0.017617 -0.075046 0.312308 0.119826 -0.942394
0.030522 -0.062978 -0.019048 -0.286324 -0.883021 0.371877
0.026592 0.01531 -0.028841 0.179756 -0.963502 0.198375
-0.00645 -0.078994 -0.07515 -0.255618 0.858213 -0.445118
-0.002191 -0.060541 -0.009569 0.828098 0.559851 -0.0286354
0.034547 0.01494 -0.07522 0.231548 -0.0571785 -0.971142
-0.005471 0.029348 -0.033395 -0.961639 -0.076787 0.263352
-0.024848 0.068685 0.049209 -0.590666 -0.806869 -0.00869924
-0.004207 -0.081613 -0.056179 -0.463604 0.885812 -0.0202321
0.007005 0.014505 -0.017714 -0.0984711 0.00385939 -0.995132
0.030131 -0.064646 -0.060689 -0.719699 0.692784 0.0456378
0.031281 -0.047851 -0.020427 -0.162286 0.832764 -0.529308
-0.002411 -0.080486 -0.020546 -0.539483 -0.527908 0.655951
-0.008391 0.027986 -0.014016 -0.848264 -0.482621 -0.218002
0.002488 0.033358 -0.039114 0.803426 0.583896 -0.1165
-0.003199 -0.089164 -0.052775 -0.77783 -0.561872 0.281567
-0.000267 0.035409 -0.055239 0.613181 0.764483 0.198935
0.001144 0.072121 0.054248 0.633217 0.719286 -0.285771
-0.041306 0.085785 0.040018 -0.751827 -0.647712 -0.123392
-0.006838 0.082144 0.063912 0.597954 0.79164 -0.125529
-0.028426 0.073688 0.042252 -0.555133 -0.762695 -0.331848
-0.006363 0.036498 -0.010086 -0.471174 0.863513 -0.179832
-0.027305 0.07257 0.043052 -0.637479 -0.727465 -0.253802
-0.004629 0.033623 -0.056319 -0.978508 0.170585 0.115861
-0.002069 0.075814 0.064343 0.693263 0.653942 0.302896
0.036716 -0.064335 -0.074432 0.194976 -0.0553813 -0.979243
0.034884 -0.061634 -0.04347 0.762521 0.617177 -0.19405
0.026835 0.018804 -0.071367 -0.611498 0.729594 0.306205
-0.003257 0.035712 -0.017275 -0.124899 0.973012 -0.194032
0.014026 -0.016246 -0.0171 0.137265 -0.239502 -0.961144
0.029111 -0.065989 -0.069094 -0.81466 -0.471116 0.3382
0.034265 -0.06349 -0.053048 0.324126 0.94304 -0.0749541
0.003901 -0.068544 -0.009086 0.818683 0.52361 -0.235777
0.009469 0.052228 0.065151 0.613201 -0.109965 0.782235
0.036798 -0.061035 -0.069703 0.77932 0.591762 0.206102
0.007863 -0.071886 0.023229 0.0710903 -0.871575 0.48508
-0.002647 0.075615 0.065982 0.670871 0.618138 0.409679
0.029587 -0.046808 -0.017153 -0.544423 0.71058 -0.445735
-0.001655 -0.051715 -0.00618 0.0127848 0.600945 -0.799188
-0.004877 0.03069 -0.061714 -0.801557 -0.594464 -0.0641753
0.028624 0.016319 -0.029401 0.696323 -0.688523 0.202658
-0.001548 0.024009 -0.039298 0.142504 -0.984806 -0.0992404
-0.027847 0.072426 0.056789 -0.935529 -0.350507 0.0439327
0.033838 -0.061079 -0.023465 0.845551 -0.477781 0.238261
-0.017856 0.069505 0.068607 -0.857771 0.414472 0.304043
-0.007043 -0.084332 -0.075966 -0.0413518 -0.101537 -0.993972
0.037467 -0.065945 -0.068755 0.858557 -0.340746 0.383108
0.024909 0.037505 -0.008767 0.753083 0.644063 -0.134349
0.014122 -0.058198 -0.002473 0.132757 -0.608346 -0.78249
-0.009873 -0.044743 0.023334 -0.876767 -0.00170058 0.480913
-0.003064 0.041234 -0.068444 -0.0687257 0.66408 0.744496
-0.005305 0.068031 0.039396 0.354361 0.361921 -0.86223
0.000997 -0.060185 -0.012044 0.321844 -0.819932 0.473422
0.031634 -0.06426 -0.021624 -0.00385833 -0.905327 0.424697
-0.019103 0.067385 0.071665 -0.762427 0.593125 -0.258663
0.029721 -0.065805 -0.074818 -0.0969802 -0.106154 -0.989609
-0.008684 -0.066507 -0.001891 -0.681351 -0.715499 -0.154345
0.032856 -0.058295 -0.037616 -0.151293 0.898417 -0.412259
-0.017504 0.087986 0.056951 -0.13225 0.983868 -0.120474
-0.006877 -0.050784 -0.004572 -0.305673 0.424012 -0.852513
-0.000442 0.072945 0.049424 0.793749 0.581254 -0.179186
-0.039772 0.082309 0.038084 -0.687688 -0.723404 0.0614209
0.006505 0.004628 -0.018327 -0.286147 0.0824509 -0.954632
-0.002425 0.017087 -0.006811 -0.427924 -0.762916 -0.484602
0.040074 -0.043472 0.025544 0.92169 0.0170633 0.387552
0.025668 -0.052 -0.005198 -0.884884 0.100601 -0.454818
-0.007978 0.084115 0.074938 0.802232 -0.200308 0.562405
0.003412 0.029704 -0.02232 0.909844 0.414585 0.0173862
-0.033591 0.091375 0.037244 0.0106824 0.996386 0.0842645
-0.007953 0.0854 0.069339 -0.430512 0.842806 -0.323013
0.037071 -0.062498 0.007842 0.682086 -0.690267 -0.241433
0.013469 -0.040058 -0.003346 0.0402554 -0.512834 -0.857543
0.034564 -0.031511 0.002285 0.884519 0.338175 -0.321347
-0.004588 0.08134 0.06724 0.896865 0.442302 -0.00136701
-0.011614 0.080344 0.072777 -0.201145 -0.445745 0.872268
0.029186 -0.053472 -0.018815 -0.836488 -0.208605 0.506727
0.027149 0.009609 -0.06213 -0.748522 -0.543016 -0.380589
-0.040361 0.083314 0.035932 -0.762806 -0.515626 -0.390201
0.007464 -0.058904 -0.00336 0.173641 -0.60645 -0.77593
0.035115 0.014463 -0.075013 0.505208 -0.165901 -0.846901
0.033986 -0.062138 -0.065497 0.371175 0.747178 0.55132
-0.005144 -0.084883 -0.050497 -0.887068 -0.440934 0.136702
0.038196 -0.050553 -0.006771 0.944329 0.0328834 -0.327354
-0.005726 0.044874 -0.075832 -0.575682 0.505703 -0.642538
-0.023658 0.072251 0.06307 -0.61123 -0.094864 0.785747
-0.016436 0.073035 0.070071 -0.727882 0.251879 0.637766
0.033053 -0.057254 -0.035457 0.0862095 0.888137 -0.45142
-0.01013 0.033234 0.01498 -0.972276 0.130061 0.194328
-0.005345 -0.083658 -0.05003 -0.998444 0.0364046 0.0422427
0.026377 0.012203 -0.072791 -0.84207 -0.53713 0.0490838
-0.00545 0.040032 -0.003173 -0.743222 0.521751 -0.418804
-0.008658 -0.039281 0.02424 -0.94744 0.276565 0.160838
-0.038999 0.08296 0.041004 -0.993924 -0.109815 0.00743885
-0.003222 -0.083364 -0.028705 -0.504117 -0.85452 0.125148
-0.001972 0.035754 -0.053317 0.127268 0.982438 0.13645
-0.008221 -0.083274 -0.071384 -0.983664 -0.0399874 0.175514
-0.017108 0.065326 0.068733 0.0762126 -0.963852 0.255306
0.02511 0.015637 -0.021698 -0.00133523 -0.999893 -0.0145341
-0.00445 0.02592 -0.026404 -0.985223 0.171199 0.00522635
-0.039376 0.081989 0.038909 -0.652712 -0.737399 0.17381
-0.002402 -0.086487 -0.040956 -0.115484 -0.963644 0.240945
-0.039147 0.08369 0.041343 -0.862764 -0.404884 -0.302833
0.002314 -0.076927 -0.018743 0.851792 -0.357795 0.382665
0.003824 0.028221 -0.023172 0.990185 0.137897 -0.022748
-0.000364 0.028666 -0.05365 0.733669 -0.672937 -0.0942611
0.029808 0.021908 -0.015658 0.794893 -0.565573 -0.219711
-0.017652 0.086014 0.043849 0.341911 0.718021 -0.606253
0.003343 -0.0708 -0.009915 0.695338 -0.718349 -0.0219064
-0.006849 0.038995 -0.06955 -0.793281 0.0934587 0.601641
0.00065 -0.057938 -0.005934 0.195345 -0.843467 -0.500404
-0.022993 0.067903 0.052914 -0.569697 -0.811785 0.128257
-0.020942 0.06677 0.059815 -0.153436 -0.95755 0.24404
0.035785 -0.031954 0.007747 0.901943 -0.339302 -0.267157
-0.000586 0.034987 -0.07018 0.432174 -0.900918 -0.0396507
-0.028351 0.073457 0.045305 -0.81295 -0.578932 0.0628509
0.026296 0.012545 -0.057828 -0.991582 -0.100919 0.0811181
-0.001465 -0.059702 -0.005154 0.513159 -0.144123 -0.846106
-0.012619 0.071905 0.071328 0.210704 0.042804 0.976612
0.001488 -0.080182 -0.039227 0.912218 0.27869 -0.300317
0.025985 0.01548 -0.027384 0.010562 -0.993892 0.109849
-0.037158 0.090682 0.040004 0.581143 0.764326 -0.279426
0.020221 -0.057523 -0.003771 -0.309369 -0.357145 -0.881328
0.010887 0.04098 0.058965 0.313246 -0.572843 0.757448
-0.002276 0.028091 -0.056115 0.0528252 -0.990645 -0.125827
-0.009095 -0.063608 -0.014863 -0.985461 0.161865 -0.051634
0.00916 0.031506 -0.015431 -0.0421493 0.389371 -0.920116
-0.011328 0.027668 0.003582 -0.976956 -0.208218 0.0469238
0.012584 -0.069659 0.006691 0.830881 -0.45772 -0.316432
0.000831 -0.083628 -0.075655 0.268444 -0.0859705 -0.959451
-0.004147 0.07613 0.067653 0.646322 0.530983 0.548019
-0.008426 0.040334 0.004577 -0.860163 0.480663 -0.170539
0.033969 -0.069458 -0.04625 0.580386 -0.775273 0.249208
0.029257 0.007599 -0.057246 -0.345098 -0.903077 0.255655
-0.017961 0.068577 0.071298 -0.737234 0.589297 -0.330476
-0.004169 0.028297 -0.028355 -0.9522 -0.302234 0.044382
0.038872 -0.026732 0.011654 0.973471 -0.227831 -0.0211282
-0.011295 -0.052412 0.018422 -0.970064 -0.0897363 0.225661
0.006638 0.009888 0.032329 -0.610736 -0.425553 0.667762
-0.001744 0.036916 -0.013944 0.0124986 0.801573 -0.597766
0.00951 -0.055445 -0.004936 0.222289 -0.331766 -0.916798
-0.004141 -0.079738 -0.025046 -0.968569 0.246638 0.0323044
0.012526 -0.019701 -0.016381 0.196692 -0.305245 -0.931739
0.01422 -0.038966 -0.004017 0.00265929 -0.636037 -0.771654
0.032989 0.015207 -0.058027 0.866475 0.484372 0.120849
-0.005087 0.045281 -0.07609 -0.445566 0.589885 -0.673429
0.010282 0.038411 -0.01057 -0.0415455 0.774243 -0.631524
-0.004688 -0.043804 -0.001721 -0.292707 0.447102 -0.845235
0.005023 -0.055951 -0.007541 0.491547 0.21399 -0.84415
0.003172 -0.076303 -0.025127 0.99705 -0.0333148 0.0691477
0.000294 0.03379 -0.029971 0.378983 0.922215 0.0767513
-0.005706 0.038185 -0.004634 -0.724913 0.516141 -0.456179
-0.008738 0.03537 -0.006687 -0.813031 0.564379 -0.143024
-0.041486 0.088869 0.038957 -0.831592 0.545384 0.104937
0.027861 0.008678 -0.057128 -0.816696 -0.521854 0.246325
-0.006266 0.015621 0.005723 -0.944662 -0.300858 -0.130758
-0.006853 -0.037058 0.007911 -0.902466 0.340486 -0.263864
0.004192 -0.069319 -0.008654 0.983295 0.0184228 -0.181087
0.004906 -0.066877 0.001149 0.73913 0.295644 -0.605211
0.026928 0.018534 -0.070869 -0.550055 0.598829 0.582102
0.008542 -0.07112 0.001099 0.739201 -0.545471 -0.395022
-0.00745 0.062954 0.042311 -0.386799 -0.810743 -0.439412
0.001242 0.039488 -0.069705 0.849363 0.325744 0.415298
0.002901 0.039906 0.050742 -0.737124 -0.550183 0.392359
-0.014348 0.083129 0.065524 -0.254364 0.753957 0.60568
-0.020079 0.066659 0.059642 -0.0953873 -0.987684 0.12402
0.013748 0.041757 0.057254 0.858385 -0.185091 0.478452
-0.003245 0.078545 0.063824 0.879471 0.474436 0.0379734
0.029986 -0.05808 -0.074029 -0.521891 0.708009 -0.475765
-0.002354 0.023084 -0.032993 0.10741 -0.984917 -0.135649
0.027513 -0.057445 -0.009507 -0.894056 0.166375 -0.415912
-0.004946 -0.068427 0.003056 -0.378274 -0.921767 0.0851757
0.029473 -0.031845 -0.005205 0.533861 0.388734 -0.750918
0.002083 -0.062037 -0.004039 0.688608 0.297259 -0.661405
-0.020415 0.081872 0.039365 0.180805 0.146187 -0.972594
0.036908 -0.056826 -0.01373 0.818099 -0.566846 0.096951
-0.005359 -0.087831 -0.075067 -0.396428 -0.895966 -0.200223
-0.005851 0.035898 -0.065733 -0.998368 0.0534777 -0.0200305
0.029128 0.02134 -0.074104 -0.00153292 0.809601 0.586979
-0.005323 -0.080915 -0.067756 -0.394889 0.825359 0.40354
0.003828 -0.056224 -0.008532 0.467361 0.579555 -0.667599
0.0042 -0.064957 0.000375 0.207822 -0.517433 -0.830105
-0.021254 0.084099 0.040162 0.379518 0.580539 -0.720375
0.029506 0.010688 -0.07361 -0.136637 -0.916616 -0.375692
0.030109 0.043533 0.015597 0.752749 0.636084 0.169605
0.031037 -0.064374 -0.054116 -0.42127 0.899073 -0.119157
0.002106 -0.059185 -0.011463 0.522025 -0.820628 0.232509
-0.003607 0.010972 0.02099 -0.856184 -0.0924594 0.508331
-0.007796 0.08295 0.064964 0.399361 0.8642 -0.306054
0.028957 -0.04813 -0.018403 -0.686465 0.635925 -0.352654
-0.002853 0.025697 -0.046568 0.0294643 -0.964364 -0.262933
-0.003212 -0.083787 -0.030593 -0.420088 -0.886785 0.192716
0.02814 -0.055088 -0.012732 -0.997162 -0.0371975 -0.0654506
-0.009331 0.039473 0.008349 -0.927749 0.371441 -0.0362277
-0.022681 0.067369 0.051769 -0.564414 -0.822503 0.070182
0.02959 -0.064531 -0.023657 -0.574191 -0.742748 0.344427
-0.001391 0.034321 -0.072289 0.334797 -0.926072 0.174072
0.003208 -0.071762 -0.015329 0.973346 -0.207602 0.0974607
-0.012793 0.078034 0.039556 0.0804277 0.301172 -0.950172
0.001489 -0.082948 -0.027087 0.484546 -0.873536 0.0463665
0.001031 -0.079947 -0.019842 0.266267 -0.589843 0.762356
0.001642 -0.088106 -0.056382 0.894106 -0.380433 0.236315
0.001829 -0.059022 -0.010274 0.264979 -0.875715 0.403621
0.033316 -0.043924 -0.012885 0.258316 0.894566 -0.364727
0.001866 0.032673 -0.028078 0.77857 0.625621 0.0492595
-0.011143 -0.051579 0.019377 -0.947066 -0.0829859 0.310127
-0.003942 -0.082554 -0.028866 -0.921793 -0.3866 0.0289509
-0.008824 0.02857 -0.013252 -0.931111 -0.313409 -0.186565
0.027196 0.013891 -0.00474 0.816204 0.00360377 -0.577753
-0.002625 0.043127 -0.070655 0.128086 0.960394 0.247462
0.001283 0.035566 0.032681 -0.903284 0.030393 0.427966
0.01994 0.045496 0.039762 0.944004 -0.00814454 0.329833
-0.034522 0.091241 0.037459 -0.22387 0.827457 0.514974
0.034732 -0.061464 -0.043368 0.705142 0.675739 -0.214832
0.001607 -0.08573 -0.054916 0.975287 0.0326718 0.218511
-0.005043 0.030664 -0.060859 -0.915076 -0.230138 0.331167
0.028927 -0.064584 -0.031868 -0.927671 -0.361813 -0.0922957
0.01197 -0.019917 -0.01644 0.0785232 -0.31528 -0.945744
0.0281 0.018098 -0.052537 -0.366018 0.898609 -0.241935
0.036224 -0.069881 -0.06204 0.765332 -0.457601 -0.452624
-0.002512 -0.078853 -0.075952 0.25705 0.275879 -0.926184
-0.003805 -0.091357 -0.059394 -0.481138 -0.876645 0.000897208
-0.005611 -0.073171 -0.027794 -0.931463 0.261326 -0.25315
-0.022274 0.086977 0.042271 0.333608 0.77691 -0.533963
0.030801 -0.059541 -0.069431 -0.302174 0.875186 0.37781
0.014723 -0.067907 0.008282 0.133299 -0.849836 -0.509912
-0.003519 0.023375 -0.034062 -0.342947 -0.939199 0.0171237
-0.000467 0.038196 0.029803 -0.895425 -0.13817 0.423229
-0.000571 0.019368 -0.014428 -0.545087 -0.828033 -0.131304
0.02701 -0.044009 -0.005434 -0.843327 -0.273772 -0.462438
0.037368 -0.030828 0.019727 0.930062 0.367184 0.0126523
0.002248 0.017666 -0.017784 -0.16578 -0.215693 -0.962286
-0.001946 -0.079153 -0.070448 0.2058 0.891204 0.40423
-0.001386 -0.082727 -0.022387 -0.120311 -0.752247 0.647804
-0.000318 -0.083802 -0.029652 0.242387 -0.966659 0.0825745
-0.003099 0.033895 -0.027783 -0.61289 0.762546 -0.207096
0.032511 0.039775 0.014479 0.948303 0.269008 0.168393
0.026508 0.019939 -0.075267 -0.363103 0.326741 -0.87258
0.037352 -0.032446 0.013658 0.937649 0.299884 -0.175737
0.012975 -0.066049 0.004825 0.225556 -0.760814 -0.608512
-0.031875 0.077155 0.048018 -0.750061 -0.620738 0.22824
0.003229 -0.070911 -0.015385 0.9931 0.108902 0.0435006
-0.034565 0.084694 0.048722 -0.628378 0.297847 0.71863
0.032806 -0.069337 -0.045325 -0.217195 -0.951604 0.217429
-0.006039 0.08136 0.071176 0.75472 -0.334549 0.564336
0.031011 -0.061625 -0.044008 -0.425503 0.850315 -0.309695
0.036512 -0.060562 -0.032027 0.937433 -0.283986 -0.201425
-0.003292 0.058954 0.040874 -0.892803 -0.420033 -0.162711
-0.004234 -0.087768 -0.06964 -0.268362 -0.949149 0.164618
-0.041349 0.08826 0.036598 -0.840443 0.37467 -0.391507
0.035856 -0.064796 -0.051254 0.959262 0.265981 0.0952425
0.039494 -0.035913 0.015689 0.945993 0.319801 -0.0531447
0.040712 -0.047433 0.02381 0.942739 -0.0204257 0.332905
0.00116 -0.066813 -0.016873 0.905575 0.413215 0.095852
-0.001751 0.022926 -0.029884 0.176566 -0.984283 -0.00326316
0.028345 0.027122 -0.028062 0.554803 0.817134 -0.156477
-0.038063 0.081198 0.037193 -0.369086 -0.888275 -0.273391
0.033294 0.008406 0.010655 0.953185 0.301604 0.0217552
0.031589 -0.070089 -0.063984 -0.258787 -0.719872 -0.64406
-0.004982 -0.072858 -0.029483 -0.801466 0.495017 -0.335575
-0.017023 0.06945 0.074725 0.137827 0.249653 0.958477
0.000323 0.02742 -0.045918 0.775955 -0.580983 -0.245667
0.02577 0.032183 -0.016024 -0.0281347 0.759689 -0.649678
0.038459 -0.053703 -0.016819 0.969463 -0.243769 -0.0268
0.028177 0.017161 -0.023862 0.824323 -0.551975 0.125761
0.00189 -0.034171 -0.005228 -0.36566 -0.597546 -0.713605
0.002714 0.024152 -0.020098 0.778051 -0.511294 -0.364986
0.032095 0.016048 -0.054832 0.847309 0.528966 0.0475568
0.034187 -0.063325 -0.062383 0.286981 0.946909 0.144934
0.030143 0.010016 -0.051439 0.442067 -0.802776 0.400159
-0.029789 0.074608 0.042567 -0.640229 -0.744559 -0.189046
0.034017 -0.070722 -0.050628 0.438398 -0.857381 0.269639
-0.001726 -0.087697 -0.075344 0.430211 -0.700387 -0.56954
-0.04025 0.089886 0.037106 -0.641368 0.699731 -0.314681
-0.005256 -0.052464 -0.00673 -0.391337 0.645772 -0.655617
-0.01713 0.070575 0.071478 -0.903218 0.293437 -0.313196
0.033581 -0.030991 0.00026 0.886185 0.069166 -0.45814
0.011598 0.050693 0.062743 0.867307 0.0576703 0.494422
0.006778 -0.055178 -0.006298 0.524183 0.185847 -0.83108
0.035334 -0.065422 0.019657 0.782784 -0.594944 0.182455
0.001204 -0.080986 -0.040927 0.91529 0.254525 -0.312188
0.034232 0.027091 -0.006645 0.935272 0.0913281 -0.341944
0.001137 0.024435 -0.027922 0.726483 -0.679643 -0.101528
0.040944 -0.058351 0.011054 0.923222 -0.378347 -0.0671991
-0.001898 -0.060967 -0.009739 0.823575 0.567141 -0.00862843
0.016744 0.019981 0.038793 0.651274 -0.366585 0.664423
-0.004966 -0.073207 -0.016831 -0.639884 -0.768447 0.00617811
0.031775 -0.059942 -0.011555 0.593132 -0.805069 -0.00766749
0.029293 -0.065987 -0.058234 -0.904957 0.410434 0.112232
0.03188 -0.059994 -0.013318 0.625389 -0.766685 0.145202
-0.004691 0.030223 -0.028315 -0.998655 -0.0444901 -0.0266413
0.033042 0.012821 -0.075265 0.197282 -0.154614 -0.968078
0.027759 -0.022865 -0.010055 0.606206 -0.293384 -0.739216
0.014477 -0.06875 0.009348 0.616535 -0.692603 -0.374414
0.029147 -0.065399 -0.028802 -0.754058 -0.65639 -0.0234306
0.029748 -0.066903 -0.073461 -0.685213 -0.719249 -0.114739
-0.000826 -0.090101 -0.054349 0.520483 -0.80927 0.272359
-0.004943 -0.038535 0.001011 -0.775961 0.459429 -0.432214
0.031789 0.01385 -0.049222 0.947229 -0.251229 0.199099
0.012621 0.060759 0.043177 0.454892 0.855571 -0.247125
0.023117 0.008539 -0.013038 0.840627 -0.0517789 -0.539134
0.005037 -0.073137 0.000491 0.288096 -0.928478 -0.23437
0.005556 0.013298 -0.016919 -0.663409 -0.0145543 -0.748115
-0.011265 -0.050504 0.017978 -0.99607 0.064438 0.0607674
0.006874 0.052691 0.066676 0.30651 -0.332385 0.891948
0.033021 -0.050168 -0.023652 0.169423 0.814567 -0.554777
0.028007 -0.055413 -0.010539 -0.946826 -0.0618656 -0.315744
0.02818 -0.057987 -0.018235 -0.890248 0.441581 0.111644
0.023901 0.032767 -0.015396 -0.104979 0.534285 -0.83876
0.029391 -0.064011 -0.022901 -0.692252 -0.656213 0.300286
-0.005502 -0.066274 -0.023777 -0.323144 0.639774 -0.697329
0.004384 -0.069029 -0.007508 0.877596 0.290284 -0.381524
-0.000397 0.024464 -0.039905 0.4221 -0.889806 -0.173425
0.008184 0.057456 0.066201 0.743149 0.156003 0.650686
0.029733 -0.064401 -0.065905 -0.964074 0.172833 0.201718
0.016294 0.054878 0.032075 0.453584 0.823219 -0.341425
-0.011711 0.072201 0.071157 -0.0237528 -0.0602264 0.997902
-0.009141 0.059245 0.063963 -0.63005 -0.719758 0.291524
-0.002307 0.035133 -0.042978 -0.347275 0.937748 -0.00543053
0.037133 -0.057697 -0.029746 0.933986 0.291381 -0.206802
0.035899 -0.063963 0.008342 0.827874 -0.529262 -0.185757
0.030249 0.011746 -0.048041 0.652169 -0.68406 0.326708
0.029928 0.010022 -0.051206 0.36366 -0.848454 0.384547
0.031774 0.016484 -0.06554 0.515099 0.779536 0.356366
0.007196 -0.000309 -0.018595 -0.174719 0.0203231 -0.984409
0.031125 -0.069758 -0.051277 -0.799125 -0.570652 0.189094
-0.031768 0.091055 0.039006 0.39651 0.916517 -0.0526851
0.006077 0.052191 0.066574 -0.0166745 -0.486809 0.873349
0.029964 -0.062727 -0.04362 -0.940491 0.270197 -0.206085
-0.002162 0.058542 0.038028 -0.874769 0.0801705 -0.477862
-0.004496 -0.081914 -0.058347 -0.526915 0.848532 -0.0485225
0.003491 -0.017885 -0.015692 -0.389954 -0.272513 -0.879587
0.025004 0.014756 -0.031805 -0.300199 -0.920228 0.251119
0.000949 0.034465 -0.064797 0.869184 -0.204352 -0.450288
0.029412 0.019607 -0.07054 -0.295241 0.849614 0.437022
-0.003349 0.040375 0.023777 -0.703226 0.523264 0.481319
-0.00501 -0.081024 -0.043454 -0.960694 0.257125 -0.10466
0.032228 -0.044489 -0.014467 0.0112301 0.919607 -0.392679
-0.004449 0.025852 -0.027439 -0.985952 0.166444 -0.0139531
-0.032985 0.082505 0.050759 -0.758578 0.0220751 0.651208
0.026427 0.015923 -0.018979 0.590734 -0.805401 -0.0486033
0.004215 0.025251 -0.018379 0.905949 -0.17988 -0.383274
-0.000224 0.020554 -0.018965 0.284649 -0.34578 -0.894098
-0.005071 0.033849 -0.065952 -0.750128 -0.484952 -0.449588
-0.001028 -0.072724 0.004494 -0.687037 -0.715365 0.127412
6.2e-05 0.036988 0.030669 -0.812106 0.122618 0.570481
0.027272 -0.055525 -0.021964 -0.983801 -0.0338959 0.176029
0.002389 0.046704 0.009146 0.0101574 0.974617 -0.223648
-0.007998 0.038051 -0.072127 -0.995175 -0.0867775 0.0457802
0.035066 -0.057213 -0.073595 0.518429 0.836948 0.175354
0.031862 0.019095 -0.035852 0.894539 -0.42234 0.146386
0.00319 -0.069489 -0.017049 0.801082 0.453994 0.390074
-0.007413 -0.07941 -0.074437 -0.735348 0.61622 0.282021
-0.003394 0.023354 -0.035124 -0.113323 -0.985393 -0.127114
-0.007156 -0.030265 -0.001079 -0.833108 -0.447708 -0.32479
-0.008424 -0.06973 -0.016496 -0.926436 -0.37542 -0.0278548
-0.002594 0.025469 -0.045786 0.180884 -0.945194 -0.271826
0.035158 -0.06458 0.002613 0.86297 -0.49282 -0.111407
0.033388 -0.069674 -0.046386 0.141431 -0.950569 0.276435
0.037275 -0.058607 -0.029478 0.992757 0.0283184 -0.116754
0.033862 0.011868 -0.074177 0.588209 -0.734901 -0.337537
0.020787 0.028917 -0.017314 -0.560968 0.686356 -0.46285
0.019937 -0.042888 -0.002875 -0.108738 0.0626224 -0.992096
0.037271 -0.066549 -0.069097 0.730474 -0.62832 0.26762
0.000366 -0.085575 -0.042797 0.815853 -0.571967 0.0850735
0.037052 -0.031742 0.012078 0.956012 -0.239651 -0.169139
0.023689 0.009736 -0.012429 0.909538 -0.355278 -0.215679
-0.029005 0.087045 0.036476 0.616311 0.105918 -0.780348
-0.003563 0.034587 -0.069534 -0.116772 -0.983439 -0.138604
0.033974 0.011258 -0.072364 0.611818 -0.777733 -0.144253
0.02541 0.011643 -0.008126 0.851037 0.162322 -0.499388
-0.008542 0.038744 -0.075709 -0.989585 -0.143947 -4.72078e-05
0.019286 0.017601 -0.01851 -0.148806 0.0301285 -0.988407
0.026326 -0.025781 -0.009691 0.493436 -0.38361 -0.780618
0.036192 -0.067177 -0.074033 0.528926 -0.74381 -0.408637
-0.026007 0.088187 0.0419 0.33244 0.941847 0.0490645
-0.007517 0.085329 0.073865 0.630608 0.674126 0.384562
0.002508 0.018709 -0.017966 0.0965789 -0.0763693 -0.992391
0.029196 0.037845 -0.00366 0.559934 0.777581 -0.286081
-0.006536 -0.071967 -0.022407 -0.734631 -0.673999 0.077733
-0.005614 -0.058674 -0.014585 -0.450724 0.745128 -0.491561
0.010249 0.025746 -0.017143 -0.0357714 0.142818 -0.989102
-0.003442 0.015201 -0.002132 -0.748435 -0.503742 -0.43138
0.0022 -0.081561 -0.032967 0.960188 -0.272317 -0.0623123
-0.006297 -0.076063 -0.030273 -0.962711 0.26968 0.0214339
0.00043 -0.083491 -0.062124 0.823558 0.545663 -0.154932
0.035824 -0.003526 0.016125 0.858221 0.326769 0.395828
-0.005748 -0.074005 -0.028337 -0.947922 0.296042 -0.117483
-0.005132 -0.067299 -0.024766 -0.00259236 0.620806 -0.78396
0.03308 -0.026127 0.027849 0.683858 0.376274 0.625105
0.030361 0.033657 -0.012303 0.557971 0.683239 -0.471013
0.026273 0.045947 0.007337 0.351344 0.905521 -0.237885
-0.004019 0.028183 -0.052479 -0.910693 -0.383193 -0.15428
-0.003855 -0.078728 -0.027562 -0.998383 0.0535254 0.0191571
-0.003508 -0.072784 -0.030687 -0.0675726 0.811441 -0.580515
0.001585 -0.062162 -0.004507 0.642139 0.416639 -0.643483
0.006124 -0.029605 0.033475 -0.246525 0.34662 0.90503
-0.006532 -0.043533 -0.000957 -0.174609 0.421737 -0.889747
-0.000221 0.020702 -0.019046 0.263082 -0.323875 -0.908786
-0.000192 -0.083656 -0.028319 0.244093 -0.967416 0.0672688
0.034012 0.031015 -0.005036 0.905798 0.276319 -0.321213
0.029156 -0.067879 0.025646 0.299219 -0.756422 0.581631
-0.003936 0.078354 0.043772 0.817753 0.382718 -0.429891
-0.004468 0.030583 -0.059592 -0.933179 -0.346199 0.0965602
-0.002875 -0.077546 -0.019587 -0.930273 -0.0834433 0.357253
0.011211 0.007332 -0.018663 -0.00929728 0.0589287 -0.998219
0.029766 0.018174 -0.030547 0.959624 -0.214772 0.181646
0.019161 0.008788 -0.018337 0.00788245 -0.0628063 -0.997995
0.008497 0.012435 0.035066 -0.183563 -0.516801 0.836194
0.036351 -0.065896 -0.063949 0.966196 0.257802 0.00166603
0.000378 0.034001 -0.049585 0.830306 0.554409 -0.0567721
0.035451 -0.062211 -0.041673 0.987799 0.143741 -0.0599337
-0.006045 -0.075249 -0.029215 -0.964593 0.263744 0.000240591
-5.4e-05 0.042268 -0.071675 0.561604 0.81232 0.157282
-0.019471 0.068492 0.064458 -0.745846 -0.538722 0.391781
0.027073 -0.054888 -0.02558 -0.959664 0.270366 -0.0771224
-0.032764 0.080134 0.036822 -0.0188976 -0.787641 -0.615844
-0.005001 -0.038706 0.000945 -0.728129 0.515201 -0.452102
-0.003804 -0.08289 -0.029495 -0.864233 -0.490081 0.113672
0.012296 -0.025567 -0.014204 0.0707556 -0.431813 -0.899183
-0.009243 -0.058941 -0.005797 -0.874154 0.0865461 -0.477874
-0.001761 -0.062475 -0.013489 0.787298 0.400588 -0.468712
-0.009506 0.082663 0.074056 -0.841191 0.362457 -0.401276
-2.2e-05 0.034128 -0.024469 0.540682 0.840079 -0.043931
-0.010772 0.067632 0.070294 -0.169855 -0.364848 0.915443
0.037395 -0.063164 -0.068207 0.828762 0.198684 0.523143
-0.006149 -0.08744 -0.073889 -0.665374 -0.713685 -0.218934
0.025614 -0.071194 0.02031 0.0946817 -0.974281 0.204481
0.034011 -0.068881 -0.044551 0.858964 -0.502684 0.0974165
0.018339 0.053451 0.032177 0.669492 0.711871 -0.21218
0.002029 -0.060698 -0.003846 0.348699 -0.128775 -0.928346
0.031186 0.024809 -0.017509 0.927573 -0.18533 -0.324439
0.031673 0.016215 -0.064483 0.559013 0.819444 0.126559
0.029367 0.007331 -0.058195 -0.284225 -0.940288 0.187283
-0.004476 -0.035982 0.00038 -0.840729 -0.357464 -0.406687
0.025156 0.022198 -0.040596 -0.401262 0.777023 -0.484999
-0.020726 0.068637 0.063118 -0.659841 -0.481064 0.577224
0.031845 -0.066968 -0.074829 -0.0465444 -0.138005 -0.989337
0.00098 -0.08232 -0.069673 0.902499 0.230092 0.36408
0.01321 0.056757 0.058445 0.906482 0.166589 0.387994
0.037986 -0.050025 -0.018048 0.877907 0.339893 -0.337272
0.031464 0.016621 -0.058011 0.476184 0.877726 -0.0533382
0.029898 0.016698 -0.063389 -0.0776927 0.996802 0.0186741
0.035161 -0.062477 -0.044853 0.869777 0.468574 -0.154684
-0.012963 0.082394 0.06696 -0.22536 0.699129 0.678551
0.011211 -0.011765 -0.018454 0.014469 -0.0922004 -0.995635
0.031621 -0.052757 -0.027844 -0.0709574 0.835464 -0.544945
0.023399 0.008446 -0.012608 0.823697 0.0707849 -0.562595
0.005513 -0.040051 -0.002781 -0.129857 -0.187941 -0.973558
-0.00303 -0.089206 -0.052395 -0.745976 -0.610158 0.266883
0.02695 0.0203 -0.075067 -0.528207 0.706449 -0.471091
0.029054 -0.054639 -0.019349 -0.757728 -0.131692 0.639144
0.028306 0.045087 0.008387 0.561086 0.815304 -0.143045
-0.005762 -0.084252 -0.053233 -0.974667 0.114045 0.192402
-0.006441 0.013277 0.012446 -0.994939 0.0109586 0.0998852
-0.030544 0.085582 0.051096 -0.363415 0.691978 0.623776
0.036747 -0.058779 -0.0319 0.96162 0.0218539 -0.273513
-0.004603 0.043503 0.001981 -0.46379 0.852646 -0.240611
-0.004104 0.027841 -0.028629 -0.998831 -0.0146488 0.0460698
0.032314 -0.071859 -0.062029 -0.109516 -0.827802 -0.550227
-0.004333 0.035197 -0.01887 -0.276373 0.938469 -0.207109
-0.034074 0.08405 0.049407 -0.661211 0.248854 0.707723
-0.001564 -0.082086 -0.06367 0.351314 0.931314 0.0960917
-0.001907 -0.072245 0.00291 -0.686641 -0.699405 0.198385
-0.005257 -0.068541 0.001856 -0.632559 -0.693764 0.344326
-0.007973 -0.055008 -0.006671 -0.794098 0.263628 -0.547639
0.027517 0.011488 -0.048383 -0.612211 -0.771585 0.172785
0.002138 0.059677 0.033886 -0.161251 0.818593 -0.551274
0.025045 0.037788 -0.007128 0.663067 0.720967 -0.201368
-0.002982 0.042549 -0.002539 -0.254496 0.877275 -0.406965
0.027749 0.015787 -0.0288 0.513847 -0.836839 0.188841
-0.006008 -0.085028 -0.063372 -0.986755 -0.115978 -0.113418
0.004408 0.024387 -0.017969 0.335647 0.0378359 -0.941228
-0.003712 -0.090768 -0.056661 -0.567987 -0.729007 0.382021
-0.006112 -0.085271 -0.062372 -0.979846 -0.0949729 -0.175732
0.002933 -0.073742 -0.025429 0.978049 0.204132 -0.0418264
0.034901 0.027579 -0.004477 0.96964 0.0649831 -0.235746
-0.011478 -0.048711 0.012459 -0.986745 0.0896045 0.1353
0.001675 0.047374 0.0189 -0.689382 0.717206 -0.101825
-0.004647 0.027562 -0.021257 -0.717037 -0.614105 -0.329745
-0.005447 0.029688 -0.033285 -0.968732 0.0162629 0.247577
0.006378 0.038015 0.054578 -0.550227 -0.619891 0.559451
0.003914 0.00798 -0.016135 -0.760312 0.231197 -0.60702
-7.3e-05 -0.061216 -0.005409 0.555053 0.554367 -0.620155
-0.011108 -0.020685 0.01317 -0.963179 -0.0854297 0.254929
-0.018437 0.072167 0.0394 -0.183665 -0.193762 -0.963703
-0.032679 0.080758 0.050601 -0.805836 -0.372824 0.460033
0.027947 -0.059768 -0.014702 -0.816282 -0.574007 0.0648036
-0.011868 0.067901 0.070502 0.271761 -0.508805 0.816862
0.028889 0.009138 -0.053429 -0.442442 -0.846319 0.296629
0.013165 0.037062 0.054859 0.41601 -0.554611 0.720654
0.002922 -0.07353 0.016653 -0.325299 -0.922236 0.208954
0.021902 -0.061178 -0.001744 -0.235256 -0.7597 -0.606226
0.030549 0.008132 -0.06232 0.0977902 -0.790358 -0.604791
0.030297 -0.069403 -0.063745 -0.587197 -0.566846 -0.577829
0.002105 -0.074264 0.005685 -0.157052 -0.9871 -0.0311215
-0.004728 -0.081663 -0.04956 -0.814811 0.571335 -0.0982826
0.030406 -0.069592 0.021356 0.326834 -0.879115 0.346895
0.009172 0.044201 0.061623 -0.0242357 -0.58679 0.809376
0.008156 0.023488 0.041332 -0.600805 -0.539241 0.59013
-0.003459 -0.007747 -0.012764 -0.719391 0.0599259 -0.692016
0.000816 0.015685 -0.008295 -0.678017 -0.322328 -0.660604
-0.003095 -0.091563 -0.058805 -0.177073 -0.981601 0.0714434
0.028514 -0.038488 -0.006291 -0.175482 -0.523742 -0.833607
-0.006463 -0.030705 -0.001767 -0.770121 -0.467823 -0.433653
0.007819 0.019437 0.038249 -0.519451 -0.368829 0.770802
0.031167 0.007179 -0.058865 0.335735 -0.9226 0.189977
0.00154 -0.082983 -0.074604 0.994311 0.0693698 -0.0808294
0.032407 -0.057847 0.031515 0.45171 -0.408 0.793407
-0.001437 -0.062208 -0.011943 0.814059 0.555056 -0.17094
0.029151 0.021849 -0.018337 0.920373 -0.347354 -0.179608
0.003046 -0.071767 -0.014209 0.914613 -0.365581 0.172725
0.013003 -0.014085 -0.01776 0.164741 -0.19713 -0.966437
0.00281 -0.072645 -0.014822 0.892095 -0.390396 0.227502
-0.00163 -0.06192 -0.012157 0.864824 0.466003 -0.186872
-0.003722 -0.079066 -0.022277 -0.962677 0.218506 0.159715
0.030414 -0.063009 -0.045863 -0.789288 0.566179 -0.237625
-0.024682 0.077397 0.038705 -0.0456785 -0.339324 -0.93956
-0.006658 0.078899 0.069992 0.550679 -0.506303 0.663634
0.002391 0.032032 -0.02862 0.840093 0.538959 0.0613781
0.013556 0.018343 0.03919 -0.00551581 -0.600362 0.799709
-0.00343 0.033049 -0.066268 -0.10215 -0.740696 -0.664029
0.028626 0.022562 -0.041107 0.179604 0.873627 -0.452236
0.033857 -0.063373 -0.052783 0.196823 0.97573 -0.0959729
0.004975 -0.071789 0.023234 -0.124334 -0.870832 0.475598
0.006296 -0.053213 -0.005644 0.189728 0.384348 -0.903482
-0.011586 0.06786 0.07042 0.0719863 -0.471985 0.878663
-0.017595 0.086275 0.044272 0.278094 0.868186 -0.410995
-0.008081 0.082728 0.074293 0.691383 -0.387898 0.609528
0.026864 -0.059454 -0.007837 -0.443253 -0.813344 -0.376827
0.033258 -0.057322 -0.074658 0.0298601 0.250943 -0.967541
0.001865 0.03482 -0.015138 0.281106 0.677167 -0.680018
-0.00289 0.034154 -0.027363 -0.474275 0.862191 -0.178016
-0.002918 0.034562 -0.069958 0.0998804 -0.994455 0.0328969
-0.001294 0.028241 -0.055238 0.318219 -0.940361 -0.120243
0.001894 -0.087264 -0.059715 0.975192 -0.103887 -0.195467
-0.040505 0.084898 0.034973 -0.692549 -0.248372 -0.677264
0.029354 0.017039 -0.059061 -0.067556 0.991414 -0.111958
0.032925 0.018678 0.005464 0.93213 -0.362114 -0.00256981
0.036651 -0.065056 -0.057218 0.770392 0.631535 0.087522
0.029553 -0.039167 -0.006186 -0.196066 -0.438241 -0.877213
-0.007369 0.033242 0.022801 -0.878076 0.165682 0.448924
0.004255 -0.064121 -0.000158 0.18908 -0.568044 -0.800984
0.001984 0.057728 0.031427 -0.567497 0.638124 -0.520331
0.028797 -0.043912 -0.009392 -0.877875 0.401863 -0.260466
0.029127 0.02199 -0.018735 0.894938 -0.412033 -0.171216
0.00857 -0.054759 -0.005306 0.308611 0.0345375 -0.950561
-0.002832 -0.09048 -0.062392 -0.0772808 -0.721647 -0.687934
0.034706 0.015887 -0.06874 0.796833 0.313616 0.516431
-0.019301 0.068112 0.073826 -0.877588 0.453224 -0.156292
-0.008262 -0.066903 -0.001504 -0.649342 -0.753056 -0.106118
-0.003256 0.025404 -0.045538 -0.196589 -0.937301 -0.287783
0.029522 0.01722 -0.030641 0.899007 -0.398576 0.181447
0.006311 -0.068966 -0.000562 0.685697 0.719547 -0.109875
0.036309 -0.059417 -0.071399 0.607619 0.608624 0.510271
0.032351 0.008004 -0.058312 0.580108 -0.768435 0.270152
-0.007532 -0.068204 -0.022649 -0.882603 0.0991339 -0.459547
0.028731 -0.056905 -0.018546 -0.613735 0.598082 0.51539
0.001138 0.025204 -0.037384 0.785574 -0.614462 -0.0728709
0.035045 -0.060188 -0.038955 0.870486 0.452863 -0.192794
0.007043 -0.070341 -0.001576 0.883538 -0.0671912 -0.463516
0.030158 -0.066002 -0.030482 -0.37855 -0.925345 -0.0208855
-0.001729 -0.060589 -0.011364 0.595893 -0.657712 0.460789
0.010737 0.031558 0.050792 -0.0484822 -0.698294 0.714167
-0.024977 0.072054 0.062272 -0.583815 0.177857 0.792166
0.037361 -0.066482 -0.071018 0.843334 -0.523931 -0.119517
0.033504 0.02027 -0.073887 0.661326 0.689391 0.295615
0.038207 -0.036988 0.028164 0.865065 0.2528 0.433307
0.014764 -0.013306 -0.017636 0.162378 -0.156868 -0.97418
-0.005039 -0.043343 -0.001446 -0.271892 0.367559 -0.889368
0.000597 -0.084604 -0.038135 0.708611 -0.698052 0.10293
-0.035983 0.090633 0.037686 -0.0369154 0.794995 0.605492
-0.036265 0.090111 0.03977 0.244291 0.966545 -0.0781823
-0.003122 0.026826 -0.05007 0.030601 -0.961798 -0.272044
0.024527 0.030675 0.032842 0.789312 0.00126027 0.613991
0.027472 0.012539 -0.067638 -0.824987 -0.565127 -0.00529065
0.013452 -0.017699 -0.016761 0.141258 -0.291905 -0.945959
0.033971 0.010158 -0.060189 0.929828 -0.306444 -0.203747
0.002558 -0.068971 -0.016613 0.810853 0.538867 0.228341
0.004466 -0.07452 0.009624 0.0893471 -0.995673 -0.0255269
0.034672 -0.068505 -0.07047 0.19168 -0.979317 0.0647792
-0.034282 0.085176 0.032851 0.295895 0.0829604 -0.951611
0.029726 0.037535 -0.003392 0.672119 0.699199 -0.243675
-0.004385 0.08077 0.066004 0.810102 0.561584 -0.168397
-0.005925 -0.06899 7e-05 -0.738989 -0.494166 0.457925
0.002788 -0.071809 -0.012906 0.799686 -0.57789 0.162927
-0.01471 0.070381 0.073392 0.620136 0.220827 0.752772
-0.008589 0.083666 0.068463 -0.886937 0.39497 0.239461
-0.029398 0.086296 0.050623 -0.141012 0.891687 0.430128
-0.004687 0.03477 -0.075592 -0.172096 -0.954133 -0.244976
0.020078 0.029828 -0.016356 -0.131177 0.43379 -0.891414
0.00278 -0.071598 -0.012056 0.723836 -0.674147 0.146923
0.02961 -0.067273 0.003793 -0.186278 -0.843248 -0.504216
-0.002517 0.026045 -0.047537 0.190918 -0.919456 -0.343732
0.031825 0.008519 -0.056228 0.579345 -0.721762 0.378708
0.036929 -0.061682 -0.068608 0.743042 0.553611 0.376036
-0.00246 0.035131 -0.045716 -0.191638 0.981455 0.0046171
-0.033404 0.090911 0.040615 -0.375989 0.901448 -0.214532
-0.003522 -0.08775 -0.066775 -0.0660375 -0.994546 -0.0807247
0.025224 -0.04828 -0.00398 -0.102283 0.1195 -0.987551
0.029012 0.013995 -0.037756 0.659445 -0.739547 0.134916
0.000606 0.036317 -0.074894 0.75628 -0.607958 -0.241719
-0.010994 0.084945 0.061623 0.350688 0.900078 0.258607
-0.002997 -0.087729 -0.075605 0.119789 -0.368815 -0.921752
0.03245 -0.064997 -0.023531 0.641188 -0.639137 0.424714
0.032041 0.011406 -0.075152 0.499025 -0.63942 -0.584906
0.026761 0.015277 -0.060426 -0.79902 0.592002 -0.105362
-0.004671 -0.088241 -0.073762 -0.253039 -0.94294 -0.216416
0.036466 -0.066168 -0.066106 0.950969 -0.270837 0.149348
-0.028056 0.074887 0.057481 -0.861487 0.0106522 0.507668
0.003464 0.059238 0.069442 0.489687 0.0195269 0.871679
-0.011815 0.071015 0.038604 -0.106614 -0.0861715 -0.990559
0.033669 -0.062951 -0.050361 0.170231 0.952585 -0.252196
