-0.171025 0.041716 0.280236 
-0.052110 -0.018856 -0.092264 
0.056643 0.194711 -0.347094 
-0.164797 -0.084901 0.234599 
-0.160326 0.168197 -0.345711 
-0.069898 -0.214068 -0.385221 
-0.193367 0.143337 0.444079 
-0.185819 -0.037529 -0.038411 
0.236461 0.172190 -0.378647 
0.118144 0.165568 -0.039786 
0.119050 -0.108566 -0.092251 
-0.113519 0.203685 -0.092251 
-0.056338 0.125619 -0.039761 
-0.206347 0.010560 0.179306 
-0.154126 0.064266 0.156306 
-0.187783 0.018736 0.403187 
0.172944 -0.196307 -0.347093 
-0.178369 0.132956 0.236011 
0.169194 0.178390 -0.367047 
-0.017544 -0.208847 -0.092252 
-0.240327 0.117278 0.426311 
0.226105 0.173735 -0.458027 
-0.073401 -0.115608 -0.039730 
-0.160967 -0.153155 0.108397 
-0.003591 -0.154121 -0.092252 
-0.141916 -0.035257 -0.037631 
-0.099324 0.178389 -0.366619 
0.001867 -0.223761 -0.053147 
-0.143184 -0.170360 -0.131522 
-0.172560 0.135385 -0.398063 
0.239146 0.181845 -0.465162 
-0.178759 0.168196 -0.446090 
0.133833 0.162112 -0.092251 
0.178396 0.028782 -0.092251 
-0.141750 0.171655 -0.245142 
-0.193368 0.219769 -0.344460 
-0.174548 0.128374 0.207992 
-0.054155 -0.199004 -0.347093 
0.044087 -0.057050 -0.038468 
0.220574 0.168349 -0.141072 
-0.202756 -0.220822 0.094081 
0.256394 0.129198 -0.064990 
0.190698 0.166176 -0.092251 
0.053276 -0.137398 -0.039568 
-0.184998 0.141638 -0.374560 
-0.004979 -0.178387 -0.366079 
-0.174572 -0.224262 0.073397 
-0.167699 -0.041007 -0.398063 
0.127343 0.214068 -0.386527 
0.027830 -0.206134 -0.040956 
-0.240523 0.151549 0.444971 
-0.174365 0.145374 0.206642 
-0.150395 -0.224262 -0.072918 
-0.111053 0.081133 -0.092254 
-0.195797 -0.178165 0.461880 
-0.218724 0.168162 0.354060 
-0.208583 -0.058598 0.457578 
0.218204 -0.173851 -0.198604 
-0.195193 -0.085677 -0.056616 
-0.230700 0.167514 0.446354 
0.252479 0.120271 -0.048841 
-0.183965 -0.225059 0.330843 
0.236975 -0.224262 -0.068068 
0.203914 -0.201065 -0.329317 
0.208252 -0.179410 -0.266333 
0.066152 -0.130853 -0.092252 
0.007580 -0.224263 -0.073649 
-0.131210 -0.178935 -0.348428 
0.093291 0.099571 -0.038394 
-0.236280 0.029569 0.395825 
0.114012 0.070144 -0.038108 
0.216973 -0.174136 -0.468323 
-0.190283 0.222319 -0.496642 
-0.183219 0.152416 0.271582 
-0.193394 -0.224220 0.075954 
-0.135675 -0.078212 -0.038423 
-0.238405 -0.022137 0.412216 
-0.151008 -0.173938 -0.500117 
-0.236439 -0.168196 0.483911 
-0.164375 -0.120651 0.231470 
0.253330 -0.182910 -0.070166 
-0.175078 -0.086862 0.211469 
-0.139127 -0.196730 -0.421580 
0.233188 0.211149 -0.419140 
-0.156799 -0.016384 0.175905 
0.029531 0.159697 -0.092251 
-0.148110 0.213337 0.112570 
0.247396 0.187997 -0.388499 
-0.164377 -0.047568 0.231484 
-0.204286 0.063137 0.162010 
-0.197755 -0.138726 -0.072447 
0.201597 -0.182546 -0.039841 
-0.063674 -0.178934 -0.092251 
-0.158436 -0.224262 -0.157279 
0.140659 -0.207033 -0.092251 
-0.195064 0.177417 -0.321911 
-0.166809 -0.150662 -0.347094 
-0.228391 -0.200375 0.500105 
0.202940 0.198426 -0.214502 
-0.179041 0.030306 -0.037282 
-0.187503 0.128767 0.401070 
0.169239 0.210495 -0.398063 
-0.199516 0.168196 0.348918 
-0.237027 -0.122143 0.402099 
-0.180009 -0.168196 -0.193269 
-0.174549 -0.214174 -0.500099 
-0.180578 0.168196 0.031423 
0.202321 -0.193952 -0.306183 
-0.194165 -0.175300 -0.497137 
-0.055371 0.003111 -0.092252 
0.061927 -0.208716 -0.092365 
0.179435 -0.214070 -0.389406 
-0.198250 0.135536 -0.077212 
0.253331 -0.060994 -0.057307 
0.237253 -0.194020 -0.500104 
-0.183102 -0.161777 -0.040458 
-0.194570 -0.175086 -0.335747 
0.096386 -0.224262 -0.056946 
0.247868 -0.217850 -0.138175 
-0.240276 0.152575 0.425932 
0.233599 -0.172918 -0.347330 
-0.120102 0.188297 -0.092252 
-0.012939 -0.214068 -0.385691 
-0.187172 -0.173735 0.398648 
-0.176522 0.224262 -0.339166 
-0.115239 -0.224247 -0.056471 
-0.150155 -0.220809 0.113426 
-0.191757 -0.227334 0.211555 
0.202619 0.191255 -0.199535 
-0.203986 -0.168196 0.231770 
0.070142 -0.147455 -0.092252 
0.013206 -0.160755 -0.092252 
0.202163 -0.133665 -0.092370 
0.212624 -0.211363 -0.232634 
-0.181782 -0.004450 0.261042 
-0.194290 -0.174263 -0.404927 
-0.174374 -0.149847 0.132192 
-0.184999 0.038182 -0.394804 
-0.139127 0.193648 -0.141794 
0.172395 -0.178353 -0.387721 
0.220733 0.056167 -0.092251 
-0.159470 0.168196 -0.109472 
-0.139190 -0.177909 -0.418533 
-0.195193 0.188837 -0.087527 
-0.186299 -0.224101 -0.173388 
-0.193646 0.075114 0.446123 
-0.229283 -0.176478 0.271738 
0.040290 0.104296 -0.039075 
0.202015 -0.214068 -0.377441 
-0.217198 -0.168196 0.332247 
0.253331 0.025167 -0.074683 
-0.156821 -0.164161 0.176096 
-0.187818 -0.111150 0.403382 
0.241598 0.201072 -0.286546 
-0.056673 -0.025231 -0.038451 
0.237111 0.179220 -0.168657 
-0.158859 -0.224262 -0.316897 
0.170785 -0.192848 -0.398063 
-0.176652 -0.038622 0.223421 
0.204984 0.224262 -0.064953 
-0.176806 -0.120523 0.183294 
-0.195896 0.104007 0.462621 
-0.184999 -0.048361 -0.363762 
0.106099 0.214068 -0.386534 
-0.147870 -0.114646 0.110434 
-0.241153 -0.038630 0.444756 
-0.237285 -0.172091 0.345488 
-0.144900 -0.222317 -0.017957 
-0.171940 -0.022110 0.286949 
0.084492 0.111036 -0.092389 
0.240159 0.204229 -0.249078 
-0.188296 -0.090524 0.406894 
-0.138940 -0.201896 -0.347094 
-0.202764 -0.211428 0.070825 
-0.214787 -0.168196 0.312851 
-0.189555 0.005762 0.416127 
-0.172700 -0.099832 0.194437 
-0.138002 -0.196808 -0.092252 
-0.150064 -0.109781 0.126522 
-0.065503 -0.135523 -0.040120 
0.250142 -0.145860 -0.044766 
0.115986 0.144281 -0.092252 
-0.220453 -0.227334 0.296538 
-0.256011 0.209454 0.465881 
-0.173410 -0.168196 -0.169507 
-0.152697 0.224262 -0.437806 
-0.204525 0.077821 0.179661 
-0.184999 -0.001010 -0.385469 
0.197815 0.001423 -0.036539 
-0.214833 0.196016 0.163908 
-0.144901 -0.169286 -0.348244 
-0.154072 -0.223890 0.071291 
-0.147129 -0.169971 0.023435 
0.053918 0.224263 -0.075018 
0.253331 -0.018932 -0.065469 
-0.136390 0.129879 -0.040160 
-0.196493 -0.179668 -0.015112 
-0.168164 0.075814 0.133030 
-0.195510 0.123290 0.361708 
-0.162583 -0.168196 -0.246306 
-0.054995 0.208059 -0.041113 
-0.175922 0.168196 -0.325864 
-0.085329 -0.214068 -0.364634 
-0.195255 0.196216 -0.271103 
0.228370 -0.213070 -0.496045 
-0.006821 -0.192093 -0.347095 
-0.193560 0.001483 0.445494 
-0.103121 -0.001958 -0.092252 
-0.240886 0.168196 0.465181 
-0.178432 0.224262 -0.048971 
-0.154393 0.162598 0.158256 
-0.066038 -0.224262 -0.073856 
-0.197420 -0.168196 0.114764 
0.241554 0.186250 -0.338993 
0.193995 -0.165403 -0.039322 
-0.236690 -0.006462 0.399640 
-0.007536 -0.178389 -0.394687 
-0.161347 -0.082134 -0.092251 
0.159257 -0.204065 -0.092252 
-0.119186 0.006520 -0.092251 
0.213316 0.170080 -0.367322 
-0.195781 -0.118085 0.363702 
0.154165 -0.187812 -0.092251 
-0.185916 0.141860 0.389435 
-0.058108 -0.072333 -0.092252 
0.133699 0.058926 -0.092388 
-0.096378 -0.178390 -0.353259 
0.062706 -0.049772 -0.038280 
-0.149191 -0.036746 -0.376105 
-0.140343 -0.218803 -0.174861 
-0.176180 0.166266 0.318040 
-0.162260 0.136186 0.215957 
-0.076882 -0.168860 -0.092251 
-0.226019 0.227321 0.459125 
-0.156784 0.168196 0.015333 
-0.198246 0.186324 -0.071244 
0.198311 -0.199645 -0.139974 
0.192737 -0.134277 -0.038452 
-0.170276 0.224264 -0.032238 
0.202874 -0.197568 -0.459413 
-0.165331 0.224264 0.095435 
-0.158207 -0.209445 0.186242 
0.009178 -0.141850 -0.092251 
0.235864 -0.209324 -0.314204 
0.214990 -0.212345 -0.426677 
0.193680 0.109534 -0.092251 
0.181851 -0.072753 -0.037284 
-0.151089 0.150247 0.134102 
-0.191744 0.012785 0.432166 
-0.035349 -0.132366 -0.092251 
-0.167572 0.016678 -0.092376 
0.230379 0.174926 -0.152755 
-0.240375 0.094027 0.426657 
-0.256252 -0.188180 0.467650 
0.241044 0.202396 -0.229896 
-0.120065 -0.084501 -0.038821 
0.256389 -0.002637 -0.077133 
-0.176923 -0.009065 0.323494 
-0.176116 0.223108 0.290720 
-0.178804 0.168196 0.111747 
0.168867 -0.124598 -0.038399 
0.167717 0.194278 -0.092252 
0.237511 -0.214313 -0.364961 
-0.139127 0.183239 -0.094867 
0.248239 0.197404 -0.134111 
-0.088699 -0.214068 -0.383797 
-0.180909 0.029944 -0.092251 
0.198312 0.200552 -0.114246 
-0.160212 0.227142 0.113018 
0.086333 -0.086369 -0.038488 
-0.115326 -0.211189 -0.398041 
-0.184293 -0.172067 0.377526 
-0.196184 -0.113430 0.464736 
-0.204045 -0.094671 0.160242 
-0.040469 0.072359 -0.039112 
-0.254210 -0.201426 0.452677 
0.118112 0.178390 -0.369760 
-0.198618 -0.171442 0.052994 
-0.172458 -0.074474 0.290748 
-0.048566 0.224258 -0.077446 
-0.111064 -0.194399 -0.347094 
-0.162532 -0.168196 -0.121792 
0.234028 -0.210544 -0.199948 
-0.214735 -0.168195 0.350956 
-0.200167 0.168196 0.241322 
-0.092339 -0.160040 -0.092376 
-0.152527 0.171498 0.099986 
-0.190182 -0.152596 0.322637 
-0.065160 0.141897 -0.040233 
-0.149313 -0.003641 -0.363452 
0.134524 -0.214067 -0.387202 
0.079154 -0.178389 -0.359384 
-0.184349 -0.069734 0.279866 
-0.190365 -0.056296 0.423004 
0.004181 -0.020473 -0.038447 
-0.044128 0.214099 -0.387465 
0.217264 -0.213298 -0.209035 
0.014706 0.077256 -0.092251 
-0.182182 0.063256 0.131135 
0.253331 -0.039961 -0.063966 
-0.213598 0.227320 0.388326 
-0.153715 0.026091 -0.092252 
-0.199075 -0.168197 0.331596 
0.189364 0.043914 -0.092252 
-0.178416 -0.224262 -0.232728 
-0.188382 0.146494 0.407510 
-0.158452 -0.168201 -0.430287 
-0.201782 -0.097328 0.398684 
-0.072575 -0.080801 -0.092252 
-0.185123 0.101168 -0.039599 
-0.135801 0.207220 -0.038846 
-0.219043 0.169275 0.237633 
-0.157336 -0.193820 0.179850 
0.212929 0.211521 -0.206741 
-0.206515 0.058475 0.179285 
-0.184999 0.156026 -0.360389 
-0.177436 0.061640 -0.038136 
-0.155001 0.224265 -0.468053 
-0.163401 -0.224262 -0.023148 
-0.148665 0.015397 -0.037348 
-0.192528 -0.193450 0.437923 
-0.104302 -0.172981 -0.092251 
-0.162088 -0.072285 0.214721 
0.236217 -0.208827 -0.336370 
0.108960 -0.098004 -0.038308 
-0.188115 -0.059321 0.181769 
0.038548 0.148835 -0.039857 
0.214178 -0.224262 -0.086370 
-0.072892 -0.134218 -0.092252 
-0.143497 -0.160001 -0.092251 
-0.206593 0.098522 0.178930 
-0.179419 -0.132857 0.131510 
-0.140255 -0.173867 -0.365246 
-0.147943 0.064662 0.110969 
0.247120 0.215196 -0.142491 
-0.154063 0.096148 0.155851 
-0.169367 -0.021177 0.268079 
-0.195193 -0.194368 -0.084444 
0.243003 -0.191801 -0.199677 
-0.107582 -0.214068 -0.381528 
-0.176883 0.121839 0.183284 
-0.197683 0.217446 0.006739 
0.234003 -0.210554 -0.233516 
0.148261 0.198957 -0.092251 
0.096414 -0.214025 -0.349382 
-0.139128 -0.211266 -0.156027 
0.209683 -0.195410 -0.500114 
-0.191152 -0.168196 0.304692 
-0.175866 0.192758 0.315740 
-0.013685 -0.011357 -0.038458 
-0.178668 -0.224262 -0.057430 
-0.147850 -0.072201 0.110281 
0.000993 0.076802 -0.039040 
-0.152361 -0.141039 0.143363 
-0.183473 -0.110513 0.130963 
-0.179418 0.230430 0.144801 
-0.237080 0.107196 0.402231 
-0.167026 0.113572 0.251912 
0.014503 0.194751 -0.347094 
-0.180026 -0.204797 0.346240 
-0.165554 0.168195 0.041276 
0.009577 -0.195271 -0.347095 
0.134001 0.115466 -0.038428 
-0.194474 0.168196 0.225118 
0.209593 0.178286 -0.333001 
0.187785 0.224262 -0.068264 
0.100318 0.210207 -0.092251 
-0.152200 -0.215503 -0.500116 
-0.198087 -0.119209 0.380613 
-0.181679 -0.224262 0.004393 
-0.194866 -0.175905 -0.123913 
-0.133990 -0.098553 -0.039180 
-0.168905 -0.083875 0.264687 
-0.202135 0.137824 0.146238 
-0.105010 -0.214068 -0.365014 
0.157414 -0.081637 -0.037717 
-0.174847 0.168196 -0.177549 
0.253331 0.183007 -0.065292 
-0.150455 0.191207 0.106289 
-0.217021 -0.170413 0.209470 
-0.182389 0.163848 0.131109 
-0.117445 0.209637 -0.398112 
-0.204874 0.176088 0.092189 
0.071980 0.003347 -0.092252 
-0.137533 -0.212646 -0.037344 
0.242795 -0.191012 -0.335893 
0.188214 0.214068 -0.382218 
-0.150745 0.133652 -0.347585 
-0.181140 0.167128 -0.035127 
-0.198346 0.033656 0.382493 
0.218760 -0.213554 -0.334701 
0.256389 -0.059984 -0.074710 
-0.139127 0.192697 -0.417261 
-0.246254 0.193501 0.394325 
0.185504 -0.182929 -0.398063 
-0.195192 0.095820 -0.058658 
0.061019 0.211946 -0.347250 
-0.168445 -0.065520 0.261314 
-0.038598 0.214097 -0.042002 
-0.185000 -0.092313 -0.374787 
0.208728 0.210999 -0.398063 
0.237310 0.168184 -0.130347 
0.074843 -0.224154 -0.055555 
-0.194127 0.174018 -0.300665 
-0.156464 0.091841 0.173458 
-0.159276 -0.224261 -0.422579 
-0.172161 0.056868 0.288566 
-0.021344 -0.214068 -0.366917 
-0.203190 0.168196 0.210220 
-0.174769 0.086770 0.183570 
-0.232734 -0.178936 0.500016 
-0.150986 0.020020 -0.347448 
0.251947 -0.224262 -0.077705 
-0.178919 -0.076732 0.240040 
0.102666 -0.082079 -0.038266 
0.019355 0.110337 -0.039307 
0.101033 -0.227357 -0.079031 
-0.139127 0.200710 -0.158003 
0.240716 -0.203096 -0.183791 
0.202509 0.194861 -0.331127 
-0.181383 -0.096140 -0.398064 
-0.061328 0.109465 -0.039607 
-0.015334 0.178390 -0.384673 
-0.143809 0.169880 -0.471184 
-0.057968 -0.224205 -0.056102 
-0.170468 -0.224255 -0.209075 
0.252183 0.189540 -0.049898 
0.078480 0.069840 -0.092306 
-0.189177 0.201946 -0.500123 
-0.010945 -0.195028 -0.398063 
-0.193995 0.159915 0.448684 
0.216190 -0.169280 -0.365654 
-0.181749 -0.168196 -0.445625 
-0.195193 0.074520 -0.066660 
-0.193535 -0.175948 0.445313 
-0.135891 -0.051175 -0.037937 
-0.237069 0.202268 0.326976 
-0.148072 0.029998 0.110044 
-0.196070 0.060371 0.365823 
0.174833 0.094686 -0.092251 
-0.176883 -0.168196 -0.326114 
0.218179 -0.173846 -0.285302 
-0.215273 0.228697 0.445090 
-0.178822 -0.168196 -0.344083 
-0.198251 -0.061927 -0.068411 
0.211435 -0.210500 -0.317374 
-0.157083 -0.168196 -0.284290 
-0.094856 -0.175848 -0.040911 
-0.140542 -0.175652 -0.019759 
-0.093943 -0.178293 -0.372209 
-0.103956 -0.195686 -0.092252 
-0.066700 0.222648 -0.050007 
0.085417 -0.227328 -0.072514 
0.233204 0.211136 -0.402346 
-0.184923 0.224261 0.056023 
0.128100 -0.207952 -0.040838 
-0.196135 -0.201855 -0.021362 
0.173490 0.176104 -0.039762 
-0.213769 0.172181 0.172532 
-0.168448 0.018221 0.132991 
-0.195193 0.212966 -0.272743 
-0.155080 -0.168196 -0.318576 
-0.164646 0.224262 -0.482976 
0.214747 0.169683 -0.384688 
-0.155339 0.116036 0.165205 
0.196348 0.200990 -0.092251 
-0.180678 0.137504 0.252938 
0.187195 0.224262 -0.086521 
-0.222532 -0.227334 0.347290 
0.255140 0.060631 -0.064308 
-0.191759 -0.010597 0.432280 
0.023726 -0.133277 -0.092252 
0.190927 -0.201425 -0.398063 
0.151128 -0.170722 -0.092251 
-0.148561 -0.138265 0.115503 
-0.157042 -0.149784 -0.092251 
-0.173508 0.079780 -0.092252 
0.205607 -0.204543 -0.441314 
-0.153056 0.168196 -0.328427 
-0.187809 -0.016872 0.403384 
-0.153311 0.044716 0.150330 
0.092897 0.161439 -0.039830 
-0.223044 -0.115419 0.395785 
0.095641 -0.113176 -0.092372 
0.221901 0.173405 -0.484484 
-0.221257 0.039006 0.396029 
-0.190760 -0.168929 0.424983 
-0.182892 0.058653 0.269184 
-0.137894 -0.115364 -0.039651 
-0.154466 0.145598 0.159274 
0.003776 0.178390 -0.364653 
-0.223254 0.227322 0.365138 
-0.188925 0.227320 0.218874 
-0.112481 0.220995 -0.092253 
-0.148812 -0.211248 0.092309 
0.104401 0.191486 -0.092251 
0.215870 -0.212750 -0.250956 
-0.159017 -0.224262 -0.443015 
-0.190233 0.097400 0.181482 
0.199437 -0.068372 -0.037010 
0.236953 0.208263 -0.205762 
0.242741 0.189845 -0.217599 
0.042591 -0.184042 -0.040308 
0.111130 -0.124583 -0.092251 
-0.195193 0.213172 -0.289346 
-0.174074 0.048393 0.204541 
-0.182691 -0.006360 0.131069 
-0.163104 0.202309 0.222144 
0.244756 -0.206099 -0.351563 
0.231802 -0.204991 -0.040553 
0.100123 0.085680 -0.092252 
-0.195251 -0.196757 -0.280364 
-0.141554 0.220547 -0.122640 
0.077698 0.050088 -0.092251 
-0.193604 0.217868 0.441340 
-0.195925 0.025725 0.364761 
0.202489 -0.194877 -0.279680 
0.056083 0.174115 -0.040265 
-0.149321 0.009609 -0.374353 
-0.246703 -0.210216 0.397621 
-0.157371 0.202528 0.180109 
-0.171614 -0.093662 0.132564 
-0.216382 -0.224390 0.250719 
-0.044786 0.178390 -0.380958 
-0.192987 0.104177 0.441321 
-0.095388 0.178390 -0.392176 
0.221963 -0.214001 -0.304590 
0.252755 0.063612 -0.047845 
0.045241 0.193310 -0.092251 
-0.236271 0.126267 0.396565 
-0.185000 0.051547 -0.384184 
-0.147023 0.169224 -0.000698 
-0.195960 0.214749 0.462426 
0.217313 -0.167048 -0.092251 
-0.012682 0.201902 -0.092360 
0.066345 -0.214067 -0.385026 
-0.177459 0.168197 -0.236310 
-0.178004 0.224262 -0.440752 
0.248234 -0.201319 -0.114427 
-0.023505 -0.178545 -0.349193 
-0.237696 -0.221176 0.353105 
-0.088385 -0.010482 -0.092254 
-0.207716 0.159693 0.397875 
0.109674 0.214070 -0.362052 
-0.185877 0.046210 0.291063 
0.129120 -0.214068 -0.363808 
-0.172290 -0.000618 -0.092251 
-0.160772 0.128976 0.108312 
-0.163771 -0.224261 -0.335095 
0.235983 0.209024 -0.271328 
-0.189894 0.008515 0.181527 
-0.161565 -0.224264 -0.277245 
-0.206401 0.227321 0.211393 
-0.232135 -0.168196 0.467811 
-0.218084 -0.184218 0.187750 
-0.218187 -0.168197 0.285577 
-0.183901 0.133199 0.276578 
-0.150148 -0.224264 -0.264461 
-0.195193 -0.191834 -0.403661 
0.210075 -0.171819 -0.388474 
-0.149618 -0.157040 0.123249 
-0.118149 -0.214014 -0.349727 
-0.147950 0.013001 0.111017 
-0.156611 0.138182 0.174575 
-0.174645 -0.029262 0.208700 
-0.194373 -0.173623 -0.034140 
-0.170413 -0.139181 0.275744 
0.021338 -0.193550 -0.092374 
0.230014 -0.212595 -0.419246 
0.070582 0.209447 -0.398063 
-0.142917 0.221937 -0.452105 
-0.047803 0.032867 -0.038716 
0.110816 0.021108 -0.092251 
0.034671 -0.073157 -0.038691 
-0.171242 0.159999 0.281828 
0.197734 -0.113738 -0.037942 
-0.173708 -0.168196 0.060946 
0.025906 -0.214068 -0.379854 
-0.099024 0.196038 -0.347093 
-0.219296 0.024292 0.447737 
0.097934 0.053455 -0.038128 
0.038884 -0.040355 -0.038408 
-0.156848 0.001163 0.176293 
-0.149322 0.053312 -0.386477 
-0.168935 -0.017086 0.132926 
0.212680 0.175967 -0.178676 
-0.090965 0.116130 -0.092250 
0.224615 0.168393 -0.352455 
-0.173920 -0.190146 0.301469 
0.201950 0.219165 -0.119803 
0.116504 0.193736 -0.040555 
-0.180028 -0.224262 -0.193144 
0.127884 0.206537 -0.040805 
-0.165408 0.166206 0.133402 
-0.175515 -0.115993 0.215081 
0.202616 0.196748 -0.483502 
0.006795 -0.016285 -0.092255 
-0.195192 0.118367 -0.066220 
-0.196984 0.175732 -0.008182 
-0.145165 0.169172 -0.385123 
-0.182108 -0.179058 0.361512 
-0.199800 -0.139600 0.129100 
0.095249 0.117318 -0.038890 
0.169594 -0.191422 -0.040266 
-0.163345 -0.028338 0.223912 
0.055605 -0.000062 -0.092252 
-0.240972 0.019997 0.444780 
-0.170053 0.141704 0.273024 
-0.106111 -0.227351 -0.071452 
0.060071 -0.195567 -0.040720 
-0.036639 0.014402 -0.092251 
-0.173077 0.058749 0.183798 
-0.187701 0.080372 0.402548 
-0.030874 0.178387 -0.370576 
0.117248 0.053021 -0.037910 
0.187049 -0.185569 -0.347019 
-0.146938 0.168509 -0.120385 
-0.161797 -0.224725 0.171499 
-0.184999 -0.002593 -0.368920 
0.225358 -0.219165 -0.098494 
0.173780 -0.133264 -0.092251 
0.207341 -0.113593 -0.092251 
0.007822 0.224262 -0.064857 
0.155197 -0.013130 -0.037086 
-0.176082 0.160033 -0.346931 
-0.206630 0.148179 0.179198 
-0.238867 -0.063942 0.415219 
-0.043208 0.115675 -0.092251 
-0.079876 -0.038587 -0.038443 
0.221085 0.213922 -0.264098 
-0.170355 0.224262 -0.422437 
-0.164972 -0.169688 0.235850 
-0.202229 -0.076534 0.146922 
-0.173575 -0.067130 0.183732 
-0.256357 0.189389 0.468746 
-0.184999 -0.053564 -0.379922 
-0.159024 0.168196 -0.238136 
0.218727 -0.173784 -0.302505 
-0.193550 0.168161 0.322635 
-0.195558 0.168196 0.298909 
-0.149780 -0.223622 0.027462 
-0.188208 0.013499 -0.092352 
-0.156554 -0.039200 0.174113 
0.223943 -0.168196 -0.110591 
-0.204034 0.227320 0.231942 
-0.177636 -0.094898 0.230228 
0.106735 -0.143477 -0.039346 
0.125805 0.222339 -0.049128 
-0.195902 0.184367 0.462666 
0.083934 0.195786 -0.347095 
-0.239840 -0.038647 0.422341 
-0.156842 0.131630 -0.040093 
0.163383 -0.023543 -0.092252 
0.235802 -0.209143 -0.481469 
-0.188535 0.031835 0.310562 
0.256112 0.136866 -0.080587 
-0.154848 0.224261 -0.337382 
0.253331 -0.170829 -0.082875 
0.167812 0.178390 -0.388300 
-0.150419 -0.213524 0.129115 
-0.021873 0.074335 -0.039102 
0.229306 -0.212843 -0.435835 
-0.171051 0.225203 -0.065451 
0.024679 0.227351 -0.069271 
-0.139127 -0.194019 -0.235628 
0.019061 -0.066831 -0.038489 
-0.178708 -0.168196 0.186593 
-0.185135 0.065182 -0.363899 
-0.146421 -0.175510 0.066024 
-0.177088 -0.168196 0.109263 
-0.034577 -0.203024 -0.092251 
0.182220 0.193538 -0.040315 
-0.167551 0.131156 -0.347094 
-0.202391 0.077823 0.148114 
-0.025746 -0.161007 -0.092264 
-0.185133 -0.153922 -0.352393 
-0.162841 -0.098783 0.220249 
0.116006 0.118223 -0.038723 
-0.161807 -0.224263 0.014422 
-0.195193 -0.194963 -0.446681 
0.202936 -0.189326 -0.476725 
0.213842 0.079894 -0.037239 
-0.080600 -0.065363 -0.092252 
-0.153307 -0.048753 -0.037627 
0.024729 -0.049865 -0.038557 
-0.212560 0.187441 0.147235 
0.030533 -0.171971 -0.040328 
-0.226390 0.200587 0.500085 
-0.178841 -0.168196 0.091123 
-0.057748 -0.048680 -0.038656 
-0.081144 0.090634 -0.039304 
0.246618 0.218791 -0.110447 
-0.116746 -0.119083 -0.039845 
-0.035493 0.170769 -0.040558 
-0.146303 0.168701 -0.452904 
0.208867 0.196391 -0.500092 
-0.198218 0.005962 -0.081020 
-0.184270 0.156209 0.377360 
-0.209021 -0.061317 0.474858 
0.206742 0.181138 -0.151836 
-0.184077 0.016936 0.375953 
-0.027007 0.191019 -0.092251 
-0.139127 0.209905 -0.470266 
0.190473 -0.211930 -0.347249 
0.062349 0.202976 -0.092251 
-0.154592 0.030931 0.159730 
-0.018045 0.148924 -0.040136 
0.143965 0.214068 -0.364340 
-0.184999 -0.109028 -0.380696 
-0.187238 -0.069600 0.300224 
-0.139127 0.198321 -0.213159 
-0.161263 0.074671 0.110573 
0.233779 0.210742 -0.155018 
-0.012063 -0.125219 -0.039548 
-0.178057 0.031676 0.233727 
0.037458 0.224262 -0.085005 
-0.156564 0.173648 0.174189 
-0.221074 -0.220526 0.227520 
-0.119804 0.213849 -0.042028 
-0.230392 0.175306 0.281942 
-0.168209 -0.220620 0.246695 
-0.029287 0.213038 -0.398063 
0.233433 0.210965 -0.437293 
-0.201190 -0.190778 0.057307 
0.203460 -0.187417 -0.162714 
-0.195789 -0.045175 0.362937 
-0.131595 0.178389 -0.380901 
-0.165738 0.171736 0.241461 
-0.218637 -0.099295 0.396381 
0.032100 0.089082 -0.038979 
-0.007142 -0.222848 -0.092251 
-0.080432 -0.019377 -0.038258 
-0.095870 0.224262 -0.091403 
-0.208520 -0.121364 0.456320 
-0.221457 0.136448 0.395987 
0.081392 -0.189552 -0.040513 
-0.215662 -0.184989 0.169985 
-0.139127 -0.211199 -0.193098 
0.067416 -0.128276 -0.039306 
0.150859 -0.128949 -0.038668 
-0.040222 -0.151225 -0.092306 
-0.193265 0.019117 -0.044787 
-0.182072 0.173501 0.361304 
0.184328 -0.182175 -0.039892 
-0.242716 -0.021546 0.443830 
0.038021 0.165681 -0.040178 
-0.070656 -0.180290 -0.397812 
-0.179265 0.046282 0.131529 
-0.170640 -0.058977 0.277405 
-0.209464 0.074444 0.464039 
0.203394 -0.214074 -0.394551 
-0.180006 -0.168601 0.346092 
0.037695 0.192884 -0.040660 
-0.032719 -0.192891 -0.347092 
0.210415 0.209773 -0.248941 
-0.176513 -0.084101 0.183334 
-0.195193 0.185101 -0.467264 
-0.143297 -0.179252 0.037365 
-0.054245 0.165253 -0.092252 
-0.119834 0.183110 -0.398063 
-0.176610 -0.161872 0.223109 
-0.138367 0.017059 -0.092251 
-0.195507 -0.156532 0.459769 
-0.166851 0.166429 -0.398063 
0.086581 -0.157421 -0.092251 
-0.142628 0.170786 -0.207700 
-0.178104 -0.019910 0.234070 
-0.246921 -0.191405 0.399230 
0.187541 0.178390 -0.364258 
0.237078 -0.179196 -0.324032 
0.157485 0.194864 -0.398062 
0.229056 0.174409 -0.336221 
-0.241944 -0.174450 0.369274 
-0.195193 -0.107251 -0.088754 
-0.204347 -0.227335 0.191606 
0.183471 -0.017614 -0.092251 
-0.199978 0.076307 0.130411 
0.021855 -0.033415 -0.038467 
0.235096 0.209703 -0.299575 
-0.152339 0.029438 0.143207 
0.047910 0.213092 -0.092252 
-0.155522 0.050978 0.166545 
-0.203906 0.203618 0.485215 
-0.025766 -0.138547 -0.039998 
-0.192420 0.175858 0.437150 
-0.034179 0.095849 -0.092251 
-0.100533 0.035403 -0.038411 
0.063497 -0.052377 -0.092387 
-0.242575 -0.132143 0.444564 
-0.177185 -0.117795 -0.398062 
0.233536 0.134119 -0.038951 
-0.149321 -0.104898 -0.386254 
0.074313 0.181917 -0.346976 
0.078490 0.080866 -0.038385 
-0.184999 0.123498 -0.390339 
-0.150163 -0.224254 -0.192679 
-0.211450 -0.168196 0.455898 
-0.149321 -0.018797 -0.386573 
-0.139127 -0.188696 -0.112737 
-0.153655 0.168193 -0.172405 
-0.180941 -0.168196 -0.022997 
-0.198038 0.168196 0.260440 
0.204731 -0.184362 -0.441642 
-0.226399 0.181026 0.499994 
-0.168856 -0.168196 0.077820 
-0.173620 0.210538 -0.500000 
-0.231963 0.200685 0.289527 
-0.167689 -0.113608 -0.347094 
0.229379 0.219100 -0.140672 
-0.248493 0.170200 0.442324 
0.092911 0.178390 -0.384651 
-0.204945 -0.074135 0.166546 
-0.199551 -0.199110 0.037430 
0.246401 -0.184442 -0.353263 
-0.249018 -0.210924 0.414606 
-0.198072 -0.101676 0.380585 
0.004783 -0.214068 -0.365325 
0.075681 0.022242 -0.092252 
-0.047286 -0.188100 -0.040844 
-0.209960 -0.223152 0.484275 
-0.169186 -0.043458 -0.037432 
0.122783 0.224262 -0.065443 
0.059844 -0.029148 -0.038176 
-0.180453 0.150060 -0.398063 
-0.028915 -0.212698 -0.397538 
0.119237 -0.131645 -0.038989 
0.241034 0.073635 -0.037852 
-0.140225 -0.203589 -0.015061 
-0.180643 -0.057987 -0.398063 
-0.220737 0.005908 0.447539 
0.232613 0.211474 -0.467042 
-0.195965 0.164026 0.180708 
0.020513 -0.178390 -0.368412 
0.086278 -0.140205 -0.092307 
-0.118458 0.023537 -0.092251 
-0.184999 -0.165086 -0.365583 
-0.103193 0.220343 -0.046354 
-0.166948 0.032307 0.250340 
0.000087 0.005674 -0.038391 
-0.182868 -0.050177 0.131045 
-0.165906 0.067832 0.242698 
-0.149320 -0.152468 -0.369241 
-0.144415 0.183546 -0.500107 
-0.176074 -0.012831 0.219179 
-0.125461 -0.168458 -0.092252 
-0.173429 0.003141 0.199810 
0.043139 0.121727 -0.039343 
0.081283 -0.057972 -0.092250 
0.145750 0.003303 -0.037128 
-0.216534 0.207961 0.176385 
-0.168231 0.060224 0.259748 
0.242082 0.219237 -0.126638 
-0.192374 0.163451 -0.047563 
0.216841 0.132113 -0.038400 
-0.191276 0.090854 0.428741 
-0.086784 -0.224265 -0.071744 
-0.164608 0.149259 -0.092252 
-0.191418 -0.011543 0.331707 
-0.195164 -0.178168 -0.449610 
-0.162490 -0.175285 0.218592 
-0.143964 -0.085604 -0.092307 
0.110294 0.101374 -0.038450 
0.106164 0.224262 -0.076606 
-0.168152 0.150736 0.259159 
-0.195193 0.207528 -0.158893 
0.056950 0.078551 -0.092251 
-0.076510 -0.046744 -0.092251 
0.232588 0.211491 -0.330380 
-0.199875 -0.113451 0.129655 
-0.198251 -0.187189 -0.069294 
-0.179184 0.224262 -0.383773 
-0.204363 0.222233 0.118461 
0.198678 -0.178388 -0.377425 
-0.060445 -0.214069 -0.367106 
-0.176805 0.028731 0.322622 
0.233764 0.211595 -0.347094 
-0.100824 0.022879 -0.092374 
-0.157347 -0.000837 0.108780 
-0.171115 0.001336 0.280943 
-0.160663 -0.095550 -0.038796 
-0.194271 -0.025659 -0.046918 
-0.031490 -0.027231 -0.092252 
0.107327 -0.119501 -0.038840 
-0.214503 0.151117 0.448562 
0.236259 -0.034771 -0.036913 
0.079018 -0.172902 -0.092251 
-0.238966 -0.134270 0.416325 
-0.164202 0.226904 0.155714 
0.105648 -0.176610 -0.092251 
-0.218342 0.215943 0.191473 
-0.176743 -0.097183 -0.092251 
0.234432 -0.210228 -0.216716 
-0.158806 -0.003248 -0.347094 
0.021722 0.099350 -0.092252 
0.040938 -0.178390 -0.363235 
-0.235997 0.010289 0.394568 
-0.236286 0.219553 0.333544 
-0.156657 0.224262 -0.383969 
-0.184999 -0.149186 -0.373128 
-0.179155 -0.071696 0.131536 
-0.176300 -0.047535 0.183443 
0.202569 -0.185422 -0.398070 
0.082791 -0.135806 -0.039215 
-0.028425 -0.044157 -0.092252 
-0.200968 -0.155361 0.137672 
0.252735 0.139828 -0.050335 
-0.167353 -0.162458 0.253355 
-0.165529 -0.022124 -0.346975 
0.231518 -0.212035 -0.145724 
0.077113 0.118771 -0.039047 
0.198311 -0.182465 -0.134979 
0.179596 0.131460 -0.038477 
-0.179089 0.168195 -0.097591 
-0.195193 0.182874 -0.050318 
-0.146229 0.192399 0.070351 
-0.015278 -0.224262 -0.074939 
0.248155 0.223907 -0.092252 
0.215964 -0.223994 -0.053752 
0.076418 0.186298 -0.398062 
-0.195193 0.171232 -0.090624 
-0.193112 -0.053706 0.442204 
-0.017958 0.025577 -0.092251 
-0.162903 0.024499 -0.037258 
-0.195201 -0.227130 0.370894 
0.221318 -0.048941 -0.092252 
-0.187259 0.168494 -0.191298 
-0.027613 -0.114975 -0.092251 
-0.150174 -0.168196 -0.299977 
0.218518 -0.213580 -0.267822 
-0.177760 0.113938 0.230685 
-0.185958 0.028494 0.291694 
0.248679 -0.205323 -0.092251 
-0.167815 0.149437 0.133078 
-0.211045 -0.227256 0.211182 
0.213756 0.211834 -0.459990 
-0.192094 -0.133352 0.181230 
-0.185048 0.078450 -0.352923 
-0.149051 -0.090959 0.119095 
-0.145566 -0.064812 -0.037983 
-0.141396 0.212378 0.012033 
-0.046704 -0.180917 -0.347158 
-0.123163 0.112483 -0.092251 
-0.175712 0.224262 -0.358747 
0.225064 0.173538 -0.278338 
-0.098021 -0.209962 -0.347094 
-0.197664 0.171621 0.036631 
-0.096833 0.206391 -0.092250 
0.005225 0.101274 -0.092251 
0.244155 0.002712 -0.038047 
-0.165325 0.147284 0.238438 
-0.244626 -0.193334 0.382394 
-0.204596 0.043052 0.398300 
0.253331 -0.153340 -0.087601 
-0.210345 0.218747 0.491741 
-0.046772 -0.188402 -0.092252 
-0.155164 -0.182713 0.163930 
-0.177255 -0.061233 0.227838 
0.202357 0.168189 -0.139964 
0.078381 -0.214006 -0.349593 
-0.252620 0.192557 0.441015 
0.255894 0.200237 -0.064439 
0.173883 0.001494 -0.036802 
-0.145292 -0.223339 -0.455557 
-0.132699 0.214068 -0.381509 
0.092075 -0.192765 -0.092251 
-0.139419 -0.176169 -0.470159 
0.054416 0.200585 -0.398063 
-0.149320 0.099023 -0.374560 
-0.168417 0.219767 0.250798 
-0.098631 -0.029286 -0.092250 
-0.117989 0.161109 -0.040813 
-0.182880 0.224262 0.003244 
-0.238274 0.165185 0.411251 
-0.209687 -0.019964 0.397601 
-0.152058 0.173395 0.141147 
0.059169 0.157488 -0.092251 
-0.220808 0.169075 0.254133 
-0.147632 -0.187496 0.082286 
0.025337 0.177550 -0.040448 
0.086798 0.035929 -0.038071 
-0.166509 0.049404 0.247117 
-0.196404 0.227270 0.371097 
-0.242034 -0.057753 0.444636 
0.242539 0.188901 -0.269161 
0.015117 0.178387 -0.378572 
0.176133 -0.214068 -0.371224 
-0.204308 -0.167628 0.398340 
-0.177297 -0.189840 0.326264 
-0.159786 0.202800 0.197740 
0.213491 -0.211764 -0.192883 
0.241941 0.187090 -0.248080 
0.240285 -0.204066 -0.249630 
-0.162586 -0.064602 -0.037883 
-0.193556 -0.112238 0.445460 
-0.140145 -0.174116 -0.330019 
-0.181688 0.017642 0.358433 
-0.148958 -0.200313 0.118422 
-0.204642 -0.205637 0.086960 
-0.108290 -0.178387 -0.386928 
-0.238744 -0.168789 0.390794 
0.022039 0.020081 -0.038448 
0.210285 0.057506 -0.037017 
0.198601 -0.217347 -0.126317 
0.117360 -0.195922 -0.092251 
-0.242817 -0.001666 0.443768 
-0.177911 -0.130034 -0.040055 
-0.186796 -0.224025 -0.125498 
0.253331 -0.163021 -0.057379 
-0.174648 -0.118118 0.307744 
-0.159021 -0.224262 -0.351638 
0.177651 -0.036590 -0.092252 
-0.198364 -0.137748 0.382638 
-0.156547 0.149565 -0.347090 
0.175427 0.115565 -0.092251 
0.214760 -0.175112 -0.451182 
-0.001924 0.140610 -0.092254 
-0.137265 0.030262 -0.037746 
-0.181547 -0.099027 0.259317 
-0.211643 -0.044054 0.448780 
-0.018526 0.171257 -0.040500 
0.102255 -0.178390 -0.370033 
0.083813 0.189793 -0.092251 
0.062704 -0.162771 -0.092252 
0.062775 0.214068 -0.381023 
-0.159577 -0.132583 -0.092251 
0.020573 -0.214042 -0.349901 
0.019461 0.224296 -0.085172 
-0.220698 0.168196 0.371398 
0.199197 -0.218256 -0.109572 
-0.186603 -0.192717 0.394473 
-0.185960 0.183366 -0.500122 
-0.167490 -0.224262 -0.005976 
-0.157087 -0.224262 -0.468101 
-0.154336 -0.151275 0.157852 
-0.093142 0.179950 -0.347490 
0.242795 0.190088 -0.198620 
-0.221821 0.205303 0.215153 
0.081995 -0.209775 -0.398174 
-0.197967 0.202591 -0.066315 
-0.038533 -0.224035 -0.054982 
-0.149828 0.168117 0.124794 
-0.133226 0.200718 -0.092252 
0.168980 -0.024349 -0.036997 
-0.180059 -0.136903 -0.347094 
-0.111848 -0.174950 -0.040880 
-0.037354 -0.006541 -0.092251 
-0.223709 -0.223724 0.280657 
-0.113159 -0.101545 -0.039345 
-0.186288 -0.157465 0.392167 
0.232900 0.224263 -0.084155 
-0.195192 -0.207509 -0.176028 
-0.195192 -0.036385 -0.062979 
-0.177634 0.168195 -0.257646 
0.000431 -0.038149 -0.092373 
-0.196642 -0.141683 0.468000 
-0.037026 0.123140 -0.039784 
-0.186867 0.224021 -0.399301 
-0.083473 0.178389 -0.377294 
0.086710 0.178390 -0.360697 
-0.139127 0.187568 -0.460620 
0.227896 -0.218478 -0.350995 
-0.209961 0.207334 0.128174 
-0.016396 0.204285 -0.040977 
0.002992 -0.213954 -0.395962 
-0.066801 0.000053 -0.038099 
-0.143444 0.212447 0.039164 
-0.059874 0.214068 -0.374366 
-0.046683 -0.224263 -0.071008 
0.115420 0.203367 -0.398063 
0.195633 0.065312 -0.037148 
0.213120 0.175791 -0.410052 
0.195294 -0.154156 -0.092251 
-0.167144 0.095559 0.252769 
0.058082 -0.192489 -0.347093 
0.022795 -0.187615 -0.040638 
0.218172 -0.173875 -0.322519 
-0.160082 -0.168195 -0.099492 
0.030416 0.213037 -0.398063 
0.001317 0.067258 -0.092389 
-0.188162 0.222016 0.385255 
-0.183314 0.218411 0.364209 
0.159565 0.023157 -0.037160 
-0.195193 0.194546 -0.288766 
0.098546 -0.158576 -0.039737 
-0.224466 0.168196 0.387560 
-0.063824 0.022221 -0.038436 
-0.203162 0.177604 0.075703 
-0.032158 0.227351 -0.074516 
-0.177231 0.225847 0.110077 
0.211717 0.210700 -0.441431 
-0.185490 -0.168260 -0.212700 
-0.195273 -0.182700 -0.096576 
-0.019251 -0.095778 -0.092251 
-0.184297 -0.045539 0.377563 
-0.136695 0.155414 -0.040926 
-0.236829 -0.176684 0.326872 
-0.192400 -0.072081 0.338503 
-0.198429 0.208570 0.022830 
-0.243289 -0.212843 0.372588 
-0.189804 -0.222347 -0.497296 
0.235898 0.178274 -0.230596 
-0.149214 -0.168556 0.006080 
-0.199837 0.057542 0.129383 
0.216853 0.129740 -0.092259 
-0.184241 0.055868 -0.348169 
0.212814 0.211469 -0.225329 
0.128861 -0.126391 -0.092251 
-0.221740 0.019399 0.395856 
-0.209078 0.066100 0.449259 
-0.217762 0.185428 0.185381 
-0.197758 0.071989 0.378196 
0.253331 0.149285 -0.091483 
-0.247251 0.177652 0.402357 
0.253331 0.013694 -0.089204 
0.006992 -0.178390 -0.353740 
-0.206421 0.172813 0.115062 
-0.149321 0.094467 -0.391719 
-0.252559 -0.221791 0.466389 
-0.177137 -0.168196 -0.420078 
-0.165902 -0.033630 0.133235 
-0.173707 0.101517 0.132281 
-0.197143 0.136301 0.373694 
-0.210713 0.057428 0.473204 
0.208139 0.163019 -0.092252 
-0.179844 0.078673 0.246412 
-0.179560 0.197786 0.342807 
0.061843 -0.067884 -0.038399 
0.009037 -0.215595 -0.092252 
-0.171997 -0.125939 0.287357 
0.011353 -0.084060 -0.038970 
-0.230428 -0.170488 0.307062 
-0.100783 0.067943 -0.092252 
0.192657 0.223571 -0.051562 
0.237262 -0.208037 -0.265998 
-0.179354 -0.224262 -0.328719 
-0.197771 -0.057827 0.378287 
-0.184999 -0.029892 -0.372188 
-0.161221 0.224262 -0.050500 
-0.196810 -0.211986 0.469325 
0.080748 -0.057523 -0.038171 
-0.201733 0.187562 0.479385 
-0.199335 0.131908 0.389763 
-0.052836 -0.224265 -0.091060 
-0.160970 -0.027941 0.108419 
-0.179131 -0.168163 -0.152678 
-0.195193 -0.193430 -0.421108 
0.136450 0.019834 -0.037392 
0.253331 -0.130569 -0.062206 
0.098285 0.223729 -0.052439 
-0.220201 0.173047 0.214780 
0.248290 -0.185194 -0.120524 
-0.156019 -0.113133 -0.039434 
-0.206569 -0.123510 0.178753 
0.099277 -0.062490 -0.037884 
-0.099758 -0.081047 -0.092250 
0.134118 0.143841 -0.092251 
-0.167733 0.182983 0.256096 
-0.214827 -0.200415 0.163033 
0.242158 0.187717 -0.406585 
-0.169654 0.123829 0.270180 
0.216013 0.212791 -0.285914 
-0.185733 0.205838 0.388122 
-0.185774 -0.008670 0.182083 
-0.176546 0.077731 0.320722 
0.244247 0.168196 -0.111001 
-0.149316 0.026057 -0.368854 
-0.196592 -0.227335 0.271487 
-0.114806 0.134596 -0.092251 
0.242507 0.198592 -0.327133 
-0.028415 0.194843 -0.398063 
0.098756 0.119652 -0.092251 
-0.158169 0.168197 -0.193229 
-0.198987 0.188356 0.030092 
-0.196096 0.120952 0.464091 
-0.170900 0.133422 -0.092254 
0.176679 -0.208498 -0.040775 
-0.194702 0.227319 0.136304 
0.092322 -0.103556 -0.038710 
0.242936 -0.195510 -0.303947 
0.083964 -0.095509 -0.092251 
0.175050 0.005464 -0.092251 
-0.056668 -0.052895 -0.092252 
0.245395 -0.168225 -0.113974 
-0.139127 0.180587 -0.441121 
0.180466 0.113598 -0.038034 
0.027989 -0.069775 -0.092251 
-0.175787 0.062612 0.217080 
-0.202794 0.227320 0.250235 
-0.208780 -0.203206 0.491697 
-0.173065 0.168196 0.057983 
-0.240234 -0.078921 0.444882 
-0.045319 0.102898 -0.039355 
-0.048188 0.054097 -0.038936 
0.241856 -0.200372 -0.420328 
-0.204208 0.091621 0.161430 
-0.189169 -0.227334 0.312336 
-0.197038 -0.186294 0.002735 
0.242890 -0.018986 -0.037348 
-0.149321 0.113580 -0.365150 
-0.081919 -0.138591 -0.040249 
-0.227334 -0.218585 0.263920 
-0.148407 0.193610 0.088882 
-0.161640 -0.101076 0.113331 
-0.000998 0.174468 -0.040486 
0.053017 0.056775 -0.038435 
-0.179552 -0.054815 0.244686 
-0.183829 0.224262 -0.265628 
-0.089876 -0.196195 -0.041051 
0.102642 0.040599 -0.092361 
-0.250111 0.177873 0.423111 
-0.198569 0.176292 0.017941 
-0.040205 -0.129686 -0.039910 
-0.220696 -0.187472 0.206903 
-0.195193 0.192767 -0.307907 
-0.195193 -0.207715 -0.293956 
-0.162683 0.095546 0.120980 
-0.179182 -0.004193 0.241976 
-0.189503 -0.223142 -0.219462 
-0.195196 0.207679 -0.394474 
-0.037734 -0.205770 -0.041050 
-0.233831 -0.209733 0.302422 
-0.189732 0.098084 0.319334 
0.222471 0.173313 -0.320488 
0.217596 0.097890 -0.037686 
-0.153753 -0.000612 0.153571 
-0.176848 0.108342 0.322936 
0.186600 0.060837 -0.092252 
0.171393 0.177225 -0.092251 
-0.139121 -0.213053 -0.402976 
-0.184361 -0.024089 0.130843 
-0.147860 0.086874 0.110394 
0.020062 -0.099825 -0.039162 
-0.165158 -0.051617 0.133436 
-0.194443 -0.094674 0.451966 
0.198254 -0.191053 -0.119566 
-0.223067 -0.114957 0.447222 
0.176378 0.156944 -0.092307 
-0.149601 0.186382 0.123173 
-0.142291 -0.221413 -0.344139 
0.139529 -0.114302 -0.038465 
-0.228606 0.168196 0.481845 
-0.139124 0.191053 -0.114066 
-0.197124 0.108858 0.372996 
-0.194187 -0.174162 -0.148479 
-0.183853 -0.012647 0.276223 
-0.043101 -0.171264 -0.092252 
-0.151644 -0.124626 0.138135 
0.150966 0.178390 -0.387873 
-0.238265 0.042576 0.411183 
-0.184999 0.078002 -0.390304 
-0.184099 0.001766 -0.347814 
-0.140782 0.190479 -0.002204 
-0.154136 -0.168108 -0.010359 
-0.230370 0.215611 0.279350 
0.174731 0.075550 -0.092251 
0.243026 0.195174 -0.179525 
-0.100675 -0.024713 -0.037907 
-0.196546 0.230453 0.333139 
0.080511 -0.012250 -0.092252 
-0.149321 -0.088018 -0.382826 
0.052783 -0.083517 -0.038619 
-0.164095 0.154278 -0.040836 
-0.199765 0.223026 0.092476 
-0.185003 -0.070086 -0.375444 
-0.185066 -0.224262 0.097317 
0.201853 0.197320 -0.143878 
-0.112827 -0.041203 -0.092252 
0.156614 0.060848 -0.092361 
-0.202148 -0.054682 0.146330 
-0.030136 -0.014093 -0.038470 
0.198311 -0.177039 -0.108826 
0.149215 -0.224264 -0.091698 
-0.240197 0.220681 0.368630 
0.209438 0.178416 -0.456754 
-0.172434 -0.221821 0.271050 
-0.195193 0.188868 -0.407719 
-0.173521 0.022507 0.200483 
-0.182668 0.199219 0.365615 
-0.199943 0.037735 0.130159 
-0.154473 -0.110133 0.158853 
-0.139655 -0.204310 -0.497080 
-0.177377 0.205767 0.326819 
0.069490 -0.177717 -0.040292 
-0.157477 0.110540 0.180883 
-0.240626 0.071372 0.427697 
-0.220260 -0.080688 0.396057 
-0.241079 -0.068652 0.431821 
-0.162220 0.000223 0.215671 
0.015476 -0.058870 -0.092387 
0.166916 -0.061058 -0.092250 
0.247119 0.200684 -0.349598 
-0.226691 -0.168196 0.447603 
0.237400 -0.179569 -0.449897 
0.247136 -0.200493 -0.395341 
0.027111 0.223103 -0.050783 
-0.157365 -0.058517 0.180061 
-0.155029 0.168196 -0.029151 
0.152929 -0.038316 -0.092251 
0.071021 -0.112943 -0.092255 
-0.085428 -0.092110 -0.092252 
-0.149989 0.201620 -0.500087 
-0.205324 0.227320 0.422873 
-0.182466 0.224262 0.092380 
0.253331 0.078940 -0.059045 
0.245446 -0.223727 -0.052013 
-0.189408 0.223177 -0.078547 
-0.217285 -0.201262 0.181886 
-0.139127 0.184622 -0.197106 
-0.142880 0.221864 -0.184264 
0.072619 -0.214069 -0.365779 
-0.163307 -0.064941 -0.347095 
0.213387 0.157462 -0.038856 
-0.144108 -0.192572 0.047471 
-0.188833 -0.159645 0.410833 
0.186274 -0.059610 -0.092251 
-0.206594 -0.144191 0.178942 
-0.139535 0.121376 -0.092251 
0.253331 0.076778 -0.079738 
0.197342 0.014778 -0.092254 
-0.178695 0.007037 0.336509 
-0.198589 -0.083165 0.384292 
-0.173033 0.149802 0.294957 
-0.239499 -0.006311 0.420228 
-0.185339 -0.053145 0.287124 
0.139214 0.138312 -0.038976 
0.181852 -0.055176 -0.037096 
0.194598 0.178390 -0.381826 
-0.135887 0.048244 -0.038198 
-0.198310 -0.000558 -0.064817 
-0.080542 0.024288 -0.038466 
-0.170255 0.046323 -0.346920 
0.165041 -0.046526 -0.037014 
0.033106 0.072790 -0.092252 
-0.171571 -0.093817 0.284243 
-0.238715 -0.168284 0.409522 
-0.195193 -0.188755 -0.244522 
-0.149320 -0.096466 -0.366624 
0.211405 0.222625 -0.049566 
0.253331 -0.043670 -0.080772 
0.125648 0.101403 -0.092252 
-0.139127 0.178802 -0.320520 
-0.213018 -0.189491 0.150593 
0.082374 0.172143 -0.092250 
-0.139350 0.113111 -0.039581 
0.186167 -0.150206 -0.038921 
-0.188867 0.227315 0.278035 
-0.047652 -0.145450 -0.040216 
-0.175222 0.211970 0.311014 
0.065028 0.135212 -0.039450 
-0.187712 -0.071641 0.402607 
-0.146956 0.213575 0.076516 
-0.195069 -0.066649 -0.052528 
-0.182458 0.107819 0.364109 
-0.197105 -0.224262 0.110979 
-0.174676 0.093754 0.307008 
-0.174173 -0.134403 0.303317 
-0.078397 -0.178390 -0.365202 
-0.048173 -0.178408 -0.395176 
0.079574 0.213335 -0.348186 
-0.210271 0.168413 0.190824 
-0.208623 -0.173140 0.129346 
0.072148 0.063400 -0.038459 
-0.104250 -0.224396 -0.087975 
-0.015525 0.076483 -0.092252 
0.019706 -0.028237 -0.092372 
-0.186217 -0.028717 0.293565 
0.238245 0.206690 -0.483339 
-0.185879 0.066778 0.389209 
-0.141740 0.171667 -0.186426 
0.240720 -0.184223 -0.286892 
-0.162313 -0.068120 0.118266 
-0.113662 0.214068 -0.375822 
-0.002860 0.051183 -0.092251 
0.191212 0.177847 -0.039723 
-0.173672 -0.184400 -0.500117 
0.175631 -0.151843 -0.092252 
-0.240598 -0.096556 0.428295 
-0.192808 -0.168196 0.209665 
-0.248952 -0.181012 0.414110 
0.164271 0.214068 -0.382314 
-0.164903 -0.149701 0.235336 
-0.193822 0.173286 -0.358542 
-0.176372 -0.224262 -0.474769 
-0.189067 0.130365 -0.092251 
0.198256 0.189816 -0.129443 
-0.177341 -0.207036 0.326556 
0.196054 0.195283 -0.347094 
-0.191921 0.072693 -0.043792 
-0.217518 0.168196 0.289925 
-0.177417 -0.138165 0.229031 
0.138599 0.157477 -0.039458 
-0.078672 0.208270 -0.041153 
0.111572 -0.224389 -0.064817 
-0.236525 -0.077439 0.397862 
-0.184089 -0.075803 0.376045 
0.083607 -0.206702 -0.040882 
-0.206609 0.211834 0.103602 
0.242123 -0.199797 -0.280405 
-0.195193 -0.192468 -0.115410 
-0.196870 0.194590 -0.003287 
0.087321 -0.119739 -0.039009 
-0.251140 0.220770 0.483619 
-0.172480 0.131625 0.290908 
-0.191941 -0.038237 0.433617 
-0.150258 -0.074832 0.127946 
-0.060471 0.058054 -0.092252 
-0.210635 -0.147641 0.474637 
-0.196856 -0.227334 0.293519 
0.160760 0.104958 -0.092251 
-0.141115 0.172482 -0.488066 
0.148588 -0.214071 -0.364683 
-0.161316 0.168198 -0.415665 
0.133449 0.203629 -0.398063 
-0.185599 -0.212511 0.387146 
0.243015 -0.049924 -0.037671 
0.249799 -0.002754 -0.092386 
-0.144526 -0.221237 0.001735 
0.070153 0.043739 -0.038300 
-0.139581 0.175494 -0.417493 
0.108348 0.102328 -0.092252 
0.091393 0.214068 -0.377167 
-0.219653 0.196163 0.199253 
-0.149322 -0.134380 -0.376508 
-0.140005 -0.217986 -0.325034 
-0.139127 0.201754 -0.434461 
-0.217183 -0.004218 0.396584 
-0.195193 -0.205960 -0.229865 
0.161659 -0.214068 -0.389092 
-0.194333 0.217953 -0.173175 
-0.218330 -0.168293 0.259573 
-0.139127 0.211702 -0.233965 
-0.193911 0.173495 -0.257518 
0.019214 0.137087 -0.039752 
0.100604 -0.035316 -0.037833 
-0.184570 0.113409 0.281488 
-0.038448 -0.063581 -0.092252 
0.242686 0.197110 -0.425025 
0.204053 0.176662 -0.352620 
-0.193950 -0.213835 0.448355 
-0.225742 -0.131831 0.446857 
-0.032622 0.089519 -0.039279 
-0.149315 -0.148866 -0.351275 
-0.195192 0.194614 -0.103439 
0.094362 -0.214068 -0.386163 
-0.196194 0.165720 0.464807 
-0.223519 -0.168197 0.365729 
-0.178474 -0.224299 -0.263313 
-0.163142 0.119750 0.222429 
-0.193592 -0.172986 -0.182498 
-0.189414 0.027077 0.181592 
-0.184999 -0.015743 -0.354620 
-0.150654 -0.189265 0.130844 
0.219930 -0.227351 -0.070824 
0.210838 0.210037 -0.325191 
-0.054942 -0.210108 -0.041309 
-0.185481 0.044845 0.386241 
-0.152363 -0.168196 -0.222028 
0.206997 0.112812 -0.037798 
0.011265 0.220405 -0.046411 
-0.164710 0.116611 -0.039484 
-0.158075 0.049618 0.185269 
0.219305 -0.219166 -0.132867 
-0.049417 -0.214068 -0.354611 
-0.165290 0.191434 0.238173 
0.008750 0.156546 -0.092252 
-0.193751 0.219264 -0.443288 
-0.197128 -0.220200 0.021083 
-0.169131 0.016808 -0.347083 
0.238773 0.181349 -0.320703 
-0.204621 0.168196 0.379910 
-0.193418 0.172760 -0.278848 
-0.204375 0.142423 0.162684 
-0.168697 0.043952 0.263153 
-0.165032 0.188025 -0.500122 
-0.197418 0.227320 0.352625 
-0.074392 0.127354 -0.039996 
-0.188296 0.192920 0.406888 
-0.249012 0.193712 0.414554 
0.212928 0.211490 -0.490611 
-0.155177 0.013106 0.164020 
-0.039559 -0.027949 -0.038569 
0.059418 -0.178390 -0.366644 
-0.174175 0.168051 0.008879 
0.190096 0.084059 -0.092251 
0.019368 0.142727 -0.092360 
-0.123106 0.095254 -0.092252 
-0.174538 -0.080812 0.305997 
-0.192763 -0.149854 -0.047844 
-0.029017 0.107128 -0.039478 
-0.066794 -0.214060 -0.350068 
0.132177 0.182945 -0.040174 
-0.172393 0.168196 0.094912 
-0.139063 -0.179436 -0.224784 
-0.183501 -0.109329 0.371725 
-0.183423 0.146315 -0.092251 
-0.174500 -0.224261 -0.432555 
-0.207814 0.109811 0.451941 
-0.137701 -0.194732 -0.036736 
-0.202455 -0.168196 0.266436 
-0.195771 -0.081169 0.461704 
-0.142965 -0.202017 0.033223 
-0.201034 -0.034999 0.138160 
-0.159892 0.224262 -0.366033 
0.155015 0.214220 -0.092359 
-0.198379 -0.121843 -0.077298 
0.234189 0.175643 -0.039856 
-0.195193 -0.208516 -0.433219 
-0.177207 -0.072523 0.325574 
0.020032 0.178390 -0.358452 
-0.234264 -0.152612 0.394255 
-0.204379 -0.128250 0.162692 
-0.238710 -0.084544 0.414456 
-0.152720 -0.179444 0.145997 
0.149568 -0.185762 -0.040157 
0.203598 -0.187097 -0.418796 
-0.186971 0.020927 0.130491 
-0.184999 -0.037919 -0.388918 
-0.184999 -0.125768 -0.378857 
0.140992 -0.224268 -0.068936 
0.155757 0.037128 -0.092251 
-0.140943 0.174583 -0.019353 
-0.210806 0.116570 0.473876 
-0.195192 -0.106308 -0.072148 
-0.155661 0.076019 -0.092251 
-0.195193 0.211240 -0.104607 
-0.190686 -0.148079 0.424415 
-0.139127 0.188198 -0.180774 
0.149569 0.018385 -0.092251 
0.253331 0.191314 -0.084846 
0.200087 -0.095109 -0.092251 
-0.172179 0.224262 0.019822 
0.147645 0.212365 -0.398112 
-0.242115 0.173651 0.495484 
-0.153123 -0.036855 0.148955 
0.124002 0.146235 -0.039281 
-0.149321 -0.020488 -0.357629 
-0.194547 -0.131001 0.453649 
-0.165247 -0.224262 0.057429 
-0.200317 0.093088 0.132904 
0.004144 0.130119 -0.039711 
-0.151031 -0.171014 0.082454 
-0.199055 -0.225578 0.436297 
0.020650 -0.213192 -0.397141 
-0.170653 0.115913 -0.398062 
-0.060054 0.118497 -0.092252 
-0.161864 -0.224262 -0.485418 
0.023890 0.056282 -0.092252 
-0.181401 -0.227334 0.116639 
-0.162843 0.224264 -0.318290 
0.149343 -0.057560 -0.037298 
-0.150929 0.098808 0.132868 
-0.141534 -0.208635 0.015213 
-0.083509 0.144043 -0.040370 
0.146742 0.033707 -0.037414 
0.223618 -0.178709 -0.500104 
-0.196785 -0.204916 -0.004040 
0.155902 -0.082273 -0.092258 
0.203987 0.201616 -0.266136 
-0.190516 0.071795 0.423171 
-0.215915 -0.027887 0.448366 
0.161017 0.128276 -0.038542 
-0.179540 -0.149801 0.244597 
-0.171273 -0.168196 -0.007975 
0.218410 -0.118054 -0.038173 
0.093916 0.024909 -0.092252 
-0.041971 0.076078 -0.092253 
-0.236519 -0.054000 0.398473 
-0.207071 -0.227334 0.237205 
-0.197816 -0.202853 0.013293 
0.238848 0.181434 -0.285366 
-0.181416 0.168196 0.248555 
-0.096252 0.158208 -0.040694 
-0.195193 0.103416 -0.075131 
-0.087921 0.189859 -0.092360 
-0.184214 -0.189815 0.376963 
0.232206 -0.211625 -0.167026 
0.234552 0.177247 -0.304705 
0.234791 -0.209918 -0.461688 
0.253331 0.043311 -0.069885 
-0.187429 0.146293 0.181860 
0.248234 -0.180464 -0.102197 
0.185395 0.186774 -0.092252 
0.138045 -0.140795 -0.039044 
-0.174415 0.059705 0.305128 
-0.139124 -0.196859 -0.140434 
-0.191746 0.156304 0.432189 
-0.149320 0.154855 -0.361322 
-0.124809 0.044093 -0.092374 
-0.181815 -0.150292 0.261268 
0.106757 0.150304 -0.039415 
-0.162725 0.166855 -0.092252 
0.053112 0.214068 -0.364162 
0.198118 -0.089296 -0.037447 
-0.203342 -0.149333 0.398471 
-0.195192 -0.087165 -0.075647 
-0.034494 0.214068 -0.364927 
-0.238054 0.137002 0.409643 
-0.187844 0.168195 0.279636 
-0.055941 -0.095316 -0.039296 
-0.178638 0.172612 0.337062 
-0.180938 0.224262 -0.246800 
-0.172668 0.169256 -0.497942 
0.201306 -0.035946 -0.092252 
-0.073551 0.170168 -0.092251 
0.202854 0.189254 -0.170918 
-0.195193 0.073274 -0.090925 
0.045376 0.054572 -0.092251 
-0.132200 0.068626 -0.038632 
-0.151386 -0.091175 0.136243 
