27.543970 19.839270 6.748388 
29.173880 -3.183364 45.438591 
5.588831 23.942160 -16.657419 
40.446461 -25.786051 40.543221 
17.270201 -8.811688 52.969372 
42.701561 -8.091879 34.689041 
37.250359 -0.468607 -27.589569 
-9.260715 22.207260 -22.257339 
37.875252 12.065190 -14.051740 
-21.667021 -13.796920 52.335041 
23.574890 -26.197090 52.146870 
31.327440 18.965990 -0.857001 
15.821540 33.456219 -3.839032 
19.728010 -24.034781 48.524689 
30.675791 -14.961560 40.814621 
-50.429352 -24.030531 -27.555861 
18.922899 21.657290 -18.583700 
-33.608109 14.013250 -19.032900 
38.592190 12.027100 12.625820 
-20.660980 -15.980110 46.968590 
42.739979 3.570331 -26.194580 
40.819420 9.268996 13.290780 
-21.277929 20.928820 6.237391 
17.024250 28.884541 -9.645572 
54.594872 -17.505119 -14.648960 
-9.730236 17.467039 -37.977230 
39.769020 -29.918381 38.306610 
51.181171 -15.129410 1.341174 
38.158920 -2.954572 -36.362350 
24.788321 -10.292480 44.016090 
-8.428024 -16.144060 -55.893768 
44.643959 -17.108471 -34.759979 
8.524845 -9.724043 50.038181 
0.527593 15.292380 39.144901 
38.985531 -8.704772 39.233269 
50.971020 -5.896382 18.180960 
-16.984131 16.837231 -36.086029 
-15.662280 -13.703900 -48.572010 
52.589401 -19.455721 1.878890 
-5.217362 -33.138401 57.081459 
-37.039791 4.785618 27.892481 
35.425812 -9.825827 -41.717239 
-33.512669 16.953880 -3.881103 
-24.628349 23.522060 -10.915930 
-53.437981 -14.243660 17.485100 
38.580528 17.274380 0.644966 
35.303761 -21.546410 44.684601 
48.654751 -9.255331 9.471384 
2.480498 19.750860 24.861561 
41.348949 -1.170623 33.148121 
-5.004901 -11.924200 50.843330 
41.185669 6.718469 17.240061 
5.150149 33.470921 -15.604740 
32.310242 14.503220 25.878340 
43.062729 -16.660049 36.409149 
-29.106880 18.641100 3.667289 
17.482281 31.275780 16.971920 
1.628033 30.954309 -11.109310 
51.564411 -22.357870 24.281210 
43.354061 -1.489731 30.532209 
54.693779 -9.031754 2.246391 
22.169479 -28.463619 48.450951 
-42.958912 -16.518770 27.747240 
50.901680 -19.462940 -25.866520 
-8.018008 25.304449 5.494206 
-10.779970 32.120209 -15.852480 
27.859440 8.147765 -32.289558 
-15.429260 -34.571289 53.654148 
-23.517420 0.261648 42.571030 
41.261551 13.219610 12.922280 
41.311321 6.323567 -25.739040 
28.174021 -8.150217 47.721680 
43.281349 -9.003071 -23.547661 
-53.003849 -4.577892 -9.612940 
33.796329 20.295111 -2.276633 
-45.512959 -1.200315 -26.453039 
38.574829 8.057626 21.049259 
9.858483 30.449671 -6.494216 
47.445850 1.495048 20.160410 
8.420329 19.566219 -30.217951 
12.839100 15.478410 32.267410 
8.743171 -15.093200 -55.705971 
35.834381 -4.856167 33.880550 
47.279572 -6.946957 13.275500 
48.750740 3.304366 14.353670 
-6.164194 -9.546377 55.652061 
-18.340210 21.631300 -16.093491 
-54.602928 -20.461830 -15.603760 
-2.135320 -17.420380 51.506062 
22.931770 7.497674 42.432030 
8.867800 -3.292060 -52.177860 
22.186939 -11.691460 51.592861 
-11.114030 26.528419 -2.232594 
-16.895990 28.305420 23.237129 
6.850595 10.389160 41.013660 
46.392281 -3.951554 13.878090 
-11.275610 9.405889 -45.431671 
28.584520 -19.565781 43.133919 
14.919820 -30.079910 51.371159 
-28.990620 12.054440 26.743999 
31.061781 0.467613 36.663078 
-18.148861 -34.575359 52.938789 
1.022101 22.401070 8.248665 
-34.923409 4.769122 -28.533689 
-14.978070 0.488953 -43.625309 
-54.837959 -30.058990 17.386660 
35.687630 -25.553881 39.310810 
-24.411449 -21.117821 -48.500851 
-52.414780 -24.743799 -9.692628 
-54.550339 -7.353368 -4.050110 
-36.345280 -5.944206 -31.990160 
17.393391 10.860410 37.423649 
2.779496 22.801069 5.191304 
41.327660 12.276760 15.797880 
5.398385 24.452431 -9.273420 
-1.951233 -14.780110 51.300968 
14.773690 19.403490 22.779551 
29.362129 18.582769 19.974890 
-38.914219 5.746590 30.675640 
-54.375259 -27.466850 18.185520 
7.174015 3.298368 46.700069 
51.402740 -16.989571 5.729224 
-1.857205 -3.483442 54.300388 
-35.046768 -11.989900 36.844719 
35.536442 -9.266612 35.344631 
29.149330 8.022765 -37.688431 
-27.470530 6.330065 35.952129 
14.269480 -1.028398 -50.098419 
37.638371 -5.469351 39.493408 
23.937590 21.053270 6.519927 
-35.145969 -31.710600 45.068840 
42.697128 1.522394 -16.931601 
-20.150339 -22.400410 53.443260 
56.149052 -16.383030 -3.874592 
34.648331 2.580776 38.002129 
4.834452 25.837370 -21.566000 
-33.016788 12.196640 -30.169331 
29.240789 22.058090 -10.087040 
33.789791 18.515829 12.901700 
21.788601 -14.510690 -51.700489 
7.017782 25.934719 21.723181 
-25.881060 30.569370 1.904437 
-38.145309 16.675541 4.380429 
14.101510 2.412610 45.431839 
8.375606 8.792368 46.287811 
-57.049389 -23.764170 -3.271939 
40.382149 -23.182051 40.271229 
-48.625858 3.587329 15.414190 
-5.150845 15.140810 38.864491 
6.982897 13.757450 36.521019 
-44.031391 -19.630220 26.713650 
45.779678 -8.970976 -29.559959 
15.712610 9.212162 39.945358 
36.739319 9.150319 22.701731 
-27.669941 -9.800241 48.680759 
54.895168 -14.879570 10.971090 
-24.188101 12.542850 29.953140 
-28.756670 12.423530 31.934320 
48.873428 -20.688471 19.224489 
21.774260 17.305300 29.896799 
-33.893070 -14.055560 38.134811 
32.210522 7.788736 35.695210 
-21.653090 27.624901 21.847120 
2.442453 25.980360 24.633909 
-51.783440 0.243373 8.323054 
23.221491 26.010090 9.872437 
22.152929 22.040720 -22.675920 
35.464470 19.081659 3.907625 
42.838181 -19.238119 29.240530 
-9.577806 -11.964420 -49.553471 
15.927740 27.839121 -11.788840 
-2.221435 27.523090 -6.011230 
13.554500 32.631180 -11.103770 
2.456986 1.047316 -51.264271 
11.271210 -5.537124 53.762718 
31.381910 -7.251647 -43.979660 
-53.863220 -10.343430 14.011600 
-43.611980 12.802660 -2.078966 
15.773160 -5.632877 -45.432930 
-1.258849 22.957180 -21.896601 
19.388670 22.798180 -10.141010 
-36.750771 17.731680 2.457709 
46.132488 -16.965300 -32.654572 
49.559910 -19.481960 -19.587460 
40.238491 12.222480 3.611033 
19.267229 17.239189 31.523701 
34.525620 -27.349560 40.844971 
-5.075666 1.769493 51.738129 
-43.485939 12.760960 -5.246668 
-2.808537 24.087540 17.229340 
-48.424339 -3.591035 -4.081766 
15.426640 12.276220 36.387852 
35.010811 8.499670 -31.821341 
15.856150 22.957180 5.829093 
32.314320 17.101160 19.995939 
1.396846 5.017073 -44.173649 
-9.536707 24.812500 -22.815720 
-4.690248 4.991570 -44.006790 
12.824730 12.317180 37.256119 
-18.402651 23.583990 26.303249 
5.372582 30.476780 -9.350038 
50.608620 -13.813970 -4.946455 
-47.993980 -7.109960 13.117000 
49.050621 6.038616 3.666784 
-30.113270 -3.245830 39.506470 
26.216721 22.822861 10.125920 
55.632839 -13.427920 2.029111 
47.034599 -2.881401 9.678903 
36.170189 -12.299170 -41.942619 
-21.593090 29.243071 19.700460 
-10.897850 19.884270 19.947790 
-34.792740 14.361880 -15.593990 
17.391140 12.187470 -36.040131 
-44.069012 12.285370 1.153981 
53.318310 -21.135130 -0.743981 
21.942739 -31.639240 49.875488 
35.773849 9.068797 30.566320 
30.937771 12.401000 30.986071 
-22.655380 15.493820 -29.368071 
-46.393761 3.667859 2.202678 
32.213409 -11.673330 45.804729 
2.387137 -12.023600 56.364971 
-15.432450 12.549250 39.843510 
-47.441811 -8.448701 -27.222490 
57.142361 -20.967150 0.678647 
27.815510 -30.088200 46.369640 
30.640181 -8.450584 46.208019 
-32.037491 -26.612989 41.407871 
44.276749 -20.937309 27.856670 
30.973351 -28.922079 43.982571 
-25.533060 -26.997530 45.770489 
26.747110 -2.757399 41.219101 
-20.077250 8.399664 -37.841461 
-27.597830 18.326269 -16.655840 
-50.080219 -17.172140 -11.024560 
5.949340 23.509270 -0.557099 
31.951429 -26.365490 42.472450 
-20.086330 4.745510 -45.433289 
0.671951 -28.498560 52.915710 
-51.161449 -19.403351 24.607700 
-11.947150 17.204491 27.796980 
-20.104071 29.064171 -0.459756 
-15.916380 -14.170190 54.427010 
8.570556 17.899019 28.478060 
47.602150 7.211510 7.596553 
47.256550 0.782318 -20.326639 
-12.357540 -2.487622 -45.411819 
-50.069561 -14.852530 -8.126303 
-12.394920 -2.901415 48.076389 
-42.554562 9.877617 -1.159445 
32.206741 18.321449 -19.775841 
-0.865502 26.095659 2.354546 
23.923140 24.501240 -7.892763 
-46.394501 1.783029 23.250311 
-13.993460 22.770830 29.378910 
42.321259 -13.950290 28.025669 
-25.421709 10.858510 -32.747051 
-47.896511 -11.715920 -14.431030 
20.616360 -1.398198 44.306370 
47.635349 -17.289370 -30.548300 
25.207121 15.522030 -32.840740 
50.059559 3.243089 6.792730 
-4.509386 -1.276489 53.282589 
14.201900 25.372431 25.891069 
12.742550 7.941327 46.060440 
44.305599 6.208871 4.272281 
29.544701 -25.630970 49.001709 
32.349220 -22.642490 46.972061 
37.753300 2.234585 35.030312 
-34.438190 -15.944460 -38.171551 
15.335530 -10.061570 -52.757629 
-21.149790 -10.516870 -45.044121 
11.160280 -8.893369 -48.103939 
-53.404411 -11.803590 16.557581 
23.501169 1.820050 -38.841789 
31.400909 -16.472460 47.071819 
-17.263550 -17.096560 48.449848 
7.484142 29.073179 -6.540490 
45.645210 0.183869 -9.394752 
-16.582050 -12.378010 -52.925339 
29.801790 -20.898319 48.523590 
24.818140 -32.191929 51.100250 
-29.106079 22.103920 6.638555 
-24.288410 6.313011 38.198620 
-29.071680 6.036829 39.655220 
45.738708 -5.862498 17.517059 
-0.391261 21.116560 15.885610 
50.115879 -21.437710 26.834000 
9.288556 1.751110 51.184330 
32.311310 16.378839 13.584750 
47.561859 -27.137480 26.518089 
47.294170 -14.666460 18.890480 
-23.157610 -30.169029 47.564201 
33.653999 -4.515379 36.077629 
38.245548 14.933520 -17.020590 
27.789900 -13.335360 48.965351 
-51.405830 -23.843559 -13.563850 
5.584546 19.189619 33.099361 
28.885040 3.477693 36.961330 
31.895821 -5.093338 37.880299 
6.814407 7.261299 47.859268 
10.252840 6.242916 48.071331 
-3.827935 17.114349 -39.482140 
15.839780 2.495440 -42.255260 
7.004062 2.038687 -50.381062 
53.584339 -22.479080 -15.784310 
2.236217 4.291674 -49.799568 
18.324089 33.973160 -3.433352 
24.011890 20.209650 11.339310 
40.400230 -12.526350 -37.948330 
53.969688 -6.535090 3.415009 
-54.385620 -5.716560 -0.607560 
-40.512039 0.272179 -23.737301 
23.402000 17.260860 -25.917669 
-41.108021 -10.149430 -27.744101 
47.273079 -28.538931 32.472080 
-16.908211 -28.305460 54.599209 
49.814388 -12.459240 -7.985324 
5.342204 -30.276991 53.058208 
-23.179859 21.411579 -22.239799 
47.185879 -3.605001 -7.562777 
37.427299 -8.952210 -31.995741 
-2.247313 0.172070 52.790501 
-43.802528 -21.012360 -36.556370 
56.399059 -24.651939 2.111254 
14.806830 13.882920 -40.474670 
-5.110557 5.079322 49.665852 
-17.293110 27.328560 20.807100 
20.611441 13.501960 32.114811 
5.596857 4.664340 49.944469 
-44.601040 -7.310041 -20.241230 
56.054829 -15.621260 0.654919 
17.295870 30.414560 13.800740 
-28.841000 21.222000 -13.051960 
-36.639240 13.712890 -22.865219 
25.148140 6.110803 42.394100 
12.507710 -9.343106 -53.317230 
-15.271610 25.537100 3.773065 
6.824244 -0.899623 -45.933060 
51.497410 0.231271 6.333686 
-54.470329 -7.957233 -6.629873 
51.408539 0.644423 -4.516733 
45.072689 -21.994551 34.770000 
13.167480 -20.856529 50.223221 
-23.089260 26.231859 20.136181 
6.989991 0.238012 52.323589 
37.727749 12.100870 23.071051 
53.224751 -5.621184 8.594192 
9.317577 9.669470 41.370159 
38.078171 -3.298450 37.987049 
-11.565230 14.025650 -36.862190 
-15.684240 9.665493 -38.959869 
-6.385981 19.314461 -30.976210 
2.519774 11.029010 40.668400 
-45.437099 5.541447 3.724324 
13.276800 17.237200 -32.348080 
23.360189 18.461439 -23.522751 
-48.108601 -1.190566 -0.334301 
32.690880 -9.139566 38.081409 
19.160061 23.554070 -20.806730 
-3.547889 23.299879 -0.498641 
-17.735929 25.120070 12.975580 
-15.839550 18.425619 22.615749 
48.385811 1.728277 17.526779 
27.261560 13.396700 27.338499 
-23.287670 30.817610 1.994436 
8.414148 24.142830 -13.821510 
4.157929 6.404393 45.084862 
29.223190 -31.448311 49.298119 
4.710526 15.470710 33.862289 
-33.649971 -4.589911 43.051270 
21.925060 -28.634920 53.022831 
54.040340 -22.508591 -5.674033 
37.123661 -23.906570 37.525761 
49.104889 -17.922440 -28.398710 
48.689270 -28.210520 30.331659 
28.386169 22.929649 -1.719896 
-20.971081 -4.884054 45.505402 
27.795820 18.659201 -25.084841 
-23.222990 -5.720804 -48.456600 
33.734600 19.081980 -14.091040 
-7.890766 16.834999 30.011650 
48.720280 -6.874005 3.717176 
12.990140 26.825350 7.474473 
39.491291 3.182719 -31.122250 
-48.195011 -25.370850 20.920719 
6.867648 22.186661 -30.863411 
-6.422141 -6.012179 49.916321 
-51.880581 -0.786571 11.259670 
30.188570 18.124670 10.588300 
-24.611259 30.382040 9.712764 
-40.375130 -26.874769 33.624050 
27.377001 13.794650 -27.474051 
48.836342 6.463392 1.027123 
-44.042412 -18.453671 -35.510830 
20.272779 -18.534189 -49.953541 
-9.807331 -9.949038 49.941151 
-27.724390 -14.695870 -48.510231 
35.667591 -6.307172 41.612541 
35.369640 3.354652 -35.621040 
42.868320 3.456016 17.243719 
-29.042589 4.125814 -40.851959 
-20.079639 23.983959 -16.783770 
-21.339041 -31.675070 48.761570 
36.002628 -16.613899 -43.581760 
-31.078770 11.030290 -33.550579 
15.755920 -21.261660 54.864201 
44.499760 8.094757 -16.993799 
38.287971 -10.297340 -39.265541 
36.790619 9.438956 -28.724640 
20.612431 17.231920 24.864929 
-21.953581 12.504380 -33.586060 
-8.150014 13.858060 35.448929 
11.016930 13.407840 -42.140942 
-9.403555 12.304580 -38.938011 
-8.471940 24.917950 8.036630 
2.351597 25.087469 9.707254 
14.692690 14.295410 38.249710 
-1.448734 14.556700 -42.452469 
-37.840000 16.931740 -8.074151 
1.595325 -7.425977 -54.235569 
-43.963139 -22.682730 -30.647770 
18.751560 7.525496 -44.155720 
-50.107521 3.226655 9.959516 
26.684299 3.143538 -42.632469 
-22.186340 3.146622 -45.358601 
5.109170 24.892080 14.001540 
39.706680 9.469614 24.683729 
53.171440 -17.843519 18.777121 
34.995270 12.693900 25.937571 
-16.474609 5.575132 42.747169 
-26.044359 -20.903589 -50.962330 
11.632360 27.652670 19.521790 
54.519272 -9.125958 5.383512 
51.370899 -11.276250 -19.923340 
-20.370359 21.444389 -13.667140 
-20.104839 8.664636 42.444328 
42.898060 -2.057411 22.057600 
18.797871 27.084970 -8.997540 
48.698318 -13.254670 -14.368190 
47.454391 -19.399580 30.914600 
-27.060801 19.566700 2.359587 
-30.608940 -18.497471 47.999191 
11.118310 23.857540 -13.899570 
44.811661 -3.411487 29.463619 
-48.262890 0.372711 21.050680 
-40.919128 -13.113810 38.807350 
48.496250 -10.216300 -25.607830 
50.185280 -21.233610 -21.396231 
-12.848490 -34.071178 52.968510 
4.017746 24.035469 -26.967819 
8.103958 27.267309 29.071470 
-39.638611 -30.059940 35.306690 
-38.210659 -7.283240 40.073021 
43.089199 0.179867 -28.367359 
-48.622890 -9.284945 11.781880 
21.756050 28.601419 -0.806629 
46.133770 -11.922740 -30.425070 
44.189720 11.262730 -9.807702 
19.796690 6.039458 40.969250 
32.862808 -22.211040 40.705021 
-21.459200 11.899090 37.881519 
50.991001 -15.102580 3.991040 
25.437851 -17.270599 44.648979 
14.525020 7.862901 -40.181721 
33.159039 -13.365250 -44.737640 
45.818790 -1.421774 13.443590 
49.721870 -15.858320 12.580820 
21.997259 3.936668 -38.776798 
26.260370 19.154650 12.806910 
24.467730 -26.629829 46.926960 
-15.566270 22.393471 -26.246490 
25.256161 -19.806881 45.166691 
2.688056 34.844898 -15.429130 
50.324890 -12.394140 0.878285 
43.291111 11.479890 12.150670 
33.520191 -3.079585 -33.205479 
-50.081589 -16.150089 -25.400400 
-34.758560 0.309372 39.622070 
4.732848 14.917620 39.537430 
-21.431999 -1.153227 48.910130 
-54.437790 -28.033520 -8.679894 
-26.150970 19.574490 19.832430 
-6.344158 -7.459185 -53.872070 
-52.579880 -13.830900 20.136600 
-42.665508 9.541529 -3.950952 
17.165480 3.208889 48.208031 
-45.646679 -19.302950 -33.646889 
37.714748 1.503286 -25.827740 
26.100771 -6.303751 48.406590 
37.285439 6.267839 32.013748 
-55.853809 -12.819430 3.843203 
-33.861382 15.465990 9.839100 
25.014959 7.387640 -35.006069 
29.226009 3.751459 41.565010 
7.070930 -13.728000 -50.952438 
33.842041 -10.090870 44.231979 
-51.633652 -16.204220 -22.089029 
-6.986423 7.874628 47.229931 
-33.839550 -26.815960 45.967270 
-53.907928 -10.784880 -12.766880 
43.457859 -9.706712 24.588511 
33.722580 -10.756450 -36.846119 
-43.888592 -27.220200 36.540298 
-38.084679 9.090326 -27.935341 
24.915920 -7.815809 -42.049099 
-54.420712 -25.609131 -18.756420 
-31.740311 20.543819 -7.010849 
46.730560 -2.835319 25.864241 
42.632580 -7.639876 -33.336800 
3.431663 9.319333 42.560699 
23.249439 11.461870 38.062160 
-34.870121 19.007030 -2.434804 
7.342328 16.774561 -39.368919 
25.681841 21.244270 -1.390029 
26.322189 21.079660 -5.590364 
-57.167549 -28.746559 6.961640 
11.138810 27.313560 27.531590 
29.513821 -18.223579 48.481819 
-19.926510 20.822130 8.608916 
-32.126240 -22.615910 -45.470440 
-9.666806 7.745965 46.838848 
23.382629 23.437250 -15.809440 
42.704479 -24.812550 38.041279 
-57.530350 -28.416849 3.116854 
-15.533310 29.940241 -6.651388 
3.969648 -31.881510 57.253120 
-49.923721 -13.060860 7.546132 
-27.318029 13.976870 30.447250 
53.752892 -16.729210 -16.963961 
32.393211 9.437579 33.664902 
1.035856 19.958509 -30.541790 
-1.199126 3.510884 47.120590 
50.099979 -12.239340 4.461550 
-45.615871 -10.756680 -19.950800 
33.802139 -7.108318 36.604889 
54.664070 -23.921909 17.395411 
18.809561 5.040494 -45.643219 
-33.163502 10.774600 24.460291 
20.333570 -15.976220 47.042740 
-29.123110 -26.858910 43.547508 
-39.633690 15.852940 2.360212 
53.077179 -13.870910 17.136480 
-51.729469 -2.753252 -12.967280 
26.093019 21.345409 -20.050289 
-18.587049 29.738119 -11.958920 
39.399769 6.282686 -19.318211 
-46.702042 -13.184850 31.536671 
-47.101711 -24.793249 -27.562590 
8.385747 -13.447790 50.468418 
-49.933411 -20.741150 -15.685870 
17.283230 30.217800 11.124580 
11.521710 16.419161 -34.092129 
10.644350 -13.205720 55.514149 
-48.602692 -22.701950 -30.294991 
-48.107140 -14.288420 29.523640 
50.143021 3.669210 4.213121 
33.728352 13.897600 -19.056089 
-32.031139 -31.551760 42.530670 
39.002121 -14.477520 -33.550419 
35.403679 -7.437115 -33.438900 
27.690399 22.896580 4.628448 
-24.394819 19.777491 8.336100 
45.672428 -17.842190 -26.331570 
16.444229 17.886520 -34.935040 
0.920376 18.466070 34.440659 
-33.562630 -9.989555 38.009590 
45.987640 -11.357270 20.088751 
39.193741 16.849239 -1.961565 
26.535431 -11.602820 -48.483551 
-4.962392 13.786290 36.247589 
-48.677151 -20.430790 17.275921 
-47.896461 -5.702713 -9.722704 
27.950130 16.655689 26.210039 
19.218630 14.488510 -37.930672 
36.859711 6.704976 -23.246870 
-51.344082 -24.515751 11.428090 
-53.506901 -26.533251 -0.064006 
20.572290 12.550880 -39.249882 
-34.994320 1.587505 -37.642971 
23.517460 -1.306921 -40.137581 
12.855050 27.088530 4.868173 
2.691406 -19.566130 57.029011 
-51.074841 -7.214205 20.976561 
33.899239 0.091651 -38.908119 
33.819801 -2.129097 35.110062 
39.964611 -4.333513 -25.948771 
27.021870 15.395870 23.591270 
29.875370 -4.820986 39.494659 
23.505251 15.159860 32.558701 
48.339981 -7.916244 -8.126117 
-18.182760 -31.380850 54.230289 
23.510521 21.882290 -8.181117 
41.077541 15.356360 0.627332 
-30.504610 -3.136207 -36.459980 
-15.820590 12.540690 -36.722839 
18.732590 28.990700 -7.214691 
8.346283 15.390510 33.575481 
27.788490 -0.993996 45.338799 
-42.773159 4.926747 17.342251 
-9.251198 21.044310 -26.192890 
-29.081720 -34.070709 48.751480 
27.368710 18.187590 15.156520 
36.927780 -27.158340 43.919579 
-48.757660 -7.556102 9.823749 
38.652931 -7.897765 -37.994450 
-51.442081 -25.976589 -24.504459 
22.494970 21.095160 9.197132 
33.815060 8.579564 27.616840 
47.223122 -21.871170 31.859390 
14.449360 3.038649 49.192982 
29.046841 -6.450313 -45.285858 
-21.767521 23.220200 23.123039 
22.187170 0.332362 -46.500229 
41.486980 -8.894408 -35.299290 
-41.721298 14.158980 -6.973084 
33.986420 -0.889711 -31.662951 
2.370331 -18.142220 -53.551220 
-38.067539 -17.882870 34.385120 
15.890160 29.026699 6.385681 
-41.131008 7.512271 16.839439 
49.376282 -17.032900 -16.943081 
-26.391880 -6.558932 -47.091270 
-30.408230 -10.446570 47.124439 
-26.053221 21.581421 -17.472639 
-42.945259 8.237274 -8.267314 
-15.672500 -10.287990 48.456749 
27.753910 -21.887550 44.137650 
34.275532 -24.374809 45.733280 
0.987296 24.036160 -5.128853 
48.020939 -5.907641 -6.458827 
-46.096260 -20.218260 -25.013870 
10.233980 20.101370 22.756849 
46.699211 4.610976 -16.974951 
-0.467208 24.442671 -10.878660 
47.103821 -13.437580 -19.233130 
19.772360 22.728889 2.157290 
50.829609 1.336498 8.650298 
48.955009 -4.410586 -20.931730 
32.249439 13.942440 20.697430 
23.871111 -8.274977 50.100281 
30.660919 9.206051 30.368311 
-15.533510 3.251101 44.679760 
36.762329 16.676140 13.123300 
0.846121 -15.137820 -56.389130 
-43.876770 -32.620811 32.137211 
45.856861 2.900519 -0.520189 
18.914709 -14.775580 -48.227310 
42.685638 12.426740 -11.682500 
2.706300 -11.676540 50.966358 
39.723129 -11.854570 -30.896160 
0.794001 25.795019 4.336588 
-30.694790 1.896741 -40.948872 
-0.478024 8.862327 -47.209629 
8.309615 -16.564301 50.778240 
36.826561 15.556210 -0.973737 
11.033770 1.623236 -49.810242 
49.569370 4.101778 -6.567905 
47.240681 -19.315531 21.853559 
20.352480 13.706730 36.653000 
25.595409 10.583800 33.016899 
44.412022 -14.061040 24.614759 
-24.487200 31.046829 4.269300 
19.602730 5.278119 -39.377209 
33.189751 -8.091906 -35.984520 
-9.778936 19.939541 -28.703671 
40.896931 7.347341 25.794670 
22.343241 18.404110 20.246901 
41.336319 -18.549179 -33.606060 
0.170288 32.617378 -17.115370 
44.359638 -14.864500 -26.198730 
-53.796310 -7.131222 -9.067245 
-26.035561 11.053670 -37.528198 
-50.638779 -14.479130 2.013237 
41.875301 -2.345408 -21.541340 
-18.830629 21.571501 -26.087009 
44.329151 -19.516239 35.356930 
-3.695613 -8.002084 55.524990 
-11.120610 24.197069 14.077790 
-15.494710 24.492870 15.668070 
-49.338909 -12.672370 -9.577341 
-50.874451 -19.389090 -9.880263 
44.124901 -11.283910 -32.996460 
-44.963020 11.004630 5.323379 
-47.593880 -13.372450 17.296301 
-13.036170 25.765011 1.995780 
-12.704470 -13.727530 55.227829 
21.890341 30.707609 4.004056 
-3.559837 7.201971 -43.038151 
25.769251 -29.658409 51.378719 
-24.943451 20.003990 5.612463 
15.861380 -27.740219 50.569439 
28.494080 19.836189 -21.299990 
19.666679 -1.413450 49.664902 
3.810511 -19.549049 -55.242870 
-30.541920 15.683090 23.806271 
-44.090069 8.048129 18.624849 
-45.738140 -3.536959 -27.573879 
26.241220 -10.821620 -42.597889 
-7.718001 -10.557410 -54.548611 
45.704239 3.329094 2.063062 
-42.105621 -23.545500 30.640511 
33.295330 17.011850 -11.071400 
-19.873289 26.390560 11.736040 
-3.369358 -10.569730 -49.896210 
-33.758610 13.942890 15.813630 
-0.337486 1.588137 -45.577839 
43.366951 4.129186 14.795880 
-33.006531 5.745031 -29.974449 
-27.161190 20.415190 -20.149811 
23.667521 12.575300 -31.943541 
-42.068569 14.139690 -0.279271 
13.668660 30.503830 23.576071 
32.214359 21.058680 -5.224950 
9.783152 34.977612 -11.731810 
-30.628090 -31.611900 48.235828 
26.367531 23.695850 2.466337 
-22.280300 -19.516560 -48.389721 
-45.508991 5.259526 -2.300018 
53.074539 -3.296590 1.896296 
-15.244890 14.264980 32.156219 
22.704020 28.476480 8.147689 
38.167721 -18.780100 41.910679 
29.187811 19.862869 0.946524 
40.964539 15.265580 3.226870 
42.960701 -28.606621 33.732830 
2.175699 -26.296789 52.560169 
41.762291 9.065085 21.542480 
-47.169899 -19.132059 -21.992180 
51.378658 -5.890897 -15.564840 
29.412430 -12.614150 -47.085609 
-25.774620 9.400971 33.709290 
-22.891500 17.166420 27.881390 
-5.028251 32.085701 -12.619030 
-25.189501 -9.311048 49.905121 
18.423380 -27.791019 54.266090 
-32.870831 16.938150 17.331289 
51.673851 -8.762707 -17.138960 
16.398220 23.172779 3.304392 
20.235090 -8.225866 -50.478489 
41.018951 -6.811783 -25.852091 
-9.702628 12.506810 37.277180 
38.674259 12.661880 10.091950 
-30.620741 18.293091 16.802151 
34.583462 19.816931 -4.697638 
5.861981 25.471701 8.038398 
25.996981 -9.502935 49.279411 
38.426910 17.355749 -4.488614 
-29.279100 -20.931440 42.529251 
-42.012539 9.950040 -6.480603 
0.998439 13.882030 -38.683380 
39.976181 9.247394 -14.029840 
-38.050900 -21.061541 -37.233028 
11.392770 -18.255960 -56.152420 
-6.239476 -26.709040 52.178768 
33.801048 6.182442 30.183479 
47.807701 -7.941599 -10.826700 
-6.653181 -3.644646 -52.636292 
2.666258 25.356480 -23.351641 
-45.493481 -5.716665 30.725510 
36.243710 -30.075411 41.068470 
-48.558350 1.745070 -17.001789 
37.626591 -14.112080 41.785030 
-8.105111 24.591801 10.623770 
44.201519 4.507377 -8.392426 
55.506458 -15.043230 -7.171790 
-51.293690 -9.744367 21.756660 
31.081360 16.266979 -18.491871 
39.702221 15.429970 9.361484 
45.817581 10.326880 -3.803060 
-23.683050 -7.189394 50.129250 
-20.223339 -2.554376 -42.629650 
30.832010 6.278988 -30.875231 
-48.921249 -8.657610 -7.527812 
-24.651079 18.127569 -28.962999 
33.737389 12.380480 -28.769329 
40.819172 -15.745780 -32.138962 
-13.606450 18.427870 24.045361 
-2.692668 11.067320 40.476170 
-12.413280 19.229000 -29.121080 
39.720459 5.774764 29.499081 
-36.580009 15.072270 -0.991403 
45.495022 -24.131630 27.526220 
-12.566330 22.141781 3.735966 
-2.081350 24.007690 31.937811 
27.839050 15.588540 -30.511990 
24.940399 1.977976 45.446770 
-33.625912 -13.347170 -37.715351 
42.854851 -7.170019 24.644079 
29.471451 18.405041 -14.956130 
48.745979 -20.951151 29.217070 
0.125886 16.904430 -35.443619 
31.119591 18.379669 6.643441 
-43.990669 7.553356 -19.905970 
38.235119 16.927530 7.331916 
-17.007561 27.369961 -14.313350 
-36.105492 6.919438 26.733950 
35.516460 11.824550 -19.436979 
13.254670 -22.951349 55.563759 
31.876341 11.994740 -31.311211 
10.018140 21.185030 -32.059059 
-35.119370 -22.242491 38.033371 
-27.443899 -0.251745 -44.144630 
11.504820 12.338740 41.834469 
-34.105598 13.911130 -26.248911 
17.353371 22.510389 8.261898 
-37.988579 12.224620 -13.910160 
24.676710 15.287170 26.039040 
17.044210 5.016668 42.898041 
-48.198719 -2.069756 23.397699 
-50.117088 -11.257690 1.443414 
-35.530991 -20.607920 -39.543629 
0.867987 21.472610 -33.018509 
-27.101391 16.960699 -28.843081 
-9.183335 18.982800 -35.964180 
29.314791 11.130150 29.133280 
35.148548 16.834299 -18.415079 
-24.735161 31.618931 -0.157008 
41.469181 -10.368350 37.001228 
39.609692 -14.666950 32.026169 
46.588131 -4.659530 -11.613950 
-33.264790 -21.958200 -42.670750 
-12.181540 20.859020 12.951160 
-6.743213 19.955730 21.628531 
-33.579689 -4.269567 -34.171829 
40.022560 0.305002 -23.060020 
-49.443481 -7.131001 0.859406 
-37.891960 -22.304359 42.575039 
-36.494690 11.573850 17.491230 
23.239071 24.014870 -13.041700 
48.787289 5.927217 -4.690647 
-17.120239 9.223826 -43.749199 
-13.953200 -21.115660 55.392021 
-16.987570 -20.839451 54.523151 
43.996929 -6.027072 -19.912930 
-23.240471 4.854708 40.057430 
-8.063492 -24.835640 51.619949 
42.272228 6.268457 -12.407830 
-15.245110 -4.303725 -45.184811 
-49.970581 -31.000700 21.031521 
-18.632250 -18.123890 -49.347260 
-47.146770 1.657470 4.167007 
11.409550 -0.051591 -44.653938 
24.869499 24.512159 -1.068676 
-32.133381 15.650960 -17.342140 
42.235870 7.899137 11.429020 
-20.389059 5.054376 45.561230 
20.061270 21.415560 11.379200 
10.292830 19.401520 31.701710 
-22.492849 20.517929 -15.721070 
30.765551 -19.580151 -45.465302 
54.733372 -9.056253 -2.230631 
-55.548752 -29.688419 1.966302 
-53.456470 -29.678520 9.799699 
7.051650 20.658760 31.356039 
-56.780022 -26.925070 -9.693192 
4.882793 -13.804160 -55.810680 
10.968370 10.995990 -44.249809 
7.371039 29.601170 28.106569 
17.307421 19.972170 19.562651 
-17.684780 20.046560 -23.647499 
-29.128370 17.465071 10.909640 
16.105619 -5.633240 -51.181969 
-46.789589 -24.913710 32.690220 
46.840031 8.728190 5.542632 
2.879571 23.897650 -17.478649 
36.316841 -24.107100 44.099400 
-7.970493 22.360279 4.613708 
42.810791 3.245618 -14.947650 
51.834579 -5.001074 -13.167960 
6.266526 24.391821 -12.399710 
-25.906630 20.170361 0.010580 
9.750435 23.177740 -19.200920 
-53.004230 -9.191763 16.260189 
-13.721600 -10.254270 -47.828449 
-4.832716 4.381804 46.378109 
-29.687920 20.329290 -15.674740 
-7.223952 -10.457530 50.433430 
0.480985 16.141781 32.558670 
18.737961 -19.976021 53.812931 
4.938147 18.371120 -33.013870 
-51.604939 -17.248060 23.202030 
-4.709145 9.376109 -46.619061 
27.246490 4.624536 -34.969212 
8.395918 -15.857840 -51.679298 
-11.206250 4.068799 45.457760 
-27.246321 -9.086345 -41.010941 
-4.825692 26.874929 -3.110751 
18.405359 25.766630 21.275400 
-39.814529 -32.762798 36.582180 
11.201990 10.737610 39.713741 
56.139629 -17.635950 -6.815925 
-53.020630 -6.466182 -11.715280 
50.129700 -20.121960 15.507980 
28.063271 17.092230 -27.860710 
-15.646250 24.404221 28.134270 
48.604221 3.243017 -13.280820 
16.694719 15.410600 -38.053108 
34.511360 12.827820 19.701830 
35.320271 6.828030 33.647240 
9.199986 -22.570770 51.302269 
-13.324210 -6.093564 -52.169319 
-41.048840 -6.108949 -35.155159 
29.848080 16.992380 15.775860 
-21.545200 -19.224770 52.801800 
45.723461 10.593880 -0.251174 
10.542700 -13.272380 -54.855080 
-50.088871 -3.057667 -18.263670 
30.740351 4.845294 34.447361 
-35.781582 18.406549 -5.095809 
13.529980 22.905930 -26.838560 
-0.465613 19.234289 26.254881 
-45.657310 9.577300 -10.100480 
26.273609 10.320950 -31.950430 
13.894480 -7.271195 -52.359871 
-44.248749 9.360216 -15.773660 
-47.118599 -5.973245 15.645170 
-26.319839 16.011950 -31.201540 
-54.522942 -28.358610 -2.259563 
-28.464270 9.355353 31.652229 
-15.093570 17.343330 -31.265369 
-33.393101 10.454940 30.648870 
16.484350 32.532021 -1.398754 
-18.007570 28.158070 -1.830934 
44.251369 -1.431768 -15.686290 
33.663250 -0.829475 40.973949 
8.303465 24.059429 -25.922779 
-18.637421 20.952860 26.654810 
-18.605089 21.093941 -18.774630 
-54.540100 -9.758375 -8.495977 
-41.572090 -11.993890 -36.571602 
13.498460 25.970490 -17.173281 
47.114639 -1.501897 -3.674029 
56.243149 -24.123159 12.154020 
44.540100 9.633795 13.639410 
-3.615304 30.380590 -18.033381 
-18.847540 -13.965400 47.599800 
3.911393 26.697399 -0.173054 
55.326130 -14.710180 8.337923 
-36.822460 -8.824368 -40.373901 
17.172930 18.140570 -28.998831 
-14.130560 21.185980 -22.861349 
-37.631489 16.633459 -11.216610 
5.761108 9.270045 46.198509 
32.492889 -20.022739 46.661678 
-49.886478 -22.532061 14.944290 
44.361382 -20.544399 -32.337490 
-43.520790 -25.711109 29.239090 
-47.759560 -17.876110 -19.564690 
42.803539 8.678964 5.319366 
-7.534004 -5.806356 54.554340 
-24.237080 -22.605789 51.689442 
-36.603119 10.494100 19.861441 
0.706274 24.736000 12.097380 
5.086696 -3.118484 -52.639721 
-38.154072 -30.460621 42.520302 
-28.866171 19.126671 -6.328034 
-50.174549 -13.299890 -4.821944 
-37.323971 14.276760 17.482430 
-7.007873 0.002841 52.431561 
1.249519 -31.894051 57.355141 
32.782310 16.817699 10.615440 
-27.572880 -23.906441 44.055260 
24.749710 9.537899 39.369850 
-0.486779 14.738540 35.105598 
30.568480 -0.483000 -34.746929 
-41.208618 13.913780 -11.262130 
29.222200 5.901000 39.876942 
-47.561069 5.696924 14.210920 
29.476000 16.477880 -20.523781 
-6.696208 2.621347 47.136650 
-22.610640 -13.010830 45.822811 
35.259460 15.157540 11.269640 
-36.536869 12.275840 23.574949 
41.384682 4.565676 -16.970119 
28.089720 1.581475 38.601238 
-9.511547 28.279961 29.735840 
-49.644341 -19.270361 13.673210 
5.336564 -19.971180 56.837841 
-24.781509 21.432810 -20.044531 
46.014889 -9.000127 18.693661 
8.433520 23.200911 2.353152 
-35.779449 -18.749451 -43.944939 
-5.048017 19.814421 32.779110 
2.074605 16.887329 36.765820 
-15.483800 -9.763086 -52.582748 
-17.652929 -30.365021 49.934029 
-14.164740 32.118382 -9.685716 
38.542469 -18.028250 34.263149 
23.360229 -5.593256 49.614140 
28.243641 -19.462379 -47.015831 
-16.067471 0.314397 45.919071 
-28.843390 18.358021 6.761608 
23.379400 15.066300 -34.784050 
-20.132650 21.805799 0.398740 
-16.724291 21.685289 5.019588 
-56.459061 -30.313021 8.914738 
-44.435150 -4.273052 -19.002720 
41.260059 13.094240 -14.339960 
19.646780 17.502270 -28.491310 
14.374810 13.818750 34.544472 
-49.736141 -10.725670 -4.432658 
-15.142930 -4.317857 52.462379 
-39.636860 -2.419788 -35.113400 
41.226509 11.123650 -2.406205 
5.304775 12.616390 42.567749 
6.290612 -11.277670 -49.968498 
3.170053 12.455320 -39.718430 
38.190048 10.093830 -26.001101 
-30.190081 -12.564620 -46.459339 
-12.189560 6.201014 -47.281109 
21.785669 11.748600 34.025921 
44.249420 -11.582890 -23.764709 
51.222099 -15.156700 -1.401363 
-9.532003 19.381170 23.244289 
-51.615959 -21.867149 -9.442142 
24.531651 -4.661347 -40.918209 
35.344582 16.120430 -7.972508 
10.105030 22.697670 7.410180 
37.226028 -16.784870 -36.967659 
-32.072929 20.544331 -0.554511 
25.171459 -12.617720 -44.156330 
40.771130 15.539760 -3.537798 
-33.607559 4.127076 -37.297680 
34.323669 -11.045720 36.959740 
-29.773491 -23.769211 42.570980 
-21.558241 -31.557631 52.955170 
2.339389 -5.945014 50.223221 
-9.701065 25.585690 3.242445 
-9.868764 -33.006920 52.910549 
-7.599497 -31.619841 52.836861 
-35.748299 6.303704 33.586712 
4.214816 -1.370182 -46.419460 
44.513111 -7.397562 31.934410 
2.380887 -9.119936 50.704151 
-23.066389 22.872841 -16.972151 
9.106809 25.890980 -20.069420 
52.114769 -23.198429 12.484890 
35.757801 -11.867170 43.050400 
32.815632 16.818850 -22.477791 
29.329100 17.115061 23.767910 
-44.230560 7.561712 -2.097273 
-31.475809 20.523470 5.036013 
4.756373 -26.977171 52.529572 
0.985012 6.337153 49.011810 
-40.781559 -5.770654 36.826481 
-47.911419 -19.877119 -30.456499 
10.128900 6.568552 44.001431 
47.714458 -21.867760 22.473089 
12.787830 -13.858610 49.519070 
-12.476840 19.846170 -33.452721 
42.766609 -29.729719 36.113079 
-9.673566 22.612150 -28.817341 
-23.966299 20.709160 1.962671 
-3.622425 24.261040 -26.234180 
36.810329 15.498800 1.655270 
0.108145 -1.736816 53.678509 
18.640301 12.272620 35.008282 
-53.103130 -25.142891 -2.580763 
-51.550541 -0.322971 -9.444832 
-42.615231 9.297290 6.119619 
-8.203437 26.236771 -0.332028 
15.851850 -30.490629 55.176590 
8.314449 24.320391 29.761360 
16.019970 -1.444105 51.029881 
-10.960980 -15.987270 -55.371510 
30.034069 21.787760 4.634372 
22.855591 12.459460 -38.049831 
-5.064291 15.444200 -36.789070 
-11.821130 21.438869 9.106760 
14.384910 21.435860 16.131470 
42.352791 -29.011410 38.954750 
-19.681061 18.270630 -26.533760 
45.287140 -7.523570 -18.217489 
26.412420 -21.142969 50.460850 
43.199421 -0.152378 20.048250 
42.050919 8.635258 -21.530661 
22.167299 7.830767 -36.570339 
-23.355881 5.175678 44.021210 
16.614100 22.819321 -15.516390 
37.479610 -28.850109 39.104721 
10.393330 1.746023 46.786011 
14.877960 16.892870 34.168892 
51.424229 -25.516529 17.596821 
-21.698059 20.028870 11.286920 
32.765869 10.528860 -25.165991 
7.298602 -10.181890 55.594398 
48.921028 -2.945967 21.131100 
17.669340 15.563090 30.145470 
36.485100 13.735090 13.205870 
2.356310 18.788389 -32.604038 
50.209881 -13.532170 6.765483 
5.491811 22.427200 8.381641 
29.085560 7.774810 33.434872 
-2.503024 24.283091 -9.053367 
17.829260 2.976287 -47.120621 
-44.779980 -17.871710 24.974930 
-39.314800 2.351314 26.840700 
-49.915161 -15.373100 9.749907 
6.532585 11.031210 44.290871 
51.376228 -16.502760 -6.609031 
3.894665 23.362329 -20.117920 
48.988869 -21.327999 -25.686159 
5.461171 21.979509 11.553410 
-44.932911 0.493164 -14.321200 
-31.858789 -13.438950 46.679180 
39.905029 -19.711559 -36.761509 
17.554041 -29.705420 50.493679 
40.610882 -2.903712 34.994999 
-5.182692 0.216066 48.375820 
-21.261730 -6.538479 51.016998 
-39.734581 -10.760100 -38.177921 
32.576050 20.649269 3.647731 
45.674320 9.051983 -10.937110 
-8.595496 9.627115 -40.985619 
-42.300671 -15.240150 37.606339 
46.119141 9.235334 -8.160931 
36.025421 15.270200 8.199937 
39.959629 -1.874278 -24.505440 
-16.562189 25.143539 7.009236 
23.292480 20.618860 -17.129930 
-6.119702 24.084970 -13.599890 
-14.262920 20.060381 -26.180950 
-19.819660 15.679540 32.813381 
-24.777361 -27.147520 51.450390 
5.474861 -25.482031 56.940189 
-28.910259 22.047331 -6.213686 
-12.542770 -13.465120 -54.342312 
12.804030 -0.104251 46.878220 
-33.693661 12.351130 20.330330 
43.799561 10.643380 -13.269520 
8.651589 22.243469 -23.565121 
-41.387489 13.932190 7.414484 
-36.426208 9.470322 28.731091 
22.259979 20.009190 -27.573441 
-18.677660 -4.485657 51.357140 
15.892530 -19.191750 -54.301899 
-0.380623 -5.231389 50.156490 
26.544991 19.677910 -15.567720 
28.343531 12.841310 32.635040 
22.025850 29.520180 1.682408 
-32.004669 7.967935 30.214060 
-55.482761 -19.198050 11.737380 
15.805780 21.961121 -27.907270 
10.342900 -25.050600 51.456669 
4.288151 24.354490 -14.091460 
46.716919 0.474763 -0.700006 
-13.616360 19.310869 21.194580 
-56.881710 -21.199530 -2.309794 
20.251671 32.656738 9.569054 
-55.346470 -25.288469 14.397530 
-2.179264 23.058081 2.442400 
-44.572262 -11.700170 23.931549 
-5.807538 23.795549 -16.333220 
-34.294601 2.951923 -30.336571 
41.365139 1.642702 -29.814070 
-44.201321 -14.148480 35.158619 
-0.638781 -8.932772 50.753399 
-38.086922 11.058760 15.529420 
39.475510 -5.578957 37.584629 
53.769032 -22.473900 -9.893896 
-40.409760 4.962286 -29.216681 
-48.616730 -5.089410 8.173946 
0.895015 24.381340 -8.579481 
38.943180 16.805660 3.828282 
13.812680 20.931471 18.624201 
-20.127991 19.186581 -23.902229 
41.369591 8.475536 -11.390160 
-27.639351 -31.934469 50.027538 
-21.367090 17.187550 -33.125889 
-19.725040 -33.702660 50.338909 
-34.150829 -16.794910 38.180729 
33.753220 -15.115270 45.198391 
-48.107769 -4.179507 -7.129405 
-55.291061 -16.328390 -10.285440 
56.807652 -19.441370 -2.181489 
39.971470 11.675450 20.077860 
-39.591942 10.034300 23.273470 
41.684898 13.520820 10.161180 
-4.997155 25.281990 -23.020691 
-7.746129 -2.783077 49.006691 
50.358929 -2.660537 17.114759 
12.278520 -23.276930 50.765690 
-36.474602 1.309394 -28.767731 
-3.331640 21.014191 15.638420 
-19.701410 -10.124700 -51.220840 
38.292931 -11.819340 32.870258 
20.127090 9.076277 42.310902 
0.779448 -10.107150 -49.815708 
-23.456200 32.119091 -2.374267 
-13.096240 -10.310070 -53.399502 
35.701672 13.696370 -24.246229 
14.264970 18.286940 32.068371 
-47.686729 -19.054850 19.261391 
-21.608891 -28.250750 52.883492 
-30.745020 7.157262 32.349289 
-37.042389 -24.760260 43.376949 
44.429420 -25.700920 36.176338 
34.659920 6.246184 -26.661770 
34.544140 -0.160751 33.502979 
27.581881 21.389441 -17.563580 
-26.935280 28.117451 2.634753 
-37.661449 -26.845770 36.552811 
-50.249580 -5.924533 -20.177750 
-1.729794 21.219391 -33.424728 
40.692032 15.340760 -6.687440 
-47.009201 0.953179 -5.207298 
40.678970 15.175430 6.793998 
-50.789349 -27.153940 26.348860 
8.697207 -19.445061 -55.350731 
52.541660 -22.537861 9.793032 
-11.044000 29.377640 -16.747490 
-24.272730 19.953850 21.738029 
16.322580 -3.213012 -44.300781 
-19.431150 17.300920 22.887871 
36.982559 14.143800 20.005480 
-24.156330 15.598750 -33.517342 
-15.489850 -8.659139 -46.666851 
-38.955410 11.616140 11.580960 
36.546150 4.647951 34.374489 
51.724571 -27.475880 24.538679 
-39.887951 -2.782896 29.120930 
41.335220 14.190880 -10.064100 
-43.459919 11.118270 12.004790 
-1.796635 29.022530 -9.762050 
46.064049 -14.940050 -23.040171 
11.022790 13.992800 39.775249 
-27.929819 24.597509 7.128755 
32.676689 -16.236570 -40.858040 
5.301646 10.365140 -40.972610 
52.664730 -15.315730 -19.149179 
-33.581589 4.719290 32.013359 
-26.062950 20.059080 -9.062775 
31.046200 20.638411 -13.662270 
46.037182 -7.395076 29.747061 
-17.117189 22.475611 -12.252290 
-18.673889 7.316316 44.391762 
-4.937237 24.484079 31.575649 
-24.861410 -8.296788 -48.408112 
-30.258209 -28.153151 48.418388 
-35.977859 -9.745379 -33.910511 
20.326269 -5.273327 45.496651 
-11.008250 -31.629930 56.185150 
43.177280 -16.403509 27.629089 
36.005989 13.397350 -15.601630 
-14.688510 2.729388 -48.431911 
45.390209 3.751201 4.807495 
-0.625337 1.132220 48.269112 
-54.824409 -11.836950 10.888690 
44.933369 2.699099 11.081970 
18.831490 -6.987004 51.940498 
-10.843440 -9.033904 54.826050 
-43.792412 -24.412621 -33.519100 
-3.021085 12.621360 -39.633869 
-46.883720 -20.088989 21.511740 
38.195499 -8.606221 32.148060 
-3.762800 13.822780 40.950581 
-39.040180 -23.374990 -38.445869 
3.945186 -5.996891 -53.685490 
42.556160 -20.412729 -34.941250 
32.523781 18.120960 16.627640 
-18.328770 0.054361 -48.408081 
33.330051 -27.157591 46.679821 
56.623150 -19.426350 4.099726 
-2.209600 6.116474 45.392239 
-44.033340 -7.234773 23.880690 
31.221609 21.403061 -7.613525 
44.666119 -14.711750 -33.722160 
-21.558531 -13.601040 -46.048050 
51.309021 1.236036 3.511574 
-42.608028 2.811013 20.456631 
43.195770 -12.240390 -26.108191 
21.120899 -11.877180 -51.205471 
54.047810 -25.531260 11.075210 
-49.898621 -0.043323 17.064110 
-2.585562 16.914049 -35.310600 
-30.326200 -1.212303 43.962421 
-18.560961 21.744329 3.115430 
-7.462004 26.727659 -2.931804 
35.061329 16.520121 4.131500 
22.874090 22.561331 -20.135349 
49.380268 -12.715080 -25.243090 
5.310404 -22.802780 56.904030 
53.306709 -14.181120 -16.422310 
5.537714 8.062093 -42.321308 
-26.387350 19.958389 -22.683929 
1.193253 -22.664780 57.152889 
8.358031 25.216209 14.590370 
53.167240 -22.104780 -18.888309 
-33.559841 18.230431 11.504610 
-38.848228 -5.018353 38.563110 
32.172932 -12.095320 39.106190 
-27.457979 -26.708361 50.054878 
45.650341 2.952686 -3.231728 
-3.503298 24.309931 -12.769660 
-29.155849 -17.143290 -43.040951 
-16.445971 -14.450390 48.541351 
11.524830 -6.100524 -52.594299 
-2.301574 26.565340 -0.772302 
16.651911 22.196659 10.895240 
-37.943089 16.440460 7.041686 
-19.856060 -16.841200 -52.875229 
46.066311 -6.982000 -15.682080 
24.885851 -23.980730 51.414028 
14.848020 -33.222038 54.342709 
42.700199 9.174571 -0.393789 
-2.001749 34.860561 -15.406800 
14.264230 -5.549724 53.029270 
1.190340 -7.244901 -48.760220 
-38.701969 -13.364840 41.075420 
25.546721 -19.446211 -49.943581 
-38.914829 -18.862379 -34.976131 
22.655121 -31.171431 52.921829 
-17.366421 -17.018209 -53.840988 
10.813410 29.010370 -3.701313 
45.370831 -16.296659 33.415562 
-10.993530 28.869850 -8.163939 
24.784840 24.127081 8.247718 
31.660480 -16.634680 -46.889320 
38.889729 -8.460241 -29.883240 
-7.631118 8.649677 42.532341 
20.521120 7.088449 43.989590 
15.198690 10.883730 -38.014431 
-2.100092 -18.038561 -53.367199 
-26.521210 22.127270 -13.892770 
-6.391941 -19.304449 51.297859 
30.817680 19.812090 -17.612150 
47.374310 -11.855420 -16.920820 
1.191134 22.295679 -24.721991 
-50.768059 -15.301460 24.722851 
39.990341 10.659520 -11.117770 
-27.819780 4.866841 41.597160 
26.402370 23.114630 -11.157790 
-0.883870 17.163561 30.586620 
-22.924490 28.993561 11.118930 
-18.104860 0.209817 -42.565552 
54.675369 -11.736790 -8.026775 
16.834869 -18.290680 54.385151 
41.176991 6.600990 -15.011860 
23.435749 14.599880 28.355570 
-45.756802 8.553011 -12.922580 
38.795280 8.643503 27.139540 
-22.991341 18.404831 25.394260 
-52.786240 -2.484813 9.088794 
53.232731 -25.297750 21.737961 
-23.498051 25.932211 -8.107216 
-43.531929 -5.850124 -31.971220 
4.946427 -0.135857 -51.552158 
-25.294991 -5.631183 48.830070 
-34.338959 15.513820 19.065599 
57.645699 -23.306801 -0.758102 
39.733009 11.434230 -21.468990 
12.955380 14.692540 -35.582802 
5.393157 27.482929 25.256580 
33.816582 19.560120 -11.521470 
-5.378600 32.164310 -17.210569 
1.358250 -0.379860 -46.260818 
19.491631 19.954550 26.225790 
0.490221 23.193300 1.939617 
25.520729 -31.539320 48.656399 
-50.034580 2.259287 -11.176110 
-54.059528 -8.808504 11.682280 
45.862598 1.742054 7.789392 
37.182270 4.437806 27.309919 
-21.006439 27.301580 8.030290 
19.400490 24.537479 -16.679569 
2.893969 28.662630 -8.149100 
-47.073952 -16.345230 19.701059 
-9.167350 13.672140 -42.366409 
31.525181 10.897040 27.155020 
-46.337490 -2.562654 15.728820 
21.226891 -17.495781 -52.894939 
9.159429 18.907110 26.160219 
2.276240 -20.571920 51.806660 
-31.876980 -5.394135 -36.123451 
-9.336987 15.777910 -40.148121 
-35.077740 -3.270738 -32.318192 
-42.794880 0.731416 22.030359 
-21.682270 15.273250 -35.600819 
8.023958 7.170682 -42.390041 
26.248240 16.480360 28.157490 
-43.679241 -21.315430 36.531731 
45.337841 2.124193 -7.647141 
43.046749 -15.195830 -35.980579 
31.332790 8.165711 -28.984671 
14.435490 -25.449579 50.566669 
25.593821 15.194330 31.020479 
-19.633261 13.860710 -33.535439 
43.329250 -10.659060 34.692928 
42.755211 10.228470 17.276951 
-11.899580 15.510940 -39.729290 
14.708980 18.405300 -29.905291 
41.457279 5.109032 27.703150 
-54.600842 -17.508579 -13.931410 
-1.799589 26.498030 26.271061 
-29.070709 -15.606370 48.756660 
-45.610500 -16.405630 22.985029 
-22.054729 6.423617 -37.999249 
-12.302410 27.850100 -6.082836 
-32.129219 -14.716680 -39.632900 
-2.937019 10.975790 -45.557968 
46.303070 -14.987300 21.363380 
-39.720341 -28.476589 41.028900 
2.718206 13.911510 41.062222 
-52.632919 -21.083561 21.757790 
6.628994 -7.332756 -48.375172 
-38.072720 -16.118191 -34.503880 
46.109241 9.304730 8.276554 
-33.644539 -7.026032 -35.148090 
-18.556021 10.782470 36.334770 
46.725529 7.783347 10.267560 
-38.711151 -10.015570 -30.905830 
14.389560 27.435801 9.632466 
-7.317663 20.549021 -28.162121 
51.767071 -15.687790 -21.675550 
1.657344 21.207121 -27.808390 
42.670151 9.219748 2.223154 
20.443741 10.470720 -41.184200 
-15.051220 -7.755285 48.328079 
25.868111 20.678591 4.559470 
-36.662270 -19.255489 36.079208 
33.196011 -1.852209 -40.455750 
19.170549 1.627254 -41.217670 
-53.605499 -17.829750 -17.510241 
-42.186031 8.306765 -11.210470 
11.468830 25.868370 -18.877569 
49.777390 1.916141 12.410890 
51.711811 -1.930973 -9.332558 
10.465850 -33.179508 53.910221 
50.914619 -0.050154 11.043180 
24.816120 -13.911890 -50.100750 
22.765909 25.885780 -2.744909 
-47.084969 1.308925 -21.338921 
24.934019 -4.380667 -46.988880 
23.382059 4.956799 39.863800 
-4.795115 28.142670 -18.952730 
-29.241449 12.488540 -27.601839 
-45.245708 -28.750799 27.693960 
-52.633240 -26.813271 -15.090100 
-42.544769 -30.182961 32.012760 
-10.668900 -16.413731 -51.178162 
-9.101840 23.558241 -15.555550 
5.344418 18.095421 -38.023602 
48.196800 -10.287270 -12.337990 
-21.587721 21.704180 -6.393887 
-32.731701 2.378128 -39.135921 
-42.675831 0.353150 30.886431 
8.258443 19.083111 -36.088421 
42.066071 6.997622 14.161670 
-13.107480 24.101179 17.166750 
13.096830 -0.492408 51.446468 
-34.140251 13.303460 24.677879 
30.602119 -1.552425 43.718781 
-39.716930 9.488313 -24.983879 
-25.187811 -10.231670 44.179989 
12.848810 19.989611 29.886120 
49.403549 -9.348166 -23.262609 
-29.293350 -8.320037 -45.908939 
28.714270 22.643200 1.964377 
17.253469 31.964069 1.219394 
47.306011 -11.876780 17.071939 
31.345430 -6.463428 -36.832062 
9.642528 15.464540 -40.351379 
21.526609 8.363539 -42.288280 
47.241402 6.673697 -11.073740 
-19.584690 18.312130 20.075510 
-38.262989 -24.510719 35.371078 
-56.493450 -17.771311 -0.960323 
-27.562010 -14.621770 -43.006119 
-26.670050 22.120010 15.801100 
38.487511 -4.715069 -28.273041 
-26.528490 -0.984480 41.267700 
2.972192 -24.554850 57.112370 
-37.427650 14.314460 2.394644 
-52.391010 -1.116343 -6.502700 
-19.087259 10.882870 -41.575359 
-53.436970 -31.675030 19.127350 
22.372490 -19.409901 -51.282490 
-5.094457 19.389530 24.880301 
-32.247002 -15.753580 39.722721 
-37.367870 13.875450 -9.633103 
-53.375450 -31.419250 15.709180 
-18.385290 20.358999 12.929370 
-27.664330 13.825510 24.317240 
-0.580970 19.329399 -36.651909 
44.283230 3.461709 24.589680 
7.831365 26.337830 2.997386 
-25.065460 -14.438570 -49.896839 
26.665039 10.837480 -37.128311 
6.771877 26.707491 -19.165569 
-35.251308 18.445601 4.499703 
22.056219 -10.474510 45.520870 
-10.902020 -29.927370 51.830040 
-39.502991 -11.156190 39.871231 
-14.080350 19.113510 30.582430 
36.749599 4.484891 -25.190559 
13.343860 6.235501 -46.859211 
50.340569 -19.050020 25.777439 
-36.816349 -11.307030 -41.097561 
-12.090060 24.460699 -22.492121 
36.241230 18.363340 -9.430837 
7.094439 22.904480 -21.531580 
35.979481 0.168713 -36.950588 
-33.649200 -23.794279 39.588490 
-41.138538 -23.961729 -37.022209 
47.862499 -4.120868 -3.665101 
-23.874250 -18.038050 -51.388802 
31.507721 13.772260 -29.413420 
13.107730 -19.388969 -54.308201 
-51.238331 -29.941931 16.847139 
12.801570 22.556580 -20.360161 
32.241989 18.473961 -3.798266 
23.033859 -10.632760 -49.981739 
-45.756901 -14.328960 -32.008350 
-12.591040 -18.007610 -55.544338 
