-14.980110 20.604719 -1.302036 
5.360509 9.153525 -6.569785 
17.328951 -2.178146 4.921871 
19.916920 -20.712021 -11.870700 
20.152920 -25.435070 11.084860 
-6.663397 23.126419 19.354219 
20.019409 -7.072982 1.845436 
2.806711 25.329081 -9.457924 
21.035570 -24.917980 2.576443 
8.515000 11.349800 8.754963 
11.639670 -0.303365 -7.333020 
-2.628672 19.449280 -8.672469 
-10.568280 23.808821 -9.614103 
2.450773 21.511339 22.397551 
-0.998473 -21.458580 -24.005739 
19.182070 -15.874960 3.472540 
3.547551 3.574189 -8.857734 
8.194177 28.311970 -11.107690 
-11.861910 -24.570030 18.866390 
13.458130 -16.739740 -17.993099 
13.604200 23.002050 15.938690 
-11.150130 3.152573 -2.843653 
12.782690 23.000219 -2.037522 
-6.486652 -9.248183 -17.271530 
10.584690 0.194281 -8.097929 
-1.074632 21.799841 19.469910 
-10.899920 -25.312340 19.407860 
4.470435 -4.628526 -16.035971 
-12.631390 -14.531610 -18.071190 
20.346081 -8.347107 1.990018 
-15.277940 -10.474930 12.029820 
-2.573057 -4.315782 -18.831841 
16.309650 -3.960796 2.572577 
-7.849326 24.189011 19.528500 
10.254710 16.868010 1.148263 
14.217160 -1.598062 -4.164534 
-8.737200 21.052401 16.398970 
12.645710 20.756451 2.793514 
-4.725921 16.032061 -5.073418 
-8.761477 26.151190 -13.121560 
12.216180 23.443560 2.630912 
-8.419053 7.944495 -3.119672 
-22.054050 -16.821409 2.622710 
-3.278130 2.204020 15.312550 
-10.317870 2.532416 -10.081530 
9.570349 16.458851 9.214331 
12.229920 21.883520 14.257180 
13.510970 -26.157761 18.141350 
9.826499 4.563319 9.077923 
20.866501 -12.299540 -3.503151 
11.065540 -3.842175 -11.886590 
-18.714439 26.221340 -0.889278 
-11.518740 -22.158510 16.465811 
20.443279 -9.160612 -1.659026 
-14.141510 -21.496590 14.263510 
-1.888735 11.773280 12.372200 
-0.279588 17.939541 -6.007316 
11.700970 19.496590 2.664770 
-8.765400 -27.692980 18.276131 
20.427940 -11.090310 4.905013 
-0.305771 25.393520 -13.153410 
3.989798 20.571600 16.076139 
-2.654377 -11.619340 -21.145840 
-9.474030 -11.512110 17.182600 
11.977460 -1.816068 -12.530330 
4.000242 -4.746549 17.246340 
6.400709 -17.344330 -21.849529 
-5.695833 1.470515 -14.215370 
-2.541592 -16.471210 21.791981 
8.518385 17.707560 6.511746 
3.022452 -6.835334 -17.302691 
-17.370501 -21.505011 10.287200 
12.082740 -10.527320 -16.863770 
-5.736980 -3.820210 18.809681 
-4.196656 -3.377513 18.953911 
4.285468 11.382070 13.079620 
17.384520 -6.031326 9.756419 
-8.022225 22.964470 -6.894734 
14.258500 -8.777020 -11.080420 
-11.793810 -26.977320 19.034719 
-11.069730 16.107771 5.728252 
8.347335 25.515760 -10.363760 
7.347473 2.885154 -7.164361 
20.463831 -23.967779 -7.313622 
-16.857960 -12.197610 -13.443790 
9.354890 -3.008446 16.479910 
-22.240061 -26.209881 5.933243 
11.177810 22.362160 8.935459 
-0.523724 -1.292708 -14.811790 
14.089610 0.738602 -6.564719 
-0.217944 -7.719883 18.904499 
15.190060 -5.330076 -7.332440 
8.581471 -27.740570 20.352831 
-1.008892 -1.145726 15.559070 
2.066984 -19.173441 -21.018259 
17.466721 -22.240879 14.087580 
-12.411870 9.916663 3.388861 
-12.617500 20.366770 10.511480 
1.254383 4.921612 14.479950 
16.658791 -1.496362 5.882531 
9.894903 25.070700 17.100599 
6.343176 -26.094151 21.511240 
-17.768820 -11.318630 -11.923130 
22.139099 -17.078300 -0.184654 
18.390240 -16.858160 11.719940 
20.099739 -10.179370 -4.859398 
17.246050 -6.680379 -2.722225 
-5.013198 -23.094490 -23.403210 
-15.205830 22.986309 -5.054050 
-2.277683 17.710791 17.646120 
-21.489220 -27.240330 6.461245 
-5.539711 4.184517 -10.960380 
17.983200 -2.586706 -0.944618 
-1.361331 24.542030 -9.450401 
10.456920 21.601950 16.429701 
7.621159 0.933989 -13.370510 
16.415991 -14.053690 9.976299 
-16.049231 24.212950 -0.446750 
-9.115451 7.847332 -5.866487 
-20.277020 -23.447069 3.448659 
-10.358600 22.171770 17.188339 
-7.972409 -13.012430 20.330940 
7.358311 13.918470 -3.564863 
6.548258 11.172380 7.539036 
-17.993299 26.082861 0.608994 
-15.916920 -23.779181 12.543920 
6.633767 22.811649 -8.173645 
6.448468 -18.512211 18.668369 
0.493791 7.205636 -9.473826 
9.707563 -7.144928 15.652890 
5.889992 21.075359 -4.532269 
12.712920 -7.294272 13.150190 
23.323940 -24.504789 -1.202931 
-17.164570 -13.888340 13.461010 
-11.180870 19.139380 -0.947859 
11.953310 22.988970 4.030969 
10.375040 18.114019 0.338134 
15.835390 24.564341 -0.230085 
-4.942396 26.070040 -14.049660 
12.772240 27.899940 -6.230387 
7.293564 9.118323 10.504890 
13.443670 21.470169 8.657502 
8.745416 -11.407770 -16.658131 
9.803202 13.135050 1.833434 
12.375310 21.480289 12.598570 
-10.349030 18.503771 -5.017896 
18.217079 -24.650499 9.650412 
-12.450870 7.021090 5.077860 
7.232965 -21.422331 18.592670 
-17.023220 -21.831221 -12.649900 
-13.102770 16.055229 1.127708 
-20.015200 -23.006710 -12.524460 
19.524900 -15.603200 -10.017730 
-13.858920 0.014115 -3.385636 
-8.718982 -2.668031 14.307490 
8.146503 7.621650 4.306190 
14.998330 -20.854059 13.309520 
-5.700036 9.666029 13.317440 
22.637461 -22.215309 3.413883 
-16.494011 -21.463091 14.923110 
14.042810 -24.649651 17.512079 
-4.957662 2.227246 -10.284890 
-0.118689 2.283606 -11.167510 
-9.180336 0.497315 11.026740 
10.134660 -11.400220 16.362141 
3.416902 -18.533270 21.699760 
-4.030228 15.288910 -7.509589 
7.332170 21.166439 18.815729 
5.079367 23.291639 -9.455994 
-10.273980 0.125069 10.342890 
-22.266859 -17.070539 -1.176954 
-14.875910 -19.936291 13.336650 
-20.000710 -18.425091 9.518506 
20.688490 -20.630720 -10.328300 
12.293370 19.992399 7.030127 
-6.433197 -6.533290 19.660919 
1.504700 1.363318 13.593210 
12.766210 -4.634053 14.839000 
-6.591974 -5.827411 17.156931 
-16.614161 -16.709570 -11.414930 
18.088610 -16.203140 -12.836060 
3.440901 10.818720 10.837820 
-10.434100 23.944580 20.893181 
8.552052 8.077548 -3.924579 
-18.801889 -3.755297 5.345266 
-11.121930 -11.463740 18.676350 
-21.114269 -8.911915 2.676931 
-3.382911 -23.952141 21.925699 
22.025721 -17.604240 -3.437887 
-4.201656 -6.377067 -19.398720 
-3.948232 27.461611 -14.231720 
16.515760 -3.143895 8.639956 
-14.247740 -11.474980 -15.944830 
21.469740 -15.852390 -4.581872 
6.536648 21.507730 15.553960 
14.556580 27.765820 -4.893250 
6.885433 -2.429893 17.396259 
6.721030 -19.402241 21.001301 
-13.141760 19.892820 3.420843 
9.697746 -27.668980 18.602209 
-10.276880 -3.104566 -12.662830 
2.767579 -22.347300 -21.853390 
6.139324 4.292344 -6.564394 
-20.893650 -25.336790 -3.448053 
19.941690 -19.264820 -3.716841 
-13.921400 21.602909 1.107543 
-13.349430 -16.193810 14.653160 
13.083860 24.389740 2.243629 
2.945487 -13.391890 21.534981 
7.166371 -7.245424 19.435921 
-19.902630 22.865160 4.216240 
20.484180 -22.870600 -5.015965 
-21.077761 -26.064020 -0.277249 
14.277890 -27.032240 17.308849 
-22.884359 -21.946831 -0.311161 
12.096800 1.615821 -8.323483 
10.993330 2.270018 2.956926 
-10.300000 18.356520 -1.611175 
11.933970 -14.708880 -15.689950 
-5.522150 13.826040 12.014340 
-7.695066 0.398700 15.024630 
12.795930 -13.906830 17.409410 
-7.991093 9.882019 11.969330 
-16.039471 -11.371640 -14.140510 
-15.643020 -19.254841 12.452110 
14.305890 -2.336974 -5.555653 
0.567384 14.966220 -5.389197 
-6.479105 23.784479 -11.069660 
20.511089 -12.706530 5.714137 
18.083799 -9.741555 -2.486671 
-9.449233 -9.152945 -18.462151 
15.848310 -1.098805 7.209288 
20.482460 -15.360140 7.210542 
14.672730 -10.026710 11.781510 
12.127610 2.367483 8.018301 
-14.636260 18.100771 4.959710 
-5.103389 19.026541 15.672780 
-12.644210 -8.247249 -13.381870 
-16.513821 -3.079646 2.993445 
1.175560 -14.505380 19.569380 
4.060880 -10.579040 21.158239 
4.488647 -21.511589 19.402950 
4.266378 -26.725460 21.989300 
-11.253630 -21.847059 -21.125980 
-9.667110 7.489369 -1.169815 
2.803562 -14.509130 -19.573790 
-3.365274 -9.852145 21.259710 
-3.375079 -23.069099 -23.698799 
13.462730 -1.618531 11.865920 
4.552876 20.056101 18.645519 
-3.420368 -5.915048 18.074459 
6.470603 2.169318 -12.642050 
-1.034627 -4.527793 -16.715891 
-8.429446 -26.385540 18.255301 
8.279779 -6.822275 16.424641 
-12.069170 10.664180 0.380539 
10.450160 -11.200330 18.678770 
-11.537230 11.564170 -1.169322 
-7.547200 16.091669 12.031490 
16.530029 -18.675171 14.591310 
-20.552130 -13.594320 -7.527932 
18.844330 -12.407980 0.323558 
-15.365870 -17.965151 12.724460 
-4.161795 17.470909 17.176041 
-20.188290 -15.420240 8.747305 
10.678770 0.797863 12.177220 
-0.294942 12.780310 14.909780 
-16.684330 -6.896665 8.091250 
17.607771 -10.016190 5.807008 
9.262194 20.698799 15.900190 
-8.692286 23.881571 20.992149 
7.882752 -19.976049 20.650740 
19.629530 -18.328461 -11.195790 
-0.115445 2.543906 15.433090 
-1.871881 23.521111 -8.706573 
-12.040150 -1.525581 -9.636338 
20.571560 -9.270344 -0.345879 
9.524874 13.844360 7.063674 
-5.756425 -16.724140 -19.576151 
4.984582 16.190260 14.490640 
-16.392010 -6.281535 -7.297944 
-9.356744 -15.868960 19.826929 
9.674010 19.991720 3.529047 
-10.920930 -13.037410 16.390671 
8.046397 24.550810 21.213079 
-11.098910 -16.230499 -16.903570 
8.986238 16.048710 -1.423776 
16.573879 -0.547421 -2.375704 
0.410156 -18.348181 21.915260 
11.249680 -19.169550 -20.330191 
5.067029 10.413660 9.558248 
15.791800 26.433390 6.504933 
20.344770 -16.519430 7.900687 
-9.565917 17.277420 -1.926648 
9.472935 12.531970 6.682576 
19.814711 -14.874450 -8.931571 
21.873140 -16.059509 1.128186 
-1.863952 0.134184 17.039970 
3.893016 12.267040 10.843270 
0.617052 18.215080 17.918320 
14.281680 -24.043449 14.514920 
17.335430 24.556360 4.167932 
5.298815 -4.679860 16.800131 
-18.500191 -15.453200 11.800920 
20.745741 -14.192390 5.681531 
-8.612217 -15.322770 -18.061640 
10.012910 26.868160 -5.035555 
-21.643120 -11.824130 0.693999 
21.469070 -17.800249 -6.297063 
20.543659 -26.125620 8.929374 
-19.035339 -14.615530 -4.959643 
3.551485 16.693279 15.675970 
14.509080 2.052164 1.972327 
4.987553 18.356779 -6.451504 
6.525793 -1.604000 -13.414180 
-8.738321 3.225215 -10.351280 
-13.373470 2.905120 -4.964825 
-8.562847 -12.996440 -17.421379 
-18.046949 -9.923790 -11.006420 
8.641976 20.942181 17.113850 
12.949610 3.079842 4.209878 
8.894473 -0.701126 11.815680 
21.917561 -20.828291 -7.295444 
15.960140 -3.669328 -2.711557 
11.190200 25.126310 -7.656692 
-11.879730 -17.634750 18.511101 
-19.421650 -25.369780 -12.165280 
9.319695 19.169161 5.673687 
7.323621 15.352520 7.433497 
17.966379 -13.540250 -6.534797 
-9.842603 10.005050 4.996834 
-1.869740 -19.499790 -21.136869 
-10.294040 0.467650 13.298400 
9.643261 -9.700252 18.928419 
-3.842574 4.293125 14.437530 
1.336637 13.808550 15.017100 
-4.100927 -4.616748 17.341049 
10.301230 24.580580 -3.496856 
12.377190 -4.678331 -11.118230 
9.125928 23.463341 -3.509694 
-8.843521 11.026000 -1.490736 
18.423620 -22.730021 -11.058100 
-2.655068 -24.548090 19.889780 
5.038958 10.480390 -6.291382 
7.263756 3.000769 -11.126950 
1.307060 13.762350 -5.187953 
-9.815177 -11.274370 -18.872780 
13.524620 -6.934262 -11.137530 
9.806701 -3.095734 -12.442360 
13.523980 -15.512580 -14.557380 
20.332439 -8.098557 0.481125 
-5.734409 -8.515674 20.523911 
14.262530 23.038971 14.388090 
-10.741010 6.039220 2.616726 
18.346109 -11.050890 -2.647871 
8.186665 -27.099199 18.649611 
-17.304810 -4.655326 3.373797 
-6.506217 1.373776 12.323610 
-0.766568 0.828035 14.085040 
-7.203225 -22.808041 -20.798580 
18.133129 -23.277731 9.568769 
9.507552 -6.559136 -17.181511 
0.447465 -19.254810 19.831350 
10.991800 -13.153530 18.554590 
18.083719 -11.327530 4.964447 
16.163460 -6.167799 11.854060 
9.652018 7.657438 -2.125942 
8.593743 -18.228571 20.202280 
8.858854 19.124790 1.805911 
3.703073 -23.122999 -22.413099 
7.800687 7.641032 5.586229 
7.563349 12.461140 4.247060 
10.070160 -10.930300 -15.746790 
-8.019132 3.970869 12.662640 
-12.722660 3.846633 7.203425 
8.105586 18.167330 0.567850 
-15.257570 -0.010182 8.029816 
-16.696421 -4.782579 11.027240 
18.502029 -19.922871 7.686234 
5.055815 0.848005 -11.773040 
-9.600435 6.937952 6.453356 
-3.368776 3.792667 12.503670 
8.218078 -14.581400 -17.938589 
-13.523240 -23.890341 -19.579691 
-10.349630 19.635870 -5.743831 
-15.707880 -2.661879 5.121502 
13.736130 27.588289 -3.483533 
-16.464701 20.473400 3.429310 
9.765934 -5.636637 14.994830 
17.970390 -8.483359 10.252190 
-16.459141 -13.970070 10.821410 
-8.744975 5.366285 -7.839677 
-4.424132 14.036400 -7.356537 
5.792171 -8.545281 -17.090330 
-13.488850 -3.780417 14.248620 
15.386090 -1.679721 -7.917608 
12.058480 -12.772410 17.798599 
6.007616 -10.669950 -20.000231 
-10.318630 -11.529260 -16.073000 
13.350980 26.082569 9.374370 
6.695076 5.811464 -4.262670 
7.403253 -14.605390 20.479460 
-8.828935 6.325078 -3.553063 
17.266371 -17.644730 9.486101 
18.052589 -12.688830 5.806753 
-10.278740 15.859110 12.337100 
12.710320 -19.973000 15.287670 
8.027042 -6.425882 18.773600 
-11.170240 15.944110 4.361532 
-14.766280 19.971910 12.015980 
17.021099 25.021469 9.733218 
13.532140 2.269715 -4.010324 
7.424519 -16.691799 -21.329840 
18.710951 -3.895633 -0.925915 
17.489479 24.577681 5.696900 
9.226463 -1.523608 -14.478690 
1.959346 -20.050949 19.738779 
-1.844605 -16.907221 19.649281 
4.416789 13.061570 -3.498588 
-0.352300 -2.155185 16.307140 
-13.475700 -6.327395 -14.920250 
9.377564 24.577530 -4.625535 
-7.232319 -16.837891 18.429831 
20.160870 -23.816690 -11.128080 
-16.811220 -14.559890 -10.392010 
-12.881610 6.470318 3.497014 
5.873558 16.531931 -2.359075 
20.105049 -24.038820 -9.484207 
-20.247850 23.033489 9.570000 
-16.110649 -27.971590 13.348080 
1.601860 -20.847700 -23.775160 
-1.129198 4.726749 12.515710 
-10.429620 12.959470 -3.147837 
-1.012618 22.943420 24.014681 
17.515120 -11.154070 11.844830 
-2.627020 15.335150 15.961230 
14.247110 2.227886 -1.261658 
-1.080795 -2.646614 -18.027840 
-10.338170 1.564155 8.870471 
18.062420 -9.718887 -9.622108 
11.032450 -10.102780 18.177891 
20.532511 -10.653340 -3.448622 
14.268100 -0.830362 0.547395 
-10.075040 -20.720360 -21.364260 
20.082310 -21.932230 4.171138 
19.116301 -5.457987 4.213871 
-9.191916 27.831829 -12.719430 
-9.581996 16.835171 10.449630 
-12.614160 -4.632094 15.514900 
-4.969302 16.239670 -7.415296 
-5.549088 25.296860 -13.025330 
1.178600 1.775010 -11.651870 
-17.487200 -27.699459 11.076050 
20.074720 -20.756470 -4.994561 
7.324841 6.808462 10.903860 
-13.452490 18.130730 10.261330 
-21.263599 -13.054620 4.921422 
-3.267627 27.571739 -10.443860 
15.535090 0.843696 2.651493 
-21.130100 -9.827744 -2.857572 
-7.272327 21.082621 17.255449 
-20.122240 -18.425091 -0.397028 
-21.124020 -18.056200 -8.127884 
22.172720 -18.844570 -4.019782 
16.222960 -23.869141 15.608950 
14.096800 -5.442525 14.004570 
3.678072 13.676570 11.378880 
-12.624250 -18.936489 -16.602949 
-13.391600 -4.230380 11.496600 
-22.638220 -20.013451 -0.801019 
9.019912 4.905095 4.904516 
-1.118289 23.685801 20.241911 
5.053861 -15.720240 18.946239 
13.149830 23.888000 17.178020 
6.774535 -0.125765 -14.780860 
10.074460 15.353660 6.370359 
-17.787170 25.082670 8.797498 
14.026780 -7.005199 11.461420 
-2.579983 -8.767869 21.133579 
-15.475700 -1.699103 -2.682225 
-8.061722 -1.520939 -12.895750 
-14.219860 -2.234967 7.981917 
-16.710930 -22.903700 -13.392070 
12.459900 1.102709 9.493960 
-12.469510 8.448666 3.725578 
2.758680 -26.143129 19.930201 
-16.527691 -7.404076 -12.198320 
-12.738910 14.779750 1.106167 
-14.092450 -0.835609 -10.390950 
5.415740 1.393206 14.867370 
8.188293 -1.666274 13.321970 
16.623150 -18.353960 -15.598570 
-12.578400 -13.158080 17.834789 
22.679649 -23.867060 4.741455 
3.747479 -16.312750 19.317320 
4.155476 25.696920 -9.308013 
4.472121 5.878380 -6.414725 
-7.610622 -17.367121 -21.561560 
-20.928801 -25.288300 -2.121316 
-6.161797 19.180380 18.503229 
15.831670 -19.422100 15.428050 
7.500446 1.986054 10.235460 
-7.228797 -21.215670 20.914961 
-17.961550 -16.467430 -13.433870 
19.153561 -16.108271 10.297690 
10.341150 -6.945650 -14.169670 
-7.922652 12.225080 9.541634 
-11.554620 -9.171087 -17.289940 
12.083410 -23.178419 -19.077351 
-8.544063 -11.499890 19.998060 
-11.132170 7.702928 -3.267370 
2.217861 -8.153901 20.977301 
9.605773 -0.129068 14.077890 
-20.267710 -25.433800 -9.338035 
16.625669 -23.860609 11.934370 
-18.055050 25.535721 -5.418754 
9.163195 24.795561 18.739309 
2.058021 -15.571470 -22.274191 
9.059399 26.469391 -11.031020 
-17.311880 -15.385650 -13.955780 
1.336846 -23.111900 -22.983431 
-11.087890 4.831470 3.087460 
6.503445 3.768047 -10.308780 
-15.596790 23.671379 11.072520 
-9.136683 1.140597 13.543180 
13.981090 -13.570630 13.299340 
17.293520 -13.360510 -12.651070 
-19.358351 24.671379 12.016530 
-9.874358 11.481600 1.169809 
13.520770 -0.191948 -1.992041 
14.598670 1.283737 5.172091 
11.949970 -3.044448 -10.366280 
13.448500 -6.205667 15.021830 
-16.072420 23.265591 1.878326 
-2.647515 -20.691641 21.924540 
4.697196 -7.543367 -19.441750 
10.465060 -27.059090 17.667879 
-12.527980 19.146660 7.326456 
-2.634338 -3.859690 19.463409 
-7.238143 26.125759 -13.636420 
7.258609 -1.569726 -15.624410 
15.805840 -4.372883 5.834134 
4.445781 0.042856 -15.579760 
-0.305171 6.923823 -7.336696 
-6.106324 -3.667473 -17.764360 
20.378580 -13.127000 -6.311226 
16.595650 25.381029 -1.019946 
11.165780 -24.319059 19.377680 
6.868224 22.226959 -4.514062 
-17.247740 -7.711804 -6.463352 
8.123495 -21.273769 20.594290 
-16.584360 25.081591 -7.406897 
12.025040 -17.293280 18.249220 
-7.441745 8.438635 9.497606 
23.222170 -24.440390 -2.539890 
-6.981111 19.908030 19.257681 
9.035156 20.747549 -4.306372 
17.311729 25.843941 1.444103 
11.334520 -18.768749 16.228661 
0.462075 -0.256813 17.439289 
15.984010 26.090170 -2.708918 
21.663839 -15.004620 0.341797 
5.162580 26.540110 -8.939613 
8.962745 0.774100 -12.659500 
-17.260469 -10.586010 -7.992247 
13.343560 -5.342863 -10.382380 
8.065392 5.861083 -1.971440 
-19.797701 22.603630 7.166181 
6.195364 24.446171 20.284800 
13.517020 21.935640 2.271109 
-7.079896 17.681919 13.582460 
-13.386270 26.732300 -10.482980 
-7.226917 16.786730 -6.564919 
-15.392930 -4.611943 -7.827841 
9.954403 13.356790 4.313128 
-2.627607 21.641760 23.562799 
7.322939 -7.720588 -18.627689 
-7.254587 -24.625570 18.750259 
9.929810 10.022100 1.165259 
-0.352998 -10.762430 -18.767160 
-14.147980 26.559259 -4.274864 
16.576620 -10.648390 -8.126826 
-3.887327 24.147400 20.263451 
9.628443 4.034192 -1.087296 
-0.050520 27.966370 -10.952050 
15.918620 -3.656552 3.862278 
-11.922290 17.357901 11.817800 
-20.573290 -6.915866 2.657115 
-5.444445 18.031139 17.409889 
8.775370 1.199881 13.250700 
1.262720 -2.833806 16.606621 
2.896281 -0.823246 14.914560 
21.461411 -21.228161 -8.781080 
15.557910 -12.791210 -10.973080 
3.010159 -22.344021 19.779570 
-17.994530 -3.301973 7.255603 
7.117915 16.100470 8.647413 
6.321365 9.900524 7.946926 
10.350260 -0.032925 -12.410820 
9.001206 26.596069 -6.198735 
-16.466980 -4.445209 -10.393250 
16.172340 23.690750 5.007229 
20.069731 -10.051660 5.651503 
-2.608311 8.054413 11.971520 
7.193033 10.211790 6.100591 
-8.254859 9.257589 -2.778448 
13.428920 -8.393115 12.785740 
-5.613424 -23.081280 21.424829 
1.086724 -10.726910 -18.703819 
9.724728 27.756380 -6.138797 
-1.298949 -3.658975 19.513620 
19.414061 -17.837940 -4.938057 
-11.789820 22.153589 -6.897730 
3.499320 -18.906630 -20.727949 
-18.146481 -2.139381 -3.951507 
8.183213 -4.811287 15.601070 
3.540174 -9.078632 18.745840 
12.204120 -3.983369 11.818830 
12.737140 -11.794530 -13.939720 
11.039590 27.229870 -9.495831 
-12.470910 2.235544 1.135469 
5.073877 23.007540 22.872841 
18.805450 -13.423450 -2.679104 
7.509598 21.663790 -6.556357 
5.728027 -14.384490 18.672010 
1.325366 -7.633330 -20.047880 
15.519260 -21.948071 -15.016700 
12.756130 -20.693480 -19.912340 
10.021040 -1.037814 11.201770 
16.614479 -11.871420 -8.725256 
3.520589 24.411289 20.923491 
14.245860 26.823210 -5.779583 
-12.653510 -20.554171 15.479950 
-0.107574 20.261141 17.223200 
6.247893 23.919559 -9.506639 
6.513787 -18.075230 20.953650 
-4.688995 -25.537399 21.749500 
-14.475170 0.758897 -7.474254 
18.725161 -17.746929 6.116280 
7.848042 -15.008060 17.883169 
22.132299 -23.758261 6.433354 
-1.193354 19.202351 16.303499 
-1.869948 5.374109 -10.697830 
10.195340 19.964081 -1.923437 
-9.808893 20.508511 19.023470 
-17.741091 -19.954121 13.357550 
3.557133 6.897239 -6.222296 
17.289400 -4.318791 -7.263763 
2.894730 2.366720 -13.734610 
-11.092300 4.466395 9.444679 
15.143060 -25.381630 13.837800 
-12.611650 -24.187941 15.755410 
9.642402 -15.487580 -20.024549 
-17.075800 -2.439441 -7.278402 
-8.806323 -20.745911 20.282351 
8.992707 -22.645269 -22.216730 
-17.844690 -5.423201 1.557025 
17.754129 -18.577089 -10.150130 
-8.318458 11.262670 11.934200 
-0.327419 26.265720 -14.260300 
21.188980 -13.753440 -3.477966 
2.720970 -4.596207 -18.814230 
2.725778 5.864595 -9.879788 
11.714170 19.148121 4.279401 
10.400520 20.942011 6.551544 
5.515081 0.452373 -14.874550 
-21.551420 -24.458490 7.201460 
3.877769 -3.222061 16.351391 
11.210080 -5.686518 -15.738540 
20.455730 -21.788170 -4.201849 
-11.882640 4.990027 7.878805 
-3.413975 21.529680 19.004490 
-10.364930 6.121273 -0.501151 
5.061311 20.283150 -7.237540 
5.244963 0.831976 12.633360 
12.134630 -25.217211 18.895611 
11.095050 20.152620 12.001070 
-3.603107 14.830530 13.190970 
4.270241 23.079750 18.947590 
-4.107682 -26.473370 19.664471 
-11.064980 -7.663348 -17.162350 
-6.363754 -11.563380 18.556890 
-14.926040 24.476089 15.313030 
11.945600 24.338690 11.880500 
-12.151970 20.437820 17.174240 
8.913591 15.000250 9.422544 
-9.436225 4.494524 8.011563 
19.514610 -16.008499 0.330327 
6.254081 -15.225130 20.880421 
8.090384 1.822143 -12.050280 
12.245880 -1.267621 8.757739 
12.780430 -3.057198 -9.328033 
-18.026020 -1.259668 1.895678 
-10.610400 22.936899 21.757799 
16.596451 -25.394661 15.514430 
-3.413113 26.217230 -10.464950 
12.125110 -24.860849 16.309891 
-0.390826 -4.555418 19.916149 
-12.020380 19.914869 -0.209477 
-17.159531 24.608629 13.500780 
8.786914 24.344950 16.092859 
-13.412280 5.182050 1.371429 
19.867380 -18.169010 1.184635 
3.464957 9.950156 -4.884998 
11.358580 -17.623600 -19.704889 
12.944850 0.341268 3.429009 
0.498565 -25.589640 20.139540 
-16.479870 -15.353500 10.911890 
-12.255890 16.840771 10.550780 
15.069560 26.071650 -4.540989 
-13.435350 0.220425 -9.889695 
10.619340 -12.631380 16.138769 
-19.721951 -13.070820 -9.235299 
-6.291640 20.721710 21.008360 
12.987680 -0.532681 -4.971783 
-2.635860 28.159410 -13.066870 
5.809002 14.548400 9.687376 
-2.599754 -15.344550 19.547661 
7.248778 3.711041 -6.131444 
15.469990 -10.008260 10.613380 
16.013170 26.722090 4.715011 
-19.136320 -27.475620 8.033070 
-11.864040 3.520265 -6.268412 
19.056110 -7.174145 -5.757143 
20.701059 -25.815060 6.557735 
-21.730169 -16.092489 4.180150 
-8.792153 15.222300 13.304490 
-12.251480 10.706820 4.934765 
1.264199 -26.958839 20.144270 
-1.265674 15.706410 16.194441 
-9.603303 5.292695 -3.182595 
-17.262621 -10.531510 12.950550 
6.600457 -0.072268 15.797240 
16.610590 26.231840 8.927338 
-5.737167 16.346701 15.875480 
14.449490 -14.711720 -16.445841 
-22.639580 -21.528931 1.768494 
-16.439610 -24.503759 15.168110 
6.435590 21.663099 -7.325487 
-7.910352 13.851370 10.270980 
-13.617130 -11.772360 14.100880 
0.989953 6.550850 -7.326010 
5.795949 4.520586 10.146410 
1.993703 6.890688 -9.419763 
-3.116991 27.999041 -11.695520 
-14.912820 2.279949 -2.084811 
13.806910 25.471769 14.905890 
20.027960 -18.983080 9.553299 
-22.222811 -24.590960 -8.005300 
-11.114700 24.140520 19.045780 
-20.981050 24.596001 3.442240 
16.565319 -7.754323 12.185610 
-23.011120 -23.357460 -0.779493 
-10.324030 12.709280 10.211420 
-4.938086 -0.847360 -16.357889 
-7.233587 -25.999430 18.750780 
-7.228897 -3.602343 18.175079 
-14.191520 -13.789220 -13.558970 
-8.003389 -7.908256 -18.780060 
5.445608 22.083500 17.383890 
-8.106059 10.678570 8.863143 
4.111047 -10.791120 -18.261560 
0.606277 16.887650 14.280090 
18.736040 -17.637140 -7.173563 
3.450973 22.018339 23.115080 
16.110439 -19.191290 -16.515190 
7.869041 16.903799 7.625422 
-7.415936 -19.208620 -19.688589 
11.599680 -11.463550 17.991220 
-7.690336 -21.554279 -22.716749 
-5.473329 27.976360 -12.283210 
13.480120 25.598690 12.892980 
-20.222490 -21.851490 2.901974 
1.979139 4.845246 12.075070 
-17.229389 -16.927130 9.970123 
8.843944 2.474624 11.759790 
12.662180 -16.205681 17.723089 
17.884100 -11.854150 -11.073720 
1.682706 -11.186350 19.372761 
-19.879511 23.104259 11.098760 
11.023960 18.532810 1.845570 
-10.359350 19.073771 12.036100 
19.613110 -21.143961 5.228756 
-17.229019 -17.723190 -14.823360 
10.049940 20.742050 14.813880 
-13.501100 3.879531 -2.003343 
-18.639971 21.928160 7.253871 
2.886480 -27.981050 21.970739 
-12.681160 18.154860 -1.986778 
12.310020 20.184820 8.498112 
8.561917 -12.615590 -17.164961 
6.294096 -7.306336 -16.507681 
-13.368850 0.682556 3.447171 
-7.179417 -13.046360 -18.064240 
18.952379 -8.482512 8.091756 
-4.196915 17.241369 -5.541622 
-10.370610 13.317870 3.456418 
-2.218685 25.439960 -13.448700 
-15.742400 -0.721455 -7.677470 
-17.914570 -7.687018 -10.343970 
-5.691874 0.310100 13.336770 
17.741119 -7.022374 -8.718490 
18.017540 -7.342541 9.478656 
6.667138 26.246849 -8.085138 
-7.997213 22.541880 22.881840 
15.592210 -7.970690 9.501981 
-3.983396 14.936710 -5.188405 
-18.229540 -10.091190 -5.221992 
19.346621 -6.665828 -4.263161 
19.303680 -15.608730 -2.734450 
-7.967815 -14.112810 -18.050529 
19.852970 -24.525890 6.132811 
12.501590 23.905121 10.605070 
15.602010 -17.196480 -16.248240 
19.720430 -6.459350 -1.883787 
5.982130 -7.705812 20.028870 
-8.796291 -8.906472 17.110081 
-14.282390 -4.936802 14.149730 
10.000390 10.661730 3.379739 
21.894409 -19.957720 4.828438 
0.415400 -24.578630 22.220671 
-14.418300 23.830429 13.319080 
14.445360 1.250591 -4.268876 
9.638214 -7.863148 -17.553961 
13.674290 2.769019 1.162639 
-19.096201 -7.622648 -8.077488 
13.386460 3.036865 -0.379702 
-8.616398 8.195153 8.090429 
-7.533931 6.772300 9.535071 
2.000564 -19.569759 -23.379620 
-13.737380 -0.023018 10.442680 
-21.966690 -18.463289 4.222216 
19.925211 -18.322689 -1.899794 
16.450899 -20.701891 -13.425480 
3.666095 -1.187215 -14.191110 
-6.112505 15.994800 -4.466807 
-1.116949 22.327820 -10.262860 
11.710130 22.382610 -2.689367 
6.111644 14.727170 12.860900 
9.680322 -12.204800 19.208071 
-8.480138 18.542049 13.343900 
6.991167 10.448280 10.798250 
-13.442440 1.581254 -7.712402 
8.189548 -18.511660 -19.205099 
10.214940 23.080950 -1.204318 
-4.773096 7.434671 13.602580 
10.071330 3.747301 0.216755 
5.028542 25.002180 -11.282480 
13.440910 24.575621 3.506308 
-18.788469 23.743200 13.466740 
12.751080 -0.509375 6.510552 
-1.872265 20.239870 -6.841081 
0.464160 1.177588 16.246670 
-18.434019 -16.429319 7.279860 
-13.478710 3.564016 5.671345 
-17.038429 25.287439 6.747500 
-3.762659 -2.943987 16.396391 
10.624570 -6.653113 14.796320 
15.840520 -11.239400 10.287820 
4.271180 22.292749 -8.947968 
6.555135 4.245203 12.562940 
-11.948330 14.631660 8.758847 
6.552079 -12.415450 -20.336750 
-18.982059 -22.987930 7.283617 
-9.912296 -15.781910 -17.518471 
12.724010 2.662452 -5.003236 
-19.378330 -13.120400 2.359065 
-14.779720 -21.388950 16.559771 
-2.296709 6.906507 14.235900 
8.221789 22.984610 16.456829 
-22.650780 -25.310310 4.272329 
2.233215 10.797410 11.456770 
9.431153 17.834829 11.059560 
-16.360069 -20.796921 -13.203350 
18.513081 -12.263850 -3.282632 
-18.456730 -16.493120 -7.754507 
-5.304822 -2.265126 15.617510 
-10.873810 -19.776100 -18.102551 
-0.078138 1.653258 -14.920830 
-16.449659 -11.143620 -9.724133 
-16.568810 -3.499637 -9.438251 
10.877990 -1.566286 -13.282570 
10.431300 -4.741345 14.029740 
7.037868 -15.418670 -18.670830 
-3.160796 24.115360 21.770479 
-1.320616 -9.136768 21.330950 
10.477250 -21.492661 -18.963221 
12.441620 21.819460 -0.396606 
8.873716 24.521641 -8.612642 
-15.552400 20.398199 0.345070 
-0.328373 13.010720 -7.759362 
-7.895177 0.545056 -10.881480 
-15.017750 -23.316971 -18.814610 
-19.605841 23.758619 -0.846405 
-18.895161 -18.514990 6.461602 
16.525749 -9.434385 -7.533147 
21.963869 -19.257811 -5.549842 
-19.773029 -26.152220 11.081660 
-13.225500 -1.499935 -11.928950 
-6.814200 14.906800 11.788520 
12.160730 0.732438 10.754550 
-14.150330 -17.578520 -14.810020 
-1.593719 24.038481 22.761681 
-4.182300 -1.979583 18.151270 
18.811029 -4.610886 -2.849039 
-3.171207 -0.319336 17.212641 
0.410677 -22.964701 22.102850 
-13.460860 16.093161 5.619264 
-7.972114 -16.206440 20.461380 
2.838886 26.597231 -9.869693 
12.710050 20.533640 4.372865 
-0.319609 -4.082764 -18.830820 
-10.472380 17.362690 -4.345429 
8.065331 17.994061 8.441756 
0.428210 21.657320 -7.306991 
16.133780 -4.983439 11.059270 
-6.411641 23.834150 22.918711 
-10.401060 11.418190 -3.180088 
-1.211198 -8.441459 -20.364651 
12.653750 25.353270 -0.481284 
-11.008370 10.194650 8.322426 
-1.754137 7.087698 -9.624249 
5.384036 12.705120 -2.591529 
-4.011576 3.822093 -11.972040 
-14.454900 -3.849076 13.330470 
10.831810 -20.761110 -21.099140 
7.672848 8.699320 0.345807 
-8.243481 19.923010 18.720421 
19.965260 -19.552450 2.683598 
10.448860 23.387171 14.168320 
-20.174879 -8.394248 6.541058 
13.630610 26.847071 2.881751 
3.781631 18.411230 14.070090 
-11.529920 8.521608 -1.957835 
15.312660 -13.927450 -11.910220 
5.078819 3.778734 -7.895407 
-10.316210 7.657137 1.950883 
-15.600640 -2.292792 -3.984751 
-9.526787 -0.536585 11.850960 
-14.108450 0.307591 0.616234 
-23.104521 -24.536770 -3.480304 
-2.643440 3.588206 -9.472834 
-10.386840 16.055731 -3.919396 
-17.258341 -5.550483 -4.219351 
-13.252780 20.924490 -4.276260 
-3.949040 8.573750 -6.068231 
12.348880 -0.033999 -10.394220 
-9.601840 9.106082 10.304350 
-11.101100 -23.056160 19.239260 
-9.847171 -8.460682 16.426411 
17.279030 -24.636660 14.661620 
16.533890 -16.350651 -14.939090 
-13.493750 16.576580 6.889962 
-5.727783 -12.934050 -18.545660 
8.106370 -18.403259 17.999531 
0.201010 -21.428820 19.962650 
1.124914 -5.416310 18.061319 
4.380657 18.134159 -4.261909 
14.359700 -1.800798 10.889070 
-15.481010 -1.548935 2.703571 
-17.834021 -6.622696 -3.488114 
13.930180 -8.642342 15.612500 
-11.776890 17.385160 4.822497 
-7.234077 19.170210 14.890870 
-11.100910 5.647923 8.845453 
-15.671480 -1.596558 1.383217 
18.967670 -13.781660 -10.076440 
12.009600 -14.794450 18.017460 
19.221910 -10.910680 8.566389 
9.335586 23.109230 15.373340 
-0.353834 -17.532089 19.743441 
14.977540 -6.351660 9.658630 
14.731700 1.474301 -2.736812 
-9.638149 -2.243565 13.330560 
15.061640 23.439060 1.743391 
-14.942920 -25.455111 16.577591 
-17.624430 -5.506576 -2.728056 
2.017949 -23.742250 19.934361 
11.219190 25.054260 16.746290 
9.741852 3.905247 4.419490 
7.609531 9.254110 5.253624 
3.744892 -15.419070 21.505581 
15.371860 -2.338013 9.960013 
4.630402 19.984810 15.030070 
1.207770 22.937180 -10.434180 
-18.060020 -4.941692 8.734424 
10.078030 -1.568327 14.904140 
12.121600 -1.802428 -8.853447 
2.217913 21.344839 17.987040 
-11.843780 8.448383 6.489987 
12.585220 1.014244 1.143826 
1.995014 -20.794020 22.025709 
21.166840 -23.660931 -10.205930 
-16.288300 1.091467 0.369995 
-12.361250 -16.094650 -15.934390 
-14.268250 -1.506047 6.684786 
-11.069710 -16.137091 18.972130 
-17.253920 -14.401960 9.488882 
-7.815819 -10.754860 -17.198080 
-12.639830 14.091160 6.172883 
-11.862500 -14.596810 -15.927940 
2.788578 16.838261 -7.173329 
10.072040 5.345586 8.013351 
15.648580 -16.197630 11.718030 
7.373889 -10.332120 17.738831 
-17.792980 21.703430 2.850590 
-0.211642 22.691240 20.052420 
10.952160 3.755743 7.927150 
12.731620 -15.426170 -18.108521 
-0.154275 8.615336 -8.839993 
14.070360 22.793711 1.131073 
0.411277 -16.423309 19.705009 
-4.899658 -7.476240 20.469231 
-1.815133 -14.557480 21.738750 
15.238500 26.823009 2.416023 
-5.692623 -15.876610 18.859369 
-9.627084 8.659094 -0.472736 
0.785769 21.991289 19.461550 
5.263118 9.823280 -3.496978 
19.149080 -20.800600 -13.269600 
-18.709490 -3.604057 -4.468631 
1.966126 11.519310 -5.184212 
4.464815 14.600290 -3.483376 
6.767457 22.506849 17.159889 
3.720601 9.953897 13.222230 
-9.558708 22.208611 -8.349941 
-2.781706 23.177330 20.127239 
-7.646609 -9.232253 17.732180 
5.285408 13.795900 -5.545362 
15.580740 -5.003470 7.243686 
7.998169 8.330838 1.603149 
-2.107476 9.890303 12.055490 
-1.613505 6.011187 12.239440 
7.889960 15.163800 3.814106 
4.261429 -5.957113 17.716730 
-4.761878 19.012390 18.675819 
-1.830353 -11.504940 19.442520 
-16.247049 -21.412979 -17.025169 
17.486851 -16.763399 -9.608750 
11.620950 -22.074961 -18.441950 
11.907750 27.629400 -4.269865 
-11.448880 7.091639 7.637563 
13.480980 -16.957180 -15.221910 
20.005550 -22.630150 -6.825843 
-12.330660 27.511181 -10.292700 
-19.640720 -15.519140 -10.362620 
-19.632980 -24.269979 -13.491380 
10.583430 16.911970 2.644366 
18.181789 -24.701891 13.659930 
5.145819 17.320721 15.267070 
-4.187580 -6.920507 -17.261530 
3.859450 9.946877 -7.189002 
0.639369 7.936282 14.123510 
-15.728050 -4.562428 -11.520850 
2.539375 -14.540060 19.429609 
-5.060423 23.800699 23.169729 
8.092995 8.218969 2.931896 
19.680281 -8.513831 -4.943666 
19.612869 -22.061279 -13.213480 
-12.017710 20.472000 -4.966049 
15.460430 -0.053110 -4.990417 
4.262526 -1.928244 17.974380 
-17.416830 -8.949567 -6.899727 
12.502880 -2.330104 13.585510 
-20.770010 -19.413240 -9.529415 
14.766980 -19.711729 -14.975390 
-9.622923 15.058510 -0.647202 
7.256230 23.747299 17.346001 
-17.972691 21.527069 8.790316 
6.079101 10.644980 -5.438468 
6.556889 17.960400 -2.097682 
-4.144970 1.478054 -14.670640 
2.983332 19.150471 -5.436730 
1.946545 -22.338200 -24.021339 
6.536042 8.256744 7.953681 
16.563379 -2.742140 -6.832913 
-0.353216 -1.191633 18.067440 
19.198210 -16.193880 -4.198374 
5.852388 3.335111 10.800380 
-8.883244 -24.787149 18.086929 
-20.363880 -10.727720 7.256134 
16.538601 24.404739 2.200238 
14.395420 -1.043280 1.870473 
0.766895 23.030910 -8.068831 
-20.651560 -6.896703 -1.187871 
12.397690 27.554020 -8.059223 
-3.403414 0.230210 14.087510 
20.265289 -22.024700 -12.040120 
1.951592 -22.160789 22.041201 
-12.505300 19.867531 15.216000 
-17.252939 24.814060 11.529820 
-10.308900 27.836020 -11.989400 
-9.924328 24.110640 19.684940 
-4.149906 22.754919 -10.528660 
1.976189 -13.015940 -21.509899 
8.328428 -8.502973 16.856680 
-14.504760 -6.338643 -13.993180 
15.274200 -24.020020 13.521940 
14.323510 -7.091516 -13.658280 
-20.348129 -10.315080 -6.342760 
14.841590 -3.142609 11.448080 
4.868215 12.927250 13.091290 
-14.329290 -0.024258 -0.768241 
10.505390 -22.351360 17.134930 
-5.488699 -6.089974 -16.609320 
6.856861 15.239870 -0.397180 
-11.823430 -16.928431 15.947340 
15.584970 23.182421 8.742738 
-11.886430 27.276779 -8.070858 
-15.691900 22.202280 -2.987725 
-18.782980 -27.646139 12.118350 
4.358179 7.381303 12.930410 
8.069784 -21.542370 -22.588301 
-11.743120 -21.184240 -18.009050 
-1.868255 -15.979970 -22.438841 
15.758480 -23.185049 -15.568910 
-7.973876 -4.112572 -14.718260 
4.389616 23.933559 -10.384830 
-3.327210 -23.374109 -22.398701 
9.638325 3.369159 5.686874 
2.785924 -12.010810 -18.819799 
-6.298363 -16.164249 20.983801 
1.207823 25.626490 -13.256460 
-1.118164 0.324665 -16.119711 
-10.707630 17.622169 -0.391206 
-0.555335 -19.759609 -21.299919 
-12.623490 4.603510 -3.276928 
2.167316 3.232198 -9.663772 
-14.789090 1.099406 -6.195061 
10.404370 -14.575900 -16.737200 
-16.718679 -16.473249 -15.044470 
11.135380 2.738522 8.890686 
10.628320 2.283298 -9.144680 
-0.349596 20.626511 -6.944593 
0.728801 -27.426390 22.387060 
-15.788740 1.539094 1.764273 
-6.757248 22.765301 -7.232746 
3.959118 4.521376 -7.837037 
7.471605 -3.245451 14.981190 
-19.590191 -9.793453 -8.116458 
16.542360 -1.069682 -4.043947 
15.327090 -4.571824 -6.254492 
8.822826 -19.687229 -19.304569 
-17.958361 -5.892455 9.661140 
9.534430 24.464291 20.490940 
-11.417050 -17.659781 -17.156231 
14.229850 -5.376872 10.164860 
9.703228 19.156620 12.575130 
6.592716 28.201241 -12.196380 
-2.623543 -8.686342 -18.031450 
1.982583 1.009488 -12.481660 
15.788420 -2.916260 1.864481 
-5.766722 -2.279470 17.913570 
15.770560 -11.453330 -10.041760 
14.475890 -16.983339 16.361231 
-12.206270 18.391790 2.923270 
4.605759 -19.655300 -20.762140 
19.294840 -10.008190 -7.180932 
-3.498631 26.192810 -14.276440 
18.975929 -23.081360 -14.215430 
-16.014120 -4.629752 -6.636282 
15.798330 -19.177460 -13.525120 
-5.762818 -3.816621 16.409611 
-20.808960 -26.858210 9.202647 
-4.077848 -21.509661 19.566351 
2.188167 -14.664640 21.703520 
-5.576224 7.638678 -5.779665 
-4.191683 -8.508833 18.666059 
-10.709030 -13.805600 -16.517000 
2.006561 -0.181500 -13.679920 
6.702048 -11.478630 20.481440 
-5.607080 -7.363428 -17.052280 
-19.504150 -10.956530 -8.790692 
-18.034510 -23.517559 -11.485210 
-10.849630 1.434489 11.752680 
-17.384140 22.987761 15.824690 
-17.603251 -7.715425 6.464185 
21.574480 -16.812880 4.140592 
20.578291 -17.639891 -8.811232 
-13.903480 24.096870 -8.068503 
4.999489 -16.069180 21.316080 
7.231569 -7.272146 17.089510 
-14.915330 22.380939 11.360340 
10.815320 7.048603 3.393868 
-19.257099 -19.600130 5.719547 
-15.978840 -16.897249 11.846340 
5.342604 -11.962820 18.680340 
1.304671 -9.324262 21.353991 
-10.298810 5.339150 10.054410 
9.768994 3.300819 -2.196111 
10.653820 2.268741 -2.950821 
-11.342500 -7.672459 -14.256010 
0.017708 11.518160 14.554090 
-18.086300 -15.218110 -12.805000 
-5.497445 21.808580 -9.609838 
15.573720 -26.981430 15.931640 
-20.836821 -16.143560 -7.917171 
-15.702290 21.548281 15.643010 
-19.709850 -6.904706 6.544936 
-17.212980 -18.631550 -11.153330 
-17.901979 -5.779330 -1.444060 
17.427891 -15.304570 -8.905989 
-11.067230 18.555330 10.252190 
19.417681 -19.831120 5.231450 
1.445250 7.020379 11.785640 
-1.904092 2.870977 -10.307410 
-7.080514 -7.897245 17.680740 
11.113990 21.895929 7.184380 
-18.004601 -6.171099 2.864902 
-18.853830 -17.632200 -12.580090 
2.365618 14.447830 -4.781772 
-9.527722 25.335421 -8.473366 
-11.877860 -6.626607 14.376670 
15.907620 -14.639650 14.619730 
-3.786845 2.784245 -9.994016 
16.408590 -12.713000 9.686950 
-9.872531 -6.155529 15.640700 
6.639354 19.411430 12.563510 
-13.367030 24.324350 16.792669 
12.113660 -8.093690 14.024860 
-2.980094 -22.237400 19.743320 
20.873569 -10.694320 0.385702 
-8.807682 2.606794 9.942243 
3.542290 27.753731 -9.598144 
-7.273918 -18.841999 -22.078970 
-5.633321 23.464199 -8.134588 
5.828546 -2.573474 15.273260 
-6.452637 -11.528620 -17.914730 
-9.141754 12.353190 7.753438 
3.645355 19.137831 17.920670 
7.071358 12.473980 6.546899 
-4.119214 20.020321 20.249840 
-18.823721 24.446640 -3.894375 
5.194795 -8.726681 20.562851 
10.559970 2.611280 -1.372546 
18.067110 -2.622565 0.394787 
-6.977499 -2.116781 17.364229 
-0.947561 -6.618205 18.561140 
-20.431700 -25.391661 3.383559 
14.398730 -7.582790 -10.372990 
22.930771 -23.509960 3.437726 
-11.196320 17.608471 8.285759 
10.774600 26.114540 -4.138382 
5.091714 -4.564226 19.147409 
-8.713209 -28.216631 20.212160 
4.752019 13.732440 10.521600 
-4.800439 -12.254420 -20.945511 
9.405805 0.127494 -9.587906 
17.315371 -6.455759 2.648981 
-9.484792 -5.175669 17.860041 
11.813970 5.034711 2.307844 
16.927469 -13.262070 -8.836383 
18.088640 -3.859637 -4.454060 
2.027622 -12.999350 -19.261221 
9.147549 -20.513821 20.140039 
-20.609400 -22.312389 -1.955126 
15.020020 25.772039 12.763000 
-3.400068 5.550292 12.058410 
-2.148767 -5.400068 20.109091 
-18.478239 22.409220 1.966462 
-1.091492 20.174179 20.598789 
5.885880 -22.320101 19.136410 
-19.927380 -23.744711 4.949292 
-18.731171 -13.428240 -5.463901 
3.153131 22.060829 18.728350 
-17.995991 -22.657961 9.378592 
17.550230 -14.048100 -7.974496 
11.572590 1.759803 -1.011416 
-15.770390 -22.278601 15.704230 
-16.249269 0.020800 5.823108 
16.542320 -4.162373 9.648923 
-16.036501 0.690952 -3.748860 
19.462549 -17.775009 3.387305 
-19.053110 22.206829 9.494452 
-2.659958 -6.153534 -17.247181 
2.738824 24.093140 23.445129 
-9.721653 -14.385580 17.155300 
11.382510 26.806601 -3.073507 
-11.021800 -11.002640 -18.156500 
20.269131 -16.127501 -8.720729 
-22.651230 -21.494659 -3.672499 
-9.044367 -6.973201 18.757610 
-12.668220 5.448105 5.804232 
8.865489 28.116770 -9.274392 
-7.176199 -9.652713 -19.586250 
-0.349518 14.413930 -7.720215 
3.702399 -12.363440 -21.075371 
-3.426191 -3.125907 -15.693590 
-1.184761 -15.721480 19.648710 
-11.350300 3.448279 4.925606 
1.966328 1.311813 15.961550 
11.970330 1.499273 2.216882 
-12.830950 13.919800 4.149654 
3.269681 9.486420 10.898630 
-8.005751 13.073760 12.786630 
13.497630 21.339390 6.470601 
1.971985 13.826480 -7.246245 
-6.158544 -8.770434 18.115721 
14.248350 -8.846704 -14.402020 
-18.774981 -19.732611 7.092952 
-16.469351 -8.179667 13.261320 
13.415290 22.809999 -0.423631 
9.149832 3.107817 -4.223986 
4.054532 -3.168993 18.773270 
10.666530 -17.474400 16.557421 
-8.176289 27.623560 -9.912306 
9.562270 -13.555230 19.391140 
-12.996510 23.292110 -3.477403 
-9.649524 -12.159250 19.545731 
8.367047 16.924219 3.898658 
0.506833 14.964970 15.673490 
6.390818 -23.059601 -21.719790 
20.477791 -20.204491 8.904451 
19.073360 -21.711479 11.842190 
12.791190 -6.687119 -14.932270 
-10.047320 13.075190 1.633328 
-12.510850 21.488890 19.389400 
-14.660520 18.415001 7.206629 
10.568090 24.940901 18.278191 
9.050012 6.885787 8.758975 
-7.129561 -26.541050 21.116171 
16.975201 -5.615753 -1.950621 
-18.044920 -16.479240 12.581660 
21.279350 -24.436131 -5.412875 
18.054131 -3.251255 -3.248389 
7.868993 18.509300 9.676476 
10.258320 15.546950 2.825356 
9.687817 -13.448770 -16.818911 
-16.521860 -12.879070 14.180770 
14.783320 -15.557290 12.598960 
-20.266890 25.702730 2.908277 
19.680811 -11.611380 -7.208603 
-6.538233 20.261921 16.435699 
-5.668346 -4.843186 -18.487659 
14.044720 -20.551260 17.103840 
0.408012 3.868480 -12.401000 
-6.575703 9.974387 10.271060 
15.155780 -8.450837 -9.563478 
3.127402 22.804569 -9.798267 
8.093900 13.124100 -2.547951 
22.550961 -19.966940 -3.313418 
8.889299 20.063231 0.450461 
-8.413389 -4.453949 -17.290251 
-19.976730 23.112539 2.869421 
6.350536 14.244320 -1.205542 
-10.215100 -16.734140 -20.231470 
11.834080 -4.887338 -14.853390 
-10.717670 -2.272439 -11.656770 
-19.618210 -16.448721 3.256600 
8.751402 6.532458 -5.006393 
14.937860 -5.059810 8.696561 
-19.400230 -12.550220 1.140125 
-15.526210 22.968410 18.026991 
17.102289 -17.732149 -10.970570 
14.193220 -0.808100 -0.777290 
-4.190930 12.671390 -7.464446 
-9.141406 -25.394730 20.258690 
-21.673109 -17.290461 4.800438 
-8.295097 5.364758 11.980410 
-19.980930 25.925871 -1.166690 
21.653460 -19.464581 -7.111743 
2.011580 -1.538314 15.637350 
-4.851428 -0.666823 17.113079 
3.052884 -22.933081 21.916080 
16.839649 -13.843980 13.364750 
-21.430740 -26.149340 7.976955 
-14.144870 -10.666810 16.403090 
-16.306419 -10.257920 -13.464780 
5.886961 -8.418081 17.912729 
3.442329 14.345090 14.456390 
-16.144171 -18.261169 -16.175640 
10.675080 16.851061 5.111074 
10.184270 9.308348 3.439593 
-18.633869 -2.314855 -1.924688 
-9.419866 7.601910 10.526720 
-6.716805 -1.443927 -13.519340 
-5.957598 13.320980 -4.305494 
-19.400930 -20.994419 5.773661 
15.304230 -10.059100 -10.168450 
-2.868559 -2.027461 -15.122210 
6.662800 2.228311 -8.871497 
-14.591560 -7.927006 -11.149700 
3.614927 -3.081042 -17.824900 
-13.574040 18.790079 11.446030 
-11.763520 -26.061769 16.404650 
-19.635170 -14.567120 -1.165418 
-6.512183 -24.030279 21.209021 
-19.650841 -21.743940 -12.663920 
19.622700 -17.629900 -3.483257 
-1.108572 -17.915480 21.941179 
-17.125610 25.727470 3.445926 
-0.350579 19.384680 -6.457917 
-21.932461 -15.183530 -2.594578 
-11.060340 19.792110 16.572620 
-22.207809 -17.253611 -2.665563 
-11.829180 -5.373533 -12.826660 
0.413373 -5.459555 -17.101860 
15.812670 23.919741 12.893790 
5.561122 -27.140539 21.769480 
8.165153 25.023371 17.067850 
-18.062639 21.937410 11.803950 
-11.118220 -17.893709 -20.032379 
12.544810 0.732579 -2.378740 
-6.187899 18.163490 14.431540 
18.579130 -11.513420 1.922933 
6.013943 10.236060 11.721300 
8.281823 25.276541 -6.572163 
8.033593 3.733168 -5.025577 
12.947570 -11.010490 13.987530 
17.828239 -21.810459 -15.665740 
6.693588 12.984730 -0.447997 
-14.944890 -17.203871 -13.807910 
7.743680 10.061220 2.613219 
-7.216829 -27.334770 18.835449 
3.528826 -22.647320 -23.772711 
-11.535700 27.706511 -11.373140 
-2.344310 -1.150792 17.923130 
5.060744 24.358351 22.007071 
-1.091128 21.193701 -9.548624 
-15.616930 -18.505550 15.596650 
11.444950 -0.186430 8.276567 
17.308630 -6.181736 -0.735383 
-18.622431 -25.010361 12.559690 
-15.749170 19.511641 4.903099 
10.646660 -10.234750 15.822840 
-4.896935 15.348410 13.046330 
-18.811501 -9.169930 2.755452 
5.035202 -9.341173 18.429750 
-18.083740 -8.764847 5.742792 
2.723431 -18.977180 19.630760 
15.120080 -3.284710 -4.967172 
-15.620370 -12.677680 15.197220 
11.227540 -13.526250 -15.834890 
5.620669 2.227679 11.588550 
-3.475774 6.045797 -7.456694 
-8.414428 6.933245 8.488030 
9.603293 21.170210 0.615970 
8.912927 8.733780 8.255176 
-14.505230 -15.567320 -16.917339 
-20.173031 25.520901 4.924062 
-13.993530 18.010031 8.741967 
-10.584470 17.456200 9.492469 
-0.430617 18.412251 15.519350 
-20.326210 23.629330 1.037098 
18.197250 -10.511790 3.594137 
4.872157 -17.037500 19.078529 
-0.896356 12.639560 12.603640 
-21.868370 -14.075920 -1.866542 
7.366221 14.471240 1.113781 
-17.695351 -13.187380 -8.086114 
0.530168 3.028294 -13.435880 
12.749030 23.759190 9.133339 
12.947560 -24.022989 15.660450 
16.486549 23.950541 11.016680 
5.979561 15.377130 -5.041080 
-9.388759 19.834061 17.931080 
-7.927951 15.816600 -5.946097 
-13.301000 -23.084789 17.825439 
12.922380 -0.018441 4.888087 
15.376090 -12.119320 14.792770 
19.399771 -17.697491 10.366980 
-12.613200 7.706366 1.938789 
0.895459 -6.959670 18.621929 
-16.448080 -16.858271 14.639240 
12.881330 -22.277300 -20.240459 
16.590231 -8.101171 -6.555609 
19.616699 -16.863621 -1.918272 
-5.750808 6.292896 13.326370 
-13.991440 18.096081 1.104627 
19.604759 -6.196722 3.128625 
11.188330 19.785549 0.294012 
-11.808440 -15.268090 -18.863199 
19.029470 -17.107929 4.917054 
-15.269690 -26.948820 13.498020 
8.910173 19.030220 -3.112683 
-8.734063 26.355740 -8.850145 
-16.851330 20.692690 8.189324 
19.228210 -21.566219 6.528023 
21.279860 -24.490061 -0.442620 
-2.605245 15.360010 -5.527299 
-13.168590 22.558870 14.863920 
1.841646 20.117090 -8.510610 
-7.749369 -1.774408 14.157270 
6.368618 19.204390 16.383421 
-4.186446 16.402340 16.353029 
-11.113360 -3.194021 -14.979860 
-9.540622 27.540810 -10.362730 
18.297041 -26.397440 13.377390 
3.487430 20.049030 -7.902499 
17.089720 -12.952950 8.451141 
1.304179 -5.128937 20.053711 
15.116020 -2.126842 -1.977925 
-20.601589 -17.017590 8.058033 
8.097368 16.059271 4.927805 
17.427570 -9.951056 -10.872300 
19.499290 -8.368236 6.500851 
17.079300 -19.633690 -15.665270 
9.676105 15.040820 7.619800 
4.287538 -14.251820 19.071150 
17.369789 -1.355510 -0.455119 
15.271900 -13.626600 15.188480 
18.785530 -14.151490 3.503463 
-7.775616 -5.406688 -18.034451 
5.319942 -24.785240 19.434641 
11.348830 -6.819726 -13.310910 
15.850960 -14.562940 -14.945510 
3.432128 8.344752 -8.073561 
-17.100750 -3.818992 2.038974 
-14.218160 3.082368 3.672581 
-7.905543 -8.423777 -16.456751 
-10.090080 7.664720 0.310277 
8.270191 24.686701 19.903339 
-11.785230 0.361098 12.167240 
22.170080 -18.706711 2.610850 
22.753580 -20.472620 0.438874 
-18.775789 -16.845190 11.516230 
0.454841 13.104680 12.565340 
-13.221300 -17.723900 -15.750130 
1.373232 -13.544900 21.730200 
16.635929 -22.626659 15.067730 
-16.853571 -20.226910 14.466200 
-9.991927 8.866520 0.855717 
-2.448795 -1.927404 -17.542490 
18.079639 -15.328080 -7.387468 
-12.446950 7.701147 0.447957 
-10.282360 10.175580 9.509546 
14.961850 -15.988130 -16.455999 
-18.352940 -22.707710 -14.998440 
-21.360901 -10.018660 -1.154148 
-10.453150 -5.238647 14.852330 
-17.118290 -12.800210 9.437634 
-12.630780 1.570382 -8.964095 
20.716261 -21.969570 -0.373562 
9.549647 27.890490 -8.150300 
8.566967 16.868670 11.416650 
14.261710 -13.040980 -15.991070 
-5.697720 5.579261 -9.597013 
1.959254 14.306590 12.497930 
