0.77594233 0.47549963 0.49983427 0.00002427 -0.00001430 -0.00000935
0.19726734 0.53784293 0.49626222 0.00000650 0.00001248 -0.00000645
0.30978751 0.55522144 0.52890474 -0.00000073 0.00001313 0.00002651
0.62591523 0.48189372 0.49090415 0.00001899 -0.00000993 -0.00001627
0.71521765 0.54229993 0.51590860 0.00001601 0.00001959 0.00001184
0.45088401 0.61077195 0.51055050 0.00000863 -0.00000252 -0.00001214
0.92874241 0.49449629 0.48018792 0.00001404 -0.00003598 -0.00003303
0.64020413 0.52307278 0.53464377 0.00001881 -0.00001039 0.00002733
0.16236237 0.46413377 0.50876445 -0.00000984 0.00000171 0.00000204
0.23477413 0.49544612 0.48554599 -0.00000313 0.00000327 -0.00000744
0.82059360 0.53021693 0.49236259 0.00002594 -0.00000242 -0.00001187
0.81344819 0.48450416 0.49626222 0.00002285 -0.00000483 -0.00002978
0.47889203 0.61951864 0.49983427 -0.00001374 0.00001334 -0.00000816
0.16649285 0.58022588 0.48733205 0.00002259 -0.00003668 -0.00004485
0.09903572 0.51569515 0.51233655 -0.00000856 -0.00000989 -0.00000942
0.51623881 0.59094214 0.47304386 0.00000385 -0.00001347 -0.00002695
0.93847013 0.52011544 0.47661579 0.00001749 0.00000521 -0.00001391
0.24549015 0.44627345 0.51447237 0.00000761 -0.00000215 0.00001103
0.93972832 0.50878453 0.48018792 0.00002315 -0.00000800 -0.00001786
0.47410244 0.62044197 0.51233655 -0.00000013 0.00003312 -0.00000006
0.52411145 0.61416048 0.48911551 -0.00001937 0.00003343 -0.00000951
0.18770254 0.52307278 0.48018792 -0.00000388 -0.00000997 -0.00001117
0.87060195 0.56772369 0.52828246 0.00003399 -0.00004080 0.00001957
0.92451322 0.55343533 0.55520129 -0.00001715 0.00000101 0.00004643
0.94025654 0.57129562 0.52981496 0.00007056 0.00002404 0.00000113
0.80273193 0.48813820 0.53912693 0.00001816 -0.00001149 0.00004500
0.21079797 0.45520350 0.49804828 -0.00000330 -0.00000214 -0.00000732
0.24370420 0.54629123 0.51340836 -0.00000512 0.00001927 0.00000314
0.28835505 0.48010793 0.51769459 0.00000382 0.00000650 0.00000788
0.49910685 0.52843094 0.47136804 0.00001224 0.00001094 -0.00000461
0.28299695 0.48913813 0.49073991 0.00000260 0.00001469 -0.00000379
0.36872655 0.39241880 0.51055050 0.00000660 -0.00001316 -0.00000358
0.16511884 0.51730192 0.47482982 0.00000773 -0.00001410 -0.00001421
0.19548136 0.40859914 0.49804828 0.00000261 -0.00000617 0.00003045
0.69378525 0.52307278 0.53460395 0.00001961 -0.00000741 0.00002127
0.25263444 0.48688343 0.52305263 0.00000103 0.00000255 0.00001001
0.72390425 0.50878453 0.48733205 0.00002025 -0.00001049 -0.00002579
0.66163653 0.54761392 0.50876445 0.00002569 0.00001573 0.00000742
0.45624214 0.58201182 0.53810799 0.00000036 0.00000858 -0.00002284
0.65627748 0.47127783 0.51850355 0.00001535 -0.00004078 0.00000418
0.94418573 0.55879343 0.52126670 0.00005280 -0.00000814 0.00000698
0.42052153 0.51771474 0.54180515 0.00000790 -0.00001181 0.00001080
0.53125554 0.49975079 0.53376889 0.00000324 0.00000237 0.00001349
0.54708558 0.41591072 0.52483881 -0.00000779 -0.00000643 0.00003408
0.94482142 0.53914714 0.52305263 0.00002992 -0.00000237 0.00003162
0.21691380 0.60460174 0.48911810 0.00002312 0.00000530 -0.00005784
0.93660080 0.56593770 0.53912693 0.00003030 0.00000154 -0.00000222
0.84023970 0.48881543 0.53555501 0.00001163 -0.00001192 0.00003100
0.67770994 0.52128679 0.48624629 0.00001663 -0.00000741 -0.00003720
0.69735605 0.48844981 0.49090415 0.00002516 0.00001087 -0.00001437
0.33434981 0.40340856 0.51233655 -0.00000247 0.00002150 0.00000324
0.24727632 0.41370356 0.49090415 0.00001439 0.00000910 0.00000495
0.09546302 0.54446089 0.49626222 0.00003370 0.00002163 0.00003698
0.33479190 0.58164346 0.51055050 0.00000179 0.00000569 0.00000699
0.76879877 0.49736887 0.54448509 0.00000686 0.00000862 0.00003453
0.92418307 0.50521249 0.54692298 0.00002709 -0.00002351 0.00001605
0.50027466 0.61594647 0.50697845 0.00002731 0.00001291 -0.00002202
0.36208472 0.42841315 0.49447617 0.00000285 0.00000557 -0.00000725
0.59923500 0.52307278 0.48376009 0.00003058 0.00000104 -0.00002665
0.10975382 0.52664489 0.47840196 0.00000613 -0.00001715 -0.00000844
0.45981425 0.54961169 0.46054164 0.00001044 -0.00001474 -0.00001711
0.42409346 0.53441000 0.45875546 0.00000548 0.00000495 -0.00003336
0.47551435 0.61951864 0.49447617 -0.00000737 0.00001532 -0.00000486
0.20262544 0.49189821 0.52662480 0.00000953 -0.00000320 0.00001210
0.44463518 0.38376227 0.52126670 0.00001882 -0.00001614 0.00003905
0.62948787 0.47031429 0.50340635 0.00002216 -0.00001314 -0.00000237
0.48839080 0.43019912 0.53189707 -0.00000621 -0.00001141 0.00002334
0.48221213 0.39983660 0.48376009 0.00000710 0.00000066 -0.00002978
0.47767457 0.60696459 0.53198290 0.00000277 0.00000383 0.00003251
0.18015853 0.46234778 0.50697845 -0.00000071 -0.00000363 0.00000225
0.56519055 0.54271907 0.48119408 0.00002334 0.00001063 -0.00001004
0.85809940 0.58948171 0.51948065 -0.00000239 0.00002234 0.00001957
0.14622784 0.41948289 0.49804828 -0.00000070 -0.00002530 -0.00000232
0.84916955 0.52092713 0.54627109 0.00000200 -0.00000339 -0.00000682
0.48303273 0.55164933 0.46131447 0.00000689 -0.00002395 -0.00001599
0.33732712 0.41591072 0.49626222 -0.00000257 0.00002961 -0.00000217
0.63127428 0.51178193 0.53376889 0.00002279 -0.00001476 0.00001163
0.42712197 0.55700743 0.46947169 0.00000448 0.00000351 0.00001620
0.67056644 0.52307278 0.53368169 0.00001982 -0.00000182 0.00002147
0.85631311 0.58736998 0.52067238 -0.00000304 0.00001699 0.00002333
0.24549015 0.51592869 0.53449076 0.00000025 0.00000117 0.00003385
0.19993874 0.41412476 0.49983427 0.00000068 0.00000047 0.00001260
0.66163653 0.47485000 0.49541554 0.00001732 -0.00000742 -0.00000447
0.77951503 0.53021693 0.53073829 0.00000241 0.00002073 0.00001035
0.86796111 0.56057960 0.52662480 0.00003755 -0.00002878 0.00001033
0.45232517 0.38733438 0.51412261 0.00000735 -0.00000751 0.00004977
0.28299695 0.45698968 0.50930232 0.00000431 0.00000077 -0.00000003
0.32228971 0.48815727 0.52126670 0.00000587 -0.00000131 0.00000195
0.21512765 0.59272808 0.50978816 0.00000755 -0.00002946 0.00003625
0.15797402 0.44805944 0.50094450 0.00001450 0.00004056 -0.00000985
0.78129947 0.48074135 0.49447617 0.00002040 -0.00000320 -0.00003301
0.48839080 0.50656009 0.53376889 0.00001480 -0.00001099 0.00000215
0.11441682 0.47842193 0.51233655 0.00001975 0.00002862 0.00003279
0.46517238 0.49985442 0.47644582 0.00000748 -0.00000311 -0.00000462
0.69735605 0.47890350 0.49447617 0.00002465 -0.00000244 -0.00000790
0.55626065 0.56732684 0.48911810 -0.00000063 -0.00002208 -0.00000242
0.43480968 0.46817598 0.49269021 0.00000102 0.00001080 -0.00000698
0.21512765 0.39447847 0.49380657 0.00000844 -0.00002573 0.00001525
0.18476513 0.59451401 0.51331085 0.00001229 -0.00000212 0.00003072
0.47358900 0.45877564 0.49983427 0.00000978 0.00000235 -0.00001073
0.32012439 0.53021693 0.53376889 -0.00000475 0.00001572 0.00000297
0.24888687 0.48913813 0.48733205 -0.00000155 0.00000963 -0.00001265
0.08653313 0.45877564 0.49625659 -0.00002209 -0.00003039 -0.00000136
0.43676636 0.55879343 0.46768573 0.00000404 0.00000251 0.00001405
0.11760661 0.56236553 0.51769459 -0.00003854 0.00000194 -0.00000128
0.86524290 0.60187906 0.51055050 -0.00001170 0.00004946 -0.00000818
0.81273139 0.52664489 0.54448509 0.00001393 0.00001762 0.00001695
0.19548136 0.47306383 0.52184308 0.00000467 -0.00001085 0.00002292
0.34015000 0.43258360 0.50340635 -0.00000141 0.00000077 0.00000023
0.79916114 0.47443235 0.51590860 0.00000753 -0.00003466 -0.00000178
0.18285881 0.45163155 0.50519240 0.00000522 -0.00000308 0.00000491
0.27354437 0.38376227 0.51590860 -0.00000096 -0.00005276 0.00001080
0.07276107 0.54093307 0.49447617 0.00002825 0.00000403 0.00004803
0.34729415 0.49658367 0.48376009 0.00000593 -0.00000882 0.00000401
0.21250942 0.61058843 0.49447617 0.00000246 0.00002308 -0.00002852
0.52768338 0.46949187 0.52006286 0.00001830 -0.00001203 0.00000358
0.26335067 0.48141721 0.52126670 0.00000706 -0.00000108 0.00001103
0.94123548 0.53378904 0.54091311 0.00004324 -0.00001027 -0.00003927
0.30978751 0.48977327 0.49269021 0.00000506 0.00001041 -0.00000023
0.13654156 0.49449629 0.49422368 0.00000184 -0.00002063 0.00000252
0.31693161 0.41187552 0.47661579 0.00000819 0.00000081 0.00000441
0.22405790 0.45520350 0.49586341 -0.00000386 0.00000315 -0.00001041
0.53839904 0.50342643 0.53775996 0.00001257 0.00000052 0.00001784
0.21691380 0.51950073 0.48479903 -0.00000034 -0.00000769 -0.00000373
0.93731195 0.57308179 0.49804828 0.00003441 0.00001892 -0.00001827
0.22941601 0.46413377 0.51501346 0.00000048 0.00001573 0.00000947
0.15095499 0.48556620 0.49447617 -0.00000671 -0.00001052 -0.00000456
0.51160926 0.52929145 0.46589974 0.00000525 -0.00000650 -0.00001932
0.09546302 0.51771474 0.49953514 0.00000743 -0.00001938 -0.00001601
0.37408468 0.44270131 0.51007235 0.00001028 -0.00001097 0.00000481
0.62055802 0.47195750 0.51233655 0.00001913 -0.00001728 0.00000457
0.90810782 0.48561674 0.48733205 -0.00000080 -0.00003751 -0.00004063
0.86686140 0.59094214 0.53019691 -0.00000296 0.00002255 0.00004756
0.81702083 0.49628231 0.49042317 0.00001623 0.00001641 -0.00003309
0.27942482 0.53994143 0.48197392 0.00000249 0.00001149 -0.00002962
0.48839080 0.53557503 0.46476099 0.00000906 0.00000913 -0.00001923
0.20262544 0.48199406 0.49585915 0.00001327 0.00001145 -0.00001028
0.90453702 0.52307278 0.55646890 -0.00002873 0.00002016 0.00005578
0.67413723 0.54106098 0.52126670 0.00002556 0.00001676 0.00002230
0.44505772 0.53914714 0.54448509 0.00000219 0.00001751 0.00000359
0.71330118 0.47127783 0.49983427 0.00001023 -0.00002285 0.00000624
0.35521677 0.59987217 0.49983427 -0.00000313 0.00005111 -0.00000642
0.33836398 0.56950969 0.48521706 0.00000462 -0.00001104 -0.00001206
0.41694936 0.38376227 0.50534499 -0.00000448 -0.00003491 -0.00001269
0.39681640 0.48199406 0.49447617 0.00000909 0.00000420 -0.00001202
0.29907128 0.54629123 0.52917492 -0.00000167 0.00001248 0.00002317
0.46422395 0.41948289 0.50340635 -0.00001121 0.00002422 0.00000372
0.60626906 0.51152354 0.48733205 0.00002542 0.00000140 -0.00001145
0.41694936 0.59630018 0.48716569 0.00000627 -0.00001094 0.00000706
0.75093716 0.49612483 0.53734100 0.00001905 0.00001845 0.00003181
0.90096432 0.60344428 0.52107131 0.00000855 0.00004201 0.00000733
0.40546709 0.44270131 0.49447617 0.00000401 0.00000589 0.00000393
0.19726734 0.43019912 0.50993603 -0.00002153 0.00002273 -0.00000096
0.49910685 0.43019912 0.52936447 0.00000224 -0.00000560 0.00001856
0.71063393 0.46949187 0.51948065 0.00001710 -0.00003905 -0.00000031
0.35265222 0.48878542 0.49447617 0.00000244 0.00001399 -0.00000370
0.42945158 0.61394477 0.48911810 0.00000117 0.00002645 -0.00000496
0.24906230 0.46599233 0.49626222 0.00000030 0.00000664 -0.00000554
0.40087503 0.46591973 0.49514920 0.00000524 0.00000550 -0.00001178
0.33479190 0.56236553 0.53153110 0.00000058 0.00000751 0.00002367
0.16501850 0.50699854 0.47661579 0.00001073 -0.00000014 -0.00001821
0.68842620 0.51318288 0.53376889 0.00002276 -0.00001947 0.00001436
0.20619757 0.59322286 0.51412261 -0.00001889 -0.00002484 0.00004619
0.41159126 0.38733438 0.50794131 0.00000020 -0.00002559 -0.00000223
0.33300588 0.50401574 0.48018792 0.00000513 -0.00000942 0.00000307
0.52232528 0.45520350 0.50801957 0.00001983 -0.00001297 -0.00001500
0.36872655 0.57843989 0.47979406 -0.00000290 -0.00001600 -0.00001058
0.21255752 0.40162259 0.50697845 -0.00000551 -0.00001896 -0.00000252
0.67056644 0.50591290 0.54091311 0.00002173 -0.00000494 0.00002446
0.45445615 0.59630018 0.47994989 0.00001547 -0.00002707 0.00000171
0.57412040 0.53021693 0.53343797 0.00002207 -0.00000194 0.00000712
0.41694936 0.38733438 0.50551367 -0.00000231 -0.00002573 -0.00000802
0.74022096 0.47527593 0.49804828 0.00001609 -0.00000693 -0.00000522
0.56161785 0.57129562 0.49267092 0.00000624 -0.00000527 0.00000068
0.30621538 0.52086157 0.47482982 -0.00000420 0.00000689 -0.00000240
0.28656909 0.47366178 0.51412261 0.00000324 0.00001424 0.00000936
0.15261683 0.49271029 0.52394581 -0.00000186 -0.00001103 0.00001255
0.41769788 0.42841315 0.49090415 0.00001521 0.00000031 0.00000313
0.21691380 0.51592869 0.52875406 0.00000736 -0.00000533 0.00001538
0.14346249 0.44270131 0.48733205 -0.00000752 0.00003823 -0.00005570
0.79304188 0.47127783 0.51412261 0.00000497 -0.00003752 0.00000001
0.45624214 0.54569083 0.45696953 0.00001327 -0.00001361 -0.00003142
0.45266998 0.47514480 0.49447617 0.00001025 0.00001211 0.00000196
0.43838182 0.50521249 0.53143662 0.00000495 -0.00000138 0.00000007
0.27585286 0.43460387 0.49626222 0.00000419 0.00000478 -0.00000657
0.94561553 0.52485883 0.48144799 0.00003223 0.00000733 0.00000076
0.85809940 0.47797033 0.52483881 0.00002926 -0.00002823 0.00000027
0.45981425 0.49449629 0.48125541 0.00000246 0.00000127 -0.00000224
0.44195396 0.43955037 0.49269021 0.00001042 -0.00001861 0.00000318
0.13198985 0.49092412 0.49447617 -0.00000206 -0.00001895 -0.00000154
0.48124653 0.40340856 0.50104046 0.00000350 0.00000557 -0.00001964
0.45445615 0.41591072 0.48880666 -0.00001030 0.00001773 -0.00001790
0.09903572 0.52664489 0.51350421 -0.00001556 -0.00000919 0.00000218
0.94561553 0.52700424 0.53376889 0.00004757 0.00000891 0.00001447
0.42146242 0.39805043 0.51412261 0.00000221 0.00000291 0.00001117
0.35979635 0.39626443 0.51139665 0.00001101 -0.00000542 -0.00000034
0.94918638 0.51771474 0.48674729 0.00005449 0.00000852 -0.00000288
0.62142950 0.54093307 0.52126670 0.00001838 0.00001529 0.00002461
0.46160024 0.55157465 0.46232763 0.00000785 -0.00001405 -0.00000979
0.19369538 0.61625451 0.50876445 -0.00004522 0.00003506 0.00003086
0.72593391 0.51414269 0.48862177 0.00001937 -0.00001359 -0.00002665
0.62770152 0.46949187 0.50637883 0.00002181 -0.00001683 0.00000137
0.75629622 0.50720781 0.54269910 0.00001738 0.00000402 0.00002601
0.49017680 0.61157078 0.49269021 -0.00000124 0.00000040 0.00000006
0.75564164 0.49449629 0.48911810 0.00002834 0.00001747 -0.00004157
0.75450993 0.50936466 0.54091311 0.00002048 -0.00000005 0.00002410
0.76879877 0.52603650 0.49269021 0.00001206 -0.00000642 -0.00002251
0.88131821 0.50364465 0.55341536 0.00001370 -0.00001192 0.00003438
0.55983150 0.53378904 0.48195732 0.00000767 0.00000158 -0.00000220
0.60805541 0.55115831 0.50697845 0.00002614 0.00001282 0.00000184
0.29549915 0.50713092 0.47661579 -0.00000562 -0.00000695 -0.00000555
0.40266120 0.57229710 0.46589974 0.00000079 0.00001807 -0.00001368
0.51160926 0.48378006 0.51823336 0.00000394 0.00001487 0.00000421
0.74558002 0.46670067 0.51055050 0.00000887 -0.00002528 0.00001143
0.05617082 0.52288795 0.50340635 -0.00002945 -0.00001564 0.00003139
0.12939803 0.51950073 0.52841073 0.00000635 0.00001341 0.00002209
0.40954685 0.52664489 0.54091311 0.00000428 0.00000558 0.00000316
0.45266998 0.51414269 0.46834841 0.00000789 -0.00000705 -0.00001114
0.41516340 0.40698069 0.51272076 0.00000226 0.00000963 0.00001815
0.50982308 0.53200305 0.46375746 0.00000311 -0.00001257 -0.00002391
0.26335067 0.50342643 0.52639502 0.00000090 -0.00000423 0.00000191
0.16154671 0.51414269 0.47687969 0.00001185 -0.00000721 -0.00001115
0.42945158 0.54414648 0.46232763 0.00000809 -0.00000495 -0.00001642
0.40087503 0.51771474 0.53862429 0.00000356 -0.00000423 0.00000647
0.49732086 0.56950969 0.54743338 -0.00000852 -0.00001433 0.00001679
0.81880724 0.54577363 0.50697845 0.00000741 0.00000654 -0.00000147
0.39003506 0.58558398 0.52483881 0.00001385 -0.00001158 0.00001132
0.57590675 0.47062403 0.51590860 0.00001493 0.00001636 0.00000852
0.79916114 0.51235664 0.48819515 0.00001987 -0.00000524 -0.00003227
0.25620636 0.55128187 0.51412261 -0.00001272 0.00001175 0.00001051
0.19905330 0.41469878 0.48554599 0.00001449 0.00003850 0.00002477
0.14725779 0.57890582 0.47482982 -0.00000103 0.00000694 -0.00003314
0.59733921 0.54810172 0.51590860 0.00001102 0.00000600 0.00001743
0.21334167 0.47485000 0.49720976 0.00000659 0.00000732 -0.00000197
0.84268057 0.55879343 0.52126670 0.00001793 0.00001120 0.00001481
0.35622430 0.59272808 0.48991281 -0.00000351 0.00003578 -0.00001115
0.27279851 0.51592869 0.47840196 0.00000315 -0.00000053 -0.00001136
0.36600018 0.44091532 0.48554599 0.00000052 -0.00000073 -0.00001093
0.07760327 0.53557503 0.50905305 0.00003413 0.00002709 0.00005134
0.44016781 0.50100839 0.47661579 0.00000034 -0.00001377 -0.00000117
0.07581691 0.47366706 0.48733205 -0.00003658 0.00001107 -0.00004764
0.54732895 0.42841315 0.52373397 -0.00000667 0.00001936 0.00003532
0.94315201 0.56236553 0.51948065 0.00005500 0.00000001 0.00000426
0.46699440 0.60165834 0.47840196 0.00001204 -0.00000458 -0.00000117
0.31871757 0.55700743 0.48805860 0.00001213 -0.00000639 -0.00000919
0.37408468 0.52881032 0.53734100 0.00000519 -0.00000012 -0.00000179
0.23477413 0.49974486 0.48197392 -0.00000220 -0.00000219 -0.00000770
0.17404892 0.55274510 0.52483881 -0.00000144 0.00001278 -0.00000452
0.40087503 0.42732602 0.49269021 0.00000379 -0.00000077 0.00000227
0.42945158 0.40876666 0.50179714 0.00000625 0.00001312 -0.00000048
0.91168052 0.47559622 0.50876445 -0.00000058 -0.00007439 -0.00000994
0.86702931 0.60049242 0.50340635 -0.00000752 0.00004364 -0.00003001
0.61519891 0.54769522 0.51590860 0.00002384 0.00001209 0.00002169
0.62412882 0.47077700 0.50697845 0.00001978 -0.00001420 -0.00000004
0.21908818 0.42126888 0.48554599 0.00000208 0.00002838 -0.00000175
0.45445615 0.46234778 0.49499422 0.00001430 0.00000359 -0.00000225
0.43567005 0.55522144 0.46768573 0.00000423 -0.00000306 0.00001122
0.46695837 0.59094214 0.54142982 0.00001090 0.00002770 -0.00000525
0.44907388 0.48020810 0.52126670 0.00001206 0.00000942 0.00000717
0.29192719 0.48531270 0.52126670 0.00000373 -0.00000372 0.00000403
0.86881566 0.47980291 0.50340635 0.00001295 -0.00003313 0.00000655
0.36872655 0.44091532 0.49946815 0.00000555 -0.00000609 -0.00000160
0.25620636 0.54450524 0.51783550 -0.00001010 0.00001896 0.00000977
0.94087338 0.57308179 0.53555501 0.00007865 0.00003936 0.00000405
0.56340420 0.49092412 0.48505542 0.00002145 -0.00000023 -0.00001532
0.15619709 0.48199406 0.49447617 -0.00001347 -0.00000660 -0.00000874
0.11583345 0.56415153 0.48733205 -0.00003363 0.00001567 -0.00001081
0.46365485 0.45163155 0.49626222 0.00001276 -0.00000573 -0.00000727
0.49553490 0.58714527 0.46589974 0.00000776 0.00001229 -0.00001575
0.37587065 0.55599576 0.46947169 -0.00000855 0.00001284 -0.00000115
0.28478292 0.55665171 0.51412261 0.00000762 0.00000444 0.00001341
0.33836398 0.57843989 0.51214504 0.00000688 -0.00000604 0.00000952
0.41873553 0.59950697 0.51412261 0.00001406 -0.00001825 0.00000129
0.51339519 0.47127783 0.51669240 0.00001212 -0.00000251 0.00000105
0.92061043 0.58090669 0.48554599 -0.00000684 0.00002466 -0.00004448
0.49017680 0.46234778 0.50455177 0.00000915 0.00000397 -0.00000976
0.11153829 0.56057960 0.48855808 -0.00002286 0.00002578 0.00000286
0.35086620 0.38197631 0.52227741 0.00001000 -0.00004826 0.00002881
0.09010585 0.53021693 0.51308721 0.00000710 0.00000606 0.00001214
0.43302369 0.47287068 0.51233655 0.00000454 0.00001780 0.00000710
0.34550810 0.51771474 0.47820652 0.00000989 -0.00000784 0.00000801
0.24370420 0.44984540 0.51378274 0.00000638 0.00000104 0.00000915
0.31335944 0.56950969 0.49325600 0.00000409 0.00000184 -0.00001560
0.58662301 0.49702406 0.48197392 0.00002059 -0.00000913 -0.00001290
0.34372205 0.54271907 0.47754499 0.00000210 0.00001412 0.00001286
0.20874092 0.45698968 0.49983427 -0.00000155 -0.00000192 -0.00000561
0.33657795 0.54450524 0.47609666 0.00000335 0.00001354 0.00000266
0.12582535 0.57129562 0.52027160 -0.00002027 0.00000621 0.00002935
0.06900729 0.53021693 0.49090415 0.00002359 -0.00004026 0.00000529
0.89917797 0.51414269 0.55815530 -0.00000135 0.00001141 0.00005795
0.39373097 0.59987217 0.48710817 0.00000668 0.00001804 -0.00000757
0.47231647 0.42841315 0.50273544 -0.00000106 0.00001034 -0.00000424
0.60448277 0.47505012 0.49626222 0.00001352 0.00000529 -0.00001167
0.81204665 0.53557503 0.49626222 0.00003160 0.00000699 -0.00000772
0.32297972 0.53736115 0.52841073 0.00000034 0.00001741 -0.00000927
0.51696736 0.48315132 0.49626222 0.00000639 0.00001169 -0.00000726
0.64377493 0.52381104 0.48554599 0.00001440 0.00000073 -0.00004228
0.39068812 0.51771474 0.46947169 0.00000463 -0.00000131 -0.00000871
0.40980530 0.58201182 0.46872208 0.00000529 0.00000158 -0.00002557
0.54732895 0.52664489 0.48028320 0.00001056 0.00001183 0.00000808
0.78665853 0.53557503 0.52759510 0.00000870 0.00003671 0.00000741
0.52768338 0.54450524 0.47212237 0.00001997 0.00000481 0.00001691
0.41694936 0.44456857 0.49804828 0.00000567 -0.00000237 0.00000087
0.56276661 0.42126888 0.51233655 0.00001196 0.00000174 -0.00002306
0.44552591 0.52485883 0.54240406 -0.00000087 -0.00000702 0.00000557
0.38748097 0.51235664 0.47304386 0.00000367 -0.00000357 -0.00000231
0.31469271 0.45698968 0.50519240 0.00000356 -0.00000291 0.00000178
0.77415597 0.48556620 0.49183080 0.00001970 0.00000861 -0.00004126
0.43659586 0.61115652 0.51769459 -0.00001735 0.00001026 0.00001339
0.25084826 0.41050228 0.47304386 0.00000504 -0.00000593 0.00002717
0.38658684 0.60647750 0.49983427 -0.00000624 0.00003830 -0.00000368
0.22762984 0.42591393 0.48197392 -0.00001449 0.00002037 0.00000790
0.60269636 0.53687125 0.53019691 0.00002133 0.00001872 0.00002575
0.48660466 0.42126888 0.53196400 -0.00001068 -0.00000763 0.00003057
0.43924576 0.43198508 0.49983427 0.00001338 -0.00001284 0.00000173
0.30621538 0.50521249 0.52944708 0.00000319 -0.00000465 0.00000001
0.42587963 0.49271029 0.52278668 0.00000749 0.00000172 -0.00000226
0.35086620 0.54629123 0.47541139 0.00000141 0.00001527 0.00000925
0.55626065 0.58201182 0.49013016 0.00001730 0.00001416 0.00000498
0.56636006 0.57665372 0.50340635 0.00000610 0.00000534 -0.00000485
0.32943380 0.51326251 0.47304386 0.00000293 -0.00001302 -0.00000461
0.49910685 0.48332843 0.51948065 -0.00000160 0.00001231 0.00000617
0.48303273 0.49576613 0.48018792 0.00001654 0.00000268 -0.00000315
0.51339519 0.51235664 0.54027647 0.00000679 -0.00001020 0.00001077
0.43838182 0.50970960 0.53912693 0.00000300 -0.00001025 0.00001168
0.75272352 0.50768828 0.54269910 0.00002172 0.00000232 0.00002645
0.34193602 0.39171445 0.51055050 0.00001115 -0.00001087 0.00000255
0.77236962 0.50521249 0.48455495 0.00000699 -0.00000070 -0.00004262
0.33121982 0.51235664 0.53321975 0.00000425 -0.00000678 0.00000031
0.38760209 0.48556620 0.51769459 0.00000404 0.00000424 0.00000512
0.45624214 0.50699854 0.53047872 0.00000139 -0.00000552 -0.00000232
0.92954034 0.54629123 0.47337827 -0.00001976 -0.00001611 -0.00001296
0.84023970 0.48198858 0.52662480 0.00000338 -0.00002140 0.00000443
0.41694936 0.56115979 0.54448509 0.00000956 -0.00000894 -0.00000254
0.34729415 0.45237947 0.49626222 0.00000619 -0.00000841 -0.00000715
0.59505862 0.50699854 0.48554599 0.00002088 -0.00000105 -0.00000463
0.14190061 0.50878453 0.48268977 0.00001077 0.00000927 -0.00000902
0.42587963 0.50264323 0.47482982 0.00000435 -0.00002213 -0.00000057
0.06510068 0.54807723 0.46392328 -0.00003883 0.00000162 -0.00005753
0.19620213 0.58736998 0.51590860 -0.00001559 -0.00003648 0.00003781
0.19622289 0.51771474 0.48018792 -0.00000392 -0.00000973 -0.00001064
0.28656909 0.47306383 0.49579835 0.00000397 0.00000702 -0.00000148
0.59912556 0.48482993 0.52483881 0.00001419 0.00000041 0.00001334
0.72771841 0.50385487 0.54269910 0.00002200 -0.00000168 0.00002548
0.47410244 0.47663596 0.50052106 0.00000597 0.00001069 0.00000482
0.48660466 0.58721584 0.46411359 0.00001165 0.00001734 -0.00001558
0.45266998 0.43198508 0.50322515 0.00000008 -0.00000914 -0.00000093
0.87953186 0.48488826 0.54091311 0.00000595 -0.00003680 0.00003372
0.29653531 0.39805043 0.50876445 0.00000207 0.00000399 0.00000178
0.42052153 0.37661815 0.51488394 -0.00000648 -0.00005300 0.00000302
0.25442043 0.49628231 0.52529472 -0.00000015 -0.00000264 0.00000417
0.81621164 0.49985442 0.49090415 0.00001948 0.00002114 -0.00002996
0.65627748 0.51771474 0.48518398 0.00001202 -0.00000463 -0.00003373
0.66372663 0.49092412 0.48733205 0.00002139 0.00000518 -0.00001434
0.85095590 0.58705342 0.50876445 -0.00000852 0.00002239 -0.00000701
0.41921973 0.41055283 0.50876445 0.00000474 0.00001112 0.00001657
0.45266998 0.45163155 0.49558046 0.00001283 -0.00000831 -0.00000063
0.34655735 0.47842193 0.51769459 0.00000098 0.00001640 0.00001289
0.53125554 0.50164038 0.48081195 0.00000949 0.00000609 -0.00000857
0.53304148 0.39933708 0.51233655 0.00000702 -0.00001958 -0.00001772
0.22762984 0.42305502 0.48087624 -0.00001270 0.00002253 0.00001157
0.30956113 0.40519470 0.46411359 0.00000778 -0.00001008 -0.00000436
0.47360370 0.38554820 0.49626222 0.00001223 -0.00002994 -0.00002400
0.41337740 0.53635955 0.54448509 0.00000448 0.00000810 0.00000620
0.81880724 0.48735219 0.53568858 0.00001051 -0.00001387 0.00003829
0.34908015 0.46056160 0.49670774 0.00000593 -0.00000006 -0.00000846
0.78844494 0.48556620 0.49365172 0.00000637 -0.00000214 -0.00003345
0.11868181 0.56415153 0.48575991 -0.00003055 0.00001078 -0.00001527
0.64913398 0.53691089 0.49626222 0.00001684 -0.00000275 -0.00002438
0.76701248 0.47306383 0.50407511 0.00002840 -0.00001914 0.00000322
0.36515447 0.55343533 0.53506440 0.00000575 0.00001268 -0.00001492
0.87595916 0.58558398 0.48954928 0.00000211 0.00001963 -0.00005350
0.23120198 0.53698069 0.49090415 -0.00000206 0.00001847 -0.00000723
0.87444258 0.60523027 0.51055050 -0.00000579 0.00004747 -0.00000989
0.30085728 0.46591973 0.48997238 0.00000243 0.00000716 -0.00000800
0.10617924 0.54093307 0.48880041 0.00001008 0.00000153 0.00000526
0.92239678 0.54807723 0.55580080 -0.00002364 0.00000699 0.00004857
0.43480968 0.41769692 0.50240099 0.00001323 0.00001812 -0.00000084
0.18476513 0.53589565 0.52305263 -0.00001833 0.00000948 0.00000432
0.24191821 0.54450524 0.51503450 -0.00000417 0.00002418 0.00000348
0.16154671 0.45341754 0.48720235 -0.00000414 0.00002055 -0.00001894
0.47605893 0.62130463 0.50876445 -0.00000632 0.00002914 -0.00000503
0.44016781 0.60850888 0.48733205 -0.00000634 0.00000853 0.00000613
0.34015000 0.42662695 0.49025145 0.00001149 0.00000864 0.00000131
0.14547333 0.52664489 0.52595496 0.00001769 0.00000487 0.00000076
0.57412040 0.49501300 0.48554599 0.00002055 -0.00000456 -0.00000620
0.40266120 0.60165834 0.49135315 0.00000545 0.00001397 0.00000036
0.09724935 0.45163155 0.49396229 -0.00000026 -0.00004588 -0.00001052
0.15618767 0.45698968 0.50276679 -0.00000087 0.00002629 -0.00000392
0.50803709 0.55879343 0.46767667 0.00001468 0.00001136 0.00001762
0.32764784 0.54091501 0.53019691 0.00000243 0.00001806 -0.00000698
0.23291194 0.45877564 0.49983427 -0.00000191 0.00000730 -0.00000799
0.66878009 0.49092412 0.52878046 0.00002004 0.00000742 0.00001292
0.57233405 0.41888380 0.51948065 0.00003119 -0.00001090 0.00001113
0.18655111 0.41412476 0.48018792 0.00000533 0.00003015 0.00003112
0.91168052 0.52259088 0.47304386 -0.00001859 0.00002537 -0.00003659
0.37587065 0.58292031 0.53019691 -0.00000594 -0.00000026 0.00002430
0.39908907 0.52843094 0.46073273 0.00000732 0.00000084 -0.00003481
0.16869080 0.54629123 0.48106223 -0.00000401 0.00001899 0.00000451
0.48652712 0.61237454 0.52126670 -0.00001515 0.00000272 0.00002515
0.52768338 0.47306383 0.52052742 0.00001754 -0.00000979 0.00000460
0.43071824 0.45520350 0.50876445 0.00000125 -0.00000105 0.00000192
0.65270674 0.52485883 0.53248650 0.00001790 -0.00000263 0.00001988
0.35086620 0.57843989 0.49064240 0.00000894 -0.00001093 -0.00000958
0.49374890 0.61402678 0.49983427 0.00001031 0.00000392 -0.00001486
0.15099271 0.47306383 0.50340635 -0.00001033 0.00000130 -0.00000533
0.53839904 0.40356004 0.52305263 -0.00000159 -0.00002107 0.00002011
0.09915456 0.53378904 0.49447617 0.00001390 -0.00001709 0.00000318
0.11510912 0.50699854 0.51859701 -0.00002465 -0.00001669 -0.00000430
0.88489091 0.53605092 0.53734100 0.00002705 0.00002368 -0.00003353
0.47848797 0.55700743 0.46411359 0.00000803 -0.00001416 0.00000147
0.89024806 0.56057960 0.53820944 0.00000126 -0.00000861 -0.00002976
0.37408468 0.49290174 0.48554599 0.00000210 -0.00000367 -0.00000371
0.40828773 0.44448727 0.51055050 -0.00000186 -0.00000967 0.00001086
0.20619757 0.59987217 0.51530403 -0.00001909 -0.00000637 0.00005461
0.93489933 0.48913813 0.51760322 0.00002833 -0.00002722 0.00002131
0.12761168 0.51414269 0.51982552 -0.00000319 -0.00000024 0.00000052
0.26748717 0.45163155 0.50162029 0.00000561 -0.00000427 -0.00000488
0.20976953 0.61649203 0.50876445 -0.00000233 0.00004647 0.00003648
0.47588843 0.38031048 0.48376009 0.00001074 -0.00005067 -0.00003519
0.61519891 0.49628231 0.48316157 0.00002064 0.00000698 -0.00002804
0.16511884 0.49985442 0.52614677 -0.00000311 0.00000897 0.00001379
0.54677242 0.56950969 0.53912693 0.00001860 0.00000994 0.00002374
0.55626065 0.43615687 0.51055050 -0.00000248 0.00002536 -0.00003042
0.50803709 0.44805944 0.52223754 0.00001925 -0.00000333 -0.00000012
0.15797402 0.56593770 0.47357899 0.00001290 0.00000522 -0.00001025
0.52134377 0.49449629 0.52662480 -0.00000127 0.00001476 0.00000602
0.89382082 0.50342643 0.47577015 -0.00000606 -0.00001314 -0.00003676
0.93311298 0.58820635 0.52841073 0.00007609 0.00007024 0.00001810
0.19190922 0.51541334 0.53198290 -0.00001188 0.00000168 0.00001833
0.88262355 0.53557503 0.48733205 0.00004226 0.00003700 0.00002902
0.49910685 0.50342643 0.47532743 0.00000764 -0.00001287 -0.00000538
0.25977853 0.48686382 0.52483881 0.00000419 -0.00000117 0.00001065
0.91703957 0.55343533 0.47592276 -0.00003787 -0.00000207 -0.00000986
0.38122874 0.54271907 0.47046804 -0.00000398 0.00000784 0.00000428
0.32098570 0.55879343 0.48911810 0.00001466 -0.00000811 -0.00000773
0.43123773 0.54271907 0.54720724 0.00000168 0.00001003 0.00000948
0.47231647 0.48932356 0.49447617 0.00000853 0.00000104 0.00000747
0.15261683 0.43555722 0.49415985 0.00001150 0.00002384 -0.00002671
0.37751192 0.48556620 0.49447617 0.00000254 0.00000979 -0.00000990
0.40013352 0.60880244 0.49447617 0.00000059 0.00003213 -0.00000333
0.83845329 0.56950969 0.50457299 -0.00000659 0.00000877 -0.00001222
0.19164778 0.57665372 0.51590860 -0.00000928 -0.00002656 0.00000776
0.71475935 0.48735219 0.53376889 0.00001915 0.00000208 0.00002061
0.77951503 0.50521249 0.48510206 0.00000732 -0.00000068 -0.00004153
0.54197174 0.53914714 0.54259896 0.00001098 -0.00000085 0.00001137
0.38658684 0.50300241 0.52483881 -0.00000068 0.00000227 0.00000085
0.40980530 0.50164038 0.47431710 0.00000870 -0.00002090 -0.00000243
0.31157348 0.44805944 0.50452906 0.00000565 -0.00001196 0.00000393
0.11140436 0.46949187 0.51412261 0.00001662 0.00001002 0.00005321
0.89739156 0.54226637 0.54448509 -0.00001146 0.00000621 -0.00002036
0.20083947 0.54093307 0.50636250 0.00000662 0.00001261 -0.00000810
0.12225451 0.57710797 0.50519240 -0.00004816 0.00001322 -0.00000620
0.14547333 0.59319532 0.51769459 -0.00000708 0.00004643 0.00003628
0.45624214 0.49991640 0.47661579 0.00000175 -0.00000619 -0.00000406
0.05397513 0.51235664 0.49626222 -0.00003712 -0.00002341 -0.00002436
0.41159126 0.52307278 0.46862906 0.00000056 0.00000246 -0.00000788
0.87060195 0.49964446 0.54805726 0.00000082 -0.00001497 0.00003841
0.35443828 0.56674826 0.47661579 0.00000795 -0.00000396 -0.00001517
0.48149195 0.40519470 0.50340635 0.00000404 0.00000936 -0.00001151
0.72236115 0.48954368 0.49090415 0.00002111 0.00001380 -0.00001624
0.78308582 0.51592869 0.49179998 0.00000453 -0.00001252 -0.00001756
0.15618767 0.44054732 0.49626222 0.00001741 0.00003507 -0.00002510
0.88667536 0.60100907 0.50876445 0.00000760 0.00002363 -0.00001409
0.17940702 0.50192463 0.53376889 -0.00001156 0.00000719 0.00002986
0.89024806 0.48020810 0.52748138 0.00000838 -0.00004235 0.00001085
0.17940702 0.57665372 0.48789477 0.00001840 -0.00003530 -0.00002294
0.66520739 0.50250542 0.48376009 0.00002178 0.00000871 -0.00002278
0.20619757 0.53557503 0.49384755 0.00000853 0.00001443 -0.00000627
0.26306602 0.52485883 0.52483881 -0.00000035 -0.00000020 0.00001490
0.76165342 0.49393517 0.53734100 0.00001209 0.00002034 0.00002901
0.48659220 0.59094214 0.46947169 0.00001034 -0.00000351 -0.00001448
0.19905330 0.48514482 0.49090415 0.00001359 0.00001487 -0.00001401
0.24727632 0.53200305 0.48509151 -0.00000016 0.00001274 -0.00001938
0.42409346 0.44448727 0.51009941 0.00000299 -0.00001262 0.00000551
0.49374890 0.53543842 0.46411359 0.00000471 0.00000207 -0.00002159
0.21334167 0.49985442 0.52766246 0.00000660 -0.00001401 0.00000462
0.71700209 0.48378006 0.53292382 0.00002029 -0.00000436 0.00002083
0.36072257 0.46770573 0.51233655 0.00000585 0.00000795 0.00000582
0.87953186 0.55700743 0.49064395 0.00001320 -0.00001106 0.00002342
0.22227173 0.43874359 0.50697845 -0.00000432 0.00001037 -0.00001708
0.09586293 0.51592869 0.51055050 0.00000583 -0.00000926 -0.00001024
0.34015000 0.40876666 0.49631751 0.00000625 0.00002465 -0.00000375
0.40980530 0.60612124 0.49804828 -0.00000032 0.00001613 -0.00000397
0.29662678 0.50699854 0.52662480 0.00000062 -0.00000196 -0.00000502
0.16154671 0.57843989 0.47834083 0.00001848 -0.00001208 -0.00002481
0.33657795 0.58391100 0.50697845 0.00000136 0.00001335 0.00000113
0.60091007 0.48884517 0.48911810 0.00001130 -0.00000805 -0.00000583
0.45981425 0.53914714 0.54645783 0.00000314 0.00002343 0.00001143
0.13118438 0.58698171 0.51948065 -0.00001964 0.00004796 0.00004640
0.18833727 0.48196086 0.52126670 0.00000498 -0.00000205 0.00001897
0.89203441 0.60133219 0.51948065 -0.00000002 0.00001941 -0.00000003
0.42945158 0.48199406 0.51829386 0.00000823 0.00000646 0.00000197
0.87060195 0.50699854 0.47761592 0.00002054 -0.00001728 -0.00003092
0.40293565 0.58022588 0.53734100 0.00000430 0.00002106 -0.00000157
0.46964222 0.45877564 0.51233655 0.00000583 0.00001071 0.00000127
0.27763882 0.45155838 0.49447617 0.00000420 -0.00000596 -0.00000378
0.33788797 0.42662695 0.49269021 0.00000674 0.00000889 0.00000318
0.84667391 0.54986340 0.52483881 0.00003460 0.00000583 0.00001402
0.92573935 0.57843989 0.54091311 0.00000443 0.00002867 0.00002923
0.60448277 0.54205191 0.52126670 0.00002180 0.00001269 0.00001883
0.39730307 0.44198996 0.50697845 0.00000070 -0.00000610 0.00001282
0.15797402 0.59465820 0.51233655 -0.00001795 0.00003940 0.00003721
0.13118438 0.51950073 0.47807091 -0.00000820 0.00002064 -0.00001205
0.43838182 0.44805944 0.50326753 0.00000841 -0.00001358 -0.00000033
0.50781530 0.53557503 0.46232763 0.00000036 -0.00001980 -0.00002608
0.84202605 0.47545248 0.51948065 0.00000086 -0.00002403 0.00000268
0.17047678 0.53200305 0.52783167 -0.00000357 0.00000172 0.00000400
0.53304148 0.56187779 0.46589974 0.00003208 0.00001042 -0.00001075
0.24906230 0.41183534 0.48911810 0.00001314 0.00000691 0.00000766
0.82773715 0.54271907 0.50804824 0.00000226 -0.00000700 -0.00000470
0.66878009 0.52664489 0.48865768 0.00001662 0.00000073 -0.00003080
0.50982308 0.58915615 0.53866142 0.00001193 0.00000899 0.00000281
0.43123773 0.55164933 0.55424362 0.00000500 -0.00000124 0.00003029
0.89084041 0.50342643 0.47482982 -0.00000005 -0.00001390 -0.00003836
0.42766559 0.60193789 0.51948065 0.00000373 -0.00001639 0.00000533
0.32586166 0.45698968 0.49121881 0.00000433 0.00000144 -0.00000501
0.12582535 0.54807723 0.53133518 -0.00000257 -0.00000836 0.00003387
0.42106873 0.40162259 0.50876445 0.00000097 0.00000330 0.00000866
0.22762984 0.51195621 0.48376009 0.00000440 -0.00001403 -0.00000438
0.42766559 0.44345886 0.49269021 0.00000616 -0.00000773 -0.00000008
0.86453372 0.54093307 0.49090415 0.00002463 0.00003264 0.00001950
0.56446242 0.59094214 0.50162029 0.00001512 0.00002021 -0.00001120
0.41159126 0.56057960 0.54309678 0.00000938 -0.00000475 -0.00000677
0.58483666 0.49628231 0.52764773 0.00001619 -0.00000172 0.00000489
0.25229394 0.54093307 0.51769459 -0.00000630 0.00002042 0.00000754
0.52053928 0.48020810 0.51989400 0.00001015 0.00000524 0.00000495
0.26156449 0.53021693 0.52395958 -0.00000185 0.00000706 0.00001550
0.44487721 0.47485000 0.51769459 0.00000904 0.00001761 0.00000991
0.18410718 0.44270131 0.49983427 0.00000858 -0.00000157 0.00000108
0.39730307 0.52624255 0.46232763 0.00000751 0.00000103 -0.00002995
0.35265222 0.43019912 0.49251008 0.00000659 0.00000201 -0.00000994
0.21691380 0.42425492 0.48911810 0.00000224 0.00002817 -0.00001218
0.31335944 0.53888249 0.47840196 -0.00000008 0.00000798 -0.00000618
0.38301474 0.59094214 0.51030201 0.00001203 -0.00000571 0.00000376
0.33836398 0.41233879 0.49563915 0.00000050 0.00003121 -0.00000427
0.31335944 0.48556620 0.49550518 0.00000597 0.00000974 0.00000126
0.04902729 0.49950331 0.52483881 -0.00005532 -0.00001571 0.00004454
0.47210974 0.47306383 0.51769459 0.00000306 0.00001975 0.00000855
0.45624214 0.39302111 0.50340635 0.00000824 -0.00000024 0.00000951
0.35979635 0.52307278 0.53761071 0.00001072 0.00000029 0.00000464
0.11868181 0.56950969 0.50826353 -0.00005931 -0.00000910 0.00000045
0.63663137 0.47127783 0.51917988 0.00002743 -0.00002968 0.00001602
0.49318889 0.52307278 0.54448509 0.00002221 -0.00000928 0.00001037
0.40266120 0.49339446 0.48197392 0.00001137 -0.00000954 -0.00000790
0.29728511 0.44805944 0.50470817 0.00000320 -0.00000534 -0.00000090
0.57769310 0.48665121 0.52305263 0.00002019 0.00000612 0.00001158
0.42609033 0.46413377 0.51412261 -0.00000135 0.00001118 0.00000841
0.89739156 0.55279398 0.48554599 -0.00000518 -0.00002072 0.00002629
0.56876135 0.43019912 0.52341479 0.00000957 0.00000955 0.00002758
0.08117597 0.49985442 0.50869650 0.00006154 0.00001885 -0.00000581
0.24013224 0.53557503 0.49152282 -0.00000136 0.00001861 -0.00000591
0.86074215 0.59094214 0.52305263 -0.00000295 0.00002532 0.00002938
0.43480968 0.60523027 0.52736855 -0.00000219 0.00000276 0.00003885
0.50803709 0.47127783 0.51646912 0.00000728 0.00000223 0.00000104
0.49908400 0.46591973 0.51948065 0.00000530 0.00001002 0.00000197
0.40875968 0.41948289 0.50162029 0.00000740 0.00000956 0.00001845
0.79737478 0.48680159 0.49269021 0.00000529 -0.00000568 -0.00003759
0.11540715 0.50342643 0.49447617 -0.00002648 -0.00000267 -0.00001079
0.23260239 0.43734321 0.49269021 -0.00000472 0.00000639 -0.00000621
0.85452670 0.47684345 0.50519240 0.00002463 -0.00002361 -0.00000151
0.25263444 0.41769692 0.50954926 -0.00000433 0.00002391 -0.00000693
0.37881425 0.45341754 0.49983427 0.00000863 -0.00000469 -0.00000443
0.18476513 0.45341754 0.49913904 0.00000386 -0.00000290 -0.00000180
0.20083947 0.41412476 0.48857883 0.00001440 0.00002724 0.00002465
0.93663669 0.58201182 0.53376889 0.00007992 0.00006246 0.00001710
0.16053130 0.58915615 0.51233655 -0.00000558 0.00001032 0.00004263
0.86581641 0.60344428 0.51412261 -0.00001488 0.00005544 0.00000407
0.50982308 0.45073479 0.52126670 0.00002155 -0.00000199 -0.00000225
0.65806383 0.53378904 0.52874821 0.00002121 0.00002107 0.00001954
0.64377493 0.54569614 0.51055050 0.00002258 0.00001237 0.00000948
0.17726529 0.54450524 0.50876445 -0.00001892 0.00001944 0.00000096
0.17940702 0.51319540 0.53019691 -0.00001498 0.00000925 0.00001365
0.91346687 0.58882016 0.54269910 -0.00001027 0.00003825 0.00005364
0.38837284 0.51000655 0.53555501 0.00000221 -0.00001080 0.00000789
0.05643490 0.50164038 0.53019691 -0.00001989 -0.00000642 0.00005715
0.53839904 0.43198508 0.51123005 -0.00002011 0.00002782 -0.00004167
0.37246469 0.40876666 0.50697845 0.00001624 0.00002072 0.00000026
0.54732895 0.42126888 0.51246965 -0.00001073 -0.00000057 -0.00003166
0.42052153 0.56090742 0.54269910 0.00000938 -0.00001072 -0.00000927
0.42766559 0.58680159 0.46947169 0.00000468 -0.00000325 -0.00002555
0.32764784 0.47485000 0.49124277 0.00000585 0.00001521 -0.00001004
0.12225451 0.46591973 0.51404315 0.00001915 0.00001320 0.00003795
0.21691380 0.45341754 0.49608228 -0.00000693 -0.00000073 -0.00001000
0.41873553 0.49511132 0.52126670 0.00000937 0.00000300 -0.00000099
0.62770152 0.52485883 0.53535092 0.00002400 -0.00000253 0.00002805
0.89917797 0.59896314 0.50162029 0.00000546 0.00003388 -0.00003332
0.50803709 0.59987217 0.54131830 0.00001658 0.00002024 0.00003599
0.28656909 0.48378006 0.49381873 0.00000332 0.00001339 -0.00000111
0.94426870 0.52664489 0.52126670 0.00002349 0.00002599 0.00005373
0.42081523 0.59808618 0.51590860 0.00001475 -0.00002430 0.00000162
0.63554108 0.53914714 0.52126670 0.00001900 0.00001402 0.00002102
0.74736637 0.52485883 0.49419340 0.00002399 0.00000093 -0.00001998
0.66163653 0.54238409 0.51948065 0.00002600 0.00001207 0.00002120
0.84202605 0.56772369 0.51725131 0.00000201 0.00000335 0.00001236
0.62055802 0.51057059 0.48696226 0.00002524 0.00000579 -0.00002166
0.11497331 0.51414269 0.49090415 -0.00003017 -0.00000177 -0.00001935
0.22405790 0.53914714 0.51652503 0.00000350 0.00002781 0.00000296
0.90453702 0.60310626 0.50697845 0.00001549 0.00005698 -0.00003100
0.38837284 0.56827843 0.46947169 0.00000767 0.00001259 -0.00000849
0.43649739 0.57129562 0.54091311 0.00000485 -0.00000571 -0.00002205
0.91525328 0.58201182 0.48546696 -0.00001245 0.00002254 -0.00004990
0.26692259 0.51771474 0.48284069 0.00000489 -0.00000613 -0.00000991
0.14725779 0.50699854 0.48080966 0.00001458 0.00000474 -0.00001134
0.53607959 0.59451401 0.52483881 0.00000225 -0.00000541 0.00003593
0.54623300 0.41233879 0.52483881 -0.00000744 -0.00001203 0.00003216
0.80451828 0.49407691 0.54448509 0.00002167 -0.00000903 0.00004368
0.60091007 0.48556620 0.48993134 0.00001083 -0.00000689 -0.00000762
0.28736511 0.40698069 0.50876445 0.00000201 0.00000677 -0.00000259
0.45266998 0.48020810 0.49221787 0.00000723 0.00001058 0.00000220
0.42971492 0.44805944 0.50876445 0.00000317 -0.00001148 0.00000233
0.50446492 0.42126888 0.51714242 0.00000041 0.00001007 0.00000053
0.08653313 0.53200305 0.49786475 0.00004483 -0.00002940 0.00003239
0.22941601 0.45984557 0.51233655 0.00000005 0.00001469 0.00000384
0.39713693 0.41233879 0.49269021 0.00000457 0.00000556 -0.00001162
0.55804515 0.46501184 0.50162029 0.00000485 -0.00000470 -0.00001587
0.25263444 0.42262003 0.48197392 0.00000958 0.00000357 0.00002839
0.29728511 0.46650735 0.49090415 0.00000194 0.00000589 -0.00000677
0.85452670 0.53021693 0.48859966 -0.00000580 0.00000937 0.00001578
0.92312491 0.59094214 0.52662480 0.00001869 0.00005096 0.00001575
0.38122874 0.45163155 0.51372570 0.00001026 -0.00001019 0.00000476
0.35908499 0.58379799 0.51769459 0.00000753 -0.00001043 0.00001729
0.69021255 0.48089680 0.52841073 0.00002244 0.00000189 0.00001245
0.44373992 0.49354586 0.48554599 -0.00000060 0.00000486 -0.00000175
0.51518118 0.39983660 0.52436477 0.00000707 -0.00001889 0.00002680
0.81880724 0.52307278 0.54757732 0.00000854 0.00000834 0.00001157
0.87417471 0.58005327 0.53019691 0.00001529 -0.00003098 0.00003123
0.55090159 0.45163155 0.50787759 -0.00001290 0.00001477 -0.00002378
0.15976073 0.55664754 0.52841073 0.00001668 0.00000242 -0.00000398
0.45981425 0.60880244 0.48319644 0.00002615 0.00001085 -0.00000093
0.51972985 0.48020810 0.49626222 0.00000914 0.00000585 -0.00000837
0.52411145 0.50699854 0.48098263 0.00000825 0.00000658 0.00000082
0.30442938 0.50929779 0.47482982 -0.00000337 -0.00001163 -0.00000664
0.36158240 0.50676370 0.53376889 0.00000977 -0.00001619 0.00000466
0.63841778 0.49449629 0.48329660 0.00002249 0.00001040 -0.00003202
0.16254704 0.58736998 0.51769459 0.00000799 -0.00000428 0.00005194
0.77772868 0.50878453 0.48696426 0.00000676 -0.00000483 -0.00003521
0.29907128 0.46654260 0.51233655 0.00000170 0.00001023 0.00000795
0.51696736 0.52251559 0.47125769 0.00000964 -0.00000164 -0.00000833
0.84559685 0.55304110 0.52483881 0.00002984 0.00000815 0.00001577
0.43123773 0.60242796 0.53019691 0.00000233 0.00000309 0.00003628
0.56413227 0.46234778 0.50519240 0.00000075 0.00001166 -0.00001485
0.62591523 0.51057059 0.48642758 0.00002552 0.00000655 -0.00002427
0.58483666 0.48913813 0.48669013 0.00002175 -0.00000711 -0.00000835
0.40801930 0.49255657 0.49090415 0.00000959 0.00000167 -0.00001038
0.42230746 0.49271029 0.52173883 0.00000814 0.00000213 -0.00000163
0.24013224 0.53875273 0.51769459 -0.00000185 0.00002567 0.00000570
0.81702083 0.54304487 0.49983427 0.00001618 0.00000412 -0.00000690
0.41205418 0.41591072 0.50519240 0.00000878 0.00001196 0.00002105
0.30377010 0.53736115 0.53019691 0.00000028 0.00001215 0.00001286
0.90632337 0.58736998 0.54484218 -0.00002215 0.00002162 0.00006137
0.78081477 0.46770573 0.51055050 0.00001123 -0.00003430 0.00000887
0.20083947 0.53824586 0.49626222 0.00000972 0.00001333 -0.00000735
0.53661460 0.43555722 0.52385187 -0.00001216 0.00003784 0.00003385
0.43480968 0.57105356 0.46947169 -0.00000027 0.00002007 0.00001682
0.34193602 0.50521249 0.53235561 0.00001196 -0.00001519 0.00000019
0.05256039 0.50878453 0.51769459 -0.00002471 0.00001561 0.00001349
0.77236962 0.50856090 0.48733205 0.00000811 -0.00000455 -0.00003506
0.48204881 0.52843094 0.54627109 0.00001605 0.00000139 0.00001449
0.18476513 0.58843118 0.51590860 0.00000842 -0.00003305 0.00003688
0.19726734 0.42841315 0.49492899 -0.00000233 0.00003049 -0.00000547
0.48063534 0.61773247 0.49804828 -0.00001697 0.00000975 -0.00000642
0.75093716 0.49271029 0.53523153 0.00001757 0.00001598 0.00002937
0.40310994 0.60523027 0.50876445 0.00000200 0.00001896 -0.00000673
0.46874434 0.42305502 0.50245672 -0.00000615 0.00001902 -0.00000028
0.75093716 0.50222605 0.54448509 0.00002051 0.00000677 0.00003336
0.35979635 0.52109283 0.46589974 0.00000630 -0.00001154 -0.00002320
0.88941246 0.52843094 0.48018792 0.00002075 0.00002526 0.00000880
0.53304148 0.59468609 0.53555501 0.00001184 0.00001738 0.00005120
0.49196273 0.60544968 0.53198290 -0.00001013 -0.00000612 0.00003476
0.31157348 0.54271907 0.52773583 0.00000439 0.00000881 0.00000508
0.42226258 0.60880244 0.48733205 0.00000029 0.00001880 -0.00000483
0.12404088 0.55164933 0.47607160 0.00000239 -0.00001036 -0.00002812
0.77951503 0.49046332 0.49269021 0.00001463 0.00000989 -0.00003335
0.87774551 0.60343432 0.51769459 -0.00000394 0.00003796 0.00000664
0.52411145 0.46129447 0.50519240 0.00001887 -0.00001854 -0.00000818
0.20266469 0.46056160 0.51590860 -0.00000317 -0.00000054 0.00001129
0.45624214 0.58550096 0.46232763 0.00000094 0.00001503 -0.00002216
0.19012325 0.51771474 0.53088355 -0.00001435 0.00000070 0.00001580
0.13832791 0.42841315 0.48396719 -0.00003315 0.00000762 -0.00006867
0.57327718 0.47663596 0.51948065 0.00001521 0.00000320 0.00001018
0.53661460 0.56415153 0.46719339 0.00003021 0.00000397 -0.00002097
0.60448277 0.54807723 0.51534903 0.00002047 0.00000671 0.00001853
0.34193602 0.57046413 0.52305263 0.00000940 -0.00001051 0.00001498
0.24906230 0.42270681 0.46411359 -0.00000368 0.00000581 0.00002458
0.28786838 0.56236553 0.51412261 0.00000217 -0.00000043 0.00002090
0.13297074 0.53914714 0.47170249 -0.00001676 0.00000029 -0.00001900
0.94363683 0.56057960 0.50519240 0.00004847 0.00000316 0.00000569
0.89369440 0.52664489 0.54984319 0.00000261 0.00003183 0.00000718
0.36694056 0.53171915 0.46411359 0.00000991 -0.00000278 -0.00002690
0.36694056 0.49515191 0.52483881 -0.00000106 0.00000372 0.00000489
0.64533681 0.50878453 0.53555501 0.00001576 -0.00000619 0.00001646
0.71164501 0.53259385 0.52841073 0.00001115 0.00002388 0.00002114
0.37765661 0.56057960 0.53496879 -0.00000639 0.00000683 -0.00002019
0.21037297 0.59272808 0.51233655 -0.00000842 -0.00002813 0.00004305
0.32228971 0.46591973 0.49289852 0.00000249 0.00000948 -0.00000773
0.29338324 0.55522144 0.49090415 -0.00000111 -0.00000442 -0.00001530
0.17566229 0.51950073 0.52662480 -0.00000977 -0.00000061 0.00000400
0.91146928 0.55700743 0.48018792 -0.00002954 -0.00000265 0.00000172
0.81166178 0.54629123 0.52533394 0.00000628 0.00002165 0.00001021
0.69199890 0.53966492 0.51948065 0.00001790 0.00001694 0.00001563
0.55090159 0.59628248 0.51412261 0.00004189 0.00000452 -0.00000768
0.45802811 0.56415153 0.54675943 0.00000876 -0.00002063 0.00000744
0.14904414 0.49608931 0.48733205 0.00000820 -0.00001283 -0.00000566
0.61877167 0.47148535 0.50340635 0.00001867 -0.00000761 -0.00000442
0.57412040 0.56048113 0.51590860 0.00001511 -0.00001902 0.00000472
0.93668574 0.49166432 0.52662480 0.00003531 -0.00001222 0.00003206
0.11440551 0.55522144 0.51769459 -0.00002384 0.00000781 -0.00001146
0.88310456 0.48183486 0.49626222 0.00001521 -0.00003083 -0.00001463
0.61698532 0.48020810 0.52513367 0.00001825 -0.00000457 0.00001941
0.77951503 0.52128679 0.49061665 0.00000364 -0.00001089 -0.00002409
0.30800134 0.52307278 0.47657806 -0.00000271 0.00000879 0.00000128
0.16869080 0.49449629 0.48603520 -0.00000348 0.00001101 -0.00001595
0.76165342 0.49985442 0.48463082 0.00001921 0.00000738 -0.00004680
