0.11427284 0.54618371 0.15382852 -0.00087209 0.00012450 -0.00072542
0.27760002 0.40799931 0.37752154 0.00033523 -0.00038145 0.00055783
0.13262421 0.33917144 0.21177329 0.00096320 -0.00037667 0.00053021
0.74130642 0.50276589 0.61445516 -0.00012313 -0.00028447 -0.00034541
0.21096642 0.33842501 0.10530398 0.00020765 -0.00080178 -0.00081906
0.68148470 0.65839976 0.56249201 0.00052734 0.00078978 -0.00012741
0.20450775 0.34824666 0.16457976 0.00026006 -0.00048920 0.00078803
0.70294946 0.55062854 0.60906923 -0.00026732 -0.00033194 0.00005719
0.59458911 0.66345108 0.48311898 0.00027466 0.00057484 -0.00055607
0.43711281 0.59367675 0.55792969 -0.00048508 -0.00018652 0.00043416
0.53497934 0.58019167 0.63818419 -0.00028018 -0.00066747 0.00043864
0.34115019 0.49626923 0.28254175 0.00011047 -0.00019107 0.00021137
0.42392638 0.56506145 0.37009233 0.00024027 -0.00061208 -0.00020722
0.67389911 0.38831237 0.69173497 -0.00034444 -0.00049072 -0.00046506
0.86138576 0.34142205 0.80670309 -0.00066286 -0.00004479 -0.00065623
0.80295920 0.55173093 0.88645720 0.00002595 0.00073970 0.00092774
0.31149027 0.40009871 0.28122801 -0.00047887 -0.00070994 -0.00019048
0.78969502 0.59901536 0.85198510 -0.00012075 0.00107466 0.00068506
0.17143121 0.40780291 0.08901368 -0.00017093 -0.00024017 -0.00109547
0.73752654 0.62154341 0.80451798 0.00026772 0.00067211 0.00072934
0.81910855 0.61267775 0.67312360 0.00038437 0.00049925 -0.00042737
0.21942660 0.39409736 0.39160442 0.00005536 -0.00048236 0.00074457
0.84003198 0.36798587 0.78711438 -0.00025974 -0.00032399 -0.00031150
0.28786579 0.56146896 0.41077450 -0.00031073 -0.00064645 0.00007784
0.50946450 0.56698477 0.47360462 -0.00026920 -0.00066414 0.00030005
0.24644952 0.35811833 0.15772061 -0.00003605 -0.00062441 0.00069858
0.66432250 0.53083479 0.77127904 -0.00021697 0.00022233 0.00043564
0.78220630 0.39929274 0.73108566 0.00004939 -0.00043977 0.00003254
0.44332737 0.65853572 0.56373411 -0.00071844 0.00037922 0.00024679
0.18746194 0.46881062 0.39297360 -0.00004287 0.00005099 0.00070209
0.43207610 0.66811234 0.35632452 0.00024111 0.00077282 -0.00027008
0.35825557 0.41321698 0.27724090 0.00061693 -0.00030653 0.00015475
0.14385234 0.33827320 0.19381331 0.00079344 -0.00037532 0.00071649
0.54334837 0.58018172 0.64591932 -0.00025107 -0.00064471 0.00047925
0.54818803 0.66786546 0.44460338 0.00009712 0.00046184 -0.00061924
0.18265295 0.38002586 0.38324472 -0.00011384 -0.00068457 0.00061293
0.12504366 0.34089842 0.23054105 0.00107667 -0.00040173 0.00022899
0.65446585 0.51174653 0.76154923 -0.00027255 0.00022214 0.00023847
0.16743499 0.34137890 0.17572014 0.00052455 -0.00040270 0.00083621
0.78461331 0.60233742 0.84579372 -0.00016149 0.00105627 0.00055776
0.84954494 0.60299838 0.69716173 0.00064652 0.00027033 -0.00046183
0.50894707 0.58203769 0.61551881 -0.00039647 -0.00069520 0.00032765
0.24797872 0.63579398 0.39428186 -0.00067740 0.00033332 0.00019449
0.68361664 0.38963521 0.67407954 -0.00014237 -0.00051017 -0.00051061
0.12691924 0.45912221 0.37644374 -0.00046401 0.00015710 0.00079151
0.65809888 0.47402859 0.81735796 -0.00075309 0.00015626 0.00036517
0.75403374 0.40061104 0.69975376 0.00025902 -0.00043235 0.00022353
0.52798826 0.58033037 0.63196230 -0.00032781 -0.00068364 0.00039075
0.86698395 0.58930552 0.81217349 0.00067463 0.00065977 0.00061781
0.29699147 0.63347387 0.22786310 -0.00025282 0.00050272 -0.00085780
0.14391051 0.46345064 0.38333970 -0.00039567 0.00015245 0.00077116
0.89658529 0.41327244 0.87853074 0.00089812 -0.00016651 0.00098191
0.63771689 0.53685528 0.73553735 -0.00035542 -0.00007536 0.00033943
0.72185773 0.64689440 0.59407908 0.00047442 0.00064474 -0.00026169
0.31442323 0.39533517 0.25091302 -0.00053586 -0.00073363 -0.00004577
0.69182408 0.36313730 0.82387304 -0.00003918 -0.00069652 0.00030365
0.83799994 0.58814728 0.84498280 0.00067699 0.00073314 0.00081075
0.62903166 0.55375743 0.68576545 0.00004123 -0.00035744 -0.00027555
0.74508756 0.39064166 0.62111378 -0.00039472 -0.00047570 -0.00043073
0.40523002 0.56583518 0.34361404 0.00022707 -0.00058860 -0.00037220
0.77042633 0.59257537 0.84868580 -0.00058672 0.00059201 0.00068263
0.15198568 0.33884731 0.18565179 0.00068270 -0.00038625 0.00077289
0.84636104 0.61606574 0.70384222 0.00048745 0.00090956 -0.00014746
0.73779202 0.39071029 0.62509501 -0.00043203 -0.00051138 -0.00028776
0.67175800 0.37308395 0.78085750 -0.00036590 -0.00068983 0.00035221
0.72875500 0.40926442 0.89943135 -0.00048636 -0.00032992 0.00115498
0.39677298 0.58629167 0.52029461 -0.00031589 -0.00056739 0.00044672
0.29710647 0.50306767 0.34821799 0.00011345 -0.00019561 -0.00005097
0.65714198 0.66450977 0.54852349 0.00016207 0.00101599 0.00000224
0.14133851 0.40492499 0.09876212 -0.00049213 -0.00011961 -0.00103982
0.59961492 0.65104514 0.69598937 -0.00013057 0.00072226 0.00058127
0.79187065 0.59381270 0.85822284 -0.00013002 0.00098770 0.00084003
0.76472545 0.34277946 0.86479467 -0.00032416 -0.00093292 0.00030061
0.74703819 0.46873069 0.90340388 -0.00037741 0.00052662 0.00100249
0.66870689 0.38605723 0.70946586 -0.00046813 -0.00052469 -0.00025119
0.80738634 0.53393322 0.89522058 0.00021086 0.00052521 0.00100618
0.66085631 0.65879118 0.54204232 0.00044799 0.00064492 -0.00038171
0.91494620 0.34240350 0.71406257 0.00077568 -0.00078143 -0.00061191
0.79811561 0.43464744 0.91645622 -0.00011083 -0.00012869 0.00128251
0.67241126 0.65894532 0.55417901 0.00048603 0.00074085 -0.00020525
0.37432539 0.56172168 0.31471053 0.00002573 -0.00054843 -0.00040747
0.34538099 0.65786886 0.47726944 -0.00026723 0.00075371 0.00058028
0.88351333 0.59082109 0.78855085 0.00067425 0.00076733 0.00080482
0.82448125 0.59907305 0.67367685 0.00044762 -0.00006983 -0.00055764
0.70938307 0.39379236 0.63942838 -0.00038392 -0.00042362 -0.00030744
0.16629854 0.58722901 0.13528258 -0.00054665 0.00104050 -0.00076185
0.89072257 0.59651154 0.76136470 0.00073226 0.00105693 0.00031514
0.48215482 0.56859535 0.41305873 0.00037606 -0.00057375 -0.00024938
0.17758393 0.55575758 0.35468394 -0.00050976 -0.00020905 0.00040848
0.74241424 0.64425057 0.61286187 0.00070793 0.00083703 0.00008361
0.28616157 0.36757267 0.11583341 0.00056695 -0.00052424 -0.00074533
0.39966136 0.59901309 0.53019977 -0.00037871 -0.00017759 0.00071168
0.34193707 0.51449823 0.23973629 0.00033513 -0.00008513 -0.00031590
0.63049001 0.54954392 0.72539341 -0.00035140 -0.00012029 0.00024642
0.11648710 0.58450109 0.18118966 -0.00065098 0.00072490 -0.00055120
0.67031521 0.38737595 0.70096201 -0.00043662 -0.00049213 -0.00039404
0.38738868 0.58833092 0.51347554 -0.00031779 -0.00055218 0.00049387
0.34963083 0.40411219 0.28008702 0.00029816 -0.00071415 0.00014843
0.07795243 0.49555066 0.17338224 -0.00076700 0.00031742 -0.00063523
0.22339918 0.61076850 0.16863008 -0.00023081 0.00088568 -0.00056474
0.33932143 0.52227688 0.23789023 0.00031735 -0.00007229 -0.00037310
0.49979430 0.56732255 0.48620072 -0.00017244 -0.00061238 0.00018560
0.27432159 0.36887458 0.17407501 -0.00021172 -0.00075042 0.00036693
0.35321385 0.53396869 0.28424960 0.00017076 -0.00043705 -0.00012457
0.92077202 0.56032020 0.75706619 0.00104353 0.00063724 0.00010042
0.66976786 0.37466502 0.77292418 -0.00040780 -0.00068584 0.00031985
0.75245452 0.39211857 0.61612612 -0.00035145 -0.00034687 -0.00065577
0.22454879 0.58772999 0.14876404 0.00040127 0.00037579 -0.00078851
0.23348264 0.58846462 0.15472449 0.00045206 0.00021116 -0.00078882
0.49066001 0.67902589 0.47316095 -0.00004307 0.00081597 0.00018017
0.08173224 0.52440226 0.18164103 -0.00068557 0.00030937 -0.00083100
0.35198283 0.65796655 0.48313215 -0.00026928 0.00074449 0.00057954
0.07662959 0.33075717 0.25663120 -0.00053671 -0.00093671 0.00008583
0.12862755 0.35971889 0.35362294 -0.00023862 -0.00073425 0.00048441
0.58684897 0.57689601 0.68196201 -0.00007069 -0.00058281 0.00048543
0.53481293 0.65005916 0.42829260 0.00042147 -0.00032728 -0.00068249
0.68131691 0.57112420 0.56745118 0.00042187 -0.00055660 -0.00010278
0.91061485 0.34468278 0.70394039 0.00054076 -0.00073250 -0.00073644
0.07708869 0.51284850 0.18192379 -0.00066357 0.00035206 -0.00084839
0.77555442 0.53115487 0.62114197 0.00045140 0.00005177 -0.00033761
0.04714559 0.41008538 0.25836447 -0.00114203 -0.00021794 0.00026273
0.44190270 0.57457036 0.54530317 -0.00009096 -0.00078900 0.00012491
0.55756110 0.57891750 0.65815884 -0.00020895 -0.00063630 0.00049566
0.06003746 0.42425552 0.30826774 -0.00107219 -0.00008704 0.00031978
0.14361550 0.32444263 0.13193779 -0.00045627 -0.00098255 -0.00037736
0.30480659 0.40170157 0.29636186 -0.00032295 -0.00067869 -0.00035230
0.63541943 0.57068503 0.53164732 0.00031066 -0.00062908 -0.00032076
0.74245512 0.38620949 0.78869444 0.00028984 -0.00042763 -0.00011426
0.91619080 0.34067613 0.72216767 0.00082081 -0.00082401 -0.00046908
0.22643574 0.63189101 0.37514591 -0.00055079 0.00050267 0.00022070
0.90612954 0.58379561 0.75472516 0.00109930 0.00082311 0.00001165
0.68838245 0.63649088 0.76453674 0.00000980 0.00071865 0.00047091
0.95434451 0.42532650 0.76785839 0.00128623 -0.00026595 -0.00004598
0.23085245 0.39096850 0.33942005 -0.00015451 -0.00067921 -0.00053591
0.25396919 0.35001725 0.10879198 0.00063426 -0.00074421 -0.00053813
0.94500566 0.43803856 0.70378542 0.00110984 -0.00007874 -0.00052959
0.07692504 0.44242167 0.33849454 -0.00097717 0.00013740 0.00054876
0.94772404 0.41620174 0.80040169 0.00127404 -0.00023488 0.00023769
0.77069998 0.38703594 0.61474103 -0.00015534 -0.00047969 -0.00069149
0.44820955 0.57000911 0.53881508 0.00009406 -0.00089898 -0.00006680
0.66500932 0.38443029 0.72336233 -0.00061857 -0.00052139 -0.00014400
0.47593528 0.58848500 0.58944958 -0.00056410 -0.00058007 0.00025985
0.20779300 0.62876761 0.35886061 -0.00080805 0.00058931 -0.00004788
0.26627511 0.58716673 0.18038183 0.00065340 -0.00033151 -0.00071397
0.08537889 0.33877233 0.29566407 -0.00047710 -0.00079586 0.00059036
0.06012834 0.53371644 0.22890866 -0.00110761 0.00029571 -0.00003375
0.81460232 0.37469909 0.62277526 0.00034754 -0.00075092 -0.00036819
0.60826695 0.57164425 0.70057380 -0.00018609 -0.00040747 0.00028544
0.45251352 0.67563832 0.52406901 0.00016990 0.00098447 -0.00017302
0.72801453 0.38693863 0.66466659 0.00056229 -0.00066225 0.00074579
0.37457678 0.58748949 0.50221276 -0.00036808 -0.00060080 0.00044469
0.56550038 0.57848471 0.66497481 -0.00018038 -0.00062421 0.00050384
0.25548020 0.58871144 0.17167713 0.00069241 -0.00018795 -0.00070398
0.15664054 0.32819107 0.12182748 -0.00032164 -0.00085654 -0.00066726
0.46226242 0.56610292 0.40497860 0.00018304 -0.00061878 -0.00021656
0.72750902 0.37491229 0.80543613 0.00087316 -0.00020702 -0.00056010
0.40334710 0.58502209 0.52521861 -0.00029935 -0.00057232 0.00043278
0.06431501 0.54870343 0.23218027 -0.00123737 0.00023952 -0.00001042
0.08606029 0.39518470 0.14158760 -0.00079911 -0.00011206 -0.00088345
0.39268178 0.65878165 0.51933229 -0.00027075 0.00064232 0.00061810
0.70898169 0.65072376 0.58365554 0.00042677 0.00067224 -0.00030812
0.90605730 0.41457069 0.64348322 0.00091243 -0.00013986 -0.00078423
0.35542354 0.41474843 0.28801852 0.00058499 -0.00028406 0.00018982
0.72418648 0.55743176 0.59725475 0.00005230 -0.00025915 -0.00031996
0.82959431 0.38348976 0.69315916 -0.00009905 -0.00048898 0.00024784
0.24743231 0.39952731 0.38711226 0.00015738 -0.00053372 0.00064057
0.55455947 0.65757430 0.65785474 -0.00022112 0.00075918 0.00056656
0.30829820 0.38310289 0.20397726 -0.00033530 -0.00079751 0.00024303
0.94422293 0.50660080 0.75824678 0.00118475 0.00006097 0.00013086
0.18980666 0.54813749 0.10789963 0.00006673 0.00056351 -0.00099932
0.25224948 0.53792989 0.39096528 -0.00018213 -0.00047885 0.00018560
0.43666825 0.56498331 0.39350364 0.00000743 -0.00062321 -0.00008614
0.56858522 0.66552532 0.46118775 0.00009458 0.00052905 -0.00069662
0.13858603 0.33832547 0.20067792 0.00088607 -0.00036709 0.00065845
0.74761736 0.44353667 0.90836608 -0.00036950 0.00004260 0.00119168
0.10069685 0.58504707 0.20212574 -0.00056582 0.00078506 -0.00085722
0.72187763 0.37416813 0.88923556 -0.00069266 -0.00030507 0.00129310
0.17179577 0.56628293 0.34611329 -0.00054096 -0.00035154 0.00046191
0.95454550 0.42656752 0.75519335 0.00127069 -0.00031524 -0.00019514
0.83335418 0.33162498 0.85457259 0.00051096 -0.00099371 0.00043456
0.11255136 0.59367228 0.27892238 -0.00077579 0.00055014 0.00029652
0.25838405 0.50263941 0.37551868 0.00024514 -0.00022902 0.00004241
0.80831093 0.39165035 0.75197309 -0.00012469 -0.00041585 -0.00009593
0.42633066 0.58230412 0.54222006 -0.00019578 -0.00052789 0.00041661
0.26562822 0.43312708 0.09793388 0.00033984 0.00020609 -0.00098165
0.35841876 0.59850210 0.49542040 -0.00052905 -0.00040822 0.00061770
0.36203405 0.41060087 0.25807399 0.00072546 -0.00031597 0.00004468
0.92502964 0.55300784 0.75747037 0.00102363 0.00061565 0.00013036
0.26254663 0.36231363 0.16053082 -0.00017667 -0.00073741 0.00057036
0.45218304 0.59002602 0.56930089 -0.00047196 -0.00038763 0.00037288
0.32160920 0.41304877 0.34409952 0.00048452 -0.00039496 0.00028646
0.82556313 0.61241770 0.67881584 0.00040029 0.00053438 -0.00043838
0.62866664 0.66152006 0.51335746 0.00042621 0.00062841 -0.00040950
0.33703899 0.49671772 0.29239157 0.00004256 -0.00016969 0.00019059
0.61301595 0.57034278 0.51727277 0.00023935 -0.00064406 -0.00030766
0.44175908 0.67331910 0.53804201 -0.00004860 0.00095013 0.00000504
0.69158679 0.39025754 0.66296965 -0.00004616 -0.00052795 -0.00045002
0.33445427 0.53397185 0.23517913 0.00029174 -0.00005864 -0.00044084
0.44266185 0.56507283 0.39953908 -0.00001017 -0.00062845 -0.00006456
0.49387375 0.65914255 0.60667723 -0.00049166 0.00067405 0.00036778
0.72505790 0.39180219 0.89464420 -0.00053646 -0.00003904 0.00125600
0.27945200 0.58350605 0.19156860 0.00046245 -0.00037181 -0.00073567
0.23042014 0.50830007 0.38468572 0.00008991 -0.00011036 0.00030197
0.53339869 0.65974534 0.42842853 0.00039938 0.00001640 -0.00060059
0.04677281 0.40371808 0.23978856 -0.00113106 -0.00040234 0.00006090
0.71554816 0.64869452 0.58870590 0.00045241 0.00063928 -0.00030604
0.55577743 0.66728908 0.45071974 0.00008394 0.00050277 -0.00067168
0.85635227 0.36417738 0.66817456 -0.00077988 -0.00044931 0.00073216
0.71465445 0.55171549 0.60234147 -0.00014267 -0.00028360 -0.00013525
0.21279609 0.38638678 0.34050742 0.00002724 -0.00065370 -0.00064575
0.43997303 0.58350098 0.55467576 -0.00034356 -0.00049050 0.00031596
0.82394028 0.37232754 0.62591594 0.00039582 -0.00077294 -0.00025009
0.19045717 0.37902716 0.33446154 0.00020041 -0.00063197 -0.00068694
0.89882815 0.39863542 0.63874733 0.00093169 -0.00000215 -0.00091729
0.26942849 0.62823755 0.20733021 -0.00029529 0.00060872 -0.00076965
0.72151178 0.36003801 0.88448936 -0.00077448 -0.00074956 0.00124148
0.72300780 0.44710764 0.89758849 -0.00055248 0.00014305 0.00107540
0.63059723 0.54456812 0.70759660 -0.00021397 -0.00025031 -0.00011127
0.92420864 0.44296893 0.66683173 0.00096352 0.00001945 -0.00062299
0.06188301 0.39492923 0.18006001 -0.00105387 -0.00025945 -0.00048092
0.72017753 0.62597507 0.79324114 0.00016347 0.00064485 0.00075409
0.86850953 0.41358334 0.89733845 0.00063677 -0.00033971 0.00111722
0.83400291 0.42818671 0.91147822 0.00021494 -0.00001212 0.00128438
0.33852911 0.47076088 0.17600834 0.00057764 0.00036294 -0.00040331
0.36276954 0.58679086 0.49196047 -0.00037276 -0.00061285 0.00044814
0.35001224 0.58453292 0.48061514 -0.00033416 -0.00061708 0.00049230
0.76044554 0.38874149 0.61661255 -0.00029558 -0.00046509 -0.00058526
0.73504454 0.42744577 0.90277159 -0.00041735 -0.00021024 0.00112567
0.10876426 0.54636186 0.16021127 -0.00088252 0.00009728 -0.00071704
0.91698265 0.33534843 0.75188673 0.00087393 -0.00096989 0.00024569
0.16016808 0.60580629 0.31932405 -0.00049902 0.00049710 0.00018045
0.86308908 0.33066308 0.83000714 0.00031333 -0.00069297 -0.00017803
0.10622589 0.59840393 0.26374808 -0.00059956 0.00098730 0.00017419
0.70577329 0.64193857 0.57766873 0.00048919 0.00005139 -0.00048228
0.73852444 0.52229381 0.61091620 -0.00007839 -0.00020451 -0.00034961
0.31634381 0.45681128 0.13897242 0.00047061 0.00035210 -0.00075723
0.65797478 0.51932806 0.76496089 -0.00020811 0.00030341 0.00034640
0.66901284 0.61758268 0.76018006 -0.00048480 -0.00037007 0.00067075
0.18200199 0.46326736 0.08349645 -0.00022565 -0.00044476 -0.00115227
0.36057666 0.41265011 0.26755109 0.00067918 -0.00028544 0.00007187
0.05003668 0.41543394 0.27783638 -0.00114047 -0.00010335 0.00017675
0.30633944 0.37608692 0.18881068 -0.00025442 -0.00092515 0.00034967
0.72972643 0.64469653 0.60069776 0.00052947 0.00065475 -0.00019024
0.04840019 0.41293648 0.26883483 -0.00114269 -0.00013841 0.00019429
0.63695091 0.62745380 0.73172522 -0.00033057 -0.00020566 0.00067046
0.05176865 0.49506712 0.21972843 -0.00106360 0.00014193 -0.00018711
0.23502186 0.51854771 0.38588533 0.00001382 -0.00020744 0.00029263
0.53662038 0.59798121 0.42741254 0.00054218 -0.00002044 -0.00073125
0.74019998 0.51131660 0.61317044 -0.00009982 -0.00025890 -0.00034298
0.64952821 0.48061126 0.78106707 -0.00065650 0.00006498 0.00003318
0.66602123 0.64263862 0.74462891 0.00000923 0.00077276 0.00038540
0.34668246 0.41871509 0.31185666 0.00054948 -0.00018399 0.00023895
0.29982805 0.37044197 0.17679293 -0.00019203 -0.00097593 0.00047816
0.35050318 0.52540034 0.27576533 0.00023637 -0.00034183 0.00001112
0.90601414 0.34706205 0.69385380 0.00032664 -0.00068402 -0.00086676
0.21155466 0.41141638 0.08426105 0.00014490 -0.00015050 -0.00112042
0.56226635 0.66592127 0.45574737 0.00012904 0.00048264 -0.00067948
0.23392540 0.63354838 0.38212281 -0.00060981 0.00046130 0.00021631
0.07432489 0.32959983 0.23844074 -0.00070655 -0.00087289 -0.00004974
0.35083318 0.39499924 0.18197425 0.00071327 -0.00053377 -0.00051312
0.22805405 0.48848158 0.38484526 0.00020144 -0.00000959 0.00032581
0.13040905 0.35404482 0.28761619 0.00104986 -0.00037546 -0.00045600
0.84275079 0.42618793 0.90893477 0.00031776 -0.00000261 0.00125569
0.12856482 0.58423835 0.16646309 -0.00073023 0.00070876 -0.00051038
0.64685845 0.66008174 0.52927917 0.00040116 0.00064571 -0.00045034
0.71274245 0.64116853 0.58375466 0.00044193 0.00010510 -0.00049799
0.28465328 0.36774674 0.16925922 -0.00024366 -0.00086194 0.00051818
0.47014847 0.56556469 0.51697588 0.00019838 -0.00072478 -0.00020021
0.31625834 0.57626230 0.44815636 -0.00039657 -0.00064452 0.00037436
0.76603824 0.39266637 0.61062938 -0.00016978 -0.00021811 -0.00093126
0.70373678 0.39278227 0.64562154 -0.00026400 -0.00046151 -0.00032872
0.38285285 0.65723020 0.51084948 -0.00024530 0.00064473 0.00063345
0.21979207 0.33829820 0.10817873 0.00034199 -0.00090807 -0.00054750
0.23944445 0.42497650 0.08869047 0.00029062 0.00005057 -0.00103942
0.39267677 0.56607878 0.32855880 0.00013665 -0.00056608 -0.00047478
0.73237252 0.37893942 0.79980713 0.00064057 -0.00028169 -0.00038737
0.10996297 0.59749752 0.27117452 -0.00067861 0.00082188 0.00020112
0.91881329 0.45637894 0.66141772 0.00087925 0.00028189 -0.00066491
0.77657270 0.60699189 0.83613074 -0.00008586 0.00097149 0.00046682
0.41685951 0.66222280 0.53979534 -0.00028033 0.00054678 0.00058248
0.78049022 0.38440439 0.61466926 -0.00000084 -0.00055297 -0.00071168
0.67034388 0.53889811 0.77744961 -0.00027699 0.00013955 0.00043322
0.16621354 0.33037534 0.11666030 -0.00023721 -0.00080641 -0.00077233
0.32459354 0.46444902 0.15148833 0.00049592 0.00038479 -0.00063817
0.63727319 0.53332180 0.70667428 -0.00019708 -0.00025555 -0.00023022
0.66504794 0.46877551 0.83426970 -0.00075450 0.00012607 0.00054154
0.35222831 0.40225706 0.26825839 0.00033803 -0.00074652 0.00010221
0.71743149 0.36589298 0.81883484 0.00069048 -0.00035478 -0.00055884
0.51833326 0.56725210 0.46417212 -0.00019366 -0.00070739 0.00020026
0.75415188 0.61682218 0.81455135 0.00014461 0.00079096 0.00050829
0.75578022 0.34469095 0.86367464 -0.00027735 -0.00097142 0.00011785
0.95124573 0.46603340 0.76719463 0.00114027 0.00019099 0.00033052
0.85807651 0.41447389 0.90252250 0.00047360 -0.00037439 0.00119275
0.83093715 0.58768177 0.85137647 0.00082087 0.00078666 0.00080993
0.87322491 0.33059672 0.81981039 0.00007790 -0.00065223 -0.00005730
0.30308419 0.56889176 0.20924537 0.00031776 -0.00029549 -0.00065531
0.89147854 0.38181645 0.63592577 0.00090988 -0.00014132 -0.00105598
0.07696595 0.50504220 0.17873809 -0.00069850 0.00035470 -0.00075745
0.40974078 0.65852845 0.32570767 0.00030991 0.00050344 -0.00068564
0.09902898 0.34365451 0.31336355 -0.00008078 -0.00076587 0.00049886
0.33927462 0.64296865 0.26323757 0.00021689 0.00055685 -0.00051836
0.07182922 0.56723523 0.23544325 -0.00128905 0.00040731 -0.00003501
0.12194342 0.58431834 0.17465460 -0.00068082 0.00071438 -0.00051293
0.20471096 0.38414481 0.33940417 0.00009188 -0.00064270 -0.00068620
0.52395082 0.66123271 0.63101774 -0.00035917 0.00083867 0.00040801
0.57436252 0.57858068 0.67274219 -0.00013295 -0.00060240 0.00052428
0.09106475 0.47515449 0.14746077 -0.00083573 0.00006098 -0.00061496
0.21402390 0.49493116 0.38599718 0.00008835 0.00006389 0.00040305
0.81243718 0.51451880 0.90237844 0.00046139 0.00005584 0.00115166
0.77767271 0.59190530 0.85298789 -0.00050741 0.00071948 0.00071030
0.72690123 0.40026191 0.89708847 -0.00049477 -0.00015587 0.00119599
0.18867794 0.48518482 0.08565571 0.00004853 -0.00012633 -0.00115383
0.88233966 0.60157102 0.73701787 0.00074125 0.00092096 -0.00023302
0.12070242 0.35667592 0.34715700 -0.00031500 -0.00074674 0.00045846
0.78787124 0.33872232 0.86457151 -0.00044571 -0.00085270 0.00054705
0.81815761 0.39008570 0.70328355 0.00002310 -0.00052109 0.00010166
0.53192413 0.57622999 0.44184408 0.00029978 -0.00049336 -0.00036801
0.33215317 0.38894925 0.15124105 0.00076410 -0.00038261 -0.00058541
0.53534466 0.63427663 0.42627472 0.00048949 -0.00064164 -0.00077395
0.08276096 0.44677925 0.34485230 -0.00092220 0.00019763 0.00058441
0.68861932 0.45728239 0.86914730 -0.00064976 0.00009706 0.00085318
0.10283519 0.34729749 0.32433802 -0.00023388 -0.00075018 0.00053812
0.07952069 0.33440837 0.27646992 -0.00052810 -0.00085753 0.00040877
0.85095459 0.36815315 0.67444915 -0.00078281 -0.00032108 0.00084270
0.78469920 0.61737537 0.64358044 0.00065137 0.00032543 -0.00013538
0.91299510 0.43364301 0.65049464 0.00091482 -0.00007459 -0.00072600
0.21494718 0.62990808 0.36504653 -0.00072937 0.00055211 0.00003222
0.65478724 0.57147014 0.54460245 0.00042153 -0.00059761 -0.00026666
0.84814346 0.58909506 0.83288777 0.00060868 0.00069518 0.00068608
0.47757268 0.65919256 0.59300399 -0.00062183 0.00065685 0.00026851
0.27961156 0.39999735 0.31860262 -0.00011947 -0.00063182 -0.00046531
0.73959672 0.63534629 0.60666043 0.00065326 0.00025625 -0.00020427
0.13482028 0.58519524 0.16096178 -0.00074259 0.00073766 -0.00049710
0.75474149 0.48795480 0.90142155 -0.00048335 0.00054984 0.00091656
0.27722955 0.43771827 0.10383570 0.00038638 0.00027169 -0.00093863
0.33294731 0.49631047 0.30270961 0.00000313 -0.00013765 0.00016360
0.10061001 0.54737014 0.16993654 -0.00089252 0.00006392 -0.00075241
0.19271234 0.48077151 0.38974473 -0.00002510 0.00014703 0.00057761
0.48192841 0.56667978 0.50457895 0.00006196 -0.00063045 -0.00006093
0.64846307 0.48175555 0.77122819 -0.00060394 0.00001830 -0.00002638
0.83082128 0.60045636 0.67927176 0.00046841 0.00000554 -0.00058172
0.66439432 0.38267332 0.73357219 -0.00063224 -0.00054506 -0.00007193
0.86127949 0.34627289 0.79835796 -0.00093097 0.00011842 -0.00063413
0.28806672 0.57951123 0.19814682 0.00037850 -0.00035946 -0.00073114
0.74387753 0.34743071 0.86080116 -0.00029951 -0.00097614 -0.00008190
0.05558710 0.51438802 0.22393419 -0.00105107 0.00026282 -0.00011141
0.28519967 0.40991172 0.37396446 0.00041921 -0.00033643 0.00051544
0.50011253 0.65857345 0.61239356 -0.00045667 0.00064488 0.00042780
0.75507879 0.39293635 0.77417433 0.00008800 -0.00048776 0.00003849
0.07286566 0.39602432 0.15842842 -0.00093845 -0.00011289 -0.00068788
0.80618256 0.58646715 0.65536952 0.00053403 -0.00041075 -0.00042395
0.41752362 0.66239417 0.33432788 0.00039742 0.00065732 -0.00056802
0.31579471 0.55804372 0.21989071 0.00029900 -0.00019885 -0.00057166
0.20577694 0.50463903 0.38352656 -0.00005083 0.00011114 0.00040768
0.86698622 0.33603257 0.81106520 -0.00043117 -0.00029445 -0.00043199
0.42564788 0.61274046 0.55475980 -0.00054974 0.00005426 0.00067794
0.26710969 0.36543888 0.16692221 -0.00019988 -0.00073952 0.00045518
0.77095181 0.61044985 0.82724237 -0.00000192 0.00092627 0.00034895
0.80695724 0.33535480 0.86238724 -0.00007034 -0.00092388 0.00059762
0.38306379 0.60009909 0.51775789 -0.00046199 -0.00031191 0.00070527
0.34570739 0.64503604 0.26940712 0.00023769 0.00060238 -0.00046875
0.74660629 0.61885184 0.81106162 0.00017502 0.00073413 0.00063398
0.91137958 0.33270505 0.77062672 0.00063700 -0.00098655 0.00048640
0.31222215 0.65582502 0.44736812 -0.00038791 0.00077147 0.00041729
0.88799053 0.59926033 0.74463028 0.00078977 0.00099111 -0.00011164
0.64754081 0.64381826 0.73476410 -0.00012992 0.00066900 0.00054756
0.74163234 0.45022377 0.90525949 -0.00041253 0.00017412 0.00112757
0.60483664 0.63853878 0.70337629 -0.00025534 0.00008458 0.00065195
0.79662734 0.61444241 0.65325934 0.00057016 0.00037878 -0.00022028
0.18223520 0.33232683 0.11153172 -0.00003914 -0.00083677 -0.00080935
0.26498997 0.64324278 0.40817112 -0.00058997 0.00055387 0.00025965
0.67425185 0.55067629 0.63258332 -0.00010907 -0.00033683 0.00006351
0.95072657 0.41771367 0.79018146 0.00128536 -0.00027257 0.00016516
0.45138934 0.65760249 0.57072377 -0.00077940 0.00036415 0.00021183
0.87879306 0.41381064 0.89126939 0.00075526 -0.00025226 0.00105210
0.54148877 0.66910148 0.43961164 0.00015812 0.00048540 -0.00052378
0.15172382 0.46532756 0.38587627 -0.00034024 0.00014993 0.00076662
0.87710655 0.45668694 0.62599510 0.00065147 0.00018988 -0.00076776
0.27214506 0.39848813 0.32219017 -0.00013854 -0.00064785 -0.00045672
0.87714106 0.60317707 0.73072606 0.00068886 0.00085052 -0.00031259
0.18778470 0.51922244 0.09554415 -0.00003412 0.00046471 -0.00102082
0.93535405 0.44088501 0.68409663 0.00106890 -0.00007092 -0.00053921
0.04690921 0.41052493 0.21739098 -0.00113399 -0.00035674 -0.00023544
0.19773497 0.62851393 0.34924081 -0.00086903 0.00073136 -0.00016588
0.61014616 0.64801270 0.70548326 -0.00011857 0.00062258 0.00062617
0.83165038 0.37046877 0.62853575 0.00038071 -0.00078181 -0.00016653
0.12386037 0.53535157 0.13762276 -0.00080054 0.00032576 -0.00070092
0.58256006 0.65358168 0.68126100 -0.00019898 0.00075096 0.00052152
0.68381798 0.55066043 0.62474495 -0.00021589 -0.00034718 0.00012813
0.75767267 0.62860346 0.62154430 0.00083958 0.00022500 -0.00001755
0.69338375 0.55064446 0.61690712 -0.00029888 -0.00035357 0.00015169
0.42528147 0.60417938 0.55472189 -0.00051788 0.00003011 0.00068550
0.69423699 0.36098307 0.83547390 -0.00041750 -0.00070341 0.00021774
0.95058614 0.43426171 0.72258502 0.00115970 -0.00015340 -0.00049287
0.27566215 0.63012588 0.21281290 -0.00036755 0.00059301 -0.00081287
0.38084772 0.58825773 0.50791258 -0.00033631 -0.00057229 0.00048169
0.71621090 0.56485647 0.59183252 0.00013051 -0.00037756 -0.00025480
0.64512837 0.54940349 0.67056429 0.00008351 -0.00029161 -0.00030469
0.17110935 0.60725683 0.32872292 -0.00067227 0.00026586 0.00004696
0.25223950 0.39449739 0.33093670 -0.00024377 -0.00069665 -0.00044626
0.58826411 0.66411567 0.47769538 0.00020177 0.00058220 -0.00061712
0.79608095 0.57567632 0.64453506 0.00050489 -0.00046072 -0.00041854
0.87989265 0.36416742 0.64108711 0.00041410 -0.00067378 -0.00073777
0.65980303 0.55185324 0.64410001 0.00002859 -0.00034554 -0.00002553
0.15353350 0.60424531 0.31411591 -0.00046604 0.00054831 0.00023437
0.04880478 0.40187114 0.21941613 -0.00109584 -0.00043194 -0.00018857
0.18004048 0.46464172 0.39328635 -0.00010601 0.00001857 0.00076302
0.06974724 0.43710339 0.32835060 -0.00103794 0.00008062 0.00046124
0.28820172 0.50490689 0.35622859 0.00016945 -0.00023755 -0.00007868
0.08233093 0.33628076 0.28608882 -0.00048575 -0.00083138 0.00052801
0.51981062 0.67619884 0.44379333 -0.00006609 0.00084240 0.00016399
0.85972887 0.61129218 0.71711004 0.00051553 0.00088240 -0.00017502
0.64917135 0.55007851 0.66327327 0.00007341 -0.00030808 -0.00021496
0.66667265 0.37808114 0.75690210 -0.00050799 -0.00062500 0.00012615
0.69995606 0.56792033 0.80272144 -0.00035898 -0.00008349 0.00063288
0.43704009 0.66944247 0.36360139 0.00022837 0.00078566 -0.00015019
0.65575999 0.55117863 0.65139103 0.00004792 -0.00033066 -0.00008844
0.67112666 0.57121235 0.55817759 0.00044851 -0.00057812 -0.00016699
0.67793351 0.38887289 0.68397254 -0.00025552 -0.00050231 -0.00048161
0.18111284 0.34383908 0.17116342 0.00039896 -0.00044305 0.00081350
0.88681406 0.37257621 0.63658857 0.00075700 -0.00040285 -0.00100045
0.27754956 0.36537519 0.16507071 -0.00023999 -0.00084145 0.00054650
0.51975453 0.57165921 0.44240046 0.00021396 -0.00061239 -0.00010536
0.53005278 0.57195288 0.44997740 0.00011124 -0.00062161 -0.00020089
0.34755296 0.40559641 0.28954998 0.00031204 -0.00068356 0.00014787
0.18891068 0.49365625 0.08760539 0.00006170 0.00004586 -0.00112210
0.69470155 0.63473982 0.76987714 0.00002843 0.00070284 0.00050682
0.56876314 0.65353763 0.67043108 -0.00031994 0.00064743 0.00049815
0.42878491 0.65626597 0.55123746 -0.00046498 0.00031916 0.00046469
0.47476742 0.67837995 0.49164009 0.00000613 0.00079561 0.00007120
0.14127758 0.36576027 0.36559886 -0.00029279 -0.00070800 0.00062061
0.10997706 0.48392880 0.12914941 -0.00065647 0.00009373 -0.00084800
0.29337484 0.36961326 0.11977325 0.00061267 -0.00056187 -0.00069329
0.80901283 0.52421665 0.89929086 0.00030088 0.00029678 0.00108939
0.71279109 0.35595497 0.84387678 -0.00030836 -0.00075660 -0.00042545
0.16220142 0.40786111 0.09105565 -0.00026324 -0.00020568 -0.00109085
0.27758503 0.55675405 0.40415806 -0.00030408 -0.00061071 0.00010972
0.73269987 0.35031775 0.85577810 -0.00032109 -0.00092545 -0.00028111
0.73739475 0.38270244 0.79433262 0.00044398 -0.00036153 -0.00023698
0.81732666 0.59571874 0.66699862 0.00047270 -0.00017060 -0.00049023
0.69409746 0.45539951 0.87512183 -0.00064214 0.00010885 0.00089906
0.39474329 0.65375131 0.31116116 0.00017487 0.00041280 -0.00075633
0.91057998 0.42574519 0.64714533 0.00091792 -0.00014522 -0.00075601
0.67519057 0.65135425 0.55198127 0.00061347 0.00027465 -0.00040119
0.68296206 0.55420429 0.78840309 -0.00034708 0.00000490 0.00048271
0.36003253 0.40139520 0.21331251 0.00077245 -0.00045530 -0.00018803
0.23663335 0.35565042 0.15734288 0.00006384 -0.00056098 0.00077734
0.27310786 0.58593440 0.18657187 0.00053221 -0.00036127 -0.00073964
0.15109196 0.58741361 0.14913860 -0.00060961 0.00085164 -0.00056267
0.24276605 0.39286500 0.33519930 -0.00024375 -0.00070251 -0.00047147
0.04668188 0.40718105 0.24999659 -0.00113962 -0.00032117 0.00021361
0.72929418 0.39157715 0.62886667 -0.00048531 -0.00049704 -0.00021864
0.20279627 0.33535117 0.10775007 0.00014188 -0.00089256 -0.00073518
0.53534985 0.58820730 0.43082553 0.00051724 -0.00014776 -0.00065510
0.19407015 0.56251669 0.11725942 0.00032582 0.00056059 -0.00095668
0.20178527 0.48444024 0.38886738 0.00002986 0.00011525 0.00051485
0.05607806 0.42146352 0.29889297 -0.00110636 -0.00008214 0.00024630
0.08762179 0.58849871 0.23088653 -0.00090586 0.00097211 -0.00039254
0.43255523 0.58319604 0.54805237 -0.00025384 -0.00048234 0.00038799
0.11940277 0.45745769 0.37270936 -0.00052728 0.00016472 0.00078642
0.70660383 0.57254475 0.80771226 -0.00036176 -0.00011026 0.00069684
0.89062071 0.45118147 0.63399160 0.00064317 0.00023489 -0.00081277
0.18101874 0.47692251 0.38973653 -0.00011676 0.00017651 0.00064209
0.46040362 0.67217398 0.38610399 0.00042663 0.00075145 -0.00001403
0.64860088 0.62408036 0.74216235 -0.00040168 -0.00024901 0.00065903
0.54234475 0.65950674 0.64665163 -0.00025431 0.00080674 0.00049347
0.17834125 0.60958117 0.33481792 -0.00075183 0.00020211 -0.00000851
0.45712703 0.67650616 0.51683748 0.00014789 0.00092774 -0.00014532
0.77841556 0.61946237 0.63834101 0.00070824 0.00029470 -0.00009491
0.68366075 0.36695942 0.80943006 0.00000849 -0.00069391 0.00046870
0.12311669 0.34422228 0.24805872 0.00114127 -0.00039409 -0.00005670
0.89005250 0.59405088 0.77093905 0.00069847 0.00098031 0.00058056
0.29899842 0.65372127 0.43593910 -0.00038622 0.00077231 0.00040466
0.95267171 0.44956335 0.77026850 0.00117934 0.00018354 0.00024207
0.09454183 0.59345770 0.25084755 -0.00078947 0.00097873 0.00008830
0.79647690 0.39690349 0.72858000 -0.00001729 -0.00044551 0.00000476
0.07763878 0.39602977 0.15142925 -0.00088321 -0.00010024 -0.00077624
0.23501913 0.34531510 0.10545899 0.00049734 -0.00069977 -0.00067906
0.19745405 0.56834358 0.12213661 0.00041531 0.00059182 -0.00090007
0.13225871 0.32279658 0.14150079 -0.00044645 -0.00099518 -0.00031485
0.92997003 0.44193485 0.67504829 0.00102040 -0.00002568 -0.00058632
0.13357611 0.40409723 0.10292791 -0.00057582 -0.00007832 -0.00099357
0.18224019 0.54739743 0.36090350 -0.00046623 -0.00012825 0.00039165
0.77078539 0.52188420 0.61692578 0.00034534 -0.00000513 -0.00039510
0.83847499 0.47145370 0.61311460 0.00042386 0.00019133 -0.00072971
0.67083567 0.46609548 0.84465504 -0.00073752 0.00014028 0.00062028
0.11082714 0.39544019 0.11950232 -0.00065616 -0.00011715 -0.00096680
0.88675636 0.33008212 0.80759269 -0.00005066 -0.00073417 0.00034549
0.07623867 0.32945254 0.21839878 -0.00077609 -0.00075764 -0.00020505
0.14006022 0.59441912 0.30740356 -0.00056905 0.00027077 0.00039676
0.46712184 0.67785537 0.50109601 0.00002427 0.00082540 0.00001822
0.42661524 0.62215298 0.55448812 -0.00057287 -0.00005280 0.00064611
0.76811749 0.40246072 0.71414757 0.00013760 -0.00044858 0.00011832
0.92902452 0.40521955 0.83985782 0.00109794 -0.00050906 0.00061963
0.66137040 0.62012148 0.75364095 -0.00047657 -0.00033492 0.00066585
0.32999027 0.65733790 0.46367341 -0.00026052 0.00077053 0.00058473
0.25755218 0.40342942 0.38507438 0.00020946 -0.00044279 0.00063206
0.33786088 0.65706968 0.47090486 -0.00025638 0.00073106 0.00060695
0.91516036 0.33416152 0.75999963 0.00078653 -0.00098597 0.00039133
0.66676128 0.37654242 0.76519549 -0.00053630 -0.00065426 0.00026366
0.13487074 0.46124661 0.37995216 -0.00044147 0.00015371 0.00077655
0.72353959 0.38248694 0.89198536 -0.00060842 -0.00012589 0.00129461
0.78419280 0.55197591 0.63080448 0.00046217 -0.00004473 -0.00032438
0.46723917 0.67316955 0.39355594 0.00039431 0.00077516 0.00005537
0.44732994 0.67456871 0.53109336 0.00008873 0.00099011 -0.00013248
0.91756636 0.41476935 0.85695499 0.00096691 -0.00002425 0.00084109
0.34832257 0.51703656 0.27076086 0.00024113 -0.00032163 0.00001588
0.18617821 0.54040146 0.36604750 -0.00042256 -0.00007466 0.00039545
0.70969909 0.56893903 0.58689851 0.00020415 -0.00044412 -0.00021207
0.82394803 0.38698819 0.69815183 -0.00000975 -0.00052141 0.00015193
0.15897481 0.58215731 0.32992801 -0.00052979 -0.00032312 0.00056774
0.67730254 0.36980507 0.79681098 -0.00019826 -0.00069650 0.00045258
0.61588252 0.66166776 0.50158828 0.00042154 0.00057018 -0.00043673
0.89525056 0.39052573 0.63701451 0.00095334 0.00000604 -0.00101834
0.81140256 0.59158212 0.66105086 0.00053003 -0.00027398 -0.00041995
0.74405891 0.45815930 0.90461493 -0.00038734 0.00034809 0.00107590
0.11228133 0.45619908 0.36857498 -0.00059477 0.00018570 0.00076608
0.73229349 0.44606969 0.90211517 -0.00046699 0.00011293 0.00112172
0.53350687 0.66168642 0.63814825 -0.00026610 0.00088962 0.00042576
0.81912041 0.59050250 0.85679680 0.00062948 0.00096863 0.00086583
0.81647426 0.33402786 0.85938883 0.00012265 -0.00094098 0.00050474
0.86975330 0.45874828 0.62227523 0.00065194 0.00014924 -0.00075646
0.74333519 0.39607114 0.68760920 0.00046201 -0.00041002 0.00045053
0.83845407 0.61825866 0.69550574 0.00042598 0.00093824 -0.00022138
0.17404822 0.33134767 0.11386552 -0.00015132 -0.00081940 -0.00079327
0.05793272 0.52412492 0.22594708 -0.00106140 0.00029385 -0.00008901
0.24844149 0.42777669 0.09141248 0.00030732 0.00011056 -0.00101863
0.86579388 0.36029667 0.65428895 -0.00032838 -0.00073495 0.00013038
0.26056921 0.35508764 0.10806193 0.00060065 -0.00061830 -0.00068207
0.94922692 0.48369816 0.76148152 0.00118434 -0.00003849 0.00021868
0.47632805 0.67414737 0.40427718 0.00035374 0.00079531 0.00020410
0.89096123 0.59757978 0.75222993 0.00080065 0.00103320 0.00007764
0.79014003 0.38130096 0.61646569 0.00013679 -0.00065196 -0.00062497
0.95187163 0.45795548 0.76920712 0.00114338 0.00024915 0.00031582
0.36007571 0.65381080 0.49138051 -0.00028122 0.00053314 0.00063086
0.42467144 0.66453296 0.34195706 0.00041988 0.00067721 -0.00053949
0.34047014 0.39054984 0.16263281 0.00073728 -0.00049773 -0.00057932
0.94095677 0.51709712 0.75664937 0.00114721 0.00021833 0.00005640
0.21959841 0.41563535 0.08471972 0.00019203 -0.00010235 -0.00110137
0.04889571 0.47555712 0.21650137 -0.00107785 0.00006711 -0.00024734
0.79100597 0.56694710 0.63884830 0.00048196 -0.00026382 -0.00037013
0.80969334 0.48080361 0.61060667 0.00010275 0.00016497 -0.00064319
0.73836392 0.53049523 0.60874832 -0.00005666 -0.00013361 -0.00037763
0.12448589 0.40170157 0.10894062 -0.00064177 -0.00006448 -0.00095093
0.65390766 0.47743887 0.80343598 -0.00072763 0.00014646 0.00023254
0.91635263 0.33902326 0.73058200 0.00081284 -0.00087214 -0.00026823
0.65587091 0.64178306 0.74206549 -0.00017693 0.00064717 0.00054238
0.63928789 0.54842883 0.68109649 0.00006134 -0.00029145 -0.00036535
0.06579239 0.39579660 0.17080341 -0.00103534 -0.00016819 -0.00053572
0.86020344 0.36172768 0.66030717 -0.00058145 -0.00062179 0.00049446
0.94472200 0.41535532 0.80883008 0.00126045 -0.00018162 0.00028167
0.89639205 0.35201013 0.67525011 0.00009339 -0.00070445 -0.00068474
0.17416413 0.37661421 0.37972218 -0.00014171 -0.00071950 0.00057953
0.18437581 0.61235315 0.33995512 -0.00078371 0.00019247 -0.00001826
0.19039035 0.61530066 0.34503505 -0.00079715 0.00021471 -0.00001736
0.46163189 0.67724031 0.50966984 0.00007778 0.00087094 -0.00005937
0.19030851 0.38283700 0.38560399 -0.00007971 -0.00065529 0.00062301
0.95375365 0.43975538 0.77000397 0.00124168 0.00002092 0.00012115
0.91734451 0.33736816 0.73990995 0.00087987 -0.00091361 -0.00005976
0.73717701 0.39332503 0.68117052 0.00061556 -0.00042790 0.00060263
0.78041339 0.43640697 0.91596299 -0.00014970 -0.00015483 0.00128649
0.06631972 0.43238750 0.32167149 -0.00104366 0.00000879 0.00041302
0.30013171 0.56706029 0.42440414 -0.00033356 -0.00067441 0.00013663
0.89242494 0.33035764 0.80040079 -0.00004373 -0.00078419 0.00048336
0.95046246 0.47569644 0.76409441 0.00116867 0.00004550 0.00027923
0.36189497 0.40467769 0.22365963 0.00078768 -0.00037207 -0.00015063
0.93266696 0.41480708 0.83544564 0.00113499 -0.00006436 0.00060163
0.32609725 0.38479805 0.14502059 0.00075305 -0.00045614 -0.00057503
0.10695095 0.34999499 0.33133402 -0.00029412 -0.00074604 0.00050961
0.58868545 0.57029051 0.49994510 0.00013508 -0.00064510 -0.00034211
0.68310887 0.45988736 0.86260772 -0.00065392 0.00010228 0.00082071
0.57436496 0.64831269 0.67662066 -0.00034522 0.00040803 0.00055501
0.36790493 0.65584779 0.49781144 -0.00024460 0.00062136 0.00063517
0.70383817 0.63052458 0.78076339 -0.00000726 0.00064300 0.00065436
0.17729346 0.37493458 0.33049577 0.00029469 -0.00060776 -0.00071606
0.30347833 0.38071591 0.19726858 -0.00026953 -0.00077842 0.00027187
0.69972515 0.45264250 0.88085228 -0.00066817 0.00010778 0.00092219
0.78978366 0.43483353 0.91650361 -0.00014904 -0.00016250 0.00128257
0.50675470 0.65913528 0.61784810 -0.00042529 0.00068221 0.00044461
0.90634960 0.33175454 0.77949971 0.00041512 -0.00095425 0.00052763
0.81241852 0.61294776 0.66722316 0.00043981 0.00045824 -0.00035628
0.16765773 0.57163513 0.34128794 -0.00055302 -0.00044053 0.00053047
0.07416124 0.33014214 0.22895867 -0.00077950 -0.00078260 -0.00013535
0.35826421 0.40069333 0.20436455 0.00076244 -0.00043170 -0.00028292
0.20347039 0.40832159 0.08435561 0.00010586 -0.00020309 -0.00113255
0.08772361 0.58357286 0.21996480 -0.00085804 0.00083366 -0.00065697
0.93085879 0.54147106 0.75619435 0.00102410 0.00054038 0.00005982
0.13244148 0.59665656 0.29865158 -0.00063369 0.00045079 0.00030152
0.75142670 0.48034969 0.90248245 -0.00041071 0.00062659 0.00094434
0.82800782 0.47576192 0.61181855 0.00029512 0.00021541 -0.00069789
0.46377480 0.65848297 0.58146358 -0.00074473 0.00054401 0.00020471
0.29650235 0.41229326 0.36757490 0.00047547 -0.00029827 0.00047235
0.80238461 0.39596021 0.72098672 -0.00000947 -0.00046466 0.00002307
0.33315644 0.64103127 0.25787672 0.00013350 0.00050137 -0.00059095
0.64095986 0.53035074 0.73987174 -0.00034923 -0.00003514 0.00035238
0.76553369 0.50743526 0.61331183 0.00013635 -0.00009395 -0.00044553
0.20876127 0.39019844 0.39043340 -0.00000453 -0.00054283 0.00071186
0.61171585 0.56367731 0.68054366 0.00011889 -0.00054069 -0.00001211
0.22105534 0.38888377 0.34100747 -0.00004812 -0.00065834 -0.00060499
0.18703918 0.51080298 0.09277716 -0.00005785 0.00034941 -0.00104986
0.71111506 0.62860799 0.78661793 0.00007273 0.00064762 0.00071655
0.30026808 0.37184253 0.12416676 0.00062321 -0.00059747 -0.00065322
0.12271485 0.50339305 0.12436724 -0.00065088 0.00030735 -0.00081927
0.33364603 0.46831501 0.16663902 0.00055012 0.00037526 -0.00048347
0.12053559 0.59562105 0.28686979 -0.00074279 0.00053405 0.00025445
0.91142046 0.41459161 0.86418104 0.00092516 -0.00003414 0.00091887
0.95391232 0.42891678 0.74228781 0.00124605 -0.00029663 -0.00035090
0.16861962 0.37219074 0.32745552 0.00037055 -0.00058430 -0.00074690
0.75381416 0.58949918 0.84045106 -0.00074745 0.00018771 0.00073126
0.85937977 0.46248096 0.61812812 0.00062906 0.00012672 -0.00074969
0.65332985 0.65747291 0.53417605 0.00040307 0.00051484 -0.00050947
0.53811991 0.60568362 0.42436597 0.00056032 -0.00003247 -0.00077749
0.07509764 0.32978755 0.24835327 -0.00062937 -0.00093399 0.00002113
0.58011222 0.66475618 0.47077805 0.00010811 0.00057208 -0.00069552
0.87482685 0.35962844 0.65067691 -0.00004331 -0.00076448 -0.00032495
0.92827219 0.41465163 0.84250575 0.00108037 -0.00005130 0.00068449
0.11910047 0.49467582 0.12412631 -0.00062750 0.00021910 -0.00086721
0.19141586 0.53062981 0.37198523 -0.00035353 -0.00000856 0.00040137
0.12681922 0.59723932 0.29246202 -0.00069238 0.00053667 0.00024128
0.84330899 0.37379038 0.68109554 -0.00052979 -0.00032876 0.00066358
0.12289985 0.32200700 0.14953092 -0.00044336 -0.00100031 -0.00035769
0.18827744 0.52820051 0.09869349 -0.00002265 0.00054559 -0.00100672
0.66866779 0.65270847 0.54646212 0.00054099 0.00031168 -0.00046208
0.20245306 0.51255846 0.38062632 -0.00014757 0.00009895 0.00039516
0.28695798 0.40118971 0.31441593 -0.00013290 -0.00062868 -0.00046943
0.73471957 0.53776532 0.60658222 -0.00007154 -0.00010221 -0.00037142
0.90526319 0.41397566 0.87070012 0.00087266 -0.00007647 0.00100060
0.64625889 0.48256823 0.75112575 -0.00053085 -0.00011707 -0.00011462
0.75780576 0.44096300 0.91152138 -0.00029244 -0.00003929 0.00123880
0.28042886 0.37184796 0.18013002 -0.00020103 -0.00074246 0.00032302
0.46957162 0.58884549 0.58395511 -0.00051488 -0.00055399 0.00030279
0.54843873 0.65202707 0.65396899 -0.00029081 0.00043137 0.00059717
0.08825773 0.59070653 0.24207327 -0.00094478 0.00098558 -0.00009675
0.15910937 0.46890637 0.38733774 -0.00029856 0.00017840 0.00073607
0.73216069 0.41948107 0.90208566 -0.00045807 -0.00030660 0.00115730
0.49368653 0.56720072 0.49241692 -0.00008664 -0.00060602 0.00009715
0.24170780 0.63462621 0.38867694 -0.00064818 0.00037565 0.00019116
0.76552910 0.39647755 0.76048875 0.00008502 -0.00045339 0.00000804
0.33073533 0.58190274 0.46339661 -0.00037242 -0.00059979 0.00047462
0.08843274 0.45011476 0.35037088 -0.00086463 0.00023417 0.00062067
0.84818119 0.36706263 0.63326102 0.00024329 -0.00079384 -0.00013580
0.12693378 0.54976714 0.14111982 -0.00091515 0.00013241 -0.00081782
0.09681881 0.47713998 0.14169624 -0.00078938 0.00004641 -0.00066764
0.62611461 0.55578303 0.71965069 -0.00033159 -0.00015191 0.00021729
0.08639532 0.53225130 0.17959952 -0.00073568 0.00025239 -0.00079296
0.14214720 0.58646303 0.15583231 -0.00073029 0.00078476 -0.00047526
0.32631227 0.63934201 0.25198266 0.00008591 0.00048756 -0.00062399
0.79613823 0.33729449 0.86375737 -0.00030861 -0.00087357 0.00057670
0.29138196 0.65246570 0.42930904 -0.00044277 0.00077911 0.00033961
0.80415016 0.54358804 0.89061433 0.00006416 0.00066054 0.00094936
0.65197247 0.47875413 0.79538858 -0.00071026 0.00011911 0.00016709
0.88568538 0.41359246 0.88660449 0.00082816 -0.00021420 0.00100656
0.49426180 0.58622986 0.60464078 -0.00047325 -0.00062966 0.00032486
0.08504795 0.32508492 0.19973648 -0.00053969 -0.00092308 -0.00032034
0.10183148 0.59708023 0.25666615 -0.00062659 0.00102240 0.00009560
0.11657711 0.39945140 0.11461378 -0.00064164 -0.00006627 -0.00096449
0.34567463 0.40802157 0.29974347 0.00036595 -0.00060323 0.00017852
0.73607785 0.64491427 0.60670364 0.00059391 0.00078587 -0.00007466
0.41148320 0.56513649 0.35472485 0.00024901 -0.00060509 -0.00024405
0.37448314 0.65602869 0.50375491 -0.00024796 0.00061702 0.00064147
0.89756620 0.44879216 0.63909382 0.00070999 0.00020157 -0.00078115
0.41866916 0.56492555 0.36140805 0.00029897 -0.00061304 -0.00022736
0.74875695 0.39845222 0.69352555 0.00034590 -0.00041824 0.00032527
0.35037726 0.41847828 0.30418882 0.00056904 -0.00017447 0.00023795
0.17468964 0.58857960 0.13169685 -0.00036903 0.00115025 -0.00082903
0.14865813 0.36927095 0.37133974 -0.00032961 -0.00068806 0.00068150
0.47067446 0.65938079 0.58721495 -0.00068188 0.00063700 0.00023119
0.71378481 0.38625586 0.67201126 0.00077364 -0.00068293 0.00032706
0.95252526 0.43095922 0.73250163 0.00120014 -0.00024363 -0.00045146
0.65490401 0.62221485 0.74800050 -0.00043295 -0.00030171 0.00068032
0.78016341 0.54130107 0.62588602 0.00046126 0.00005054 -0.00031284
0.12908803 0.34048244 0.22139265 0.00098625 -0.00039590 0.00037473
0.76567364 0.43906003 0.91346645 -0.00020740 -0.00009018 0.00126857
0.25911045 0.62513006 0.20037243 -0.00018225 0.00065852 -0.00059791
0.59620601 0.57509494 0.68920070 -0.00007409 -0.00054502 0.00041057
0.37420315 0.59965038 0.50985461 -0.00049528 -0.00035459 0.00067283
0.15265025 0.36628982 0.31740889 0.00056606 -0.00051384 -0.00072216
0.19233002 0.33338100 0.10987388 0.00007265 -0.00088601 -0.00074394
0.33401740 0.41429159 0.32913157 0.00044213 -0.00037459 0.00029134
0.11129854 0.58476615 0.18784560 -0.00061676 0.00073949 -0.00062078
0.20451957 0.57788014 0.13147186 0.00051545 0.00067222 -0.00076762
0.05365967 0.50542063 0.22208132 -0.00105221 0.00021581 -0.00013739
0.33889413 0.58382332 0.47134125 -0.00034496 -0.00059233 0.00051575
0.15037008 0.32569274 0.12705380 -0.00036085 -0.00095363 -0.00050090
0.70232350 0.35886383 0.83888823 -0.00038982 -0.00069705 -0.00012369
0.56224817 0.65086830 0.66600484 -0.00033959 0.00044551 0.00056499
0.67511147 0.46342978 0.85141045 -0.00069775 0.00010598 0.00071531
0.10508080 0.45525372 0.36387417 -0.00067208 0.00022197 0.00073332
0.39868769 0.56630290 0.33432651 0.00018142 -0.00057409 -0.00046249
0.15418400 0.40722695 0.09378041 -0.00034298 -0.00017231 -0.00107051
0.23250666 0.39627752 0.39007387 0.00009654 -0.00053261 0.00068705
0.92220724 0.47585946 0.67366999 0.00079000 0.00055083 -0.00058666
0.15827022 0.33914375 0.17942768 0.00062898 -0.00038504 0.00084989
0.32883385 0.46646214 0.15852614 0.00051942 0.00038256 -0.00056245
0.25828403 0.63925564 0.40277886 -0.00059943 0.00040820 0.00026007
0.42862901 0.64802581 0.55232686 -0.00050025 0.00008262 0.00051464
0.04788198 0.40090969 0.22877727 -0.00110582 -0.00044325 -0.00008136
0.70729345 0.44941601 0.88747180 -0.00069852 0.00012561 0.00094983
0.62916625 0.64412647 0.72166860 -0.00007858 0.00054516 0.00068413
0.32666731 0.54628235 0.22999692 0.00027587 -0.00008121 -0.00049407
0.57737333 0.56981182 0.49290106 0.00003485 -0.00065291 -0.00034933
0.07738420 0.33209002 0.26490179 -0.00053912 -0.00091032 0.00022531
0.44343147 0.67014021 0.36891228 0.00036642 0.00076818 -0.00011400
0.68158513 0.63799280 0.75972867 -0.00006354 0.00073023 0.00044750
0.85303479 0.35602090 0.79192060 -0.00080913 0.00010258 -0.00058787
0.54049331 0.57194376 0.45913991 0.00001590 -0.00063508 -0.00026832
0.72450465 0.63898057 0.59390038 0.00047982 0.00019987 -0.00040424
0.91539305 0.44477558 0.65632915 0.00087703 0.00008738 -0.00066702
0.33972329 0.41658404 0.32245243 0.00048797 -0.00028302 0.00027536
0.18905024 0.54062736 0.10416663 0.00001683 0.00057402 -0.00098896
