0.000000 0.786638 0.246996 0.000000 0.146729 0.989177
0.177440 0.983403 0.000000 0.177567 0.984109 0.000000
-0.647614 -0.761028 0.000000 -0.648078 -0.761574 0.000000
0.491048 -0.093133 0.000000 -0.982485 0.186339 0.000000
0.806052 0.589841 0.000000 0.807008 0.590541 0.000000
0.307085 0.950929 0.000000 0.307305 0.951611 0.000000
0.912436 -0.406877 0.000000 0.913309 -0.407266 0.000000
-0.498796 0.024504 0.000000 0.998795 -0.049068 0.000000
0.365884 -0.929890 0.000000 0.366147 -0.930557 0.000000
-0.926777 -0.000000 0.176777 -0.707107 -0.000000 0.707107
0.941128 -0.334475 0.000000 0.942262 -0.334878 0.000000
0.942566 0.330458 0.000000 0.943683 0.330850 0.000000
-0.177440 -0.983403 0.000000 -0.177567 -0.984109 0.000000
-0.110526 0.487141 0.000000 0.221263 -0.975214 0.000000
0.000000 0.968378 -0.121356 0.000000 0.874098 -0.485750
-0.382683 -0.923880 0.000000 -0.382683 -0.923880 0.000000
0.000000 0.798772 -0.245196 0.000000 0.195088 -0.980786
0.000000 0.689328 0.242216 -0.000000 -0.242980 0.970031
0.752042 -0.657529 0.000000 0.752829 -0.658217 0.000000
0.000000 0.999312 -0.014002 0.000000 0.998427 -0.056075
-0.547918 -0.836056 0.000000 -0.548136 -0.836389 0.000000
0.000000 0.841821 -0.232347 0.000000 0.367530 -0.930012
0.017047 -0.999163 0.000000 0.017058 -0.999854 0.000000
0.132161 -0.481722 0.000000 -0.264575 0.964365 0.000000
0.040098 0.498030 0.000000 -0.080253 -0.996775 0.000000
0.111254 0.993221 0.000000 0.111317 0.993785 0.000000
0.677429 -0.000000 0.239235 -0.290284 0.000000 0.956940
0.000000 0.973977 0.110456 0.000000 0.896868 0.442298
-0.496392 -0.057098 0.000000 0.993449 0.114273 0.000000
0.059663 -0.997069 0.000000 0.059732 -0.998214 0.000000
0.000000 0.597970 -0.198125 -0.000000 -0.608770 -0.793347
0.378267 0.326286 0.000000 -0.757218 -0.653162 0.000000
-0.460033 0.195374 0.000000 0.920432 -0.390903 0.000000
0.573223 -0.000000 -0.176777 -0.707107 0.000000 -0.707107
-0.440961 0.235698 0.000000 0.881922 -0.471396 0.000000
0.821302 0.569278 0.000000 0.821872 0.569673 0.000000
-0.203368 0.978712 0.000000 -0.203446 0.979086 0.000000
0.826155 -0.562736 0.000000 0.826484 -0.562960 0.000000
-0.456218 -0.203439 0.000000 0.913309 0.407267 0.000000
0.879874 -0.000000 0.213273 0.520110 -0.000000 0.854100
-0.234033 -0.971030 0.000000 -0.234306 -0.972163 0.000000
0.917688 -0.000000 0.185015 0.671559 -0.000000 0.740951
0.203439 0.456218 0.000000 -0.407267 -0.913309 0.000000
0.700497 0.713098 0.000000 0.700776 0.713382 0.000000
-0.995813 0.085232 0.000000 -0.996357 0.085279 0.000000
-0.273959 0.418028 0.000000 0.548136 -0.836389 0.000000
0.957977 0.286146 0.000000 0.958169 0.286203 0.000000
0.000000 0.945341 0.155783 0.000000 0.781824 0.623499
0.813677 0.579560 0.000000 0.814508 0.580152 0.000000
0.929131 -0.000000 -0.174180 0.716945 -0.000000 -0.697130
-0.985102 -0.000000 0.084121 -0.941544 -0.000000 0.336891
-0.505831 0.861282 0.000000 -0.506421 0.862286 0.000000
0.000000 -0.588805 0.190898 -0.000000 0.645163 0.764045
0.887643 0.459300 0.000000 0.888146 0.459561 0.000000
-0.431073 0.900993 0.000000 -0.431589 0.902071 0.000000
0.436374 0.243350 0.000000 -0.873374 -0.487049 0.000000
0.442708 0.232002 0.000000 -0.885743 -0.464175 0.000000
-0.277303 -0.960192 0.000000 -0.277460 -0.960737 0.000000
0.000000 0.943252 -0.158598 0.000000 0.773010 -0.634394
-0.273729 0.961087 0.000000 -0.273919 0.961753 0.000000
0.000000 -0.501032 0.021004 -0.000000 0.996460 0.084064
-0.417837 0.274278 0.000000 0.835981 -0.548758 0.000000
-0.093133 -0.491047 0.000000 0.186339 0.982485 0.000000
-0.795306 -0.000000 0.245710 -0.181331 -0.000000 0.983422
-0.031187 0.498468 0.000000 0.062445 -0.998048 0.000000
0.000000 0.888893 0.207867 0.000000 0.555572 0.831468
0.232341 -0.971454 0.000000 0.232608 -0.972571 0.000000
-0.334475 -0.941129 0.000000 -0.334878 -0.942262 0.000000
0.361791 0.344464 0.000000 -0.724237 -0.689551 0.000000
-0.875340 -0.482376 0.000000 -0.875819 -0.482640 0.000000
0.456695 0.202431 0.000000 -0.914216 -0.405228 0.000000
0.870953 -0.489695 0.000000 0.871668 -0.490097 0.000000
-0.191342 0.461940 0.000000 0.382684 -0.923879 0.000000
-0.223601 -0.446683 0.000000 0.447629 0.894219 0.000000
0.000000 0.608293 0.205779 -0.000000 -0.567164 0.823605
-0.208071 -0.977533 0.000000 -0.208189 -0.978089 0.000000
0.000000 0.991222 -0.064638 0.000000 0.965923 -0.258830
0.946878 0.318406 0.000000 0.947845 0.318731 0.000000
0.770420 -0.000000 -0.248997 0.081735 -0.000000 -0.996654
-0.510765 -0.000000 0.072571 0.956940 0.000000 0.290285
0.966271 0.253035 0.000000 0.967381 0.253326 0.000000
0.000000 0.500803 -0.016336 -0.000000 -0.997858 -0.065414
0.754084 -0.000000 -0.249799 0.016347 -0.000000 -0.999866
0.290922 -0.405992 0.000000 -0.582467 0.812854 0.000000
0.247176 -0.434081 0.000000 -0.494825 0.868993 0.000000
0.000000 -0.742999 0.249656 -0.000000 0.028032 0.999607
-0.427201 -0.258655 0.000000 0.855424 0.517929 0.000000
-0.987672 0.148664 0.000000 -0.988861 0.148843 0.000000
0.737748 -0.000000 -0.249398 -0.049067 0.000000 -0.998795
-0.997253 -0.000000 -0.034905 -0.990182 -0.000000 -0.139785
0.000000 -0.667529 -0.235693 -0.000000 0.330274 -0.943885
-0.290922 0.405992 0.000000 0.582467 -0.812854 0.000000
-0.677360 -0.734068 0.000000 -0.678150 -0.734924 0.000000
-0.713362 -0.000000 -0.246996 0.146729 0.000000 -0.989177
0.390749 -0.920065 0.000000 0.390905 -0.920431 0.000000
-0.853064 -0.000000 0.227473 -0.412698 -0.000000 0.910868
-0.098017 0.995185 0.000000 -0.098017 0.995185 0.000000
0.000000 0.549440 0.148745 -0.000000 -0.803208 0.595698
-0.503775 -0.000000 -0.041839 0.985869 0.000000 -0.167520
0.000000 -0.746499 -0.249828 -0.000000 0.014012 -0.999902
0.982151 -0.000000 -0.092371 0.929151 -0.000000 -0.369701
-0.892867 0.448254 0.000000 -0.893697 0.448671 0.000000
0.000000 -0.926777 -0.176777 0.000000 -0.707107 -0.707107
0.510765 -0.000000 0.072571 -0.956940 0.000000 0.290285
0.718568 0.694461 0.000000 0.719066 0.694942 0.000000
0.000000 -0.950560 0.148745 0.000000 -0.803208 0.595698
-0.983915 0.173987 0.000000 -0.984723 0.174130 0.000000
0.994531 -0.102429 0.000000 0.994738 -0.102450 0.000000
-0.734068 0.677360 0.000000 -0.734924 0.678150 0.000000
-0.247177 0.434081 0.000000 0.494827 -0.868992 0.000000
0.449702 0.217216 0.000000 -0.900459 -0.434941 0.000000
-0.203439 0.456218 0.000000 0.407267 -0.913309 0.000000
0.865868 0.498179 0.000000 0.866774 0.498700 0.000000
0.414943 -0.908622 0.000000 0.415406 -0.909636 0.000000
0.549440 -0.000000 0.148745 -0.803208 0.000000 0.595698
0.935379 -0.350544 0.000000 0.936403 -0.350928 0.000000
0.382683 0.923880 0.000000 0.382683 0.923880 0.000000
0.000000 0.514897 -0.084121 -0.000000 -0.941544 -0.336889
0.000000 -0.980970 0.095671 0.000000 -0.923879 0.382684
0.991912 -0.120079 0.000000 0.992752 -0.120181 0.000000
-0.634393 0.773010 0.000000 -0.634393 0.773010 0.000000
-0.244757 0.968344 0.000000 -0.245052 0.969510 0.000000
0.991912 0.120079 0.000000 0.992752 0.120181 0.000000
-0.697191 -0.716094 0.000000 -0.697587 -0.716500 0.000000
-0.478470 0.145142 0.000000 0.956940 -0.290284 0.000000
-0.406878 -0.912437 0.000000 -0.407267 -0.913309 0.000000
0.286146 -0.957977 0.000000 0.286203 -0.958169 0.000000
0.119180 -0.484973 0.000000 -0.238645 0.971107 0.000000
-0.294301 -0.955503 0.000000 -0.294360 -0.955695 0.000000
0.000000 0.677429 0.239235 -0.000000 -0.290284 0.956940
-0.820841 0.569901 0.000000 -0.821430 0.570310 0.000000
0.191342 0.461940 0.000000 -0.382684 -0.923879 0.000000
0.049009 0.997592 0.000000 0.049068 0.998795 0.000000
-0.302337 0.952628 0.000000 -0.302502 0.953149 0.000000
-0.490393 0.097545 0.000000 0.980785 -0.195090 0.000000
0.000000 0.741832 0.249599 -0.000000 -0.032707 0.999465
0.000000 0.955780 0.141707 0.000000 0.823606 0.567163
0.670750 0.740059 0.000000 0.671559 0.740951 0.000000
-0.914758 -0.401969 0.000000 -0.915508 -0.402299 0.000000
0.000000 0.501204 0.024504 -0.000000 -0.995185 0.098016
-0.770015 0.637698 0.000000 -0.770176 0.637831 0.000000
0.000000 0.632151 -0.220480 -0.000000 -0.471397 -0.881921
-0.687276 -0.725081 0.000000 -0.687933 -0.725774 0.000000
-0.960050 0.277868 0.000000 -0.960575 0.278020 0.000000
0.277304 0.960192 0.000000 0.277461 0.960737 0.000000
-0.997592 -0.049009 0.000000 -0.998795 -0.049068 0.000000
0.000000 -0.818605 -0.240228 0.000000 -0.274604 -0.961557
0.317197 0.386505 0.000000 -0.634394 -0.773010 0.000000
0.504804 -0.000000 0.048772 -0.980786 0.000000 0.195089
-0.970480 -0.000000 -0.117849 -0.881921 -0.000000 -0.471397
-0.644824 -0.000000 0.226474 0.421201 0.000000 0.906967
0.258655 -0.427201 0.000000 -0.517929 0.855424 0.000000
-0.063924 -0.996860 0.000000 -0.063994 -0.997950 0.000000
-0.145142 -0.478470 0.000000 0.290284 0.956940 0.000000
-0.738626 -0.672331 0.000000 -0.739515 -0.673140 0.000000
0.497015 -0.866566 0.000000 0.497523 -0.867451 0.000000
-0.448590 -0.219569 0.000000 0.898180 0.439628 0.000000
0.842371 -0.000000 -0.232151 0.369701 -0.000000 -0.929151
0.262481 0.424908 0.000000 -0.525548 -0.850764 0.000000
0.000000 -0.621629 0.214174 -0.000000 0.514103 0.857729
0.000000 -0.992641 -0.058972 0.000000 -0.971712 -0.236168
0.000000 0.952995 -0.145461 0.000000 0.812853 -0.582469
0.000000 -0.504804 0.048772 -0.000000 0.980786 0.195089
-0.012252 -0.499398 0.000000 0.024527 0.999699 0.000000
0.564985 -0.000000 0.167688 -0.740951 0.000000 0.671559
0.315485 -0.947923 0.000000 0.315787 -0.948830 0.000000
-0.707107 0.707107 0.000000 -0.707107 0.707107 0.000000
0.997593 0.049009 0.000000 0.998795 0.049068 0.000000
0.517849 -0.000000 -0.092371 -0.929151 0.000000 -0.369701
-0.475223 -0.879628 0.000000 -0.475322 -0.879812 0.000000
-0.514897 -0.000000 0.084121 0.941544 0.000000 0.336890
0.985367 -0.164203 0.000000 0.986398 -0.164375 0.000000
0.000000 0.997767 0.031438 0.000000 0.992046 0.125875
-0.952432 0.302885 0.000000 -0.952972 0.303057 0.000000
-0.902968 -0.000000 -0.197428 -0.612475 -0.000000 -0.790490
0.494974 -0.066658 0.000000 -0.991053 0.133466 0.000000
0.491048 0.093132 0.000000 -0.982486 -0.186339 0.000000
-0.887394 0.459826 0.000000 -0.887879 0.460077 0.000000
-0.707107 -0.707107 0.000000 -0.707107 -0.707107 0.000000
0.131783 -0.990176 0.000000 0.131927 -0.991259 0.000000
-0.624112 0.780635 0.000000 -0.624453 0.781062 0.000000
-0.235698 -0.440961 0.000000 0.471396 0.881922 0.000000
0.431788 -0.251002 0.000000 -0.864540 0.502564 0.000000
0.000000 0.500000 0.000000 -0.000000 -1.000000 0.000000
0.000000 -0.632151 0.220480 -0.000000 0.471397 0.881921
0.459300 -0.887643 0.000000 0.459561 -0.888146 0.000000
0.976474 -0.000000 -0.105176 0.906967 -0.000000 -0.421201
-0.657529 -0.752042 0.000000 -0.658217 -0.752829 0.000000
-0.991428 0.123340 0.000000 -0.992350 0.123455 0.000000
0.989949 0.133316 0.000000 0.991054 0.133465 0.000000
-0.887394 -0.459826 0.000000 -0.887879 -0.460077 0.000000
-0.967779 -0.247015 0.000000 -0.968936 -0.247310 0.000000
0.000000 -0.878371 0.214174 0.000000 -0.514103 0.857729
0.013366 0.999343 0.000000 0.013374 0.999911 0.000000
-0.822571 -0.000000 -0.239235 -0.290284 -0.000000 -0.956940
0.150966 0.987330 0.000000 0.151147 0.988511 0.000000
0.808972 -0.000000 -0.242641 0.236167 -0.000000 -0.971712
0.591399 0.804898 0.000000 0.592106 0.805860 0.000000
0.000000 -0.774504 0.248796 0.000000 -0.098016 0.995185
0.391377 0.310628 0.000000 -0.783278 -0.621672 0.000000
0.518974 -0.853405 0.000000 0.519589 -0.854416 0.000000
0.480638 -0.136488 0.000000 -0.961965 0.273172 0.000000
0.080196 0.996060 0.000000 0.080253 0.996774 0.000000
-0.486701 0.872748 0.000000 -0.487050 0.873374 0.000000
-0.544092 0.838349 0.000000 -0.544401 0.838825 0.000000
-0.750000 -0.000000 0.250000 0.000000 0.000000 1.000000
-0.632151 -0.000000 -0.220480 0.471397 0.000000 -0.881921
0.084308 0.492356 0.000000 -0.168777 -0.985654 0.000000
-0.190678 0.981440 0.000000 -0.190718 0.981645 0.000000
0.000000 -0.715095 -0.247253 -0.000000 0.139785 -0.990182
-0.812869 0.580650 0.000000 -0.813720 0.581258 0.000000
0.000000 0.525024 0.108344 -0.000000 -0.900967 0.433888
0.405992 0.290922 0.000000 -0.812854 -0.582467 0.000000
0.235698 0.440961 0.000000 -0.471396 -0.881922 0.000000
-0.381013 0.323256 0.000000 0.762537 -0.646945 0.000000
0.000000 0.547004 -0.145461 -0.000000 -0.812854 -0.582467
-0.582312 -0.000000 -0.185015 0.671559 0.000000 -0.740951
0.542132 -0.000000 0.138892 -0.831471 0.000000 0.555568
-0.999124 -0.017821 0.000000 -0.999841 -0.017834 0.000000
0.998997 -0.000000 0.020420 0.996654 -0.000000 0.081735
0.974976 -0.000000 0.108344 0.900967 -0.000000 0.433888
-0.697191 0.716094 0.000000 -0.697587 0.716500 0.000000
0.637698 0.770015 0.000000 0.637831 0.770176 0.000000
0.999343 -0.013366 0.000000 0.999911 -0.013374 0.000000
-0.133316 0.989949 0.000000 -0.133465 0.991054 0.000000
-0.307344 0.393812 0.000000 0.615244 -0.788337 0.000000
0.893364 -0.447202 0.000000 0.894219 -0.447630 0.000000
-0.049009 -0.497592 0.000000 0.098018 0.995185 0.000000
-0.994530 -0.102429 0.000000 -0.994738 -0.102450 0.000000
-0.459300 0.887643 0.000000 -0.459561 0.888146 0.000000
0.454311 -0.207471 0.000000 -0.909636 0.415405 0.000000
0.500675 0.864373 0.000000 0.501223 0.865318 0.000000
0.000000 -0.701228 -0.245196 -0.000000 0.195088 -0.980786
0.000000 0.510765 -0.072571 -0.000000 -0.956941 -0.290284
-0.605478 -0.000000 -0.203692 0.578657 0.000000 -0.815571
-0.556748 -0.000000 0.158598 0.773010 0.000000 0.634394
0.940506 -0.000000 0.161628 0.762536 -0.000000 0.646946
0.000000 -0.538529 0.132880 -0.000000 0.846717 0.532043
-0.187492 -0.463318 0.000000 0.375121 0.926976 0.000000
0.447202 0.893364 0.000000 0.447630 0.894219 0.000000
0.841821 -0.000000 0.232348 0.367529 -0.000000 0.930012
-0.211504 -0.452404 0.000000 0.423514 0.905890 0.000000
0.794269 -0.605730 0.000000 0.795155 -0.606406 0.000000
-0.435105 -0.899086 0.000000 -0.435612 -0.900134 0.000000
0.000000 -0.892177 -0.205431 0.000000 -0.569090 -0.822275
0.822571 -0.000000 -0.239235 0.290284 -0.000000 -0.956940
0.998249 -0.035643 0.000000 0.999363 -0.035682 0.000000
0.987985 0.146553 0.000000 0.989177 0.146730 0.000000
0.000000 -0.849367 -0.229222 0.000000 -0.397734 -0.917501
-0.492793 0.081366 0.000000 0.986641 -0.162907 0.000000
-0.993307 0.110679 0.000000 -0.993849 0.110739 0.000000
-0.999312 -0.000000 0.014002 -0.998427 -0.000000 0.056076
0.066658 0.494974 0.000000 -0.133465 -0.991054 0.000000
0.778093 0.627539 0.000000 0.778391 0.627780 0.000000
0.164203 0.985367 0.000000 0.164375 0.986398 0.000000
0.000000 -0.966876 0.123861 0.000000 -0.868361 0.495933
-0.461940 -0.191342 0.000000 0.923879 0.382684 0.000000
-0.867849 -0.000000 0.220480 -0.471397 -0.000000 0.881921
0.000000 0.995196 0.048772 0.000000 0.980786 0.195089
0.693294 -0.000000 -0.243209 -0.227067 0.000000 -0.973879
0.495629 0.062245 0.000000 -0.992206 -0.124610 0.000000
0.488225 -0.106199 0.000000 -0.977150 0.212550 0.000000
-0.111254 -0.993221 0.000000 -0.111317 -0.993785 0.000000
-0.972114 -0.229707 0.000000 -0.973199 -0.229963 0.000000
-0.576132 -0.816220 0.000000 -0.576668 -0.816979 0.000000
0.647614 0.761028 0.000000 0.648078 0.761574 0.000000
-0.857792 0.511654 0.000000 -0.858825 0.512270 0.000000
-0.977473 -0.000000 -0.103064 -0.910868 -0.000000 -0.412698
0.000000 -0.579283 -0.182269 -0.000000 0.683600 -0.729857
0.000000 0.926777 0.176777 0.000000 0.707107 0.707107
-0.766336 -0.000000 -0.249197 -0.065414 -0.000000 -0.997858
0.000000 -0.879874 -0.213273 0.000000 -0.520110 -0.854100
0.000000 -0.835771 -0.234512 0.000000 -0.343489 -0.939157
0.195090 0.980785 0.000000 0.195090 0.980785 0.000000
-0.393812 -0.307344 0.000000 0.788337 0.615244 0.000000
-0.998968 -0.000000 -0.021003 -0.996460 -0.000000 -0.084063
0.000000 -0.713362 0.246996 -0.000000 0.146729 0.989177
-0.959670 -0.000000 -0.135887 -0.839172 -0.000000 -0.543867
0.000000 -0.940506 0.161628 0.000000 -0.762536 0.646946
-0.956940 -0.290285 0.000000 -0.956940 -0.290285 0.000000
-0.980785 -0.195091 0.000000 -0.980785 -0.195091 0.000000
-0.442868 -0.231666 0.000000 0.886088 0.463516 0.000000
-0.031187 0.998468 0.000000 -0.031220 0.999513 0.000000
0.000000 0.502404 -0.032593 -0.000000 -0.991447 -0.130513
0.000000 -0.680829 -0.240087 -0.000000 0.276847 -0.960914
-0.761028 0.647614 0.000000 -0.761574 0.648078 0.000000
0.489696 0.870953 0.000000 0.490098 0.871667 0.000000
-0.670750 0.740058 0.000000 -0.671559 0.740951 0.000000
0.572706 -0.818761 0.000000 0.573176 -0.819432 0.000000
-0.164203 -0.985367 0.000000 -0.164375 -0.986398 0.000000
-0.913792 -0.000000 -0.188546 -0.655811 -0.000000 -0.754925
0.995196 -0.000000 0.048772 0.980786 -0.000000 0.195089
0.750000 -0.000000 0.250000 0.000000 0.000000 1.000000
0.544592 -0.838050 0.000000 0.544890 -0.838508 0.000000
0.000000 -0.758168 0.249599 0.000000 -0.032707 0.999465
0.053054 -0.496992 0.000000 -0.106147 0.994350 0.000000
0.403556 -0.294207 0.000000 -0.808058 0.589103 0.000000
0.137729 0.989294 0.000000 0.137890 0.990448 0.000000
-0.920231 -0.390398 0.000000 -0.920583 -0.390547 0.000000
-0.066658 -0.494974 0.000000 0.133466 0.991053 0.000000
0.000000 -0.511946 0.075871 -0.000000 0.952779 0.303664
0.000000 0.905783 0.195340 0.000000 0.623501 0.781823
-0.697828 -0.000000 -0.244344 0.208812 0.000000 -0.977956
0.498249 -0.035643 0.000000 -0.997451 0.071354 0.000000
0.136488 0.480638 0.000000 -0.273172 -0.961965 0.000000
0.586414 -0.808594 0.000000 0.587088 -0.809523 0.000000
0.000000 -0.693294 0.243209 -0.000000 0.227067 0.973879
0.350248 0.356549 0.000000 -0.700775 -0.713382 0.000000
-0.778325 0.627227 0.000000 -0.778635 0.627477 0.000000
-0.306353 -0.951190 0.000000 -0.306565 -0.951850 0.000000
0.046878 -0.997697 0.000000 0.046935 -0.998898 0.000000
-0.987330 -0.150966 0.000000 -0.988511 -0.151147 0.000000
0.952628 -0.302336 0.000000 0.953149 -0.302501 0.000000
0.123507 0.483890 0.000000 -0.247309 -0.968937 0.000000
-0.998196 -0.000000 0.028549 -0.993450 -0.000000 0.114271
-0.936816 -0.346528 0.000000 -0.937892 -0.346926 0.000000
0.443170 -0.895271 0.000000 0.443634 -0.896208 0.000000
0.979748 -0.199229 0.000000 0.979945 -0.199269 0.000000
0.968678 -0.000000 0.120855 0.875230 -0.000000 0.483706
-0.929891 0.365883 0.000000 -0.930558 0.366145 0.000000
0.000000 -0.523526 -0.105176 -0.000000 0.906967 -0.421201
0.982151 -0.000000 0.092371 0.929150 -0.000000 0.369702
-0.424144 0.263756 0.000000 0.849197 -0.528077 0.000000
0.178742 0.466448 0.000000 -0.357826 -0.933788 0.000000
0.261313 -0.964197 0.000000 0.261580 -0.965182 0.000000
0.000000 0.523526 -0.105176 -0.000000 -0.906967 -0.421201
0.997253 -0.000000 -0.034905 0.990182 -0.000000 -0.139785
-0.761549 -0.647040 0.000000 -0.762076 -0.647488 0.000000
0.000000 0.665879 -0.235102 -0.000000 -0.336890 -0.941544
0.000000 -0.654329 -0.230970 -0.000000 0.382684 -0.923879
0.000000 -0.732497 -0.249140 -0.000000 0.070081 -0.997541
0.480457 0.137209 0.000000 -0.961558 -0.274602 0.000000
-0.166142 0.470956 0.000000 0.332682 -0.943039 0.000000
-0.501204 -0.000000 0.024504 0.995185 0.000000 0.098016
-0.752041 0.657529 0.000000 -0.752828 0.658217 0.000000
-0.190678 -0.981440 0.000000 -0.190718 -0.981645 0.000000
0.722029 -0.000000 -0.248282 -0.111950 0.000000 -0.993714
-0.062374 0.996936 0.000000 -0.062444 0.998048 0.000000
0.709972 0.703946 0.000000 0.710114 0.704087 0.000000
0.463318 0.187492 0.000000 -0.926976 -0.375121 0.000000
0.000000 0.998196 -0.028549 0.000000 0.993450 -0.114272
-0.916389 -0.000000 0.186191 -0.666343 -0.000000 0.745645
0.435105 0.899086 0.000000 0.435612 0.900134 0.000000
0.000000 -0.664229 0.234512 -0.000000 0.343489 0.939157
-0.605478 -0.000000 0.203691 0.578659 0.000000 0.815569
-0.405992 -0.290922 0.000000 0.812854 0.582467 0.000000
-0.900164 0.432826 0.000000 -0.901231 0.433339 0.000000
0.664229 -0.000000 0.234512 -0.343489 0.000000 0.939157
0.980785 0.195090 0.000000 0.980785 0.195090 0.000000
0.031187 0.998468 0.000000 0.031220 0.999513 0.000000
0.000000 -0.632151 -0.220480 -0.000000 0.471397 -0.881921
0.000000 -0.548396 0.147337 -0.000000 0.807370 0.590045
-0.221052 -0.974282 0.000000 -0.221263 -0.975214 0.000000
0.244757 -0.968344 0.000000 0.245052 -0.969510 0.000000
0.000000 0.936192 0.166389 0.000000 0.745647 0.666341
0.690581 0.722085 0.000000 0.691166 0.722696 0.000000
-0.080971 -0.996022 0.000000 -0.081027 -0.996712 0.000000
0.000000 0.529520 -0.117849 -0.000000 -0.881921 -0.471397
-0.463332 -0.885735 0.000000 -0.463517 -0.886088 0.000000
0.733664 -0.000000 0.249197 -0.065414 0.000000 0.997858
-0.150966 -0.987330 0.000000 -0.151147 -0.988511 0.000000
-0.558997 -0.828928 0.000000 -0.559109 -0.829094 0.000000
0.956940 -0.290284 0.000000 0.956940 -0.290284 0.000000
0.000000 -0.510765 -0.072571 -0.000000 0.956941 -0.290284
0.000000 -0.500000 0.000000 -0.000000 1.000000 0.000000
-0.828813 0.559153 0.000000 -0.828986 0.559270 0.000000
-0.835771 -0.000000 0.234512 -0.343489 -0.000000 0.939157
0.347494 -0.359045 0.000000 -0.695454 0.718571 0.000000
-0.318406 0.946878 0.000000 -0.318731 0.947845 0.000000
-0.985367 -0.164204 0.000000 -0.986398 -0.164376 0.000000
-0.654329 -0.000000 -0.230970 0.382684 0.000000 -0.923879
0.446683 -0.223601 0.000000 -0.894219 0.447629 0.000000
-0.909286 -0.413541 0.000000 -0.910280 -0.413993 0.000000
0.906714 -0.418975 0.000000 0.907772 -0.419464 0.000000
0.000000 -0.989235 -0.072571 0.000000 -0.956941 -0.290284
-0.828927 -0.558997 0.000000 -0.829094 -0.559109 0.000000
-0.786638 -0.000000 -0.246996 -0.146729 -0.000000 -0.989177
0.000000 0.531622 0.121356 -0.000000 -0.874098 0.485750
-0.261313 0.964197 0.000000 -0.261580 0.965182 0.000000
0.591402 -0.000000 -0.193253 -0.634392 0.000000 -0.773012
0.577067 0.815527 0.000000 0.577619 0.816307 0.000000
0.000000 -0.992641 0.058972 0.000000 -0.971713 0.236166
0.000000 0.812371 -0.241790 0.000000 0.249779 -0.968303
0.418028 0.273959 0.000000 -0.836389 -0.548136 0.000000
-0.804898 0.591399 0.000000 -0.805860 0.592106 0.000000
0.973528 -0.224062 0.000000 0.974522 -0.224291 0.000000
0.931066 -0.362596 0.000000 0.931831 -0.362894 0.000000
0.864373 -0.500674 0.000000 0.865319 -0.501222 0.000000
-0.374649 0.926754 0.000000 -0.374792 0.927109 0.000000
0.938253 0.342511 0.000000 0.939366 0.342917 0.000000
0.000000 0.519030 0.095671 -0.000000 -0.923879 0.382684
-0.127834 0.482806 0.000000 0.255953 -0.966689 0.000000
0.000000 -0.505798 -0.052739 -0.000000 0.977465 -0.211099
0.340685 -0.938907 0.000000 0.341092 -0.940030 0.000000
-0.996441 0.072447 0.000000 -0.997367 0.072515 0.000000
-0.968678 -0.000000 0.120855 -0.875230 -0.000000 0.483706
0.677429 -0.000000 -0.239235 -0.290284 0.000000 -0.956940
-0.971454 0.232340 0.000000 -0.972571 0.232607 0.000000
0.885385 -0.000000 -0.209969 0.541904 -0.000000 -0.840440
0.908622 0.414943 0.000000 0.909636 0.415406 0.000000
-0.821302 -0.569279 0.000000 -0.821871 -0.569673 0.000000
0.000000 0.536727 -0.129874 -0.000000 -0.854100 -0.520110
0.773011 -0.634393 0.000000 0.773011 -0.634393 0.000000
0.000000 -0.760502 -0.249484 0.000000 -0.042058 -0.999115
-0.650919 0.758032 0.000000 -0.651470 0.758674 0.000000
0.097545 0.490393 0.000000 -0.195090 -0.980785 0.000000
0.871356 -0.000000 -0.218378 0.485750 -0.000000 -0.874098
-0.394780 -0.918158 0.000000 -0.395004 -0.918679 0.000000
-0.950560 -0.000000 -0.148745 -0.803208 -0.000000 -0.595698
-0.667529 -0.000000 -0.235693 0.330274 0.000000 -0.943885
0.877534 -0.478715 0.000000 0.877870 -0.478898 0.000000
-0.960192 -0.277304 0.000000 -0.960737 -0.277461 0.000000
-0.467450 -0.175942 0.000000 0.935902 0.352261 0.000000
0.000000 -0.832471 0.235693 0.000000 -0.330274 0.943885
0.891707 -0.000000 0.205779 0.567164 -0.000000 0.823605
0.000000 -0.995710 -0.045306 0.000000 -0.983422 -0.181331
-0.168242 -0.470205 0.000000 0.336890 0.941544 0.000000
0.501718 -0.000000 0.027971 -0.993714 0.000000 0.111950
-0.415735 -0.277785 0.000000 0.831470 0.555570 0.000000
-0.405106 0.292117 0.000000 0.811116 -0.584886 0.000000
-0.920231 0.390397 0.000000 -0.920583 0.390546 0.000000
-0.942566 -0.330458 0.000000 -0.943683 -0.330850 0.000000
0.000000 -0.601255 -0.200560 -0.000000 0.595698 -0.803208
0.378484 -0.925382 0.000000 0.378563 -0.925575 0.000000
0.000000 -0.998282 0.027971 0.000000 -0.993714 0.111950
0.148665 -0.987672 0.000000 0.148844 -0.988861 0.000000
0.000000 -0.508210 0.062372 -0.000000 0.968302 0.249781
-0.613830 0.788260 0.000000 -0.614401 0.788994 0.000000
0.000000 -0.500688 -0.014002 -0.000000 0.998427 -0.056075
-0.386716 0.921972 0.000000 -0.386797 0.922165 0.000000
0.895271 0.443170 0.000000 0.896208 0.443634 0.000000
0.000000 -0.588372 -0.190507 -0.000000 0.646944 -0.762537
0.000000 0.830271 -0.236480 0.000000 0.321428 -0.946934
0.476967 -0.149342 0.000000 -0.954315 0.298803 0.000000
-0.479554 -0.140815 0.000000 0.959490 0.281742 0.000000
-0.098017 -0.995185 0.000000 -0.098017 -0.995185 0.000000
-0.905637 0.421254 0.000000 -0.906711 0.421753 0.000000
0.000000 0.504804 -0.048772 -0.000000 -0.980786 -0.195088
-0.892867 -0.448254 0.000000 -0.893697 -0.448671 0.000000
-0.928192 -0.370632 0.000000 -0.928699 -0.370834 0.000000
-0.733664 -0.000000 0.249197 0.065414 0.000000 0.997858
-0.356300 0.350524 0.000000 0.712861 -0.701305 0.000000
-0.996717 -0.066830 0.000000 -0.997760 -0.066900 0.000000
0.175942 -0.467450 0.000000 -0.352261 0.935902 0.000000
0.000000 0.845671 0.230970 0.000000 0.382684 0.923879
-0.994344 -0.000000 -0.052173 -0.977955 -0.000000 -0.208814
-0.491593 -0.089456 0.000000 0.983843 0.179031 0.000000
-0.689328 -0.000000 0.242216 0.242980 0.000000 0.970031
-0.864373 0.500675 0.000000 -0.865318 0.501223 0.000000
-0.024504 -0.498796 0.000000 0.049068 0.998795 0.000000
-0.173028 0.984058 0.000000 -0.173174 0.984891 0.000000
0.478716 0.877534 0.000000 0.478899 0.877870 0.000000
-0.049009 0.997592 0.000000 -0.049068 0.998795 0.000000
0.798772 -0.000000 0.245196 0.195088 -0.000000 0.980786
-0.120079 0.991912 0.000000 -0.120181 0.992752 0.000000
0.264323 0.963443 0.000000 0.264576 0.964365 0.000000
0.365883 0.929891 0.000000 0.366145 0.930558 0.000000
-0.470205 0.168242 0.000000 0.941544 -0.336890 0.000000
0.000000 -0.913792 0.188545 0.000000 -0.655813 0.754923
0.616479 0.786297 0.000000 0.617001 0.786963 0.000000
0.000000 0.798773 0.245196 0.000000 0.195092 0.980785
0.000000 -0.999312 0.014002 0.000000 -0.998427 0.056076
0.783640 -0.620062 0.000000 0.784201 -0.620506 0.000000
0.986874 -0.000000 -0.079171 0.948427 -0.000000 -0.316995
-0.974565 0.219923 0.000000 -0.975471 0.220127 0.000000
0.989294 -0.137729 0.000000 0.990448 -0.137890 0.000000
0.000000 -0.980970 -0.095671 0.000000 -0.923880 -0.382683
0.914343 0.402846 0.000000 0.915118 0.403187 0.000000
-0.985794 0.161325 0.000000 -0.986872 0.161501 0.000000
0.842437 -0.537271 0.000000 0.843129 -0.537712 0.000000
-0.487141 0.110526 0.000000 0.975214 -0.221263 0.000000
0.000000 0.982347 -0.091821 0.000000 0.930012 -0.367530
-0.835771 -0.000000 -0.234512 -0.343489 -0.000000 -0.939157
0.000000 -0.516669 0.089071 -0.000000 0.934244 0.356635
0.994344 -0.000000 -0.052173 0.977955 -0.000000 -0.208814
0.424908 0.262481 0.000000 -0.850764 -0.525548 0.000000
-0.517309 0.854402 0.000000 -0.517928 0.855424 0.000000
0.000000 0.995196 -0.048773 0.000000 0.980785 -0.195092
0.784905 -0.000000 -0.247253 0.139785 -0.000000 -0.990182
-0.997488 0.051139 0.000000 -0.998688 0.051201 0.000000
0.186650 -0.982037 0.000000 0.186721 -0.982413 0.000000
0.000000 -0.957867 0.138892 0.000000 -0.831470 0.555569
0.402846 -0.914343 0.000000 0.403187 -0.915118 0.000000
-0.502005 -0.863575 0.000000 -0.502565 -0.864539 0.000000
0.851211 -0.522632 0.000000 0.852190 -0.523233 0.000000
0.722085 -0.690580 0.000000 0.722697 -0.691165 0.000000
-0.980970 -0.000000 0.095671 -0.923879 -0.000000 0.382684
-0.322423 -0.945441 0.000000 -0.322776 -0.946475 0.000000
0.336484 0.940410 0.000000 0.336890 0.941544 0.000000
0.000000 -0.818605 0.240229 0.000000 -0.274603 0.961558
0.000000 -0.547005 -0.145461 -0.000000 0.812853 -0.582469
-0.121343 -0.484432 0.000000 0.242978 0.970032 0.000000
0.940898 -0.000000 -0.161195 0.764045 -0.000000 -0.645163
-0.844631 0.533612 0.000000 -0.845416 0.534108 0.000000
-0.418975 -0.906715 0.000000 -0.419464 -0.907772 0.000000
-0.215785 0.975601 0.000000 -0.215962 0.976402 0.000000
0.000000 -0.864153 0.222228 0.000000 -0.456918 0.889509
0.991790 -0.000000 0.062372 0.968302 -0.000000 0.249781
0.770145 0.637554 0.000000 0.770300 0.637682 0.000000
-0.350544 -0.935379 0.000000 -0.350928 -0.936403 0.000000
0.986021 0.159791 0.000000 0.987122 0.159969 0.000000
0.386505 -0.317197 0.000000 -0.773010 0.634394 0.000000
0.000000 0.689328 -0.242215 -0.000000 -0.242981 -0.970031
0.000000 0.507784 -0.060671 -0.000000 -0.970032 -0.242978
0.582313 -0.000000 -0.185015 -0.671557 0.000000 -0.740953
-0.370029 0.335375 0.000000 0.740951 -0.671559 0.000000
0.511654 0.857792 0.000000 0.512270 0.858825 0.000000
0.000000 -0.970480 -0.117849 0.000000 -0.881921 -0.471397
0.964174 -0.000000 -0.128371 0.857729 -0.000000 -0.514103
0.221052 0.974282 0.000000 0.221263 0.975214 0.000000
0.393813 -0.307344 0.000000 -0.788337 0.615243 0.000000
-0.982749 -0.181854 0.000000 -0.983306 -0.181957 0.000000
0.967307 -0.248895 0.000000 0.968455 -0.249190 0.000000
0.486036 -0.873147 0.000000 0.486373 -0.873752 0.000000
-0.994344 -0.000000 0.052172 -0.977956 -0.000000 0.208811
-0.389162 0.313614 0.000000 0.778634 -0.627478 0.000000
-0.600122 0.798427 0.000000 -0.600834 0.799374 0.000000
-0.519030 -0.000000 -0.095671 0.923880 0.000000 -0.382683
0.475715 0.152842 0.000000 -0.952067 -0.305889 0.000000
0.949516 -0.000000 0.150153 0.799007 -0.000000 0.601322
0.000000 -0.996225 0.041838 0.000000 -0.985869 0.167518
0.313913 -0.388941 0.000000 -0.628057 0.778168 0.000000
0.524275 -0.000000 -0.106760 -0.903989 0.000000 -0.427555
0.307344 0.393812 0.000000 -0.615244 -0.788337 0.000000
-0.975366 -0.216726 0.000000 -0.976192 -0.216909 0.000000
0.602147 0.796926 0.000000 0.602849 0.797855 0.000000
0.996279 0.075740 0.000000 0.997123 0.075805 0.000000
-0.277785 -0.415735 0.000000 0.555570 0.831470 0.000000
0.340333 0.365536 0.000000 -0.681425 -0.731888 0.000000
0.251002 0.431788 0.000000 -0.502564 -0.864540 0.000000
0.995623 0.089106 0.000000 0.996019 0.089142 0.000000
0.098017 0.995185 0.000000 0.098017 0.995185 0.000000
0.223601 0.446683 0.000000 -0.447629 -0.894219 0.000000
-0.017821 0.499124 0.000000 0.035683 -0.999363 0.000000
-0.536440 -0.842936 0.000000 -0.536894 -0.843650 0.000000
0.997374 -0.053464 0.000000 0.998566 -0.053528 0.000000
0.493011 -0.079895 0.000000 -0.987122 0.159969 0.000000
0.664229 -0.000000 -0.234512 -0.343489 0.000000 -0.939157
0.885735 -0.463331 0.000000 0.886089 -0.463516 0.000000
-0.529520 -0.000000 0.117849 0.881921 0.000000 0.471397
0.857792 -0.511653 0.000000 0.858825 -0.512269 0.000000
-0.105478 -0.488406 0.000000 0.211097 0.977465 0.000000
0.406878 0.912437 0.000000 0.407267 0.913309 0.000000
-0.566162 -0.000000 0.168986 0.736220 0.000000 0.676742
0.319684 0.946421 0.000000 0.320019 0.947411 0.000000
0.000000 -0.573223 0.176777 -0.000000 0.707107 0.707107
0.000000 0.733664 -0.249197 -0.000000 -0.065414 -0.997858
0.972491 0.228201 0.000000 0.973555 0.228451 0.000000
0.526023 -0.000000 0.110456 -0.896868 0.000000 0.442298
0.000000 0.929523 -0.173747 0.000000 0.718572 -0.695453
-0.835856 -0.548251 0.000000 -0.836176 -0.548461 0.000000
0.000000 -0.867849 -0.220480 0.000000 -0.471397 -0.881921
0.000000 -0.911628 -0.190507 0.000000 -0.646944 -0.762537
0.000000 0.556748 0.158598 -0.000000 -0.773010 0.634394
0.000000 0.540031 0.135385 -0.000000 -0.840440 0.541904
-0.977675 0.207507 0.000000 -0.978209 0.207620 0.000000
0.000000 0.987857 0.076421 0.000000 0.952067 0.305890
-0.727164 -0.684977 0.000000 -0.727906 -0.685676 0.000000
0.000000 0.586208 0.188545 -0.000000 -0.655813 0.754923
-0.397134 0.302865 0.000000 0.795155 -0.606406 0.000000
-0.346528 0.936816 0.000000 -0.346926 0.937892 0.000000
0.900993 0.431073 0.000000 0.902071 0.431589 0.000000
0.000000 0.611107 -0.207868 -0.000000 -0.555570 -0.831470
-0.258655 0.427201 0.000000 0.517929 -0.855424 0.000000
-0.542133 -0.000000 -0.138893 0.831468 0.000000 -0.555572
0.957867 -0.000000 0.138892 0.831470 -0.000000 0.555569
0.969381 0.240618 0.000000 0.970548 0.240908 0.000000
0.544591 0.838051 0.000000 0.544888 0.838509 0.000000
0.558998 -0.828927 0.000000 0.559110 -0.829093 0.000000
0.999343 0.013366 0.000000 0.999911 0.013374 0.000000
0.000000 0.503261 0.038372 -0.000000 -0.988122 0.153670
-0.995623 -0.089106 0.000000 -0.996019 -0.089142 0.000000
0.066830 0.996717 0.000000 0.066900 0.997760 0.000000
0.511946 -0.000000 -0.075871 -0.952779 0.000000 -0.303663
0.559153 0.828813 0.000000 0.559270 0.828986 0.000000
0.497592 0.049008 0.000000 -0.995185 -0.098016 0.000000
-0.947924 0.315484 0.000000 -0.948831 0.315786 0.000000
0.000000 -0.529520 -0.117849 -0.000000 0.881921 -0.471397
0.771003 -0.000000 0.248968 0.084062 -0.000000 0.996461
0.881921 0.471397 0.000000 0.881921 0.471397 0.000000
-0.075483 0.493665 0.000000 0.151147 -0.988511 0.000000
-0.822571 -0.000000 0.239235 -0.290284 -0.000000 0.956940
-0.589841 0.806052 0.000000 -0.590541 0.807008 0.000000
0.999312 -0.000000 -0.014002 0.998427 -0.000000 -0.056075
-0.504804 -0.000000 0.048772 0.980786 0.000000 0.195089
0.398684 0.300775 0.000000 -0.798303 -0.602256 0.000000
-0.835857 0.548251 0.000000 -0.836176 0.548461 0.000000
0.097545 -0.490393 0.000000 -0.195090 0.980785 0.000000
0.208071 0.977533 0.000000 0.208189 0.978089 0.000000
0.986874 -0.000000 0.079171 0.948427 -0.000000 0.316996
-0.474337 0.156692 0.000000 0.949533 -0.313668 0.000000
0.000000 0.856760 -0.225725 0.000000 0.427555 -0.903989
0.000000 0.644824 0.226474 -0.000000 -0.421201 0.906967
-0.634393 -0.773011 0.000000 -0.634393 -0.773011 0.000000
-0.361791 -0.344464 0.000000 0.724237 0.689551 0.000000
-0.499599 0.008168 0.000000 0.999866 -0.016347 0.000000
0.507994 -0.859985 0.000000 0.508597 -0.861005 0.000000
0.926754 0.374649 0.000000 0.927109 0.374792 0.000000
-0.323256 -0.381013 0.000000 0.646945 0.762537 0.000000
0.855176 -0.000000 0.226474 0.421201 -0.000000 0.906967
0.000000 0.566162 -0.168986 -0.000000 -0.736220 -0.676742
-0.998744 0.025570 0.000000 -0.999672 0.025593 0.000000
0.697623 -0.715702 0.000000 0.698004 -0.716093 0.000000
-0.017821 0.999125 0.000000 -0.017834 0.999841 0.000000
-0.600122 -0.798428 0.000000 -0.600833 -0.799374 0.000000
0.000000 0.986480 -0.080271 0.000000 0.946934 -0.321428
0.613831 -0.788260 0.000000 0.614402 -0.788993 0.000000
-0.498194 0.036757 0.000000 0.997289 -0.073580 0.000000
0.000000 -1.000000 0.000000 0.000000 -1.000000 0.000000
-0.358580 0.932504 0.000000 -0.358913 0.933371 0.000000
0.000000 -0.611108 -0.207868 -0.000000 0.555568 -0.831471
-0.844630 -0.533612 0.000000 -0.845416 -0.534109 0.000000
0.713098 -0.700496 0.000000 0.713382 -0.700775 0.000000
0.727164 0.684977 0.000000 0.727906 0.685676 0.000000
0.000000 0.556747 -0.158598 -0.000000 -0.773012 -0.634392
0.952628 0.302337 0.000000 0.953149 0.302502 0.000000
0.855176 -0.000000 -0.226474 0.421201 -0.000000 -0.906967
0.232002 -0.442709 0.000000 -0.464175 0.885744 0.000000
0.000000 -0.561454 0.163792 -0.000000 0.754925 0.655811
-0.990938 -0.000000 0.065771 -0.964702 -0.000000 0.263345
-0.366614 -0.929630 0.000000 -0.366868 -0.930273 0.000000
0.124492 0.991258 0.000000 0.124611 0.992206 0.000000
-0.589841 -0.806053 0.000000 -0.590540 -0.807008 0.000000
0.548396 -0.000000 -0.147338 -0.807368 0.000000 -0.590048
0.929523 -0.000000 0.173747 0.718572 -0.000000 0.695453
0.931066 0.362597 0.000000 0.931830 0.362895 0.000000
0.945441 -0.322423 0.000000 0.946475 -0.322776 0.000000
-0.500688 -0.000000 -0.014002 0.998427 0.000000 -0.056075
-0.051139 -0.997488 0.000000 -0.051201 -0.998688 0.000000
0.000000 0.597032 0.197428 -0.000000 -0.612475 0.790490
-0.798427 -0.600123 0.000000 -0.799374 -0.600834 0.000000
-0.974976 -0.000000 0.108344 -0.900967 -0.000000 0.433888
-0.178742 0.466448 0.000000 0.357826 -0.933788 0.000000
0.900153 -0.000000 -0.199516 0.601322 -0.000000 -0.799007
0.680666 0.731072 0.000000 0.681425 0.731888 0.000000
-0.012785 -0.999372 0.000000 -0.012792 -0.999918 0.000000
-0.718568 -0.694461 0.000000 -0.719066 -0.694942 0.000000
0.000000 0.913792 -0.188546 0.000000 0.655811 -0.754925
0.000000 0.725496 0.248796 -0.000000 -0.098016 0.995185
0.203369 -0.978712 0.000000 0.203447 -0.979086 0.000000
-0.133316 -0.989949 0.000000 -0.133465 -0.991054 0.000000
-0.952628 -0.302337 0.000000 -0.953149 -0.302502 0.000000
0.634393 -0.773010 0.000000 0.634393 -0.773010 0.000000
0.000000 -0.677429 0.239235 -0.000000 0.290284 0.956940
0.556747 -0.000000 0.158598 -0.773012 0.000000 0.634392
0.591402 -0.000000 0.193252 -0.634394 0.000000 0.773010
0.000000 -0.985103 0.084121 0.000000 -0.941544 0.336890
0.330417 0.374522 0.000000 -0.661573 -0.749881 0.000000
0.994531 0.102429 0.000000 0.994738 0.102450 0.000000
-0.036757 -0.498194 0.000000 0.073580 0.997289 0.000000
0.963160 -0.265451 0.000000 0.964056 -0.265698 0.000000
-0.219569 0.448590 0.000000 0.439628 -0.898180 0.000000
0.646936 -0.000000 0.227473 -0.412698 0.000000 0.910868
-0.925383 0.378483 0.000000 -0.925576 0.378562 0.000000
-0.956940 0.290285 0.000000 -0.956940 0.290285 0.000000
-0.497592 0.049009 0.000000 0.995185 -0.098018 0.000000
0.743055 -0.667444 0.000000 0.743944 -0.668242 0.000000
-0.660834 0.749045 0.000000 -0.661572 0.749882 0.000000
0.440961 -0.235698 0.000000 -0.881922 0.471396 0.000000
-0.937404 0.344884 0.000000 -0.938497 0.345286 0.000000
-0.446682 0.223601 0.000000 0.894219 -0.447630 0.000000
0.000000 0.774504 0.248796 0.000000 0.098016 0.995185
0.394780 0.918158 0.000000 0.395004 0.918679 0.000000
-0.955780 -0.000000 0.141707 -0.823606 -0.000000 0.567163
-0.719089 0.693886 0.000000 -0.719605 0.694384 0.000000
-0.878371 -0.000000 0.214174 -0.514103 -0.000000 0.857729
-0.386505 -0.317197 0.000000 0.773010 0.634394 0.000000
-0.447202 -0.893364 0.000000 -0.447630 -0.894219 0.000000
0.815526 -0.577067 0.000000 0.816306 -0.577619 0.000000
0.000000 -0.556748 -0.158598 -0.000000 0.773010 -0.634394
0.000000 0.644824 -0.226474 -0.000000 -0.421201 -0.906967
0.867849 -0.000000 0.220480 0.471397 -0.000000 0.881921
0.032673 -0.498395 0.000000 -0.065415 0.997858 0.000000
0.920065 0.390749 0.000000 0.920431 0.390905 0.000000
0.000000 0.902029 -0.198124 0.000000 0.608769 -0.793347
-0.490527 -0.870455 0.000000 -0.490942 -0.871192 0.000000
0.498906 -0.022277 0.000000 -0.999005 0.044607 0.000000
0.632151 -0.000000 0.220480 -0.471397 0.000000 0.881921
-0.292117 -0.405106 0.000000 0.584886 0.811116 0.000000
-0.870953 0.489695 0.000000 -0.871668 0.490097 0.000000
0.000000 0.704694 -0.245710 -0.000000 -0.181331 -0.983422
0.627227 0.778325 0.000000 0.627477 0.778635 0.000000
0.302885 -0.952432 0.000000 0.303057 -0.952972 0.000000
-0.851212 0.522633 0.000000 -0.852190 0.523233 0.000000
0.202431 -0.456695 0.000000 -0.405228 0.914216 0.000000
0.000000 0.980970 0.095671 0.000000 0.923879 0.382684
-0.475715 -0.152842 0.000000 0.952067 0.305889 0.000000
-0.968344 0.244757 0.000000 -0.969510 0.245052 0.000000
0.034093 -0.998325 0.000000 0.034131 -0.999417 0.000000
-0.526023 -0.000000 -0.110456 0.896868 0.000000 -0.442298
0.691028 -0.000000 0.242641 -0.236167 0.000000 0.971712
-0.497811 -0.044554 0.000000 0.996019 0.089143 0.000000
0.098018 -0.995185 0.000000 0.098018 -0.995185 0.000000
0.961087 0.273729 0.000000 0.961753 0.273919 0.000000
-0.743055 0.667445 0.000000 -0.743943 0.668243 0.000000
-0.062246 0.495629 0.000000 0.124611 -0.992206 0.000000
-0.565851 0.823844 0.000000 -0.566161 0.824295 0.000000
0.353284 -0.934398 0.000000 0.353654 -0.935376 0.000000
-0.591402 -0.000000 0.193252 0.634394 0.000000 0.773010
0.000000 -0.788371 0.246739 0.000000 -0.153665 0.988123
0.804897 -0.591399 0.000000 0.805860 -0.592106 0.000000
-0.228201 0.972491 0.000000 -0.228451 0.973555 0.000000
0.359544 -0.346943 0.000000 -0.719604 0.694384 0.000000
-0.549440 -0.000000 0.148745 0.803208 0.000000 0.595698
1.000000 -0.000000 0.000000 1.000000 -0.000000 0.000000
0.529953 -0.846824 0.000000 0.530494 -0.847689 0.000000
-0.375521 -0.329316 0.000000 0.751847 0.659338 0.000000
0.110526 0.487141 0.000000 -0.221263 -0.975214 0.000000
0.000000 0.999197 0.016336 0.000000 0.997858 0.065415
-0.038354 -0.998116 0.000000 -0.038398 -0.999263 0.000000
-0.774504 -0.000000 0.248796 -0.098016 -0.000000 0.995185
0.273959 0.418028 0.000000 -0.548136 -0.836389 0.000000
0.000000 0.621629 -0.214174 -0.000000 -0.514103 -0.857729
-0.905783 -0.000000 0.195340 -0.623501 -0.000000 0.781823
-0.556748 -0.000000 -0.158598 0.773010 0.000000 -0.634394
0.842935 0.536440 0.000000 0.843649 0.536895 0.000000
0.976638 -0.211645 0.000000 0.977315 -0.211792 0.000000
0.160542 -0.472960 0.000000 -0.321428 0.946934 0.000000
-0.989550 0.136002 0.000000 -0.990687 0.136158 0.000000
-0.573223 -0.000000 -0.176777 0.707107 0.000000 -0.707107
0.000000 -0.892176 0.205431 0.000000 -0.569087 0.822277
0.484974 -0.119180 0.000000 -0.971107 0.238645 0.000000
0.914658 -0.000000 -0.187761 0.659337 -0.000000 -0.751848
-0.983725 -0.000000 -0.087971 -0.935902 -0.000000 -0.352261
0.508210 -0.000000 -0.062372 -0.968302 0.000000 -0.249782
0.328085 -0.943415 0.000000 0.328468 -0.944515 0.000000
0.326286 -0.378267 0.000000 -0.653162 0.757218 0.000000
0.000000 -0.806705 0.243209 0.000000 -0.227063 0.973880
0.431073 -0.900993 0.000000 0.431589 -0.902071 0.000000
0.460033 -0.195374 0.000000 -0.920432 0.390903 0.000000
-0.528788 0.847522 0.000000 -0.529341 0.848409 0.000000
0.251342 0.966695 0.000000 0.251635 0.967822 0.000000
-0.335375 -0.370029 0.000000 0.671559 0.740951 0.000000
0.000000 0.814638 0.241222 0.000000 0.258829 0.965923
0.632151 -0.000000 -0.220480 -0.471397 0.000000 -0.881921
-0.946878 -0.318406 0.000000 -0.947845 -0.318731 0.000000
-0.581014 -0.000000 0.183838 0.676742 0.000000 0.736220
0.669169 -0.741491 0.000000 0.669975 -0.742384 0.000000
0.013366 0.499343 0.000000 -0.026757 -0.999642 0.000000
0.000000 -0.517653 -0.091821 -0.000000 0.930012 -0.367530
-0.591402 -0.000000 -0.193253 0.634392 0.000000 -0.773012
0.471583 0.164392 0.000000 -0.944271 -0.329169 0.000000
-0.999656 -0.000000 -0.007001 -0.999607 -0.000000 -0.028032
-0.995185 0.098017 0.000000 -0.995185 0.098017 0.000000
0.605477 -0.000000 0.203691 -0.578662 0.000000 0.815567
0.996936 0.062374 0.000000 0.998048 0.062444 0.000000
-0.964527 -0.259996 0.000000 -0.965536 -0.260268 0.000000
0.000000 -0.943253 -0.158598 0.000000 -0.773012 -0.634392
-0.524962 -0.849816 0.000000 -0.525548 -0.850764 0.000000
0.487412 0.109444 0.000000 -0.975706 -0.219086 0.000000
-0.251002 -0.431788 0.000000 0.502564 0.864540 0.000000
0.970480 -0.000000 -0.117849 0.881921 -0.000000 -0.471397
0.496938 -0.053421 0.000000 -0.994271 0.106885 0.000000
-0.796926 0.602147 0.000000 -0.797855 0.602849 0.000000
0.836056 0.547918 0.000000 0.836389 0.548136 0.000000
0.000000 0.991790 0.062372 0.000000 0.968302 0.249781
-0.262481 -0.424908 0.000000 0.525548 0.850764 0.000000
0.217216 -0.449702 0.000000 -0.434941 0.900459 0.000000
0.000000 -0.529520 0.117849 -0.000000 0.881921 0.471397
0.761029 -0.647614 0.000000 0.761574 -0.648078 0.000000
0.975601 0.215785 0.000000 0.976402 0.215962 0.000000
0.517849 -0.000000 0.092371 -0.929150 0.000000 0.369702
-0.231666 0.442868 0.000000 0.463516 -0.886088 0.000000
0.717406 -0.000000 0.247596 -0.130516 0.000000 0.991446
0.500688 -0.000000 0.014002 -0.998427 0.000000 0.056076
-0.097545 0.490393 0.000000 0.195090 -0.980785 0.000000
0.996061 -0.080196 0.000000 0.996775 -0.080253 0.000000
-0.533724 -0.000000 -0.124864 0.866031 0.000000 -0.499991
0.499781 -0.004455 0.000000 -0.999960 0.008914 0.000000
0.000000 0.573223 0.176777 -0.000000 -0.707107 0.707107
0.187492 -0.463318 0.000000 -0.375121 0.926976 0.000000
0.761549 0.647039 0.000000 0.762076 0.647487 0.000000
-0.658179 -0.000000 0.232348 0.367529 0.000000 0.930012
0.273730 -0.961087 0.000000 0.273920 -0.961753 0.000000
0.424908 -0.262481 0.000000 -0.850764 0.525548 0.000000
0.000000 0.507784 0.060672 -0.000000 -0.970031 0.242981
0.828927 0.558997 0.000000 0.829094 0.559109 0.000000
0.798427 0.600122 0.000000 0.799374 0.600834 0.000000
-0.620685 -0.783178 0.000000 -0.621114 -0.783720 0.000000
0.000000 -0.985103 -0.084121 0.000000 -0.941544 -0.336889
0.656523 -0.752952 0.000000 0.657194 -0.753722 0.000000
0.000000 1.000000 0.000000 0.000000 1.000000 0.000000
0.287638 0.408427 0.000000 -0.575796 -0.817593 0.000000
0.000000 -0.503004 -0.036638 -0.000000 0.989177 -0.146730
0.533123 -0.000000 0.123861 -0.868362 0.000000 0.495932
-0.538529 -0.000000 0.132880 0.846717 0.000000 0.532043
0.000000 0.962071 -0.131878 0.000000 0.849195 -0.528079
0.996717 -0.066830 0.000000 0.997760 -0.066900 0.000000
-0.790802 -0.610404 0.000000 -0.791610 -0.611027 0.000000
-0.903813 -0.425112 0.000000 -0.904900 -0.425623 0.000000
0.173988 -0.983915 0.000000 0.174131 -0.984723 0.000000
0.731072 -0.680665 0.000000 0.731888 -0.681425 0.000000
-0.493992 -0.073277 0.000000 0.989176 0.146731 0.000000
0.926754 -0.374648 0.000000 0.927109 -0.374792 0.000000
0.949516 -0.000000 -0.150153 0.799007 -0.000000 -0.601322
-0.879874 -0.000000 -0.213273 -0.520110 -0.000000 -0.854100
0.145142 -0.478470 0.000000 -0.290284 0.956940 0.000000
-0.999372 0.012785 0.000000 -0.999918 0.012792 0.000000
0.418028 -0.273959 0.000000 -0.836389 0.548136 0.000000
-0.443170 0.895271 0.000000 -0.443634 0.896208 0.000000
-0.750000 -0.000000 -0.250000 0.000000 0.000000 -1.000000
-0.025570 -0.998744 0.000000 -0.025593 -0.999672 0.000000
0.000000 0.632151 0.220480 -0.000000 -0.471397 0.881921
-0.891708 -0.000000 -0.205779 -0.567167 -0.000000 -0.823603
0.561454 -0.000000 -0.163792 -0.754925 0.000000 -0.655811
-0.926777 -0.000000 -0.176777 -0.707107 -0.000000 -0.707107
-0.513483 -0.856696 0.000000 -0.514102 -0.857729 0.000000
0.000000 -0.646936 0.227473 -0.000000 0.412698 0.910868
-0.747222 -0.662847 0.000000 -0.748080 -0.663608 0.000000
0.835856 -0.548251 0.000000 0.836176 -0.548461 0.000000
-0.302865 -0.397134 0.000000 0.606406 0.795155 0.000000
-0.159791 0.986021 0.000000 -0.159969 0.987122 0.000000
0.790802 0.610403 0.000000 0.791610 0.611027 0.000000
0.085233 -0.995813 0.000000 0.085280 -0.996357 0.000000
-0.153542 0.475465 0.000000 0.307304 -0.951611 0.000000
0.576253 -0.000000 0.179523 -0.695453 0.000000 0.718572
0.000000 0.916389 0.186191 0.000000 0.666343 0.745645
-0.507784 -0.000000 -0.060672 0.970031 0.000000 -0.242980
-0.991912 -0.120079 0.000000 -0.992752 -0.120181 0.000000
0.467450 0.175942 0.000000 -0.935902 -0.352261 0.000000
-0.770145 -0.637555 0.000000 -0.770299 -0.637683 0.000000
0.349084 0.935902 0.000000 0.349473 0.936946 0.000000
-0.140815 0.479554 0.000000 0.281742 -0.959490 0.000000
0.297491 0.401120 0.000000 -0.595699 -0.803207 0.000000
0.472459 -0.161942 0.000000 -0.945973 0.324246 0.000000
0.000000 -0.989235 0.072571 0.000000 -0.956940 0.290285
0.501204 -0.000000 -0.024504 -0.995185 0.000000 -0.098016
-0.848839 -0.000000 -0.229471 -0.395590 -0.000000 -0.918427
0.410863 -0.284354 0.000000 -0.822276 0.569089 0.000000
-0.980785 0.195090 0.000000 -0.980785 0.195090 0.000000
0.960050 -0.277867 0.000000 0.960576 -0.278019 0.000000
0.000000 0.711629 0.246739 -0.000000 -0.153665 0.988123
-0.507784 -0.000000 0.060672 0.970032 0.000000 0.242979
0.166142 0.470956 0.000000 -0.332682 -0.943039 0.000000
-0.881921 0.471397 0.000000 -0.881921 0.471397 0.000000
0.000000 -0.725496 0.248796 -0.000000 0.098016 0.995185
0.234033 0.971030 0.000000 0.234306 0.972163 0.000000
0.000000 0.758168 0.249599 0.000000 0.032707 0.999465
0.000000 -0.786639 -0.246996 0.000000 -0.146733 -0.989176
0.020421 -0.498997 0.000000 -0.040889 0.999164 0.000000
-0.941913 0.332284 0.000000 -0.943039 0.332681 0.000000
-0.632151 -0.000000 0.220480 0.471397 0.000000 0.881921
-0.555570 0.831469 0.000000 -0.555570 0.831470 0.000000
0.784905 -0.000000 0.247253 0.139785 -0.000000 0.990182
-0.859985 -0.507994 0.000000 -0.861005 -0.508597 0.000000
-0.940507 -0.000000 0.161628 -0.762537 -0.000000 0.646944
0.471397 -0.881921 0.000000 0.471397 -0.881921 0.000000
0.647039 -0.761548 0.000000 0.647488 -0.762076 0.000000
0.617120 -0.000000 0.211471 -0.532043 0.000000 0.846717
0.304060 -0.396248 0.000000 -0.608772 0.793345 0.000000
-0.932504 -0.358580 0.000000 -0.933371 -0.358913 0.000000
