0.51092958 0.85775560 0.58045709 -0.00013258 -0.00032963 0.00024391
0.65892220 0.67721277 0.47613060 0.00079817 0.00018323 -0.00046091
0.51722085 0.17071657 0.22408631 0.00003326 0.00012886 -0.00016873
0.52390891 0.60334790 0.41200083 0.00013072 0.00012513 -0.00032146
0.61719728 0.17674908 0.35771349 0.00004969 -0.00003143 -0.00024280
0.67864585 0.60445654 0.47460636 0.00066145 -0.00005100 -0.00044526
0.54446107 0.23610914 0.29050308 0.00025567 0.00012585 -0.00024689
0.60449678 0.60579842 0.57552248 0.00031250 0.00024088 0.00053919
0.65936458 0.08455599 0.12293024 0.00023678 0.00045147 -0.00051678
0.65933776 0.08263095 0.11641243 0.00022765 0.00043966 -0.00039445
0.65900934 0.04546927 0.08111010 0.00034856 -0.00056379 0.00026522
0.56111217 0.05425128 0.11705723 0.00018709 -0.00042941 0.00026071
0.65900803 0.07170137 0.41572627 0.00037279 -0.00071451 0.00044389
0.70900691 0.40382275 0.49189293 0.00075544 0.00005209 0.00027847
0.55436915 0.05222033 0.05846532 -0.00011470 -0.00026029 -0.00048178
0.53098840 0.89623642 0.56657964 -0.00000086 0.00038536 -0.00014163
0.61652297 0.19207974 0.38078052 -0.00001715 -0.00014563 0.00001468
0.59008169 0.58688176 0.41965142 0.00018779 0.00022569 -0.00035060
0.50561965 0.85749149 0.58055359 -0.00006021 -0.00030436 0.00023863
0.50651377 0.17071387 0.22472978 -0.00002267 0.00013127 -0.00015915
0.65122205 0.69236118 0.47288376 0.00073401 0.00024059 -0.00055378
0.60845542 0.17600909 0.34190691 0.00000394 0.00001750 -0.00029979
0.51917672 0.60334384 0.41171530 0.00012048 0.00011939 -0.00031595
0.54444498 0.24990889 0.30873337 0.00018260 0.00025074 -0.00006320
0.67641521 0.60440826 0.47070536 0.00062131 -0.00007221 -0.00051015
0.52990258 0.27815855 0.33534351 0.00018175 0.00004646 -0.00001468
0.53203404 0.27673081 0.33694685 0.00016577 0.00006119 -0.00002802
0.65941018 0.09218781 0.15533429 0.00036101 0.00050169 -0.00071420
0.61366218 0.60571396 0.57114023 0.00033133 0.00025053 0.00053904
0.59530854 0.22179194 0.43982553 0.00017162 -0.00028254 0.00015383
0.58793682 0.22221825 0.44694123 0.00018387 -0.00026222 0.00019730
0.65901738 0.04570119 0.07181599 0.00043769 -0.00046845 -0.00005914
0.65583622 0.08294733 0.11640170 0.00014102 0.00041624 -0.00039020
0.51827186 0.93248379 0.91894889 0.00049460 -0.00023193 -0.00014501
0.51923573 0.93124914 0.91420728 0.00052210 -0.00025823 -0.00020620
0.65893561 0.06748665 0.40902615 0.00036864 -0.00093339 0.00031402
0.57112616 0.05345229 0.11710550 0.00026085 -0.00043739 0.00027424
0.61181217 0.78587061 0.49538910 0.00070332 0.00026476 0.00000496
0.61781657 0.77272642 0.49554598 0.00070735 0.00026905 0.00013694
0.53488272 0.89541864 0.56686652 0.00004578 0.00038545 -0.00014041
0.50461149 0.89892423 0.56564254 -0.00003321 0.00042113 -0.00010496
0.70572931 0.34397608 0.46221691 0.00079470 -0.00043631 -0.00006075
0.70280683 0.33314836 0.45628494 0.00072667 -0.00054211 -0.00013864
0.51804662 0.05329276 0.05908869 -0.00026364 -0.00020455 -0.00024814
0.51206368 0.05338261 0.05913292 -0.00019546 -0.00019973 -0.00023216
0.53320706 0.86125445 0.57917422 -0.00028992 -0.00048138 0.00027566
0.61208701 0.18389562 0.37791839 -0.00001153 -0.00005292 -0.00003554
0.61157757 0.18234593 0.37761813 -0.00000992 -0.00004256 -0.00003993
0.57504731 0.53457171 0.38868713 0.00020646 0.00032931 -0.00044131
0.57083523 0.52632725 0.38198701 0.00019557 0.00031455 -0.00047828
0.52428025 0.17073533 0.22395761 0.00006171 0.00012527 -0.00018482
0.52766252 0.17075545 0.22410911 0.00007406 0.00011950 -0.00019524
0.68139803 0.61338866 0.48654810 0.00078402 0.00004501 -0.00018923
0.68212998 0.60457176 0.48695564 0.00073855 0.00003283 -0.00023668
0.61504298 0.17729066 0.37023431 0.00002999 -0.00002933 -0.00011299
0.61090600 0.17758292 0.37733525 -0.00000009 -0.00001996 -0.00004282
0.54697728 0.60338002 0.41435352 0.00004208 0.00014240 -0.00036290
0.55148292 0.60339075 0.41500637 0.00001787 0.00013900 -0.00037124
0.53425401 0.27525622 0.33845362 0.00013864 0.00007920 -0.00004912
0.53658259 0.27374139 0.33983439 0.00011450 0.00009554 -0.00006956
0.54446238 0.22617558 0.27982283 0.00026699 0.00004529 -0.00029547
0.54446107 0.22103320 0.27501693 0.00026869 -0.00000478 -0.00029522
0.68223059 0.60460931 0.49139962 0.00074952 0.00006679 -0.00016220
0.68212336 0.60463482 0.49363568 0.00075209 0.00008437 -0.00012302
0.58045244 0.22268209 0.45375797 0.00017968 -0.00025048 0.00024416
0.57290643 0.22316870 0.46024093 0.00017038 -0.00024674 0.00028577
0.65930158 0.08034930 0.10959970 0.00022915 0.00049153 -0.00019790
0.65926671 0.07807305 0.10316366 0.00024287 0.00062857 0.00005261
0.55585849 0.60618585 0.59284925 0.00020065 0.00024126 0.00056185
0.54602683 0.60624617 0.59526360 0.00020751 0.00024192 0.00056550
0.52019018 0.92998230 0.90893614 0.00045246 -0.00022896 -0.00013235
0.65900129 0.04546927 0.08818424 0.00028259 -0.00061499 0.00058652
0.65899730 0.04550946 0.09196193 0.00025594 -0.00063361 0.00077480
0.66088480 0.07265183 0.11671405 0.00021502 0.00022273 -0.00027668
0.66108048 0.07089166 0.11676768 0.00021516 0.00018445 -0.00025174
0.62374723 0.75896424 0.49680340 0.00069140 0.00029424 0.00027661
0.62957329 0.74456936 0.49898452 0.00065826 0.00032012 0.00040060
0.65904957 0.07561713 0.41964605 0.00037609 -0.00053305 0.00050052
0.65906698 0.07782639 0.42136598 0.00037746 -0.00043795 0.00052409
0.51684815 0.05739222 0.11685883 0.00000413 -0.00044381 -0.00009099
0.51005417 0.05775015 0.11683337 0.00001329 -0.00044779 -0.00009571
0.50924718 0.89874989 0.56570154 -0.00006800 0.00041772 -0.00010904
0.52394241 0.05317750 0.05902569 -0.00029884 -0.00021488 -0.00027773
0.69929051 0.32283005 0.45048028 0.00064813 -0.00062732 -0.00020732
0.52931535 0.86030400 0.57952273 -0.00035423 -0.00051894 0.00028681
0.57880223 0.54308158 0.39515266 0.00021832 0.00035122 -0.00040095
0.61120629 0.18078819 0.37741706 -0.00000787 -0.00003309 -0.00004280
0.67930543 0.62381959 0.48548505 0.00082002 0.00009955 -0.00016781
0.53088921 0.17078225 0.22445899 0.00008211 0.00011410 -0.00020342
0.54243678 0.60337198 0.41376236 0.00006800 0.00014182 -0.00035458
0.60805058 0.17774782 0.38137975 -0.00001760 -0.00001619 -0.00000884
0.68223459 0.60458922 0.48917156 0.00074493 0.00004950 -0.00019975
0.54445839 0.21579026 0.27060917 0.00026742 -0.00006010 -0.00027305
0.56574112 0.60611612 0.59005958 0.00020656 0.00023797 0.00055862
0.65923589 0.07581154 0.09710834 0.00026525 0.00082469 0.00032857
0.66064882 0.07447498 0.11665910 0.00021778 0.00026301 -0.00030124
0.65899193 0.04557246 0.09589111 0.00023649 -0.00063906 0.00090444
0.52450013 0.05692570 0.11688968 -0.00002332 -0.00043673 -0.00006880
0.65908575 0.08016700 0.42289290 0.00037962 -0.00035078 0.00054732
0.51381850 0.89846438 0.56580210 -0.00009847 0.00041194 -0.00011559
0.70797467 0.35533062 0.46825615 0.00084413 -0.00031529 0.00002227
0.52981544 0.05303671 0.05894658 -0.00028827 -0.00023207 -0.00032439
0.52514488 0.85946751 0.57982975 -0.00038507 -0.00051841 0.00028468
0.61273044 0.18545334 0.37831521 -0.00001284 -0.00006459 -0.00002949
0.58208257 0.55177921 0.40125892 0.00022880 0.00037154 -0.00036285
0.52078676 0.17072326 0.22396432 0.00004889 0.00012892 -0.00017456
0.67593127 0.63564068 0.48383883 0.00082064 0.00026940 -0.00020383
0.61706585 0.17701319 0.36372051 0.00004780 -0.00003634 -0.00018174
0.53786147 0.60336393 0.41323012 0.00009702 0.00013754 -0.00034601
0.54446238 0.23120672 0.28499472 0.00026286 0.00008861 -0.00027856
0.53903580 0.27219301 0.34106502 0.00009178 0.00011085 -0.00008994
0.54163116 0.27061787 0.34211603 0.00007075 0.00012545 -0.00010935
0.57561302 0.60604239 0.58691192 0.00022613 0.00023494 0.00055423
0.56534564 0.22367142 0.46635255 0.00017271 -0.00024964 0.00031257
0.55782109 0.22417681 0.47205666 0.00019939 -0.00025735 0.00032068
0.65900534 0.04545453 0.08456472 0.00031151 -0.00059133 0.00041657
0.66037536 0.07637322 0.11660144 0.00021965 0.00030148 -0.00032444
0.52438211 0.92420846 0.88064498 0.00010015 0.00006263 0.00101184
0.52706325 0.92058504 0.85951239 0.00030925 0.00003079 0.00111082
0.65902948 0.07356608 0.41775721 0.00037435 -0.00062485 0.00047351
0.53287995 0.05636401 0.11692587 -0.00004179 -0.00042803 -0.00001071
0.63526934 0.72953093 0.50191092 0.00061644 0.00034088 0.00052120
0.64080852 0.71383560 0.50540447 0.00057362 0.00033803 0.00063396
0.69080615 0.30363992 0.43932414 0.00048244 -0.00072505 -0.00030643
0.68600690 0.29472652 0.43401152 0.00038920 -0.00076545 -0.00035036
0.50959307 0.80974072 0.41257328 0.00021477 0.00047826 -0.00075180
0.54817843 0.89117843 0.56836390 0.00015166 0.00036116 -0.00008746
0.55081260 0.88988483 0.56882238 0.00017252 0.00034944 -0.00006178
0.61113924 0.17584154 0.37756985 0.00000854 -0.00001663 -0.00003799
0.55565476 0.50397205 0.36170033 0.00018027 0.00027325 -0.00057004
0.54980719 0.49757355 0.35528436 0.00019386 0.00024965 -0.00059169
0.50727928 0.95334834 0.89312017 0.00010021 0.00038596 0.00021241
0.50946033 0.95248097 0.89356261 0.00013425 0.00037055 0.00020112
0.53671533 0.17086805 0.22592288 0.00008111 0.00009792 -0.00022497
0.53923285 0.17092703 0.22711866 0.00007763 0.00008951 -0.00022858
0.67500758 0.57196265 0.47720975 0.00044630 0.00005452 -0.00059255
0.66974592 0.56126630 0.47018120 0.00040160 0.00024979 -0.00057381
0.50855011 0.92633063 0.90237015 0.00020455 -0.00027678 -0.00000920
0.50706071 0.92633063 0.90231520 0.00017135 -0.00028318 -0.00002258
0.60138530 0.17813121 0.39073819 -0.00003903 -0.00002820 0.00005464
0.59758747 0.17834435 0.39591143 -0.00003916 -0.00004684 0.00008025
0.56481081 0.60342699 0.41731882 -0.00000207 0.00012152 -0.00038691
0.56919575 0.60344034 0.41820627 0.00001527 0.00011906 -0.00038802
0.55190253 0.26498884 0.34451967 0.00002060 0.00016245 -0.00016518
0.54444629 0.20506710 0.26310873 0.00025634 -0.00003984 -0.00014423
0.54443824 0.19961369 0.26007769 0.00024700 0.00000548 -0.00006673
0.68122911 0.60472190 0.50033981 0.00074543 0.00014199 0.00000682
0.68075728 0.60475415 0.50255978 0.00073938 0.00016679 0.00005631
0.55038100 0.22467549 0.47731566 0.00025263 -0.00026767 0.00031493
0.54307491 0.22515675 0.48209479 0.00033099 -0.00027832 0.00030240
0.65918094 0.07136889 0.08615195 0.00033338 0.00099829 0.00044045
0.65915549 0.06920390 0.08126025 0.00036834 0.00085637 0.00017326
0.51750904 0.60637754 0.60005885 0.00013749 0.00024090 0.00058980
0.50854880 0.60640031 0.60077602 0.00007044 0.00025029 0.00059458
0.52924836 0.91770953 0.83959031 0.00043026 -0.00002936 0.00096841
0.53100854 0.91547340 0.82076341 0.00044699 -0.00007938 0.00080551
0.65897983 0.04576152 0.10417177 0.00018999 -0.00057423 0.00061497
0.65897316 0.04588213 0.10851116 0.00016717 -0.00054979 0.00038574
0.66141832 0.06586456 0.11692183 0.00021771 0.00006548 -0.00018452
0.66144377 0.06423445 0.11697277 0.00021695 0.00002286 -0.00016445
0.64616275 0.69746870 0.50928670 0.00054016 0.00029597 0.00072210
0.65130514 0.68041939 0.51337945 0.00052491 0.00022277 0.00076250
0.65911525 0.08513246 0.42526570 0.00038336 -0.00017547 0.00056970
0.65912998 0.08770364 0.42606065 0.00039487 -0.00008537 0.00057836
0.64751136 0.06784590 0.40903151 -0.00000470 -0.00095516 0.00029895
0.68094766 0.28624210 0.42889994 0.00028061 -0.00081876 -0.00039974
0.55312377 0.88850403 0.56931299 0.00019230 0.00033349 -0.00003376
0.56112021 0.51094967 0.36837092 0.00017616 0.00030184 -0.00054092
0.61181086 0.17367251 0.37813154 0.00002235 -0.00001284 -0.00002857
0.51150602 0.95142066 0.89409888 0.00016688 0.00035094 0.00018929
0.67890728 0.58278501 0.48251036 0.00055416 0.00004038 -0.00047666
0.54143006 0.17100076 0.22868042 0.00008881 0.00008023 -0.00022252
0.50546682 0.92633736 0.90226954 0.00013458 -0.00028833 -0.00003461
0.56039900 0.60341358 0.41648903 -0.00000512 0.00012915 -0.00038324
0.59348941 0.17856689 0.40131924 -0.00002338 -0.00007877 0.00009801
0.68161660 0.60468978 0.49811044 0.00075013 0.00012053 -0.00004034
0.54442888 0.19411874 0.25756684 0.00023417 0.00000723 -0.00002113
0.52678710 0.60634404 0.59888715 0.00019306 0.00023171 0.00058236
0.65913403 0.06708849 0.07676267 0.00040893 0.00071177 -0.00002959
0.66134864 0.06750942 0.11687090 0.00021699 0.00010689 -0.00020571
0.65896648 0.04601621 0.11296986 0.00015218 -0.00054052 0.00016747
0.65914339 0.09029763 0.42656335 0.00040798 0.00000820 0.00058047
0.69526213 0.31300107 0.44481912 0.00056655 -0.00068479 -0.00026183
0.50592798 0.05344426 0.05915841 -0.00010234 -0.00019777 -0.00022492
0.55508906 0.88703746 0.56983584 0.00020845 0.00031298 -0.00000413
0.61098105 0.17920500 0.37732184 -0.00000541 -0.00002440 -0.00004435
0.56618756 0.51842737 0.37517428 0.00018354 0.00031180 -0.00051039
0.51341099 0.95018995 0.89471287 0.00019723 0.00032671 0.00017797
0.53392154 0.17081979 0.22504884 0.00008484 0.00010689 -0.00021379
0.68132168 0.59367436 0.48583895 0.00065576 0.00003102 -0.00034094
0.50376165 0.92634541 0.90223336 0.00009342 -0.00029205 -0.00004336
0.60487479 0.17793146 0.38587061 -0.00003204 -0.00001709 0.00002421
0.55595636 0.60340154 0.41571820 -0.00000186 0.00013316 -0.00037891
0.54445302 0.21046419 0.26663038 0.00026299 -0.00009158 -0.00022070
0.68191689 0.60466158 0.49587440 0.00075261 0.00010251 -0.00008270
0.55989224 0.26106504 0.34551033 0.00001058 0.00016732 -0.00019537
0.56822252 0.25726184 0.34604925 0.00001887 0.00015631 -0.00022375
0.65920639 0.07357411 0.09143644 0.00029678 0.00100959 0.00055028
0.53631449 0.60629976 0.59728247 0.00022056 0.00023556 0.00057179
0.53595251 0.22560719 0.48635373 0.00038961 -0.00029232 0.00029820
0.52906066 0.22602008 0.49005902 0.00036444 -0.00032707 0.00030082
0.65898526 0.04565828 0.09996374 0.00021383 -0.00060994 0.00081681
0.66123599 0.06918113 0.11681996 0.00021590 0.00014660 -0.00022808
0.53241342 0.91376954 0.80291253 0.00041340 -0.00010097 0.00068530
0.53353411 0.91248935 0.78592223 0.00037616 -0.00009993 0.00060828
0.49968499 0.28952247 0.31767759 -0.00000276 -0.00007521 -0.00007173
0.65910047 0.08261086 0.42419994 0.00038118 -0.00026205 0.00056063
0.50424421 0.05798338 0.11681461 0.00000791 -0.00044903 -0.00009609
0.65620625 0.66267437 0.51750571 0.00052388 0.00017490 0.00073846
0.66084188 0.64422023 0.52148712 0.00052441 0.00023582 0.00066440
0.55668432 0.88548505 0.57038951 0.00022077 0.00028702 0.00002660
0.51516575 0.94881594 0.89538980 0.00022422 0.00029910 0.00016408
0.50194246 0.92635339 0.90221196 0.00004865 -0.00029470 -0.00004987
0.53857464 0.89450300 0.56718957 0.00008194 0.00038138 -0.00013708
0.67038262 0.27047980 0.41935381 0.00005708 -0.00092159 -0.00047980
0.66504323 0.26316169 0.41495681 -0.00001779 -0.00092640 -0.00047798
0.53487200 0.79481357 0.41415915 0.00056651 0.00038832 -0.00072096
0.54207218 0.78655970 0.41499430 0.00033635 0.00047426 -0.00072765
0.61432976 0.16822311 0.38012630 0.00007259 -0.00001734 0.00001040
0.61610734 0.16502722 0.38150576 0.00011127 -0.00002894 0.00004112
0.53016800 0.48262766 0.33880085 0.00039015 0.00034015 -0.00054621
0.52298528 0.47932449 0.33463436 0.00031682 0.00034060 -0.00058427
0.54469830 0.17119379 0.23306806 0.00011010 0.00005420 -0.00018219
0.54568768 0.17131713 0.23597574 0.00011715 0.00003758 -0.00015639
0.64700866 0.53053528 0.44117814 0.00040469 0.00040158 -0.00038260
0.63751745 0.52094221 0.42968148 0.00038746 0.00030447 -0.00038923
0.58440846 0.17903340 0.41255715 0.00007092 -0.00016694 0.00008372
0.57943898 0.17927068 0.41824651 0.00010057 -0.00020218 0.00009002
0.58219516 0.60349000 0.42121586 0.00009647 0.00010109 -0.00039069
0.58648098 0.60350877 0.42233390 0.00013084 0.00009557 -0.00039128
0.57676321 0.25358737 0.34624362 0.00002137 0.00014088 -0.00026419
0.58538038 0.25005230 0.34620744 -0.00002122 0.00014204 -0.00032224
0.54440343 0.18306313 0.25422883 0.00017688 -0.00004589 -0.00000306
0.54438734 0.17753063 0.25346339 0.00014633 -0.00006059 0.00001154
0.67888850 0.60485870 0.50910306 0.00070511 0.00022888 0.00020579
0.67812973 0.60489219 0.51123184 0.00068920 0.00024989 0.00025021
0.52245307 0.22638203 0.49317315 0.00030293 -0.00036229 0.00030814
0.51617384 0.22668231 0.49565992 0.00023365 -0.00039983 0.00030750
0.65909648 0.06304536 0.06897397 0.00046740 0.00048237 -0.00021856
0.65908039 0.06113371 0.06568962 0.00048413 0.00038408 -0.00031567
0.50950325 0.11851644 0.11535741 0.00008311 0.00026126 -0.00047006
0.51935500 0.11774025 0.11538959 0.00016376 0.00027434 -0.00043082
0.53444034 0.91152281 0.76967460 0.00034878 -0.00008615 0.00053968
0.53520310 0.91076541 0.75405437 0.00032793 -0.00006409 0.00047584
0.65894634 0.04642508 0.12473330 0.00012887 -0.00058473 -0.00027392
0.65893292 0.04682723 0.13452342 0.00014113 -0.00067247 -0.00048079
0.66123736 0.05931861 0.11712427 0.00020462 -0.00011489 -0.00011236
0.66107249 0.05763085 0.11717789 0.00019824 -0.00016553 -0.00009702
0.66518128 0.62504351 0.52514422 0.00051971 0.00032811 0.00062140
0.65916616 0.09544405 0.42658481 0.00043433 0.00017999 0.00056045
0.65917695 0.09794286 0.42605394 0.00045177 0.00026419 0.00054701
0.61742783 0.06960206 0.40901539 -0.00016663 -0.00083697 0.00030849
0.60858679 0.07036350 0.40900066 0.00024608 -0.00077332 0.00035983
0.54203600 0.89348823 0.56754619 0.00010354 0.00037631 -0.00013012
0.52706999 0.80154985 0.41345805 0.00053749 0.00041613 -0.00073670
0.65978014 0.25619343 0.41083723 -0.00005955 -0.00089356 -0.00043974
0.50253904 0.95440471 0.89257336 0.00003255 0.00040847 0.00022910
0.53704506 0.48682225 0.34371263 0.00032807 0.00029914 -0.00055836
0.61818391 0.16157527 0.38310638 0.00015820 -0.00004499 0.00007844
0.65562439 0.54049295 0.45192140 0.00041623 0.00046321 -0.00041059
0.54618907 0.17145924 0.23941430 0.00012143 0.00001638 -0.00011780
0.57788527 0.60347253 0.42015550 0.00006510 0.00010729 -0.00039008
0.57419068 0.17950661 0.42388758 0.00011621 -0.00022831 0.00010688
0.67958158 0.60482383 0.50694478 0.00071955 0.00020997 0.00015648
0.54437125 0.17201290 0.25334138 0.00012215 -0.00006673 0.00003485
0.65906835 0.05930655 0.06281544 0.00050202 0.00029396 -0.00040803
0.66135401 0.06097418 0.11707333 0.00021047 -0.00006713 -0.00012841
0.65892088 0.04736079 0.14661258 0.00018368 -0.00072665 -0.00054409
0.62681979 0.06891968 0.40902478 -0.00039430 -0.00094364 0.00024135
0.65918624 0.10035586 0.42512897 0.00047278 0.00034906 0.00052638
0.54524392 0.89237964 0.56793892 0.00012791 0.00036980 -0.00011042
0.67571139 0.27816656 0.42400825 0.00016153 -0.00088078 -0.00044976
0.51864988 0.80658633 0.41292045 0.00039743 0.00046006 -0.00074502
0.50496948 0.95399714 0.89278507 0.00006646 0.00039845 0.00022205
0.61288601 0.17111872 0.37899220 0.00004476 -0.00001461 -0.00001169
0.54359770 0.49183062 0.34924915 0.00023821 0.00025199 -0.00058906
0.54326528 0.17108925 0.23064971 0.00010030 0.00006834 -0.00020700
0.66324419 0.55075628 0.46167132 0.00041377 0.00043942 -0.00048159
0.58909374 0.17879881 0.40689194 0.00001672 -0.00012164 0.00009807
0.57355255 0.60345644 0.41915274 0.00003726 0.00011348 -0.00038940
0.54441684 0.18859832 0.25560692 0.00020930 -0.00002042 -0.00000974
0.68020630 0.60478896 0.50476235 0.00073094 0.00018958 0.00010527
0.59394389 0.24666740 0.34604791 -0.00009882 0.00016389 -0.00038313
0.60232240 0.24344200 0.34587768 -0.00017409 0.00019154 -0.00045032
0.65911394 0.06503341 0.07266724 0.00044365 0.00058993 -0.00012362
0.51027542 0.22691022 0.49748039 0.00015846 -0.00043425 0.00030280
0.50480455 0.22705768 0.49860108 0.00007670 -0.00045829 0.00029991
0.65895838 0.04616367 0.11754521 0.00014053 -0.00054362 -0.00003409
0.66142231 0.06260833 0.11702238 0.00021456 -0.00002120 -0.00014558
0.53589487 0.91010714 0.73894364 0.00031074 -0.00003619 0.00042004
0.53658259 0.90943831 0.72422564 0.00029855 -0.00000349 0.00037656
0.65915412 0.09288625 0.42674565 0.00042154 0.00009545 0.00057518
0.63682574 0.06832851 0.40903151 -0.00026575 -0.00098119 0.00025917
0.67110252 0.59547609 0.52946079 0.00049596 0.00049659 0.00045920
0.67316294 0.58566588 0.53025180 0.00046409 0.00063144 0.00040125
0.64981043 0.24322218 0.40349498 -0.00004215 -0.00071063 -0.00023722
0.64527130 0.23718159 0.40031114 -0.00002044 -0.00062008 -0.00011906
0.56026089 0.75449085 0.41800120 0.00014846 0.00046397 -0.00070850
0.56524646 0.74197125 0.41907364 0.00018306 0.00037472 -0.00067213
0.55852759 0.87714547 0.57338566 0.00018680 0.00008133 0.00015754
0.62309706 0.15407215 0.38685861 0.00027693 -0.00008646 0.00016754
0.62586129 0.15010543 0.38895926 0.00034263 -0.00010041 0.00021041
0.52054811 0.94234228 0.89842886 0.00030664 0.00016147 0.00012552
0.52144760 0.94060087 0.89919704 0.00031965 0.00012323 0.00012027
0.54557240 0.17180510 0.24805689 0.00012356 -0.00003489 -0.00002104
0.60501957 0.49495408 0.39312306 0.00039835 0.00002926 -0.00044945
0.59325081 0.48742017 0.38105935 0.00042857 -0.00003296 -0.00045981
0.56288439 0.17996511 0.43474483 0.00014059 -0.00025473 0.00014368
0.55683845 0.18018226 0.43982017 0.00016093 -0.00025218 0.00015629
0.60483724 0.60360664 0.42778462 0.00029681 0.00008490 -0.00039511
0.61168349 0.60365218 0.43010241 0.00034688 0.00008004 -0.00040293
0.61038315 0.24038553 0.34580660 -0.00020615 0.00020824 -0.00052318
0.61799622 0.23750870 0.34594467 -0.00014733 0.00019042 -0.00057799
0.65924394 0.11327352 0.40399233 0.00063410 0.00072995 -0.00005742
0.65926272 0.11548276 0.39231735 0.00067145 0.00053565 -0.00014113
0.67551434 0.60499138 0.51739305 0.00063202 0.00030539 0.00037285
0.67454648 0.60502225 0.51935834 0.00061122 0.00032282 0.00041354
0.65904689 0.05594308 0.05832190 0.00052201 0.00012619 -0.00057792
0.65903884 0.05442288 0.05670653 0.00052671 0.00004931 -0.00064315
0.54902434 0.11309119 0.11553972 0.00021054 0.00028499 -0.00033267
0.55879301 0.11094227 0.11560541 0.00019521 0.00027937 -0.00030553
0.53734136 0.90865397 0.70978242 0.00028540 0.00003193 0.00034428
0.53823817 0.90764320 0.69549739 0.00027758 0.00006943 0.00031576
0.65889132 0.04878180 0.17646690 0.00036401 -0.00076829 -0.00076775
0.65887797 0.04965183 0.19362339 0.00039663 -0.00083591 -0.00077605
0.66026139 0.05225517 0.11734948 0.00017118 -0.00033629 -0.00005930
0.65988338 0.05031942 0.11741115 0.00016030 -0.00040248 -0.00004965
0.67535478 0.57570815 0.53068072 0.00042218 0.00079564 0.00035844
0.67765659 0.56561106 0.53075176 0.00037534 0.00096651 0.00034430
0.65920371 0.10481457 0.42199472 0.00051470 0.00050235 0.00044301
0.65921175 0.10680665 0.41973457 0.00053775 0.00057137 0.00037986
0.58475298 0.07296149 0.40894169 0.00047336 -0.00069593 0.00034764
0.57749516 0.07388110 0.40891755 0.00037462 -0.00067219 0.00032800
0.55474854 0.76621670 0.41694349 0.00013487 0.00052205 -0.00073598
0.64114100 0.23141047 0.39747855 -0.00000350 -0.00055443 -0.00002303
0.55789083 0.87576872 0.57388300 0.00016486 0.00004009 0.00017399
0.50777656 0.47570229 0.32903484 0.00011368 0.00035112 -0.00063424
0.62878907 0.14605293 0.39117256 0.00041068 -0.00011228 0.00024478
0.52215683 0.93886089 0.89993703 0.00032939 0.00008489 0.00011706
0.61640227 0.50309265 0.40541062 0.00037972 0.00010654 -0.00043409
0.54255074 0.17240702 0.26332590 0.00012012 -0.00011107 0.00014926
0.59784895 0.60356504 0.42558610 0.00023573 0.00008789 -0.00039170
0.55053645 0.18038604 0.44456443 0.00019186 -0.00023566 0.00016288
0.67643797 0.60496056 0.51538223 0.00065307 0.00028567 0.00032868
0.65928149 0.11687693 0.37891445 0.00068063 0.00028034 0.00017572
0.53916448 0.11497603 0.11548208 0.00026071 0.00028676 -0.00035316
0.65903348 0.05302332 0.05552011 0.00052920 -0.00002432 -0.00069810
0.66058451 0.05411185 0.11728916 0.00018228 -0.00027670 -0.00006998
0.65886456 0.05061566 0.21186173 0.00041238 -0.00087912 -0.00063329
0.59231240 0.07205794 0.40896446 0.00050811 -0.00071819 0.00036300
0.65921980 0.10860434 0.41697967 0.00055956 0.00063280 0.00029921
0.65467530 0.24955364 0.40700993 -0.00006411 -0.00081629 -0.00035652
0.54869187 0.77696663 0.41593137 0.00018640 0.00052237 -0.00074347
0.55699128 0.87436247 0.57439375 0.00013706 -0.00000429 0.00018945
0.62052584 0.15791018 0.38489872 0.00021390 -0.00006552 0.00012133
0.51551431 0.47698927 0.33133927 0.00022297 0.00034237 -0.00061326
0.52266490 0.93714362 0.90063548 0.00033628 0.00004704 0.00011445
0.54616624 0.17162144 0.24342795 0.00012332 -0.00000802 -0.00007482
0.62727422 0.51177549 0.41767812 0.00037743 0.00020174 -0.00041053
0.56867158 0.17973988 0.42941070 0.00012706 -0.00024610 0.00012657
0.67731065 0.60492706 0.51332581 0.00067257 0.00026889 0.00028921
0.62502742 0.23482354 0.34640315 -0.00003744 0.00014718 -0.00059597
0.63134551 0.23233545 0.34729329 0.00007122 0.00010024 -0.00059741
0.65905625 0.05757320 0.06035820 0.00051416 0.00020857 -0.00049713
0.52925777 0.11654180 0.11543247 0.00023248 0.00028669 -0.00038359
0.50119579 0.94452208 0.94555366 0.00003221 0.00011501 0.00036997
0.65890610 0.04801500 0.16069385 0.00029029 -0.00072656 -0.00061473
0.66085392 0.05589882 0.11723286 0.00019130 -0.00021987 -0.00008266
0.53934550 0.90630001 0.68125528 0.00028447 0.00010665 0.00027440
0.54073292 0.90451431 0.66693807 0.00032104 0.00013764 0.00019499
0.65919435 0.10265625 0.42378435 0.00049312 0.00042532 0.00049064
0.60023648 0.07118659 0.40898460 0.00044813 -0.00074135 0.00037021
0.68004411 0.55538529 0.53046894 0.00034450 0.00107275 0.00036059
0.68249196 0.54504013 0.52983749 0.00033545 0.00111077 0.00038831
0.55690145 0.07659575 0.40884382 -0.00000256 -0.00060979 0.00025113
0.64575791 0.04860753 0.05639550 0.00012862 -0.00027996 -0.00062620
0.55788678 0.88385087 0.57097399 0.00022749 0.00025508 0.00005739
0.63249439 0.21700615 0.39160287 0.00001993 -0.00046797 0.00011220
0.57723916 0.70144749 0.42209125 0.00022071 0.00019725 -0.00057154
0.51676369 0.94731843 0.89611506 0.00024902 0.00026819 0.00015181
0.63498378 0.13786073 0.39583370 0.00048758 -0.00006585 0.00027142
0.63818240 0.13380688 0.39822793 0.00046396 0.00004332 0.00023955
0.53887355 0.82209396 0.44052932 0.00060998 0.00069138 -0.00039676
0.54429752 0.17312153 0.28070357 0.00009965 -0.00015127 0.00004634
0.54742235 0.17344460 0.28825897 0.00008662 -0.00014297 -0.00005706
0.55684650 0.46903971 0.34865397 0.00038377 -0.00005247 -0.00057259
0.50239825 0.28944471 0.31783044 0.00002393 -0.00007388 -0.00007061
0.53719521 0.18074396 0.45278072 0.00030868 -0.00014716 0.00014358
0.53016663 0.18089411 0.45611066 0.00034762 -0.00008364 0.00012923
0.63112563 0.60381436 0.43776241 0.00037269 0.00009033 -0.00047487
0.63682169 0.23005919 0.34872368 0.00017410 0.00005012 -0.00058525
0.64132065 0.22800142 0.35080823 0.00026315 -0.00000225 -0.00055962
0.65931898 0.11749762 0.34787777 0.00059820 0.00035385 0.00038575
0.65933776 0.11686085 0.33071724 0.00055862 0.00046287 0.00028952
0.67142159 0.60509729 0.52491766 0.00055082 0.00036821 0.00049883
0.65902680 0.05061970 0.05444633 0.00053018 -0.00015261 -0.00074773
0.58707350 0.10344183 0.11582392 0.00030791 0.00019962 -0.00025338
0.54247034 0.90218049 0.65242785 0.00038325 0.00015246 0.00006860
0.54463130 0.89918697 0.63760924 0.00044824 0.00014646 -0.00006698
0.65884042 0.05278737 0.25036803 0.00042953 -0.00088869 -0.00028678
0.65883237 0.05397645 0.27002603 0.00043786 -0.00087420 -0.00015645
0.65501314 0.04645324 0.11752643 0.00002019 -0.00052413 -0.00002944
0.68497735 0.53458512 0.52886158 0.00034625 0.00108312 0.00041810
0.68747616 0.52402818 0.52754515 0.00037423 0.00099744 0.00044216
0.68996429 0.51337880 0.52589226 0.00041273 0.00087824 0.00045684
0.55867237 0.88213634 0.57158929 0.00022770 0.00021550 0.00008570
0.57371747 0.71526730 0.42114750 0.00021674 0.00024244 -0.00060272
0.51819813 0.94572455 0.89687383 0.00027131 0.00023471 0.00014062
0.52585804 0.82798177 0.43891796 0.00066616 0.00075110 -0.00033706
0.56904292 0.47440329 0.35858214 0.00037514 -0.00007711 -0.00054971
0.62485182 0.60375810 0.43509200 0.00038363 0.00008837 -0.00044123
0.67249542 0.60507584 0.52312535 0.00057141 0.00035443 0.00047239
0.57786518 0.10606530 0.11574885 0.00025792 0.00023581 -0.00026258
0.56363112 0.07571501 0.40886793 0.00010042 -0.00062492 0.00028011
0.55901951 0.88034534 0.57223278 0.00021927 0.00016976 0.00011369
0.63750273 0.22588737 0.39501324 0.00000789 -0.00051238 0.00004550
0.56972665 0.72883511 0.42013136 0.00020815 0.00029388 -0.00063573
0.51946229 0.94405824 0.89765000 0.00029047 0.00019882 0.00013251
0.63184017 0.14195749 0.39347163 0.00047776 -0.00012363 0.00027095
0.51283854 0.83168703 0.43789509 0.00037691 0.00079640 -0.00037698
0.54260039 0.17277567 0.27241892 0.00010664 -0.00013816 0.00014355
0.58121789 0.48054975 0.36946484 0.00042359 -0.00007396 -0.00049406
0.54398787 0.18057504 0.44890782 0.00023878 -0.00020206 0.00016017
0.61836350 0.60370314 0.43253955 0.00037486 0.00008537 -0.00041779
0.50495607 0.28922889 0.31826076 0.00004769 -0.00006978 -0.00006738
0.65930027 0.11752577 0.36402348 0.00064324 0.00025670 0.00040616
0.67353833 0.60505038 0.52126998 0.00059162 0.00033915 0.00044641
0.64471358 0.22617424 0.35365289 0.00033279 -0.00005746 -0.00051935
0.56842226 0.10858423 0.11567512 0.00021382 0.00026345 -0.00028073
0.65885252 0.05166400 0.23087893 0.00042186 -0.00089264 -0.00044512
0.65944904 0.04829383 0.11747683 0.00015112 -0.00047110 -0.00004122
0.54728431 0.89542943 0.62236440 0.00046237 0.00011381 -0.00012410
0.57047462 0.07480475 0.40889207 0.00023254 -0.00064668 0.00030542
0.30287313 0.48096937 0.51896691 -0.00051359 0.00061710 0.00046812
0.30066657 0.47004113 0.51601630 -0.00054235 0.00055626 0.00046376
0.39851952 0.05030332 0.05734327 -0.00044388 -0.00028941 -0.00052832
0.40771171 0.05067735 0.05755778 -0.00056593 -0.00029020 -0.00052199
0.47724798 0.08005039 0.40875131 0.00002639 -0.00066202 0.00003958
0.48461571 0.08044451 0.40874192 0.00001740 -0.00067857 0.00001750
0.50000000 0.23355940 0.26404443 0.00000001 0.00023856 -0.00047926
0.50000000 0.22608176 0.25737113 0.00000001 0.00021154 -0.00049231
0.50000000 0.93395305 0.68682265 -0.00000001 0.00093543 0.00006315
0.50000000 0.93049306 0.67074257 -0.00000000 0.00090422 0.00002607
0.50000000 0.20241816 0.47555953 -0.00000001 -0.00029079 0.00015008
0.50000000 0.20461132 0.47740281 -0.00000001 -0.00031131 0.00016757
0.37304616 0.20765975 0.38781980 -0.00000082 -0.00039090 0.00012839
0.37477416 0.20496389 0.38664412 0.00000121 -0.00034699 0.00011995
0.41299623 0.64726734 0.42455250 -0.00022592 -0.00006200 -0.00046713
0.41154307 0.63490069 0.42469326 -0.00020240 -0.00006830 -0.00045259
0.45150250 0.86729228 0.57696760 0.00004043 -0.00024863 0.00023410
0.45401073 0.86595309 0.57745558 0.00008344 -0.00030006 0.00023772
0.50000000 0.10681067 0.09529858 -0.00000000 0.00023872 -0.00048039
0.50000000 0.82834101 0.43150198 0.00000000 0.00075638 -0.00046394
0.50000000 0.62170553 0.59787637 -0.00000000 0.00029360 0.00057115
0.50000000 0.63692623 0.59404105 -0.00000000 0.00036921 0.00052488
0.35223123 0.12232095 0.40534899 -0.00039010 0.00050179 0.00008310
0.34915602 0.11885962 0.40761316 -0.00041067 0.00062204 0.00007640
0.41070923 0.78119880 0.45139325 -0.00026450 0.00052549 -0.00076386
0.39891362 0.76775295 0.45484787 -0.00034693 0.00040694 -0.00081979
0.47802952 0.92975718 0.90297472 -0.00033194 -0.00011641 0.00010595
0.47886604 0.92868870 0.90310609 -0.00032722 -0.00014299 0.00010325
0.50000000 0.05658519 0.09778936 -0.00000000 -0.00031354 0.00057305
0.50000000 0.05686805 0.10138609 -0.00000000 -0.00034341 0.00045461
0.50000000 0.63771719 0.41295531 -0.00000000 -0.00002061 -0.00040128
0.50000000 0.62756109 0.41335884 -0.00000000 -0.00001461 -0.00037147
0.50000000 0.90788448 0.78653890 -0.00000006 -0.00052841 0.00054529
0.43685955 0.17430925 0.30738610 0.00002629 -0.00003868 -0.00030573
0.43024120 0.17457066 0.31285426 0.00005296 -0.00001041 -0.00032674
0.48970449 0.45661139 0.32337901 -0.00021894 0.00019552 -0.00066184
0.50000000 0.45605904 0.32188830 -0.00000000 0.00022446 -0.00068435
0.50000000 0.95221686 0.93199384 -0.00000070 0.00029779 0.00001806
0.49032250 0.28840443 0.31984797 -0.00008739 -0.00005575 -0.00005782
0.48812664 0.28780922 0.32095125 -0.00010115 -0.00004621 -0.00005225
0.49228239 0.18118903 0.46214318 -0.00013055 0.00001310 0.00013039
0.50000000 0.18122657 0.46259901 -0.00000002 0.00001695 0.00013172
0.34645078 0.60405970 0.44959283 -0.00035891 -0.00000034 -0.00063552
0.34163818 0.60412139 0.45283434 -0.00038640 -0.00005073 -0.00065776
0.50000000 0.88943440 0.54205269 -0.00000000 0.00056876 0.00002945
0.50000000 0.22710995 0.49898314 0.00000000 -0.00046668 0.00029911
0.50000000 0.28786153 0.31672713 0.00000008 -0.00005481 -0.00007157
0.35235059 0.22324778 0.36207566 -0.00039528 -0.00018038 -0.00040651
0.35306913 0.22216865 0.36787224 -0.00037359 -0.00025507 -0.00032830
0.34061530 0.11199194 0.27550891 -0.00049831 0.00063663 -0.00013747
0.34060323 0.10961109 0.25665259 -0.00049015 0.00065349 -0.00027932
0.34080032 0.60524476 0.54003918 -0.00043690 0.00039226 0.00054652
0.34693602 0.60531175 0.54569906 -0.00041286 0.00037150 0.00054270
0.50000000 0.81722504 0.41867951 -0.00000000 0.00058031 -0.00065219
0.50000000 0.81614721 0.41756821 -0.00000000 0.00056511 -0.00066805
0.50000000 0.76464021 0.55360299 -0.00000000 0.00036077 0.00038459
0.49199548 0.94217885 0.94334972 -0.00021674 0.00003345 0.00029653
0.49091232 0.94148976 0.94237113 -0.00024075 0.00000783 0.00026386
0.34097323 0.04765975 0.05728966 -0.00052280 -0.00031490 -0.00061055
0.34097323 0.04723882 0.05868518 -0.00051860 -0.00033908 -0.00054715
0.37938437 0.09293719 0.11612018 -0.00004637 0.00015617 -0.00031638
0.37205949 0.09057244 0.11618588 0.00004258 0.00019116 -0.00035048
0.50000000 0.93031216 0.91692191 -0.00000068 -0.00030539 -0.00013541
0.44565096 0.88518208 0.59012926 -0.00028144 -0.00001631 -0.00005583
0.44109839 0.87847799 0.57290441 -0.00020285 0.00011907 0.00014034
0.34117970 0.05785067 0.32697842 -0.00047508 -0.00076641 0.00040623
0.34117565 0.05921402 0.34427300 -0.00048538 -0.00072277 0.00059004
0.37140802 0.04863969 0.11739373 0.00038702 -0.00041980 -0.00006027
0.38003317 0.04937296 0.11735082 0.00031612 -0.00038713 -0.00001642
0.50000000 0.07593486 0.34607068 0.00000001 -0.00048940 -0.00002283
0.38864222 0.04990920 0.05711807 -0.00002473 -0.00028724 -0.00054999
0.29859003 0.45906863 0.51275343 -0.00057248 0.00048990 0.00045291
0.50000000 0.24089897 0.27085987 0.00000002 0.00025285 -0.00045748
0.49230918 0.08070455 0.40873924 0.00000814 -0.00069068 0.00000281
0.50000000 0.92676902 0.65489846 -0.00000000 0.00087295 -0.00002129
0.41482612 0.66028553 0.42419326 -0.00023506 -0.00001186 -0.00048702
0.37643242 0.20245168 0.38551939 0.00000602 -0.00030662 0.00010726
0.50000000 0.11287536 0.10499621 -0.00000000 0.00023221 -0.00050781
0.45679235 0.86466891 0.57792616 0.00012977 -0.00035143 0.00024112
0.50000000 0.82606333 0.42868412 0.00000000 0.00071917 -0.00050667
0.42290702 0.79357892 0.44816113 -0.00017635 0.00066067 -0.00069547
0.34619740 0.11565568 0.40977821 -0.00045618 0.00069154 0.00010393
0.50000000 0.61835009 0.41326231 -0.00000000 0.00003330 -0.00034458
0.47864619 0.45824555 0.32704544 -0.00042080 0.00012624 -0.00061855
0.42330244 0.17482270 0.31800738 0.00006215 0.00001240 -0.00032823
0.50000000 0.95309627 0.92600554 -0.00000058 0.00035570 -0.00007136
0.49262288 0.28888032 0.31894174 -0.00006924 -0.00006318 -0.00006268
0.35160655 0.60399669 0.44646397 -0.00034646 0.00003783 -0.00060048
0.50000000 0.88616204 0.53443694 -0.00000000 0.00063253 0.00003514
0.50000000 0.85740167 0.58058584 -0.00000000 -0.00029608 0.00023701
0.35313213 0.22458568 0.35737297 -0.00037799 -0.00011579 -0.00046745
0.33540049 0.60518312 0.53423321 -0.00047110 0.00040151 0.00054468
0.34059250 0.10696616 0.23796515 -0.00048364 0.00065570 -0.00042391
0.50000000 0.75170106 0.55679619 -0.00000000 0.00042108 0.00036332
0.50000000 0.81507474 0.41648504 -0.00000000 0.00054937 -0.00068439
0.49309477 0.94278872 0.94410723 -0.00019010 0.00005549 0.00032170
0.38718238 0.09546013 0.11604913 -0.00021876 0.00012690 -0.00028459
0.34097457 0.04686746 0.06032065 -0.00051269 -0.00036094 -0.00047444
0.44950104 0.89079773 0.60657662 -0.00035902 0.00000458 -0.00003117
0.36346382 0.04796674 0.11743528 0.00035437 -0.00045313 -0.00005924
0.34117031 0.06059615 0.36021763 -0.00047558 -0.00070984 0.00058559
0.30758253 0.50264627 0.52390957 -0.00045067 0.00076848 0.00046455
0.30518696 0.49184000 0.52159846 -0.00048392 0.00068346 0.00046796
0.37801161 0.04949362 0.05688479 0.00055893 -0.00029348 -0.00061088
0.50000000 0.94744718 0.94452000 -0.00000113 0.00020691 0.00034898
0.36940655 0.21366411 0.39030382 -0.00001359 -0.00045229 0.00012198
0.37125519 0.21055403 0.38904104 -0.00000442 -0.00043027 0.00012618
0.41705143 0.67377567 0.42364359 -0.00023349 0.00006052 -0.00051222
0.50000000 0.92278492 0.63930374 -0.00000000 0.00083131 -0.00009303
0.50000000 0.20679374 0.47931445 -0.00000000 -0.00033780 0.00018173
0.45984885 0.86344892 0.57837254 0.00017810 -0.00039874 0.00024867
0.50000000 0.10373006 0.09073800 -0.00000000 0.00026710 -0.00043848
0.35859758 0.12983616 0.40062886 -0.00042766 0.00018730 0.00018446
0.35539097 0.12599410 0.40301102 -0.00039894 0.00034609 0.00012604
0.43543053 0.80467063 0.44522530 -0.00015838 0.00072823 -0.00062354
0.50000000 0.82493597 0.42732346 0.00000000 0.00070420 -0.00052337
0.50000000 0.65203571 0.58966810 -0.00000000 0.00037714 0.00048756
0.50000000 0.05745926 0.10889322 0.00000000 -0.00040278 0.00016028
0.44824898 0.17374891 0.29516959 -0.00005792 -0.00010862 -0.00016102
0.44293499 0.17403713 0.30151847 -0.00001516 -0.00007146 -0.00025148
0.46712002 0.46090117 0.33264229 -0.00058559 0.00003656 -0.00055800
0.50000000 0.91162735 0.82201952 -0.00000030 -0.00042439 0.00079047
0.50000000 0.10569531 0.45180479 0.00000004 -0.00063646 0.00068625
0.50000000 0.11081358 0.45564148 0.00000002 -0.00058519 0.00070795
0.47709382 0.18102011 0.45882800 -0.00031908 -0.00003463 0.00012726
0.48457819 0.18111931 0.46086293 -0.00024081 -0.00000814 0.00012949
0.35707873 0.60393500 0.44344774 -0.00034696 0.00006528 -0.00055881
0.50000000 0.46532637 0.32369938 -0.00000000 0.00028630 -0.00068463
0.48601526 0.28710008 0.32222614 -0.00011178 -0.00003230 -0.00004653
0.48397091 0.28628632 0.32364312 -0.00012305 -0.00001887 -0.00003906
0.34064481 0.11568519 0.31277785 -0.00053005 0.00054765 0.00015307
0.34062871 0.11404031 0.29429689 -0.00051075 0.00060342 0.00000739
0.33079973 0.60513079 0.52830124 -0.00051993 0.00038896 0.00052303
0.35542315 0.22136162 0.37487400 -0.00030540 -0.00034087 -0.00021717
0.35954136 0.22083209 0.38319215 -0.00018037 -0.00043278 -0.00005864
0.50000000 0.80072540 0.54962820 -0.00000000 0.00006493 0.00045414
0.34097323 0.04880325 0.05513002 -0.00052810 -0.00025106 -0.00071251
0.39540273 0.09808628 0.11597540 -0.00031602 0.00013247 -0.00026433
0.48984256 0.94072825 0.94114184 -0.00026228 -0.00002013 0.00022619
0.48878488 0.93989581 0.93963498 -0.00027979 -0.00005160 0.00018045
0.50000000 0.93226933 0.92325604 -0.00000063 -0.00025537 -0.00005232
0.34117433 0.05522319 0.28955129 -0.00044806 -0.00084953 -0.00001985
0.34117833 0.05651815 0.30863553 -0.00046082 -0.00081308 0.00016682
0.35632667 0.04736882 0.11747014 0.00025403 -0.00047490 -0.00004579
0.43564904 0.87031662 0.55513930 -0.00015550 0.00034569 0.00033056
0.43002808 0.86165255 0.54007810 -0.00023927 0.00055070 0.00022940
0.50000000 0.44674215 0.32043245 -0.00000000 0.00015579 -0.00068339
0.36656725 0.04906062 0.05664484 0.00018394 -0.00028577 -0.00061415
0.41968966 0.68755794 0.42293310 -0.00022671 0.00013693 -0.00054110
0.46318281 0.86230677 0.57878947 0.00022879 -0.00044097 0.00026109
0.44819668 0.81425029 0.44265682 -0.00029991 0.00070906 -0.00053318
0.50000000 0.05808127 0.11680254 -0.00000000 -0.00044898 -0.00009618
0.45524803 0.46451932 0.33992687 -0.00050836 -0.00001123 -0.00055020
0.50000000 0.60334116 0.41120052 -0.00000000 0.00012360 -0.00030401
0.36284319 0.60387468 0.44054809 -0.00035731 0.00008275 -0.00051559
0.50000000 0.87951964 0.51962113 -0.00000000 0.00073941 0.00003235
0.50000000 0.95454544 0.89249957 0.00000036 0.00041309 0.00023208
0.32967901 0.60511607 0.52664566 -0.00053416 0.00038018 0.00051326
0.50000000 0.81294596 0.41440850 -0.00000000 0.00051801 -0.00071677
0.40399972 0.10076474 0.11590033 -0.00033834 0.00016114 -0.00025395
0.50000000 0.13383773 0.14469962 -0.00000000 0.00021478 -0.00054504
0.35012522 0.04685943 0.11750096 0.00012612 -0.00049992 -0.00003266
0.44977990 0.07743362 0.40881968 0.00006355 -0.00060368 0.00021639
0.45647064 0.07821380 0.40879822 0.00007240 -0.00060877 0.00017217
0.50000000 0.26131305 0.29083151 0.00000007 0.00019919 -0.00034452
0.50000000 0.25485420 0.28438476 0.00000004 0.00023287 -0.00039399
0.29492226 0.43701771 0.50530392 -0.00063851 0.00032455 0.00040525
0.29337928 0.42595944 0.50112802 -0.00067478 0.00021768 0.00036291
0.43181369 0.05167072 0.05813824 -0.00016761 -0.00027296 -0.00050693
0.43890393 0.05195757 0.05830847 0.00000545 -0.00026541 -0.00049627
0.44417232 0.87293750 0.57491124 -0.00010829 -0.00004946 0.00020305
0.44560269 0.87150580 0.57543135 -0.00007418 -0.00009709 0.00021546
0.50000000 0.12268024 0.12246642 -0.00000000 0.00026387 -0.00047690
0.50000000 0.91403496 0.60892528 -0.00000000 0.00068845 -0.00022321
0.50000000 0.21335445 0.48541802 -0.00000000 -0.00040635 0.00021839
0.37951708 0.19791387 0.38343212 0.00001365 -0.00023302 0.00006905
0.38093132 0.19585477 0.38248035 0.00001612 -0.00020268 0.00005000
0.40925339 0.60352755 0.42350689 -0.00016960 0.00009135 -0.00039117
0.40929225 0.59534609 0.42212611 -0.00017609 0.00015208 -0.00036961
0.47703215 0.93547457 0.90127754 -0.00033947 0.00001053 0.00011403
0.47694236 0.93387669 0.90184730 -0.00034020 -0.00002406 0.00011176
0.50000000 0.05579023 0.08768152 0.00000000 -0.00026512 0.00048387
0.50000000 0.82270122 0.42469865 -0.00000000 0.00067017 -0.00056136
0.50000000 0.68177879 0.57991821 -0.00000000 0.00042137 0.00041323
0.36674550 0.72325975 0.46580830 -0.00057607 0.00031787 -0.00072757
0.35736027 0.70778435 0.46941707 -0.00065436 0.00029574 -0.00064479
0.50000000 0.94981855 0.94081742 -0.00000103 0.00026650 0.00023970
0.50000000 0.59896153 0.40969643 -0.00000000 0.00015799 -0.00029941
0.50000000 0.91422004 0.84082353 -0.00000037 -0.00028533 0.00101969
0.50000000 0.91745615 0.86041725 -0.00000009 -0.00010479 0.00127294
0.40934855 0.17530397 0.32769296 0.00004570 0.00003729 -0.00031396
0.40277579 0.17553855 0.33239159 0.00002745 0.00003803 -0.00030263
0.49041501 0.60333985 0.41133055 -0.00007069 0.00012369 -0.00030662
0.48559701 0.60334116 0.41149142 -0.00009892 0.00012177 -0.00031077
0.48197883 0.28537077 0.32517937 -0.00013660 -0.00000875 -0.00003096
0.48001891 0.28436264 0.32680413 -0.00015071 0.00000061 -0.00002173
0.45558450 0.26204497 0.32887933 -0.00011138 0.00018742 -0.00007992
0.45557380 0.25820962 0.32200223 -0.00013260 0.00021657 -0.00006710
0.32950339 0.60430098 0.46322638 -0.00052442 -0.00010010 -0.00061873
0.32631016 0.60435599 0.46691155 -0.00057510 -0.00008876 -0.00056917
0.50000000 0.71065038 0.56984657 -0.00000000 0.00045912 0.00036159
0.50000000 0.27279896 0.30242738 0.00000006 0.00013971 -0.00016813
0.36555913 0.22059482 0.39293537 -0.00002071 -0.00048026 0.00009363
0.37122703 0.22057740 0.40106589 0.00004191 -0.00047288 0.00010450
0.34058177 0.10115886 0.20203945 -0.00046679 0.00059817 -0.00076353
0.34058046 0.09813455 0.18527706 -0.00045125 0.00054274 -0.00086672
0.36909550 0.60554504 0.56161147 -0.00036119 0.00028437 0.00054281
0.37751293 0.60562819 0.56649649 -0.00034574 0.00026488 0.00054128
0.50000000 0.59391034 0.40748316 -0.00000000 0.00021591 -0.00029391
0.50000000 0.58826250 0.40463310 -0.00000000 0.00027508 -0.00028902
0.50000000 0.13020211 0.13720588 -0.00000000 0.00023745 -0.00051510
0.48774058 0.93899900 0.93782127 -0.00029918 -0.00008103 0.00013414
0.48670965 0.93804181 0.93567497 -0.00032269 -0.00010780 0.00008841
0.34097725 0.04627090 0.06427532 -0.00049376 -0.00040264 -0.00031644
0.34097856 0.04604034 0.06658242 -0.00047944 -0.00042371 -0.00023307
0.35338551 0.08494744 0.11634406 0.00002440 0.00036605 -0.00038633
0.34842005 0.08373826 0.11637891 -0.00005397 0.00039911 -0.00038835
0.50000000 0.46225515 0.32301840 -0.00000000 0.00026111 -0.00068609
0.50000000 0.05507705 0.07866893 0.00000000 -0.00023237 0.00031747
0.42426229 0.85247511 0.52754247 -0.00020644 0.00082627 0.00029681
0.41838127 0.84276944 0.51735419 -0.00024444 0.00086103 0.00017496
0.34114349 0.06338451 0.38683450 -0.00037093 -0.00089783 0.00016925
0.34112203 0.06477200 0.39690077 -0.00037052 -0.00099279 0.00013580
0.40870646 0.05179404 0.11720604 -0.00028673 -0.00042984 0.00020037
0.41877005 0.05262784 0.11715510 -0.00030113 -0.00043926 0.00025214
0.50000000 0.26732010 0.29688951 0.00000006 0.00018239 -0.00024676
0.46323910 0.07891895 0.40877947 0.00004114 -0.00062540 0.00011455
0.42429447 0.05136101 0.05795725 -0.00035065 -0.00028060 -0.00051405
0.29206151 0.41489175 0.49665594 -0.00071196 0.00013464 0.00032428
0.50000000 0.12647803 0.12977514 -0.00000000 0.00025690 -0.00048713
0.44729984 0.87008071 0.57595146 -0.00003820 -0.00014672 0.00022374
0.50000000 0.90927464 0.59417510 -0.00000000 0.00057793 -0.00024352
0.40969038 0.61284977 0.42419994 -0.00016977 0.00002757 -0.00041589
0.38225314 0.19391496 0.38159558 0.00001681 -0.00017136 0.00003159
0.47707507 0.93237525 0.90232992 -0.00033868 -0.00005679 0.00011005
0.50000000 0.82159394 0.42343313 -0.00000000 0.00065316 -0.00057962
0.37685069 0.73856091 0.46212846 -0.00049838 0.00032172 -0.00080085
0.50000000 0.17071521 0.22497645 0.00000000 0.00013053 -0.00015070
0.49692208 0.17071521 0.22489870 0.00001600 0.00013094 -0.00015324
0.50000000 0.08270870 0.41856825 0.00000001 -0.00073608 0.00018705
0.49527988 0.60333985 0.41123405 -0.00003628 0.00012396 -0.00030446
0.39676741 0.17577316 0.33710101 0.00000954 0.00003131 -0.00029076
0.50000000 0.89898318 0.56562245 -0.00000000 0.00042241 -0.00010365
0.33313766 0.60424340 0.45965108 -0.00047137 -0.00010406 -0.00065417
0.45556310 0.25415847 0.31527665 -0.00015173 0.00024533 -0.00005732
0.50000000 0.69634259 0.57484686 -0.00000000 0.00044998 0.00038133
0.50000000 0.81939673 0.42099598 -0.00000000 0.00061830 -0.00061530
0.36115003 0.60546327 0.55650395 -0.00037552 0.00030933 0.00054460
0.34058312 0.09512097 0.16963004 -0.00042215 0.00049768 -0.00083777
0.35901314 0.08652530 0.11629983 0.00007041 0.00030176 -0.00038149
0.34097993 0.04585133 0.06909867 -0.00046086 -0.00044481 -0.00014643
0.50000000 0.05530497 0.08154579 0.00000000 -0.00024258 0.00037510
0.39881042 0.05096421 0.11725564 -0.00019202 -0.00040920 0.00013092
0.34109658 0.06614207 0.40439853 -0.00036848 -0.00099125 0.00022928
0.47014302 0.07953696 0.40876338 0.00003259 -0.00064374 0.00007107
0.29666635 0.44805726 0.50918078 -0.00060481 0.00041220 0.00043353
0.41628197 0.05102993 0.05776289 -0.00050924 -0.00028709 -0.00051874
0.50000000 0.95049965 0.93901837 -0.00000097 0.00027787 0.00018800
0.50000000 0.08448900 0.42359802 0.00000002 -0.00074328 0.00028629
0.50000000 0.08680009 0.42863050 0.00000004 -0.00074527 0.00037676
0.50000000 0.60640973 0.60102266 -0.00000000 0.00025368 0.00059652
0.44926512 0.86867177 0.57646358 -0.00000038 -0.00019729 0.00022961
0.37801561 0.20010568 0.38444692 0.00000939 -0.00026831 0.00008883
0.41044784 0.62336779 0.42458603 -0.00018006 -0.00003248 -0.00043704
0.50000000 0.90425700 0.57973588 -0.00000000 0.00046678 -0.00020497
0.50000000 0.21556638 0.48756558 -0.00000000 -0.00041354 0.00023900
0.50000000 0.21780244 0.48976278 -0.00000000 -0.00041830 0.00025943
0.47743431 0.93099445 0.90271062 -0.00033553 -0.00008763 0.00010825
0.50000000 0.05604628 0.09093373 0.00000000 -0.00027699 0.00053842
0.34339157 0.11274801 0.41181853 -0.00051695 0.00070552 0.00015295
0.38760066 0.75346661 0.45844993 -0.00041837 0.00034223 -0.00084347
0.50000000 0.82049334 0.42219850 -0.00000000 0.00063643 -0.00059692
0.50000000 0.72467130 0.56507015 -0.00000000 0.00045527 0.00035276
0.50000000 0.08962467 0.43360531 0.00000006 -0.00073873 0.00046575
0.41626453 0.17506535 0.32292724 0.00005800 0.00002863 -0.00032204
0.50000000 0.92146170 0.88085818 0.00000044 -0.00003950 0.00098041
0.50000000 0.92635888 0.90220255 0.00000004 -0.00029568 -0.00005253
0.50000000 0.89585036 0.55765551 -0.00000000 0.00044581 -0.00004937
0.50000000 0.22006798 0.49200556 -0.00000000 -0.00042383 0.00027727
