22.830999 57.752399 -7.219140 
11.637400 65.220299 36.272800 
12.397300 -4.394520 18.360100 
10.685100 54.770599 -11.511300 
-2.038520 -1.522610 30.794201 
-51.783199 73.649696 -41.168999 
-50.476299 51.270401 -25.484100 
-44.689602 50.685001 -18.398701 
-34.174801 -44.246399 21.996599 
-35.513100 50.269600 8.876610 
0.696689 -0.280274 30.038300 
-2.429940 10.477200 31.720699 
-29.867599 -33.741199 4.656260 
-9.114440 88.973801 8.378610 
-27.960400 -53.613800 14.550600 
-8.753830 88.132797 -5.519270 
15.397500 23.004801 22.788300 
7.538750 43.458199 35.306801 
16.300301 -11.283000 5.729720 
-2.256600 32.147400 32.833900 
-35.151699 65.340103 3.616190 
1.148140 54.587299 -38.147202 
-59.576401 64.540604 -13.837200 
-36.732498 -43.960999 20.325500 
-26.297600 -0.812399 23.653601 
60.041500 79.807198 -31.954399 
12.893500 34.592999 28.355801 
2.509610 78.503403 -26.618099 
-16.108601 73.108803 29.932699 
-27.093201 -44.275902 22.662500 
-1.740350 7.138790 15.890600 
2.644990 15.280600 29.592800 
13.425100 76.605598 30.146700 
-19.882200 30.918100 18.681601 
29.915300 12.522400 14.384500 
10.871400 89.921799 -19.825800 
28.203199 -5.932410 -2.440000 
-13.797200 33.429100 -5.415290 
17.500799 -20.041401 7.404130 
-61.378502 63.817101 -45.831299 
-40.156700 -5.136480 1.869340 
-40.098400 47.652699 -6.384620 
-53.782902 53.201199 -28.405899 
-39.287498 -22.678699 1.706500 
-40.652199 51.993900 -15.689100 
22.263700 73.575699 20.508801 
-56.326801 58.973202 -34.234001 
-23.632500 -11.692500 8.086310 
25.853100 10.971900 2.798270 
7.247240 8.843910 25.865700 
23.110800 -25.759501 4.428840 
-38.035702 5.718840 4.581730 
9.093820 3.298020 21.249701 
-51.088402 78.188599 -41.902000 
-13.413600 83.447998 -22.409901 
46.293900 59.390400 -20.323299 
31.853201 -0.257186 17.174801 
10.592600 78.112701 -24.931801 
18.772301 -7.648790 -0.129501 
-4.737550 37.393002 -10.863000 
12.087700 9.096660 26.040001 
-24.926300 -16.011000 7.009380 
34.864799 -5.845990 9.523970 
-5.754140 76.758499 -28.879700 
-13.943000 -2.452260 18.836000 
-28.903299 65.157600 18.152700 
19.143801 91.802902 -23.749300 
-16.212400 40.226700 28.798000 
-27.225401 -53.738701 22.003599 
43.928600 72.786697 -14.958200 
22.417200 -53.508801 4.950550 
-42.360100 -11.692000 2.084550 
-20.861900 63.132900 -13.990100 
55.504101 85.264503 -30.327700 
-31.230200 64.842598 5.605420 
-36.867599 57.552502 -15.581900 
-15.736300 37.591202 -10.076600 
18.027300 32.172001 11.337900 
4.333310 36.387901 -10.393200 
13.200000 -6.215540 6.870390 
-55.550999 67.660698 -48.894699 
22.672400 58.617401 27.503201 
-25.950199 69.126297 -2.284920 
42.123600 71.056702 -16.559099 
-16.206600 84.743401 -21.292999 
13.023600 79.561996 -21.071199 
-25.593901 74.372299 12.257900 
47.471600 66.433403 -21.402000 
-51.626202 64.177299 -35.943298 
38.126900 45.954498 2.695520 
24.566000 50.871700 18.231300 
17.049700 76.100800 26.918200 
-46.686001 56.391701 -0.643785 
17.640600 80.470299 18.713400 
46.599899 65.436096 -3.090270 
-10.567400 0.699040 16.789499 
51.368698 85.540298 -38.176998 
-28.823900 55.055500 17.527700 
33.337101 -23.472401 15.895700 
27.120399 12.929600 18.098900 
60.215599 72.066902 -39.505798 
-43.084400 62.304501 -23.817699 
19.190599 -29.092600 7.486690 
-21.972099 66.698097 29.040100 
-26.105000 -27.751200 3.085290 
13.758300 2.347360 -0.086537 
10.667800 84.177399 -3.200900 
60.040298 60.136902 -7.337210 
31.690599 -30.000601 11.580100 
25.253901 -53.096199 10.331800 
-35.616299 -0.213708 18.702499 
-25.498899 72.765297 4.097930 
19.490200 90.089699 -22.587000 
-28.305000 64.746201 20.709299 
38.856800 58.066101 -16.014999 
-42.764801 -19.604700 7.065790 
-12.356500 -2.781280 13.666800 
29.700100 62.111900 13.232100 
43.741699 63.422001 -2.170660 
56.389400 82.550102 -25.158199 
-42.805302 50.976501 1.223900 
-30.035000 -8.078730 18.265200 
6.814090 58.997101 -30.780100 
-60.220699 61.953602 -51.212700 
27.024900 -41.777699 15.778200 
1.916840 5.878150 20.962601 
49.352200 76.493797 -24.410801 
18.578400 32.935101 13.810600 
34.566700 -53.985100 10.934200 
-55.320301 59.624599 -39.544399 
-7.142550 58.638000 38.301800 
32.999100 -46.407398 15.020300 
11.445200 10.647600 -0.001527 
11.662400 85.111603 -27.132401 
-6.322550 57.327999 -34.598701 
-25.539200 -24.831699 20.518200 
21.401100 -18.199900 23.167299 
20.331400 77.908096 15.828800 
25.755400 5.851230 23.003500 
-57.931999 70.598900 -46.928398 
3.647630 10.249800 1.133490 
-6.925880 44.689701 -14.816100 
-8.617740 60.409599 -32.726898 
21.240801 -53.548698 6.509050 
0.977765 48.896900 38.365398 
-0.319347 81.714104 -23.397100 
-3.060480 16.519899 30.374201 
-34.398201 8.724290 2.625670 
24.794600 -0.321498 -2.512340 
8.419050 0.447803 8.276190 
36.796501 60.060501 -8.484940 
-5.831940 -2.644910 51.619701 
37.507198 62.556599 4.969060 
50.116600 77.286003 -18.652599 
31.576700 3.886390 2.982310 
-52.285400 83.355698 -44.544998 
-15.433900 31.946899 -0.564778 
-16.632700 34.658600 -4.143810 
-59.282799 74.786797 -33.994301 
23.791401 -48.119598 1.368770 
22.889299 40.424702 13.480200 
32.924702 -27.230499 20.384501 
30.378401 -21.289000 4.320490 
31.324800 -20.894800 5.058680 
33.355801 46.294601 8.922640 
26.690901 -13.526300 -0.488819 
51.786301 87.417999 -26.245899 
-51.828400 74.077202 -26.597500 
-14.208500 54.317600 37.001301 
21.425301 48.535400 -6.164540 
-49.011902 57.062302 -2.417140 
10.124700 65.762703 -16.340599 
-40.362000 -44.228199 4.746430 
-29.697901 -26.200899 22.519199 
11.730600 58.791500 -12.217800 
-20.002399 -7.049960 7.220790 
8.384960 62.825901 -23.033100 
-40.342499 -22.029100 3.535650 
-22.933901 13.551800 24.249100 
21.424700 39.889000 8.221270 
-6.083910 90.100700 11.252200 
-32.635399 -32.912800 4.716650 
28.194500 13.524500 15.302500 
-1.740060 -4.683770 35.294102 
3.859490 35.337700 32.063301 
57.854801 55.949902 -6.922500 
-21.967400 22.093000 19.495899 
19.270800 65.839600 -11.112400 
25.394400 -5.994350 -2.346940 
15.513600 19.579800 24.247999 
-27.121901 47.165001 17.192801 
-35.953400 51.365601 9.156150 
60.784901 65.524300 -22.505199 
-1.922990 61.232700 -44.923199 
11.047200 -1.562870 5.591750 
-16.256701 14.527800 26.150700 
13.503500 -26.073601 20.799299 
-14.439200 89.394897 -30.280001 
6.799330 17.499399 28.812500 
-37.836700 6.484350 5.784990 
-10.003200 63.017101 -24.285000 
-5.072250 71.895401 -33.683800 
23.664200 -53.016300 19.875601 
-56.962502 73.483498 -49.872299 
-35.140800 -23.098499 22.658300 
-54.969601 68.587402 -14.677600 
4.698980 9.110690 1.540960 
13.257400 -7.279990 16.046900 
56.214600 62.297501 -26.650999 
-47.617199 -45.669998 10.013000 
7.754790 43.552101 35.217602 
27.818800 -37.623901 14.081200 
-25.917200 15.031400 4.288830 
30.606600 10.373300 8.457450 
-56.569302 78.592300 -36.686798 
-9.879560 46.657398 36.635300 
-12.896500 65.173401 36.304298 
-25.455700 53.217400 25.162100 
-20.210199 37.997101 19.765699 
30.582100 -30.574200 9.855750 
12.024100 67.906097 -23.670500 
-23.863800 67.925697 -8.139200 
-28.781099 -43.991798 23.130899 
1.731310 89.571602 -0.389368 
23.063700 -51.775501 0.960648 
-49.627102 55.557701 -32.306702 
-34.192200 -2.837060 18.877001 
-41.227100 -53.348202 -5.875140 
-7.552260 79.433800 -25.943800 
-41.962101 61.161701 -22.170700 
-21.332500 74.427399 23.932400 
17.994499 -12.212400 3.977770 
-15.729300 82.177498 -21.214399 
8.659180 75.202904 33.044102 
-25.218901 -45.611000 13.809400 
-21.919201 66.904404 -11.284100 
55.568699 77.983902 -38.689098 
-50.337898 50.269402 -20.957800 
-45.828899 -50.698700 -2.324060 
-30.368299 -37.825199 6.556780 
-8.224100 88.693298 15.233200 
-33.963200 -44.547100 6.035470 
-36.844101 60.194500 -14.580400 
53.219501 87.302597 -37.050701 
31.432600 -10.408100 11.842000 
0.721268 89.664299 -5.306070 
-39.523499 -52.875401 18.408400 
-48.294102 -50.871101 4.290960 
-37.564999 -20.789900 0.736451 
30.112801 -26.872801 24.521999 
23.594299 17.375099 13.567400 
-4.936420 90.191704 12.384200 
-9.595260 64.190697 -21.094000 
34.458801 44.948200 -1.214290 
-24.355900 15.461100 22.983900 
-5.888430 22.602301 31.511200 
-8.665190 54.708500 -13.582600 
12.640500 77.468002 -20.805901 
-36.305599 49.964001 -13.071300 
-24.772699 50.279202 -8.411640 
-25.119600 20.819099 12.241900 
41.122200 63.646000 -3.861850 
21.601299 49.697701 -6.445310 
28.325899 13.968600 12.116700 
27.608601 -22.468100 2.500290 
-0.123498 87.086403 -8.523070 
-52.520401 74.542801 -44.612400 
40.677399 50.743099 6.401620 
56.652599 54.736900 -15.608500 
-4.085270 55.467400 -21.709900 
-34.011501 -47.025501 1.397850 
-6.227110 -6.271940 51.747700 
-12.461100 83.828499 22.872400 
25.743500 69.320297 5.526270 
-32.278599 55.445999 11.803900 
-18.666700 72.114700 29.351999 
24.272900 47.357399 -4.281320 
9.660980 38.545300 31.061100 
-60.053101 61.612301 -31.815399 
-2.699400 -1.063190 50.256302 
-60.348202 74.433502 -37.339802 
58.797600 57.879299 -18.984200 
10.393200 88.413803 -18.555099 
18.955799 -52.775101 23.117001 
23.502501 -32.146198 8.546650 
-20.178101 27.924900 7.837810 
-1.017190 16.503000 -4.750440 
18.963400 -39.048100 13.881600 
12.016700 23.922800 1.727130 
32.426399 -19.614201 5.020490 
24.274799 60.893600 24.459000 
13.734800 25.801399 27.235100 
29.777399 -47.905998 20.655701 
19.139400 12.001700 0.953899 
53.730202 67.461800 -3.850390 
0.750966 53.762100 -23.148500 
24.348301 -52.973400 12.018800 
11.382500 57.518902 36.517502 
46.391499 57.308102 -21.977501 
30.552200 -46.451500 6.644660 
-17.990299 8.442060 26.153000 
19.650499 94.983398 -23.004700 
59.009701 56.636002 -8.128710 
51.380901 64.744202 -1.929050 
-19.201099 24.129499 22.588200 
1.947090 90.105400 8.896680 
-17.146200 45.800999 33.057701 
-39.138199 -44.709202 5.099080 
22.816401 62.639099 26.602301 
-14.444800 65.899399 -16.684401 
62.620499 69.421501 -31.999300 
33.485901 -9.520440 8.468650 
25.832199 -53.112598 10.127700 
-15.684600 12.982100 26.392599 
2.094870 44.218201 34.606602 
-8.600490 40.631802 34.020000 
-38.326401 -47.411598 20.086100 
-37.448299 -35.096100 21.174000 
55.125000 57.436501 -3.610160 
-14.035400 62.681099 36.529701 
30.187000 48.226002 12.810200 
13.605000 33.787102 28.105301 
24.964500 70.438400 14.443700 
-53.458500 74.354698 -27.772499 
-33.584599 -12.213900 -1.036670 
55.977798 73.689697 -11.773600 
11.292300 90.885300 -20.690500 
12.674400 33.687901 -6.668810 
62.548401 61.856400 -13.816600 
28.903601 45.734501 -2.690380 
45.834801 60.574001 -0.586525 
9.667690 86.597298 14.797700 
22.829700 -44.830799 28.074699 
-62.653301 64.827202 -39.337799 
-9.946990 33.734798 -7.925400 
-13.574300 -3.003600 11.152400 
50.237999 87.222504 -39.816399 
28.711800 -20.982201 2.928910 
-7.540820 63.052898 -35.656399 
33.907501 1.324040 5.191930 
9.792810 63.901901 -14.557300 
19.847000 59.044399 30.723499 
-18.354099 78.226303 1.806950 
9.428490 64.281700 -16.273600 
7.286300 84.666901 -22.033300 
-37.954399 5.618650 4.172500 
13.920000 83.667999 16.371300 
-41.817600 -28.983101 14.844900 
61.158001 63.639000 -21.264299 
-32.077400 48.073799 -8.888070 
2.260460 89.453796 5.200280 
-13.325200 85.484703 5.178920 
-5.843490 5.117830 9.747160 
4.809520 44.867298 36.519600 
59.253899 79.609497 -36.806801 
-7.265450 4.173720 17.465401 
-8.128110 89.460503 11.593700 
-39.262901 -53.227501 16.416800 
-14.312000 87.831100 -19.290001 
26.839899 15.806400 10.196300 
15.241600 -25.997000 23.882700 
-39.239700 -28.944599 5.957610 
-13.285400 48.052799 35.799801 
-23.067499 45.803902 -8.196330 
3.522780 4.242310 18.977200 
-23.794001 -10.870900 6.063280 
-15.761800 64.970001 -14.551100 
-55.401001 79.528900 -37.383999 
-29.719101 57.008400 14.116400 
-47.102699 -45.248001 8.990510 
44.256599 50.411800 4.911760 
-3.667000 -6.755700 56.754398 
-28.603500 -3.402630 -2.351610 
-18.520800 16.093500 25.304899 
-40.363201 -27.800800 19.040701 
-39.731998 -40.072399 16.034500 
26.358400 -43.208000 13.669900 
8.872530 79.458702 -25.968201 
-13.845600 20.397301 27.525000 
10.700800 85.796501 13.651600 
48.599300 66.380997 -23.136000 
8.724820 70.585197 -29.669300 
14.472800 79.812798 -20.580299 
22.961300 64.762001 -5.816460 
19.758499 38.903702 19.155899 
2.731680 84.470299 -15.984700 
-39.662601 -3.042260 12.161700 
-22.378300 -8.764970 17.377300 
-12.557600 24.152000 29.493601 
40.717201 46.635201 -4.932530 
9.491560 75.885101 32.205898 
37.848400 54.731800 10.142700 
50.626301 82.735199 -21.527100 
-4.167480 -6.345310 49.497398 
-15.559600 33.107300 28.129801 
17.738300 42.281200 -9.212040 
-45.840900 49.317402 -8.912910 
-37.087799 -53.708900 1.562360 
29.275700 -16.386600 17.887501 
15.882000 30.085100 5.515290 
34.208302 -50.529900 4.397780 
-34.798100 -33.316002 5.301240 
28.569901 -44.605999 20.907700 
-50.012299 -49.095402 4.502030 
-51.473499 81.599297 -41.049099 
-31.878201 63.578701 7.513120 
28.906500 1.112380 -0.803373 
-32.959099 -4.091670 -2.650520 
-37.250301 -22.187099 21.542200 
-57.325001 73.240303 -25.978901 
-1.572780 8.810910 33.153900 
57.907600 62.358200 -25.161100 
3.738510 7.042170 27.493999 
21.636299 -4.157080 -2.327810 
-20.631201 29.855000 15.060300 
-36.248100 59.278198 9.390260 
-57.157398 71.446098 -47.836300 
21.701401 39.506100 20.419600 
17.140699 -14.335900 16.999901 
-20.772400 -24.818501 11.508500 
-7.484940 86.088997 -26.706100 
31.875601 64.358597 8.272540 
-5.935600 -2.022780 44.307499 
32.899899 44.563301 2.909740 
11.678900 -0.648196 2.709430 
46.545502 62.276299 -20.749901 
-45.196400 -53.239399 11.874500 
-0.602344 85.055901 -17.189199 
59.635201 71.609398 -16.110600 
21.906099 41.043800 3.085390 
5.567380 16.221001 -1.388050 
7.176510 86.801498 20.348900 
15.853700 81.770897 -19.109900 
4.379700 32.981201 -8.485410 
-27.947100 -53.252399 18.069201 
18.976700 75.912399 7.006220 
-5.109500 42.956402 34.567402 
-6.832190 23.080400 -4.741000 
19.830900 13.806400 2.045180 
5.655360 83.715797 -13.093500 
-3.883510 0.281545 45.373100 
-40.098598 -52.874599 12.406900 
49.994301 84.199600 -28.297300 
-42.455002 -18.261600 5.382980 
-30.768299 50.667999 -9.658630 
-11.316400 87.650398 6.354770 
44.764500 48.578300 -4.905990 
-29.604300 65.551003 -3.553400 
-16.270700 2.519250 23.952999 
-35.839401 -30.554399 22.390699 
31.097099 -5.271790 16.733000 
-37.696301 -4.721010 14.687400 
13.383200 -49.742401 29.798300 
24.956200 -28.141500 5.106470 
23.968500 69.119301 18.597900 
-48.871899 54.273701 -6.081800 
33.620998 44.694698 -0.112235 
-32.872601 7.723500 21.896601 
0.151600 40.246899 -11.348300 
45.764000 49.419102 -14.315900 
13.983400 72.601601 32.122398 
-31.641600 -25.819401 2.338740 
10.601300 84.085403 -2.703360 
-32.110199 -11.679100 16.479200 
45.377899 72.347397 -10.617200 
1.282500 4.651120 10.051800 
17.470301 69.050797 30.525000 
49.713501 73.335098 -23.833000 
21.448700 14.070600 20.212601 
21.042801 -32.151901 8.687730 
-23.433300 -47.600899 21.172400 
31.670200 -8.806760 0.908184 
-36.278999 64.386703 -11.281800 
-45.416199 -44.542801 9.136730 
52.175999 69.670700 -26.887300 
-20.534401 36.876400 17.438400 
-36.997299 6.677000 16.146299 
-35.893902 -10.910600 -2.295850 
-15.207700 55.677799 36.700600 
-39.911598 -1.383200 11.832600 
15.615200 23.629101 22.892500 
34.743999 -7.022340 9.057640 
9.192700 84.122498 -15.508000 
44.159000 73.248398 -15.410900 
-4.566600 53.837601 -28.240499 
24.650400 14.721600 17.293200 
15.112500 37.294899 -7.791230 
-28.132900 68.568100 17.458300 
25.065800 70.592400 12.756900 
-49.351002 49.815102 -17.958700 
-3.287950 89.776299 2.211020 
57.842999 68.934196 -35.414700 
60.464901 67.953400 -9.326100 
-3.903450 41.275398 -13.139300 
-9.652110 72.364197 -27.800501 
-13.011800 9.455270 1.555720 
13.885200 -39.108200 22.508101 
61.521702 62.771999 -19.296301 
2.752440 39.777401 -12.959700 
-6.625550 25.804899 -5.965760 
-8.783930 1.739430 15.130800 
-29.594601 15.870300 8.445700 
-1.573880 57.433201 -45.303200 
54.299999 84.568199 -23.028799 
8.727670 62.400002 -29.051500 
-22.070801 70.465103 -6.275900 
-2.250650 19.020800 30.594299 
-59.493801 60.242802 -13.379200 
-53.129101 -49.180698 3.601810 
60.753502 63.307899 -22.175200 
-11.997300 79.778999 -8.797260 
-29.433399 -4.347270 -2.145310 
-57.653301 54.859100 -16.327499 
37.799999 45.378300 -0.029931 
10.976300 -2.333290 17.646700 
58.284000 82.130203 -25.984400 
19.785700 37.522099 2.339960 
-43.445702 56.749599 2.473110 
17.338301 51.194500 -11.502600 
-48.734299 -47.007900 11.386400 
55.502899 81.055901 -19.770901 
57.992901 81.155296 -32.360600 
13.487900 8.564600 0.808289 
9.477190 79.862000 29.521200 
-20.682100 78.028503 9.292270 
50.506699 50.532101 -15.660000 
-0.525492 38.840099 33.361500 
-49.819000 75.679703 -53.266602 
-31.174400 -46.027000 24.394800 
23.521099 16.746700 15.432500 
-20.252701 57.768700 32.714500 
-30.012199 62.063099 15.764100 
-40.424301 -34.266602 17.119600 
-43.748798 52.170502 -23.313000 
-8.494920 21.378700 30.427401 
-31.414400 -16.652800 -0.302253 
-63.416100 60.419800 -22.132099 
-35.775200 -6.834010 16.257299 
15.354000 28.064301 6.101560 
-8.693310 33.266602 -6.486260 
2.559250 78.176102 33.938099 
-3.218710 54.332298 -15.939900 
20.553600 47.654499 27.843201 
-19.078600 88.349998 -23.621901 
36.063599 -50.559101 -0.972345 
31.345301 -50.852001 19.353100 
-25.300501 -21.807100 2.199170 
-22.174900 22.936300 9.291570 
-8.869550 85.531403 -28.563801 
28.392500 -41.673599 23.290199 
-48.190601 -52.056900 5.081470 
22.902100 -36.021900 11.753600 
7.207780 59.155300 -15.638400 
2.416260 -2.574580 38.434799 
17.781401 -23.189800 6.037320 
-3.643830 46.562099 36.377899 
36.176701 -54.154598 -2.157620 
13.016600 35.923500 -8.790340 
9.604030 65.105904 -19.117500 
-54.837399 62.571800 -43.063499 
16.421600 81.509300 -19.647400 
-5.494240 1.592460 37.269199 
17.975500 69.054199 -9.005920 
49.968601 72.253403 -8.199450 
-4.945110 62.002701 39.009102 
26.685699 -46.984200 25.309700 
30.607901 -45.325500 16.945400 
-54.764702 74.237297 -26.269100 
23.773899 16.619101 6.996350 
29.907801 -53.677799 5.782110 
15.261400 72.446999 -10.276100 
-7.512250 58.862701 -35.985901 
2.448960 42.915699 34.263901 
19.635300 -33.870300 9.823380 
56.274300 79.611801 -19.420099 
-54.055500 81.446999 -43.715500 
-37.064999 6.634980 15.987400 
4.942390 55.735298 38.927101 
2.535270 34.085300 32.267502 
-12.445300 64.242401 -23.594601 
31.697500 -31.233601 16.088200 
-2.091760 54.421398 -17.239901 
-53.233601 61.328400 -37.472099 
-33.706799 -5.908460 17.959000 
-18.269400 -5.167820 7.436880 
8.242110 -0.372352 12.013800 
-38.605000 47.351501 1.668520 
-18.502899 49.397701 32.965900 
43.874599 48.259102 3.190330 
-3.965950 11.356300 30.694500 
-41.568298 48.248699 -7.151490 
61.993599 66.432404 -13.076900 
20.474600 -31.171301 28.613501 
15.526000 70.829300 -12.453600 
51.517601 63.831600 -1.436820 
-5.538110 -4.809660 48.165001 
-35.254200 3.024350 19.811800 
25.476601 68.636497 13.377800 
-38.668201 47.475700 -8.329830 
51.233200 83.170898 -31.210600 
-24.609600 40.713699 4.519850 
-40.518501 -31.851101 17.980499 
-4.269000 59.814999 -44.818001 
-39.781399 -6.209600 10.417900 
49.179100 83.740402 -22.983000 
-1.502830 65.168404 38.892399 
-44.857601 59.428200 -26.340000 
-6.881800 7.915320 24.543200 
-28.385900 -41.370300 9.640360 
-21.722000 -28.752701 7.615400 
37.861198 54.842701 10.133500 
-41.559799 -14.701100 3.923380 
0.069735 54.139198 -35.212002 
8.135460 52.869400 37.431000 
21.699800 -53.432400 26.649000 
27.485100 -49.471100 -2.416980 
49.048401 83.309700 -26.129200 
19.795500 36.968300 8.768860 
-16.144899 34.388000 -3.293970 
19.853800 75.060699 4.293310 
8.595270 86.596497 -5.475050 
-26.187500 58.957500 -9.439580 
2.223830 16.129900 -3.693790 
-41.604698 -13.708200 4.466270 
45.703499 56.140900 3.336730 
18.077801 -13.430400 4.459180 
13.476900 -48.054901 21.425600 
-11.583000 43.481300 35.219601 
6.694660 82.812302 -8.906040 
-28.329500 -52.008598 10.816800 
-46.909801 56.898998 -0.731761 
-23.301800 -26.325701 4.451350 
-6.139220 57.721500 -39.282902 
-2.289900 -6.715980 46.853001 
-4.495660 -5.615150 41.990501 
18.929300 92.427498 -21.403200 
21.422199 39.963100 7.835780 
-29.167000 -38.153801 23.136600 
-47.513802 61.726200 -5.575400 
-56.131699 64.136597 -46.664902 
6.948060 60.647400 -22.215099 
-48.461601 65.555496 -9.289270 
22.364901 49.150600 24.742800 
-11.626100 86.193100 3.751620 
27.621599 -18.560900 0.669229 
48.061501 52.874298 -3.175110 
59.152802 80.491898 -35.622299 
-15.496900 44.825298 -14.440800 
-21.990000 49.877701 -11.368900 
-15.231200 80.371803 24.238001 
14.820200 -40.619900 21.043699 
-36.657902 48.372002 -11.174700 
-15.013400 77.826401 -6.956140 
-36.091099 10.466700 11.917000 
5.931270 67.451401 37.507999 
15.096000 -5.151850 1.801440 
-4.503450 87.397797 21.582300 
49.323101 78.799599 -20.602301 
10.349200 82.501602 25.778400 
-20.941999 -24.544701 11.898000 
22.088499 -5.942900 -2.048490 
-11.284100 44.935001 -15.143800 
18.142700 49.738602 30.589899 
-1.380270 18.532101 -4.910340 
-56.023701 63.861500 -46.316399 
48.808399 75.879204 -15.156400 
23.488501 55.430599 25.277599 
-27.825100 -44.918098 10.466700 
-35.844002 -45.263500 3.101410 
-9.648860 14.973400 -0.807227 
11.499500 -4.126690 7.862890 
47.676201 60.211899 -22.231400 
-6.756510 57.564999 -30.114300 
-48.163700 60.500900 -3.691100 
-20.788401 -25.958401 11.726900 
-22.291800 13.724700 24.351700 
-52.377499 73.967003 -28.039000 
13.699200 81.939201 21.014500 
40.435200 -52.780800 7.222340 
7.261400 1.531390 14.862900 
21.013700 68.564400 26.385099 
-8.774980 88.753700 -27.598700 
-39.602699 66.711700 -19.867001 
22.383101 74.075203 10.818300 
-48.515301 54.042702 -30.072100 
19.900101 -6.649980 -1.040420 
-25.782000 12.198300 1.942840 
54.919399 86.041801 -31.702400 
-21.273600 11.148800 0.543434 
10.720600 85.289001 15.815600 
20.276199 -17.649200 21.801800 
46.461201 61.079399 -20.949200 
-57.133099 72.863098 -29.235001 
31.058901 -53.056099 1.719870 
-9.429360 81.958801 -9.862150 
51.714901 78.205597 -30.713400 
22.552601 11.768000 22.369699 
-18.167601 31.542101 23.355600 
29.313801 -23.343500 4.050310 
-19.517000 30.373800 20.044100 
18.605400 15.664100 22.654301 
-6.618780 5.834350 19.763201 
-17.426300 29.136999 25.001900 
-16.545300 63.977798 -13.097400 
-7.185400 66.859398 -31.521000 
-35.943100 7.500530 3.411400 
-58.317101 73.068802 -47.485500 
18.664200 15.568100 2.727400 
60.075100 62.251499 -22.972500 
19.226299 36.875301 5.146440 
-29.376101 67.788101 9.332010 
-26.999300 18.282400 12.596200 
-18.953600 13.938000 0.905618 
-61.823799 59.918201 -46.171398 
-29.411301 59.515598 20.612600 
16.964800 -53.433998 28.654301 
-2.597620 55.242001 -36.439701 
-13.275500 90.929901 -20.064600 
57.372398 66.401703 -30.147499 
-33.525002 -47.722500 2.125730 
32.083099 -6.560200 15.118500 
23.432699 41.459202 17.136700 
-42.876900 -43.643200 9.732870 
-20.072701 94.590897 -30.454399 
25.729300 -53.279800 21.642700 
23.455601 8.826250 23.674299 
-30.136900 2.827960 23.195601 
-5.606520 54.648102 -28.748501 
16.975000 65.352501 -12.403900 
-16.398899 84.507896 12.014300 
26.146400 -2.499080 22.032101 
-24.833401 72.822998 1.687200 
-41.650600 -18.897699 14.351500 
-39.595402 47.678799 -6.656510 
-5.834370 8.872900 28.936300 
-3.561560 -8.313690 57.118301 
21.886700 74.491699 9.076570 
58.390099 65.483704 -27.022200 
17.333099 92.633003 -28.003300 
-28.001801 61.682499 23.559900 
-13.641000 44.222099 34.522400 
-14.783500 -3.055870 18.769199 
-5.749110 -3.630150 42.367298 
-45.564301 -51.667801 14.661700 
-15.613400 83.065498 6.269920 
-25.066099 65.301804 25.430700 
17.628799 45.845600 29.534500 
9.174260 50.711700 36.726398 
12.899900 27.672300 2.161650 
-8.917310 13.336700 28.502300 
-24.864500 -31.762100 20.242399 
-25.951200 -47.851501 25.042601 
0.662878 81.434799 -23.371099 
-26.142401 14.168200 22.908899 
-22.248199 75.116096 2.488550 
44.915001 67.999001 -5.951710 
-50.102402 59.953201 -7.720220 
-8.255720 87.725899 -18.583401 
21.568800 51.566799 28.354401 
7.311990 84.712898 -17.013000 
59.490200 70.529404 -11.949800 
20.744900 -53.475101 5.505460 
4.078380 54.477299 -39.215401 
11.466800 4.973250 0.944311 
-17.947500 73.192101 28.096500 
5.390780 88.336998 -5.300000 
-24.886000 41.488400 8.623420 
47.930801 75.538597 -18.522900 
-11.419900 50.975601 -14.478300 
-19.963100 70.322098 -9.397240 
12.872400 13.705800 0.079036 
20.789900 75.571098 19.678101 
32.270401 -7.833670 13.430800 
25.182400 -42.726299 27.042299 
8.755150 69.071999 -27.992701 
56.967602 77.885101 -19.039900 
15.805600 54.577400 -10.899600 
-1.094170 11.459300 -3.323040 
33.495602 62.521400 -3.250890 
-39.720001 1.554170 11.650500 
15.803900 47.259602 31.920000 
10.110900 81.166603 -14.549500 
10.690200 70.085602 -24.406099 
32.855999 -24.171600 12.721200 
39.417198 51.446301 -11.400600 
-0.973976 80.235901 32.394402 
-2.893690 24.214500 31.612101 
-6.481850 57.310001 38.987801 
12.454000 -51.037300 25.480000 
-11.134300 -0.929578 15.584800 
27.961100 -53.084801 14.741700 
-18.535200 75.653198 -5.777810 
-10.752500 32.301998 -4.844730 
30.518299 -18.114401 19.868999 
21.079399 73.812500 3.208050 
13.962400 -21.058500 17.233299 
-40.304001 -4.497340 3.671030 
2.826690 18.805401 30.443001 
-3.024100 89.080101 -2.645410 
-36.778198 -53.267200 19.404900 
-62.815102 62.296799 -39.952099 
14.871600 34.314701 25.615200 
3.231040 22.476200 31.494200 
-17.783600 17.488100 25.384899 
-24.415100 -14.301000 8.446120 
39.327599 54.338600 -12.237800 
-12.555000 22.286900 28.845900 
10.606000 84.415100 -6.223760 
-20.327400 -9.286820 15.383000 
39.838100 59.022999 -16.005899 
17.499300 -32.713402 27.918100 
-0.166517 63.646500 38.706402 
28.142401 -42.740101 17.507401 
-51.596298 51.094700 -15.169400 
6.697780 85.374001 23.414000 
-38.996201 2.189290 3.666970 
-43.089001 -53.121498 12.542000 
-29.790600 10.111500 1.273510 
-5.975750 63.690300 -36.136902 
58.136600 71.894402 -9.901380 
-17.276800 -0.803870 3.527130 
40.184399 54.253502 8.094940 
23.448900 -24.067600 26.690701 
22.907400 -40.020401 14.036100 
9.645360 86.202698 16.327400 
30.076500 -10.654900 14.678300 
17.968300 31.630301 19.337400 
-29.798599 60.189701 18.978500 
-28.284201 46.912800 10.651900 
26.209000 51.381901 -5.740460 
17.761801 23.712700 20.039101 
-18.902201 38.413502 -6.333980 
-31.389200 8.283010 0.765867 
-5.597070 78.954102 33.156399 
13.260900 35.335602 -8.002530 
-57.592300 65.914299 -52.163799 
13.300800 -23.739100 18.407900 
-10.239700 38.474800 31.243700 
-36.896000 -32.882900 21.724100 
-22.952600 20.167601 20.518801 
-6.785690 49.649200 -13.492000 
-62.650002 63.688900 -19.256599 
12.654000 -28.497000 19.667101 
9.703800 69.591797 35.209202 
-21.046000 -22.216999 10.133400 
4.484990 84.316399 -8.729330 
-38.301701 -38.668598 18.894300 
36.493099 -51.385300 -1.220140 
14.066500 -44.821701 25.377501 
44.571899 48.475201 -5.293570 
55.745399 78.170502 -39.285801 
56.415001 73.827599 -12.741300 
3.671350 88.576302 -0.270090 
22.845600 11.876300 22.186001 
-1.099890 36.442902 -9.945330 
19.636999 39.184101 22.793301 
-20.420500 66.409897 -13.268300 
-7.672200 23.440201 31.417299 
5.665960 87.859200 -6.747100 
-39.960899 -15.762600 15.633700 
12.834400 54.553299 36.058399 
-22.819500 -38.861099 15.429400 
-32.158699 66.131203 -1.686720 
-36.607899 -52.983601 7.832150 
-30.450001 46.622898 -4.621980 
-21.048800 26.751301 11.976000 
18.054800 74.870697 -3.875070 
37.473701 61.904400 6.409080 
18.660200 42.424999 26.409300 
50.601299 50.250702 -11.544000 
47.784801 52.319099 -3.169230 
2.565710 87.452003 21.563101 
-9.247160 10.234500 1.107630 
-22.016199 -5.180360 1.994680 
3.930050 84.777199 25.879601 
-19.130501 15.085500 1.139690 
-59.319099 68.570801 -49.872501 
9.175570 69.860100 -25.926500 
32.061199 -25.949800 7.960720 
32.881199 -16.528700 0.294632 
23.949900 -38.676498 29.865299 
-55.557201 73.540703 -23.512699 
6.765930 40.784599 32.600800 
18.518200 -53.085201 27.439501 
-41.856602 -50.259998 16.836599 
10.933400 63.944500 -12.617900 
-44.964298 54.542702 -24.109900 
19.073000 10.443300 0.102179 
-29.786900 -6.888690 19.411501 
21.108000 38.854401 11.399400 
23.363001 -1.929780 -2.430930 
-20.602200 35.935699 14.238500 
17.890499 72.921097 28.352200 
5.693800 3.017540 17.987301 
-24.701200 13.148500 1.747590 
55.466400 68.960403 -4.703710 
-18.508600 24.641500 5.821230 
-3.216620 27.564400 -6.973710 
-24.115700 -49.725399 24.460400 
-40.964600 -12.144300 -1.501430 
-13.715200 31.605600 -2.178710 
32.117699 48.450500 12.230200 
-55.294300 80.262497 -39.476200 
-33.991901 -53.721401 5.820700 
49.717701 50.474499 -8.437090 
-36.788700 5.038020 1.771120 
30.805500 -31.106300 10.861600 
29.647400 -31.896799 10.066700 
11.532900 45.483601 34.033401 
16.489799 70.062599 30.825600 
31.994900 -53.522499 13.309900 
18.021299 -39.060902 14.189700 
5.857620 41.382801 -14.149600 
-22.957800 -20.896999 4.572670 
8.554380 55.896801 37.968899 
-33.877602 61.460999 8.818780 
-27.139500 12.124800 2.397220 
10.237600 -1.471000 7.137990 
31.355801 55.858299 14.788300 
-41.032600 -15.907900 2.801700 
-41.615799 -23.765800 15.772800 
4.985270 52.287899 38.262001 
15.042700 78.923401 25.982800 
13.266400 -30.211901 12.903000 
7.339120 53.691399 37.861599 
-19.894899 42.000000 -10.024100 
10.178600 66.801003 -26.067499 
23.153900 -7.780010 -1.897900 
-16.165100 95.963799 -24.141100 
-27.936399 -13.342200 1.792450 
-50.093700 82.091904 -45.486801 
-28.074600 -42.270500 10.448800 
-20.167000 96.587898 -30.373800 
38.288399 61.961700 -5.628680 
-51.071400 -52.789200 6.776570 
-45.189800 -52.420399 14.673700 
3.036830 29.821100 -8.592880 
56.896099 65.717598 -28.565201 
-23.549801 65.958397 27.883900 
-22.789801 65.719704 -11.011900 
-33.945801 7.617880 1.111960 
2.538900 75.365799 35.632198 
28.357901 55.595100 -6.186280 
-16.149000 75.478302 -8.097600 
8.346130 86.972504 0.190701 
38.027100 -53.742500 9.242260 
12.444400 75.922501 -7.591260 
-26.482201 5.797060 25.475300 
0.727005 25.752701 31.844500 
-2.924410 89.938400 3.134090 
23.106800 65.597504 23.545700 
9.387420 33.272598 31.855700 
-38.882801 65.760300 -2.515630 
-35.063999 53.503399 10.285500 
13.271600 13.210500 26.103399 
-31.408600 64.264297 -7.582720 
36.701500 45.985100 3.961600 
-19.567499 66.954399 -13.298000 
32.637600 3.257840 14.975400 
10.743100 59.845501 -12.265400 
-6.120880 87.228401 20.959801 
17.959801 62.766602 -10.864500 
-22.013700 23.562799 18.388800 
15.508000 57.701500 34.692101 
-17.017500 33.001301 26.450899 
17.364700 34.375301 4.510540 
-32.299999 -12.351600 -0.476331 
44.702499 69.741402 -17.783300 
2.719150 13.556900 29.107800 
-24.229799 39.984798 6.890370 
35.944302 -50.545700 14.901400 
15.882500 74.972603 28.742201 
-4.488410 -2.270830 34.842300 
-13.211900 92.007599 -20.856600 
-32.381001 46.387600 -5.192730 
33.222401 -48.321602 1.219330 
12.409200 34.570702 29.047199 
-6.111420 50.861698 -11.964800 
-4.095170 -11.285100 56.003700 
-26.919201 67.418900 -4.009720 
-4.308040 -5.414050 40.635101 
-9.972050 88.016502 6.887210 
45.476101 62.230999 -19.360001 
-36.010899 -51.172100 22.059401 
13.345700 -47.307400 22.612700 
17.384701 37.150200 22.159100 
23.774500 68.666702 22.214500 
-36.390701 -52.869801 17.799601 
-38.904701 1.418780 1.976050 
-24.452101 73.535698 7.583850 
23.900200 17.302799 9.649530 
-34.825600 -42.588299 7.835930 
-6.817490 48.105801 37.417099 
-10.426000 44.805302 -15.175500 
24.007000 70.546898 19.749500 
-29.296900 6.400580 -1.385410 
15.626300 -4.740660 20.823999 
33.088902 -25.137100 11.775400 
15.299800 28.714399 24.252501 
27.632000 52.818298 16.093000 
-53.114498 71.254898 -45.078098 
14.982500 79.787804 3.534570 
0.244854 25.639700 -6.795640 
3.071310 5.896230 30.461100 
-48.106701 51.371399 -10.137000 
8.919540 58.722698 -13.228200 
-32.127102 13.741800 18.743900 
61.688999 70.625099 -23.914499 
24.123301 -16.512899 21.530600 
-59.013500 55.362400 -16.318100 
22.017000 -47.139198 29.312799 
29.450800 11.628400 16.676001 
-9.459450 72.191002 -28.607100 
28.896700 -24.110500 25.498199 
2.926740 34.234600 -9.175650 
23.466999 -53.004299 21.075199 
-41.301498 -6.722930 2.418790 
23.462500 49.257401 -5.737280 
-20.858601 67.141998 30.045500 
-10.401400 87.065002 0.652328 
-43.076401 -52.770100 9.032600 
-4.757090 -12.224000 56.706001 
-12.687800 18.922501 -0.768804 
-26.248301 42.403400 14.436900 
27.634800 -24.648100 3.164550 
8.839350 83.049202 -14.597800 
-37.879200 -30.950300 5.680210 
-22.101299 21.435699 6.208560 
2.572020 0.761780 37.759300 
-6.944940 78.079002 33.428699 
41.967701 59.886902 -15.404000 
-12.373400 78.756302 -11.060500 
-24.509399 -52.566299 16.685499 
-18.453300 46.883301 31.715900 
-31.056101 49.193600 10.403800 
-19.706800 30.777300 19.171000 
-44.734200 57.814301 -25.280100 
-54.332199 51.635899 -23.145599 
7.674170 58.144699 -35.324299 
8.725720 63.243698 -19.233900 
-25.742100 58.480202 25.749901 
26.044500 16.094500 8.859780 
16.068001 -9.230630 4.631560 
-52.150002 71.807602 -39.749699 
-23.297501 15.632100 23.622400 
-53.866699 -51.559700 2.652050 
44.601398 48.591400 -3.745250 
-29.260000 -13.984700 16.459101 
24.834600 -52.749802 1.254290 
-7.021290 19.637699 -3.872570 
-5.117550 6.157260 24.903400 
61.532600 75.048302 -36.157902 
-51.224098 78.135101 -42.155399 
-14.212000 50.445900 36.268299 
-7.614760 78.273804 33.077301 
-39.859798 -8.986820 10.154200 
11.843800 48.828098 34.890202 
-45.028999 50.312099 -11.339100 
30.661301 -17.445499 17.370800 
-23.466499 -10.548400 15.304600 
32.164200 64.655701 2.663080 
56.442101 78.603302 -18.823601 
22.502100 -8.221010 -1.638570 
-60.354198 65.707603 -15.570100 
18.016500 90.281998 -20.212601 
33.867599 -49.689400 -0.718003 
5.030620 83.728600 -11.624800 
-25.869200 -31.565001 21.274599 
-60.792599 64.052902 -30.334499 
-26.184700 -5.769340 20.947800 
14.080000 45.169998 32.439999 
47.588600 70.969200 -7.991350 
20.868900 74.252296 4.486830 
-21.284500 -21.388700 7.390740 
19.110001 68.310402 29.747299 
25.065300 -32.910198 28.619499 
-61.453701 59.386398 -46.092300 
-39.532101 -13.648100 13.636000 
-37.881500 46.810101 -0.831278 
23.431601 46.543598 20.779800 
-17.447800 35.655998 24.065001 
58.272202 57.990200 -5.724230 
18.496099 -15.336800 18.646000 
-33.069500 -2.917620 19.719700 
11.335100 -1.153150 19.690201 
-13.092300 86.377098 7.240270 
-8.789080 87.147903 -28.455999 
11.865500 -5.402800 11.772500 
-24.814800 73.842697 -1.230540 
-17.572901 79.661003 3.450340 
5.399180 55.082401 -28.405600 
-21.086700 66.397301 -12.799500 
26.679800 -53.354401 21.064600 
19.794300 61.796398 30.462000 
8.613940 -0.331625 9.179950 
5.129990 15.672700 -1.364330 
-7.384310 84.314400 -10.670200 
-30.670900 -46.209702 24.565599 
47.972099 74.067101 -11.230200 
-2.678090 -6.378420 48.324100 
-40.669899 67.987198 -23.171400 
9.742350 53.904499 36.938099 
8.171940 59.574402 -36.342899 
-38.080399 52.039700 -14.579300 
17.082399 80.801102 19.266100 
-4.790110 18.899599 -4.562030 
-4.971050 17.114201 -4.068190 
-40.524601 -27.831800 5.694050 
29.858999 12.655100 11.594000 
15.203200 81.602600 8.723280 
32.916698 48.570999 -7.090480 
12.947600 40.286900 -11.982100 
14.235800 -21.273600 11.025300 
-20.538401 20.466499 3.759390 
-55.727100 68.536102 -14.517700 
7.906680 62.708302 -21.636101 
62.674301 71.743103 -26.120300 
-12.614300 66.325401 -16.831301 
10.953400 33.812500 -7.916770 
-20.021000 71.150299 -7.682890 
-62.449501 61.061798 -42.421799 
-43.682098 -52.928101 7.250990 
2.632530 41.936901 34.068501 
-9.407090 71.417900 -28.333700 
33.288399 -1.360890 14.568600 
8.560070 85.151497 -26.211500 
-18.002199 31.641500 3.959140 
-18.346201 45.636398 30.990000 
2.742650 5.383670 24.283899 
-10.605500 53.932899 -11.958100 
0.438806 46.808701 -12.106400 
-3.489540 -3.069220 54.169601 
-49.970001 -50.598701 4.012210 
23.761600 9.574520 23.500900 
-30.730900 -40.466400 7.979280 
-34.313801 -15.988700 -0.262080 
23.003099 -32.358299 29.097401 
-40.765202 -32.927299 16.452600 
17.762800 -28.869200 26.997999 
8.482350 67.954300 36.325401 
10.520900 69.247200 34.710499 
15.650400 19.282400 24.211399 
-53.509998 81.591003 -44.170898 
-2.099570 6.790770 17.480101 
4.692760 56.924000 -21.915300 
29.554800 -46.997200 21.005199 
-19.220800 92.471298 -27.309700 
-22.395201 77.274399 13.455900 
0.318935 7.222290 0.612046 
1.888190 10.057300 -0.462668 
-51.388000 -49.627800 8.510350 
-12.048100 70.418404 34.160500 
10.732400 83.979301 -16.052000 
59.212799 80.337799 -31.413500 
-26.736401 71.967300 1.118050 
-40.200401 -34.708599 17.600201 
-42.681999 -43.369900 11.908800 
57.916801 78.106903 -38.031200 
-15.293500 38.664600 28.307301 
8.589360 45.627399 35.316399 
25.833099 -34.590000 10.220900 
18.635401 35.709000 7.008920 
-7.914120 61.044300 -30.639999 
-10.270900 84.071899 24.671400 
21.116199 -23.505600 26.109501 
-46.159100 56.039001 -25.692101 
-32.467701 56.198200 11.709100 
-6.137630 -1.483850 37.794800 
-62.916801 59.120602 -21.338200 
-19.986000 33.872898 14.587300 
17.197901 -12.984900 17.045401 
-1.414160 21.436701 -5.993830 
-32.039001 47.981899 -8.728820 
1.945280 17.805500 -4.035230 
-19.570101 80.412201 9.849480 
14.726500 -0.502078 0.016156 
22.787600 73.866798 14.034000 
23.406200 72.759003 16.629299 
-35.639400 -17.959400 -0.582028 
-39.086899 47.527100 -6.137390 
-46.261101 59.016800 -28.010000 
43.570202 65.647003 -16.468700 
-7.463500 61.909199 -38.021000 
-37.993099 66.194504 -6.433730 
4.855410 10.224100 26.754601 
-0.152298 57.736500 -45.864899 
18.093399 37.322300 20.745600 
-33.020000 9.117520 1.922030 
-53.574699 65.395401 -41.804600 
-21.423100 76.139603 7.182730 
0.030778 1.904550 40.913200 
17.823000 -36.940102 28.851299 
48.301300 53.380199 -3.136790 
13.937100 93.866302 -23.625099 
-6.139740 15.424000 -3.396430 
-32.747200 -28.100000 3.435100 
-34.942001 -5.521140 17.326500 
34.351898 0.333776 6.077420 
12.447000 85.445297 13.184400 
-27.173201 59.173599 -9.046190 
28.690201 -40.550800 23.462000 
-6.834680 58.354599 -33.788200 
7.288950 16.077400 -1.105660 
8.679650 62.924400 -30.770000 
1.511300 -4.239250 40.848000 
-24.538500 -15.816500 9.105760 
-7.705530 89.568901 8.181510 
-27.995100 64.960999 21.774599 
-40.977402 -3.788950 7.762800 
15.331700 8.627820 0.277581 
2.970800 25.081900 31.675400 
-42.140202 -12.415600 0.528865 
20.667999 21.689800 9.667100 
6.636850 61.543598 -39.980499 
34.649399 62.286701 -3.691640 
-41.838501 -7.572710 1.676710 
19.862900 77.703400 17.944000 
-26.795000 55.898800 -9.432820 
16.655701 71.014397 -9.694980 
-28.976700 67.431900 13.979400 
38.256802 53.755402 9.680950 
-4.955110 84.706398 26.848400 
1.055840 89.692001 -0.439477 
15.900100 -12.065700 14.960000 
-45.851200 -52.875500 -1.069160 
57.423500 64.509499 -3.848650 
9.159210 36.442699 -11.206000 
20.958500 73.500900 22.508400 
-25.057199 53.613998 26.129400 
-41.803200 -51.088299 -8.455020 
14.186900 -29.883200 23.590599 
62.504799 69.278603 -33.507999 
-19.035299 36.518398 -3.168950 
27.729500 -50.585701 1.625410 
-12.479600 37.151699 -11.862500 
-29.189301 67.489098 6.029300 
51.473000 65.700302 -26.577801 
-23.713100 -29.232700 5.234960 
29.299601 50.304501 14.075700 
12.232700 71.369102 -21.791401 
23.602501 -48.990200 28.037001 
-49.655399 57.820702 -6.592580 
-7.445370 15.616200 -1.904400 
-23.269699 -29.302700 6.137860 
-61.298599 68.469398 -19.235901 
14.737800 24.467800 24.970900 
-27.303499 -42.018398 10.925900 
44.854000 49.038502 -2.503410 
-38.141800 1.418630 0.786777 
0.656779 39.567501 -11.046800 
19.034201 78.002800 21.290300 
-27.386700 44.993000 3.794480 
-19.591101 59.532299 -12.100700 
34.244301 -53.832401 -0.388235 
-13.222000 84.563904 -1.399200 
14.821900 -44.170700 23.427799 
-14.164700 -0.996288 8.279810 
0.186155 48.547401 35.961700 
-38.701199 -13.748800 -1.620270 
15.046600 -46.066601 18.420799 
-21.983999 75.134300 3.549870 
-34.046001 8.722260 20.416700 
-42.023300 48.134102 -9.579130 
-42.124699 -52.340401 -1.181800 
-22.568501 -29.055599 17.278700 
-13.314100 35.909500 -10.205900 
28.976900 -41.691101 20.042400 
-27.899000 66.477303 19.634199 
61.578999 67.817101 -28.742800 
-51.625999 78.900101 -39.151402 
7.745020 60.660999 -24.779400 
-8.836060 26.917999 -3.486460 
0.650179 1.968960 40.197498 
51.056099 58.352501 -25.722401 
-3.061170 29.805700 33.200199 
-1.572350 84.612701 -19.108601 
25.119200 69.749702 14.015300 
-32.115799 5.568980 -1.051570 
-55.536301 71.477097 -19.483500 
18.698200 28.605101 11.842600 
23.124901 58.840900 26.288000 
-24.905199 -8.670920 2.215390 
-50.188801 74.272003 -36.127602 
-6.508860 34.896900 33.659401 
30.013100 -48.748299 2.527100 
-45.047901 -45.875999 12.903600 
33.034698 52.114201 13.799100 
12.628200 79.488297 28.176201 
17.048599 25.434799 8.955390 
-59.385399 74.575897 -33.841000 
1.191350 50.750000 38.416100 
20.321899 37.960201 6.367930 
5.761170 88.550003 14.271700 
-20.958900 27.522400 15.474300 
-41.338100 65.638100 -4.393780 
20.614599 96.588097 -25.059299 
38.590599 60.687000 -10.210900 
19.901699 93.140404 -22.339800 
3.989780 62.232700 -40.866299 
-62.428799 59.981800 -19.702700 
-33.430801 52.235401 -12.436800 
-42.523800 -53.195499 1.867820 
-27.676500 -51.474899 11.427800 
-53.449799 51.780701 -15.579800 
-11.443100 72.299599 -25.280100 
-58.396599 58.414501 -51.876900 
47.504200 70.029800 -6.620760 
-2.122430 65.513397 38.844101 
-7.497320 55.902302 38.769299 
9.669700 42.767399 -14.100100 
-14.841600 67.134598 -19.269501 
54.127102 55.595600 -4.828170 
-29.236900 64.745903 15.236300 
5.985440 64.352203 -32.187000 
-62.382900 63.729099 -36.481300 
15.193300 -34.412998 26.144199 
-18.382099 76.120300 26.380301 
32.996799 5.815970 7.030610 
-18.809799 87.347801 -23.281601 
-1.033660 4.087500 37.588902 
-25.375000 -13.487000 13.438400 
-29.927000 -36.645401 6.030110 
-10.077000 85.854599 21.610300 
37.633499 62.899399 1.389720 
-24.165899 -19.301901 4.095890 
-25.560200 -27.557301 20.923201 
7.313490 62.203701 -36.409199 
-50.997002 62.806301 -8.952530 
33.219799 49.117599 12.443700 
16.270100 2.497900 24.395500 
10.953600 6.834330 1.397380 
-12.210100 87.386803 9.113640 
-24.801800 -39.036900 10.880400 
-37.691399 -44.274101 19.928101 
2.120250 34.237301 32.284199 
11.926900 76.117798 -20.546801 
-48.740200 -53.389801 -3.490900 
-57.080502 58.977600 -34.395699 
-26.377800 13.079600 2.778040 
2.917970 89.934700 7.046940 
-8.483660 67.048599 -30.114599 
58.723900 81.021103 -34.333000 
26.885700 -34.536800 27.947500 
-4.231240 55.333099 -22.572100 
9.320130 8.528040 0.521604 
-7.261150 23.070900 -4.429310 
-24.677799 -3.540170 22.593100 
-17.789400 16.841299 0.893074 
60.876202 68.306396 -22.090000 
-20.623800 23.729700 21.968399 
52.765900 74.907898 -11.690400 
42.083000 66.825996 -14.955300 
6.446260 34.917801 33.562000 
-30.961700 46.162601 2.998180 
-30.500500 66.029999 1.107260 
-61.710499 67.905403 -44.549900 
-21.357599 36.951401 13.559900 
50.276600 87.580101 -36.105000 
-61.734501 67.601898 -34.092098 
-52.171600 70.818100 -42.147800 
-62.830200 59.540401 -22.808201 
-21.960899 94.671303 -29.435400 
-31.331900 16.115101 12.489900 
-13.546600 84.320503 1.465520 
-12.802100 63.360298 -14.244400 
-6.475030 85.535698 -8.957530 
-49.615501 82.448799 -43.156101 
4.318380 34.024200 -8.408690 
16.564501 33.411499 23.199200 
-13.082400 81.664200 -19.067200 
-16.645800 88.406799 -21.147499 
21.686800 -34.957001 11.099900 
20.006100 92.220703 -23.812700 
-39.557598 3.319150 5.716830 
6.611220 72.593399 -30.636000 
55.959202 65.050003 -2.682680 
48.944599 51.599899 -19.749500 
-21.336399 58.500000 32.442001 
2.236990 0.855185 30.602900 
-59.870201 56.632198 -24.390600 
23.837000 44.729301 15.279500 
37.369301 45.889999 -5.169000 
15.533900 -40.768501 26.639099 
14.652200 83.112396 16.580799 
44.259602 53.213001 5.528250 
-7.859430 86.458900 -16.773399 
4.708870 39.760700 32.827400 
1.195720 -2.505550 44.976501 
21.370501 -52.883099 15.315200 
12.651500 30.836300 -0.369270 
-32.131699 5.876050 22.405701 
-24.447100 60.113899 -10.815500 
-20.093201 40.984200 -8.041280 
3.210840 5.550170 20.598000 
-26.622700 -37.544300 8.197090 
-40.133099 -32.599998 13.204400 
13.646400 2.888530 23.607800 
27.728800 -43.838902 13.802700 
-8.527220 21.470501 30.438900 
-44.299599 71.162201 -20.403299 
-36.053600 9.474320 16.179701 
30.355000 -53.408501 11.400000 
-4.625190 71.327202 -33.975399 
-29.838200 -27.817499 22.837099 
-39.934898 1.646350 7.357600 
-43.044998 51.218498 -17.777800 
10.910700 76.991997 -24.135700 
-0.705765 72.811401 -30.439199 
-15.779400 11.610200 26.310499 
-21.148300 51.097301 30.488199 
-27.854700 70.860901 1.621550 
-1.868480 -7.474550 52.046700 
-57.743500 67.479797 -53.344700 
-16.952801 80.308899 2.814860 
54.861698 59.367802 -25.739700 
55.551601 74.017899 -12.106200 
-4.549930 6.536700 1.163850 
24.782700 -30.865200 7.112970 
-4.997770 5.632260 25.868500 
23.700500 51.669899 21.533701 
-27.683599 12.324700 23.746700 
-29.756201 59.100899 13.485600 
-46.407700 55.759102 -25.665199 
1.663400 53.268700 -26.605301 
-23.543100 21.959900 16.719700 
22.668100 10.417300 23.438801 
-39.097099 65.514099 -11.409300 
-31.257999 0.787254 22.454100 
46.370998 50.141201 -17.220100 
32.572899 -19.534000 12.945400 
18.445101 50.707100 30.522100 
-37.916500 -52.817600 9.107000 
-3.001240 90.597504 10.623600 
9.721910 22.455900 29.458900 
-23.643200 -25.547100 3.885920 
-1.130610 89.753304 6.075880 
0.193688 64.975403 38.521702 
-21.266800 66.422897 29.861601 
-40.496899 -1.352570 10.532500 
-30.353100 14.502900 6.965540 
4.139960 89.225899 13.113500 
58.721298 66.610802 -30.669800 
11.158400 4.699320 23.562000 
-35.926998 46.341301 -4.104880 
-19.806200 33.678501 8.020280 
-24.573900 71.560997 21.802401 
15.467300 -6.255080 19.575300 
11.339500 83.978798 1.054450 
-32.944401 54.292702 -13.012500 
-48.016300 62.084400 -31.433701 
8.161720 66.433800 -29.259300 
21.751400 -38.630798 30.537500 
34.210999 46.528599 8.312040 
-33.335499 58.353699 -12.881200 
33.292999 -23.990900 17.742500 
53.301899 80.020401 -41.835602 
-12.796900 65.842796 -25.631599 
13.615600 -30.972601 12.714300 
-15.788500 84.910599 13.807400 
29.308300 -33.869999 12.188200 
-52.317600 58.481300 -34.944000 
18.652700 78.864197 12.784200 
-57.989899 58.478100 -40.284901 
-11.321000 26.696899 30.685600 
-47.873798 50.779800 -14.296700 
5.868910 3.213300 19.191099 
11.784700 20.403999 0.862645 
-14.223000 85.199997 6.531740 
-5.788790 13.182500 -2.622030 
14.032600 -44.986500 25.057100 
-61.289799 70.342499 -40.369202 
-38.932400 0.371650 13.624400 
-41.159698 -22.641300 4.611690 
1.606870 5.685700 21.613600 
-10.329700 40.032200 33.134899 
7.816890 58.631401 -36.448399 
14.402800 58.053299 -11.306300 
2.816330 27.525600 -6.769250 
17.867800 -14.806500 17.978100 
15.609200 75.371300 -5.006560 
24.917900 -53.231499 6.765980 
-1.743470 89.821899 -0.600904 
32.278900 -1.198850 1.276710 
52.694199 76.262604 -16.800800 
-17.592699 78.822098 0.152527 
-35.285900 -29.302099 3.724020 
34.195499 3.189830 10.878300 
14.424900 44.336700 -12.772500 
21.241501 -29.221001 6.640980 
-9.972530 40.913799 34.004799 
29.479700 -10.595200 -0.592042 
-20.325300 37.680599 19.102301 
10.631400 19.294300 27.286800 
-41.237801 -17.100800 13.527600 
-1.361660 -6.369970 45.630100 
23.616199 -47.054199 28.085199 
-33.218700 -8.213900 17.156401 
42.700199 68.024803 -8.151390 
-20.276800 15.267900 24.873600 
63.030300 69.542397 -30.459000 
21.909800 -35.220200 11.302600 
-1.603280 72.205101 37.089199 
-35.084400 -21.306601 22.715300 
-62.732700 61.033401 -25.181101 
-7.967170 23.765200 -3.607730 
-30.115200 -26.492399 2.037880 
-14.453600 36.736099 28.217100 
-21.110300 9.597750 -0.143864 
14.969100 81.200302 22.206200 
-34.960800 56.778999 -14.404000 
52.605701 71.555099 -28.028000 
-22.658701 95.048302 -29.298901 
-48.201500 -53.667801 10.713200 
-42.797100 69.393997 -16.873899 
-2.041300 77.264503 -28.080900 
13.238100 18.374300 0.414933 
-14.285700 50.552898 36.269600 
21.372299 -47.383202 3.824530 
-40.485401 -14.670300 0.554753 
49.220501 84.205299 -24.120501 
-47.973999 -47.608700 -1.147290 
5.447450 2.847480 10.119900 
