0.17605557 0.39522162 0.38541368 -0.00352287 0.00021116 -0.00111411
0.68936652 0.43670228 0.66774279 0.00123342 -0.00015003 0.00262153
0.18850131 0.55829817 0.49244350 -0.00320548 0.00037964 0.00078259
0.41303423 0.26749229 0.64666378 0.00041588 -0.00023137 -0.00135283
0.63842517 0.75075334 0.62328619 -0.00066807 0.00023217 -0.00186166
0.73017591 0.75201774 0.27714506 -0.00166269 0.00063699 0.00111648
0.57151264 0.50075793 0.65248227 -0.00023346 0.00004257 -0.00083488
0.42034155 0.77566534 0.15415682 0.00100750 0.00024468 0.00229338
0.37863782 0.63710064 0.63138503 0.00054465 0.00032090 -0.00072050
0.51559514 0.46404716 0.72710580 -0.00009268 -0.00024651 0.00103699
0.73582911 0.14614901 0.23165525 -0.00139345 -0.00593732 -0.00172000
0.78779244 0.61275852 0.24642010 0.00279753 0.00021195 -0.00195084
0.61024588 0.64032555 0.70865178 0.00077299 0.00057900 0.00154224
0.14671430 0.78182882 0.40485528 -0.00664613 -0.00061769 0.00062003
0.73081356 0.25289491 0.15445040 0.00209839 0.00042585 -0.00328136
0.77344996 0.62958622 0.58077312 0.00271762 0.00057388 0.00146590
0.47655505 0.61978406 0.66086060 0.00023911 0.00004990 -0.00039244
0.52183163 0.67909253 0.66123062 0.00007828 0.00060117 -0.00052627
0.55265719 0.44885352 0.92126334 0.00609251 -0.00236031 0.00419539
0.26405978 0.56215757 0.29434875 0.00154221 0.00025074 0.00062036
0.85286599 0.23145771 0.39162973 0.00590633 0.00116995 -0.00035426
0.40051112 0.20144644 0.16144457 0.00151405 0.00017525 0.00276503
0.24386108 0.77689564 0.43927830 0.00242392 -0.00031436 -0.00019568
0.34465879 0.38047540 0.68703204 -0.00098484 -0.00044917 0.00230557
0.77706903 0.69744182 0.57529473 0.00212697 -0.00007053 0.00131427
0.26478761 0.39301720 0.29316622 0.00107433 -0.00003915 0.00034804
0.35376406 0.26635525 0.61609584 0.00085086 -0.00020028 -0.00149837
0.74848378 0.80319774 0.31909642 -0.00321474 -0.00051039 0.00098897
0.27221462 0.22057319 0.52546710 0.00188955 0.00027991 -0.00120800
0.68248212 0.63106507 0.67267269 0.00149653 0.00035946 0.00236368
0.69740218 0.46423295 0.23000795 -0.00127230 0.00007706 0.00112280
0.56718397 0.34674719 0.76997381 0.00231655 0.00024650 0.00124331
0.68335199 0.16192524 0.58740640 -0.00234430 -0.00243421 -0.00332757
0.44394493 0.23656701 0.74624944 0.00032797 0.00004485 0.00341194
0.58696669 0.29153034 0.71576154 0.00052765 0.00018929 0.00082617
0.72264689 0.73337030 0.53916824 -0.00140737 0.00047321 -0.00127572
0.27490878 0.46222731 0.27343133 0.00157513 0.00005054 0.00048867
0.75468731 0.72498471 0.34105346 -0.00149998 0.00086750 0.00067030
0.84068382 0.16458711 0.41015539 0.00553114 -0.00555430 0.00054680
0.68480986 0.78942150 0.58667171 -0.00180202 -0.00045551 -0.00188636
0.82664406 0.58907324 0.38812855 0.00316933 0.00043036 0.00011370
0.64139789 0.19131477 0.72757190 0.00311844 -0.00192033 0.00607531
0.57384676 0.51273495 0.15158647 -0.00062012 -0.00003618 0.00129673
0.84504527 0.18452725 0.48302373 0.00688794 -0.00236503 0.00169416
0.50477839 0.40658450 0.07617412 0.00005286 -0.00038745 -0.00346292
0.40003225 0.63785213 0.71115249 -0.00088344 0.00039305 0.00163749
0.82139403 0.39869821 0.34019178 0.00332648 0.00004313 -0.00058939
0.40747660 0.20247921 0.64468330 0.00113251 0.00072399 -0.00236243
0.57699203 0.22617590 0.65093696 -0.00079497 0.00052228 -0.00234027
0.24740732 0.34662065 0.45971391 0.00163663 -0.00042772 -0.00034182
0.78123796 0.85374403 0.28796998 0.00123616 0.00621542 -0.00077703
0.30527556 0.60501426 0.66173863 -0.00169511 -0.00009338 0.00255173
0.24506228 0.54115409 0.35607499 0.00163166 0.00012155 0.00024929
0.75495631 0.54393077 0.60624135 0.00230742 0.00032303 0.00208676
0.25609747 0.16822664 0.48807156 0.00312503 -0.00244880 -0.00178257
0.30383265 0.26202250 0.57135338 0.00093444 -0.00044392 -0.00125560
0.75205511 0.22573029 0.47272724 -0.00237383 0.00033700 -0.00053599
0.34862700 0.45106384 0.68926966 -0.00104168 0.00033996 0.00225806
0.43847695 0.80830342 0.05295627 -0.00107831 0.00190573 -0.00742040
0.70382464 0.54606771 0.23788242 -0.00062219 0.00007101 0.00115535
0.82635230 0.39292115 0.42394376 0.00321517 0.00002370 0.00022731
0.50198376 0.85374862 0.10056904 0.00007500 0.00592573 -0.00104729
0.65062100 0.61155319 0.11200111 0.00120285 0.00070713 -0.00337704
0.50321305 0.23933810 0.05449429 0.00011016 0.00155190 -0.00492586
0.55551380 0.14719453 0.12954934 -0.00024115 -0.00478103 0.00132510
0.42723194 0.63762772 0.15185867 0.00057354 0.00028746 0.00166287
0.23097700 0.21140105 0.16987571 -0.00469342 -0.00081800 -0.00466379
0.24130394 0.50743568 0.41330934 0.00158260 -0.00001072 -0.00027242
0.61924648 0.39020926 0.09802871 0.00113203 -0.00022328 -0.00340122
0.37251988 0.48872241 0.10256542 -0.00152617 -0.00013501 -0.00302604
0.35712779 0.32541603 0.18487088 0.00088106 -0.00055899 0.00118656
0.82576466 0.28589758 0.43402594 0.00261302 -0.00009569 0.00051712
0.42076394 0.14536428 0.11905538 -0.00009332 -0.00562946 -0.00052518
0.37712893 0.68649000 0.17284708 0.00047446 0.00073488 0.00112549
0.43858847 0.45290002 0.87026453 -0.00426079 0.00121825 0.00099791
0.77667803 0.45305613 0.57608348 0.00259447 -0.00000447 0.00166425
0.25554532 0.49445233 0.48747757 0.00135934 0.00005320 -0.00067283
0.16788158 0.25668514 0.40257543 -0.00309496 0.00152297 -0.00044525
0.19481999 0.18409120 0.22745401 -0.00587239 -0.00299386 -0.00356892
0.31010175 0.28564632 0.22479261 0.00110942 -0.00083238 0.00075408
0.68280393 0.55112374 0.67236048 0.00190881 0.00006786 0.00197449
0.22600015 0.25958550 0.21903607 -0.00265802 0.00165528 -0.00112004
0.80357915 0.48478705 0.27958664 0.00310977 -0.00047982 -0.00137055
0.32144141 0.14654137 0.19189146 0.00070544 -0.00482187 0.00146373
0.31406903 0.48168886 0.13524902 -0.00181149 0.00010383 -0.00284212
0.81141490 0.63575649 0.50157470 0.00292056 0.00036318 0.00097829
0.64074653 0.55177921 0.18161367 -0.00104570 0.00005447 0.00135244
0.42984554 0.49287057 0.71942616 -0.00037484 0.00021043 0.00148414
0.46813595 0.40519667 0.92285639 -0.00402686 -0.00124312 0.00727516
0.28939506 0.35627574 0.64910537 -0.00206531 -0.00068399 0.00213794
0.49727520 0.56001830 0.94585621 -0.00081180 0.00170331 0.00879253
0.18242477 0.54535627 0.33648807 -0.00332829 -0.00020129 -0.00024814
0.76190090 0.25707021 0.39654684 -0.00187892 -0.00040753 -0.00020396
0.43669632 0.61092919 0.85404450 -0.00458932 0.00028977 0.00181885
0.79148155 0.57118046 0.54979235 0.00290552 0.00032081 0.00112850
0.56480300 0.63874841 0.77314961 0.00179527 0.00012111 0.00071464
0.72237742 0.63068277 0.16233172 0.00214100 0.00074445 -0.00280196
0.84187639 0.76838303 0.49121591 0.00549821 -0.00069176 0.00149785
0.34602934 0.57750046 0.61070931 0.00065269 -0.00019988 -0.00111368
0.25893363 0.69292289 0.49714133 0.00119426 0.00082456 -0.00069046
0.65103930 0.69482642 0.11228150 0.00115826 -0.00000042 -0.00287575
0.51673204 0.54576504 0.66152376 0.00002642 0.00012185 -0.00044131
0.58080363 0.40637100 0.15344495 -0.00079282 -0.00003694 0.00142287
0.26434287 0.20883842 0.29415303 0.00266412 0.00054527 0.00106932
0.75677341 0.31933540 0.45409313 -0.00155007 -0.00071495 -0.00054530
0.34545490 0.75841391 0.19309993 0.00103333 0.00048178 0.00177423
0.28755027 0.34581318 0.25326177 0.00130016 -0.00028791 0.00090353
0.69630289 0.34263062 0.66283971 0.00189926 -0.00016329 0.00214638
0.78023612 0.14610805 0.28343192 0.00171861 -0.00675188 0.00138921
0.76089364 0.83786315 0.42125192 -0.00292662 0.00277243 0.00002669
0.28309417 0.14694783 0.57580543 0.00207650 -0.00573766 -0.00019176
0.30613083 0.72137880 0.22942036 0.00139661 0.00090849 0.00096367
0.70174956 0.36220935 0.14480487 0.00178819 -0.00039632 -0.00288334
0.47280413 0.30027872 0.82284337 -0.00292405 -0.00379645 0.00324115
0.50705910 0.61909640 0.91964287 0.00053685 0.00388234 0.00710249
0.48807403 0.14536247 0.11264201 0.00007123 -0.00582240 0.00046226
0.59914792 0.28078738 0.09103090 0.00073133 0.00048779 -0.00217211
0.64990640 0.38051730 0.61565024 -0.00093117 -0.00016623 -0.00099000
0.26768568 0.50521988 0.17492902 -0.00242210 0.00019626 -0.00229672
0.57636064 0.50429630 0.71857589 0.00006957 0.00022814 0.00142839
0.54083884 0.51218301 0.83782220 0.00127352 0.00015261 -0.00066238
0.30629194 0.83448672 0.12147141 -0.00383916 0.00506845 -0.00478607
0.75661999 0.52167773 0.45356417 -0.00161012 0.00014715 -0.00013603
0.75492996 0.64998245 0.34208804 -0.00162609 0.00042586 0.00023327
0.63654304 0.65007073 0.17906244 -0.00067790 0.00065029 0.00122858
0.24437271 0.38975364 0.60180575 -0.00243428 -0.00028083 0.00220336
0.24411735 0.62194479 0.36125758 0.00154571 0.00027825 0.00003509
0.17804419 0.43422753 0.43960586 -0.00327560 -0.00028974 0.00058593
0.39303082 0.71413159 0.09447928 -0.00073061 0.00001084 -0.00262666
0.54583430 0.30128649 0.65832484 -0.00024737 -0.00054094 -0.00096274
0.72583765 0.81459343 0.67446977 0.00600882 0.00290989 0.00443485
0.80903757 0.18160550 0.23406357 0.00680921 -0.00384147 -0.00376657
0.63914979 0.30142531 0.62272817 -0.00076230 -0.00069516 -0.00142230
0.50537455 0.48333991 0.95454538 -0.00101991 -0.00053414 0.00870609
0.65716273 0.39408776 0.19286370 -0.00102580 -0.00019729 0.00115704
0.62184960 0.74224430 0.71191400 0.00029843 -0.00086561 0.00234016
0.53989667 0.85440636 0.69555652 -0.00015951 0.00680661 0.00003835
0.66659707 0.54335934 0.12099438 0.00188073 -0.00001267 -0.00283297
0.35911191 0.25528958 0.18347761 0.00090711 -0.00040644 0.00148722
0.65393281 0.22305705 0.61277491 -0.00120313 0.00043010 -0.00235534
0.30526736 0.40400824 0.23031931 0.00123396 -0.00007225 0.00086462
0.75338238 0.77879190 0.46785033 -0.00220841 -0.00056806 -0.00084607
0.45095637 0.19086005 0.05189252 -0.00155264 -0.00295920 -0.00682240
0.73103660 0.85240728 0.55315107 -0.00148285 0.00520110 -0.00012990
0.77540129 0.36519256 0.57806170 0.00291093 -0.00103395 0.00147798
0.77582228 0.73235118 0.22713947 0.00166652 -0.00079533 -0.00151342
0.77986515 0.27707818 0.57034880 0.00212555 0.00084568 0.00105652
0.84257418 0.83217806 0.38643426 0.00571254 0.00477702 -0.00074378
0.34773576 0.85298353 0.66476005 -0.00160823 0.00645667 -0.00003942
0.24320428 0.20958582 0.36667868 0.00286883 0.00065969 0.00037897
0.75204277 0.22059186 0.33086944 -0.00246428 0.00031352 0.00076733
0.73963982 0.27748284 0.62361389 0.00178587 0.00069014 0.00137359
0.24501312 0.27799127 0.35591295 0.00121742 -0.00075186 0.00017489
0.37705654 0.63236004 0.10073245 -0.00155215 0.00035252 -0.00308011
0.69568890 0.33120722 0.57545900 -0.00078690 -0.00058455 -0.00097148
0.26053765 0.78555161 0.30299425 0.00253486 -0.00071855 0.00086341
0.39441043 0.32486892 0.09390759 -0.00065439 -0.00035262 -0.00305968
0.65452230 0.47538784 0.11410718 0.00178034 -0.00057145 -0.00300970
0.42175031 0.53058553 0.08588564 -0.00102774 0.00080410 -0.00333634
0.56945848 0.66180277 0.15033020 -0.00015974 0.00055197 0.00102720
0.84298283 0.81047457 0.31032348 0.00675372 0.00266946 -0.00127936
0.18661962 0.83208656 0.53258461 -0.00612181 0.00378773 0.00244987
0.17910610 0.72657055 0.35770360 -0.00242541 -0.00033543 -0.00029789
0.82533675 0.73759204 0.35449830 0.00257382 -0.00034610 -0.00001182
0.56860185 0.85387337 0.11718824 0.00016524 0.00556062 -0.00036155
0.81314504 0.30636254 0.30717367 0.00263959 0.00008323 -0.00077728
0.62592793 0.34063745 0.17294176 -0.00072822 -0.00061661 0.00137092
0.56004417 0.44680208 0.85491931 0.00347947 0.00019944 -0.00022935
0.53614706 0.73387104 0.07825924 0.00043900 -0.00065944 -0.00204166
0.50567436 0.79258400 0.14129004 0.00004111 -0.00009006 0.00304663
0.26841122 0.60051483 0.17413248 -0.00232723 -0.00006731 -0.00239579
0.82307363 0.77532393 0.25282392 0.00528350 -0.00028569 -0.00317798
0.38901392 0.23804995 0.07207437 -0.00197914 -0.00008922 -0.00511958
0.67223752 0.70396852 0.67905653 0.00138401 -0.00017630 0.00179800
0.30593145 0.79602385 0.22959194 0.00264444 -0.00058952 0.00152964
0.56532776 0.58080322 0.87619680 0.00494151 0.00030972 0.00182658
0.44310421 0.36887354 0.86435962 -0.00526561 -0.00212272 0.00254578
0.17613792 0.56549805 0.41461658 -0.00341016 0.00046157 0.00009947
0.74983341 0.15691426 0.62142038 0.00376871 -0.00535661 0.00406178
0.27274945 0.30644903 0.52640927 0.00136398 -0.00068347 -0.00086771
0.82661492 0.45982984 0.38493291 0.00328453 -0.00014072 -0.00059142
0.83306879 0.83791322 0.45456579 0.00485988 0.00561753 0.00131805
0.60126311 0.44374698 0.71167135 0.00045363 -0.00013104 0.00161097
0.24229574 0.43164760 0.42730591 0.00151929 0.00003182 -0.00006028
0.31854746 0.16230349 0.68345982 -0.00425614 -0.00537586 0.00418910
0.23696569 0.55158031 0.21157534 -0.00265822 -0.00006392 -0.00198364
0.31177494 0.53179556 0.22299424 0.00115126 0.00021914 0.00096730
0.79736602 0.50672901 0.53786093 0.00288389 -0.00000550 0.00102879
0.54132837 0.66846788 0.07854328 0.00058530 0.00057940 -0.00340901
0.55406046 0.58486611 0.08034166 0.00088443 0.00032392 -0.00347606
0.64070010 0.19848828 0.18146348 -0.00137652 -0.00010733 0.00329334
0.52889389 0.71947485 0.14280804 -0.00018975 0.00115341 0.00130298
0.29534781 0.59249061 0.24229762 0.00130650 0.00015103 0.00106295
0.35195023 0.78535455 0.61511678 0.00123386 0.00033126 -0.00243416
0.37203282 0.14636293 0.64975214 0.00139332 -0.00592456 -0.00141487
0.46239975 0.58594984 0.79610437 -0.00076566 -0.00102302 0.00007791
0.65240848 0.77047318 0.18936844 -0.00123883 -0.00022783 0.00187565
0.72238016 0.42150548 0.16238633 0.00174523 0.00026567 -0.00320075
0.65630019 0.30555373 0.11504529 0.00110663 0.00023385 -0.00263194
0.71091664 0.23499119 0.55656713 -0.00165412 -0.00003475 -0.00144724
0.15856832 0.82467824 0.34968349 -0.00671488 0.00369663 -0.00163967
0.68821633 0.33424819 0.22006203 -0.00114924 -0.00045438 0.00122416
0.27174717 0.27503765 0.27895030 0.00115874 -0.00072928 0.00052250
0.19731432 0.74696362 0.54664624 -0.00375338 -0.00052954 0.00139333
0.45924002 0.61301661 0.72990513 0.00012550 -0.00044791 0.00104003
0.60056901 0.53160775 0.09147560 0.00060666 -0.00017789 -0.00354415
0.32874376 0.46579689 0.20658349 0.00111942 -0.00006697 0.00111328
0.48613700 0.58578730 0.07617729 -0.00054797 0.00014108 -0.00350069
0.17552072 0.74360532 0.47171468 -0.00338755 -0.00041848 0.00111367
0.19137980 0.46902800 0.30171159 -0.00370117 -0.00067512 -0.00023186
0.50209129 0.53076410 0.72762966 -0.00000709 0.00023656 0.00110774
0.23680684 0.84975547 0.35181323 0.00287637 0.00462763 0.00048201
0.23271896 0.81452972 0.17184933 -0.00569202 0.00369342 -0.00419526
0.67421710 0.84844136 0.19741951 -0.00106424 0.00424095 0.00185256
0.48520538 0.31553835 0.14159410 -0.00003948 -0.00062617 0.00165360
0.30655548 0.61924887 0.57452548 0.00082081 0.00005634 -0.00095733
0.73180765 0.85382926 0.23401712 -0.00048340 0.00587492 0.00078099
0.21770738 0.45101288 0.24153656 -0.00278526 -0.00032412 -0.00200876
0.20330894 0.84920329 0.28338730 -0.00380219 0.00565128 -0.00239119
0.58875501 0.83299696 0.64681220 -0.00046744 0.00273744 -0.00337186
0.41042018 0.74059665 0.64564872 0.00064911 0.00008384 -0.00141720
0.30153084 0.50628930 0.65885782 -0.00147818 0.00017533 0.00250031
0.50016862 0.23201847 0.66213870 0.00029706 0.00061092 -0.00185726
0.72208291 0.81498259 0.12682879 0.00375227 0.00357832 -0.00557206
0.75378293 0.62197119 0.46638808 -0.00156454 0.00031139 -0.00060800
0.27350640 0.85014141 0.26086590 0.00243441 0.00412783 0.00100727
0.43023744 0.45514765 0.08401261 -0.00058434 -0.00052656 -0.00325112
0.21978934 0.36426309 0.23785785 -0.00320816 -0.00011235 -0.00165980
0.17724490 0.16090021 0.48611844 -0.00454427 -0.00537854 0.00271029
0.77669626 0.85282695 0.35394663 -0.00159004 0.00540292 0.00051653
0.69407761 0.75741297 0.11393105 0.00244460 -0.00186907 -0.00425427
0.73604304 0.47708088 0.62761074 0.00209474 0.00015481 0.00213072
0.81714231 0.25414345 0.51944381 0.00341906 0.00129874 0.00113363
0.77459788 0.75999606 0.61712724 0.00362163 -0.00113108 0.00351009
0.75765276 0.45010799 0.35451058 -0.00135489 -0.00011576 0.00014959
0.46960953 0.30879909 0.66039991 0.00025040 -0.00042111 -0.00079624
0.77806497 0.81756061 0.18589456 0.00562425 0.00304022 -0.00374163
0.21429268 0.69239306 0.24785206 -0.00238498 -0.00059624 -0.00129706
0.30359781 0.23411226 0.69089007 -0.00409668 0.00055715 0.00397554
0.57147807 0.78919804 0.75150341 0.00194776 0.00026843 0.00522416
0.75821358 0.70065582 0.44546911 -0.00168276 0.00122793 -0.00022663
0.34584272 0.14880995 0.12684654 -0.00156559 -0.00587396 -0.00364853
0.63172776 0.49786258 0.62710142 -0.00068169 0.00010005 -0.00105119
0.51704568 0.59434503 0.14160047 -0.00018232 0.00021195 0.00161209
0.80090088 0.55287021 0.27380821 0.00286535 0.00017478 -0.00184715
0.26139656 0.42894980 0.50290966 0.00114907 0.00010167 -0.00087360
0.78290612 0.22396104 0.18711579 0.00458106 -0.00046642 -0.00466511
0.65531427 0.64766699 0.61198425 -0.00070170 0.00038793 -0.00128417
0.51196754 0.35945740 0.90460855 0.00220331 -0.00403842 0.00679938
0.82080418 0.54322982 0.33822319 0.00325627 -0.00003713 -0.00070469
0.27451873 0.65351278 0.27359837 0.00130378 0.00039513 0.00067888
0.27088782 0.77478272 0.13221802 -0.00381258 -0.00135654 -0.00490261
0.81163657 0.18945131 0.57357830 0.00668102 -0.00252155 0.00276702
0.19907314 0.77207309 0.21791634 -0.00541813 0.00030271 -0.00283842
0.19424103 0.27535537 0.29420355 -0.00278927 0.00001072 -0.00113330
0.81838447 0.56715578 0.47662354 0.00315558 0.00017463 0.00051843
0.67835826 0.85499173 0.64216393 0.00003007 0.00656618 0.00006839
0.29333961 0.68340659 0.55826265 0.00104792 0.00062756 -0.00114824
0.75283158 0.46955743 0.19467983 0.00288906 0.00095126 -0.00188171
0.69095057 0.22423050 0.22273615 -0.00218324 -0.00031663 0.00139997
0.82680786 0.52463436 0.41139331 0.00329495 0.00022387 0.00019149
0.22559005 0.14833064 0.54312181 -0.00280666 -0.00634054 0.00028456
0.36523029 0.80352819 0.07288733 -0.00255482 0.00168829 -0.00686208
0.75481522 0.30047491 0.34092507 -0.00165696 -0.00094926 0.00034957
0.78017056 0.22157140 0.62186879 0.00444383 0.00064700 0.00483917
0.19118726 0.34325966 0.30258736 -0.00355920 0.00004605 -0.00069870
0.60771835 0.72526193 0.16375865 -0.00080204 0.00103988 0.00135094
0.81263846 0.69688469 0.30536345 0.00272034 0.00022873 -0.00105803
0.29318210 0.68023819 0.65200979 -0.00189096 0.00025827 0.00226160
0.72345257 0.37760007 0.53797656 -0.00147226 -0.00009311 -0.00096450
0.26625735 0.14491367 0.22819503 -0.00025383 -0.00591582 -0.00084566
0.36344787 0.56136918 0.18074612 0.00064493 -0.00006904 0.00159320
0.54302239 0.60684448 0.65869898 -0.00020185 0.00008039 -0.00059154
0.31127563 0.76056409 0.69291151 -0.00321922 -0.00046326 0.00386692
0.76073837 0.45200241 0.42689556 -0.00162449 -0.00021513 -0.00019677
0.41959780 0.36039189 0.71690679 -0.00055540 -0.00032302 0.00099219
0.51121241 0.79121172 0.04545457 0.00009207 0.00100831 -0.00677706
0.73402166 0.54872954 0.51871645 -0.00143207 -0.00000412 -0.00100577
0.34826925 0.70319200 0.61238480 0.00098553 0.00048562 -0.00115352
0.46523160 0.76482087 0.75191945 -0.00114151 0.00096752 0.00307143
0.17699048 0.68723279 0.42936903 -0.00311009 0.00006668 0.00032692
0.53344125 0.29122901 0.79796875 0.00202513 -0.00306653 0.00153604
0.68237603 0.24250929 0.10760507 0.00275944 0.00167804 -0.00413038
0.74222338 0.50063437 0.30209076 -0.00147161 0.00008003 0.00061680
0.49627978 0.65857840 0.14118353 -0.00015777 0.00046947 0.00130697
0.33451349 0.75173789 0.10138059 -0.00243461 -0.00185622 -0.00361513
0.49145189 0.38952059 0.14118306 -0.00010333 -0.00022336 0.00153119
0.30304566 0.54124433 0.57044536 0.00123445 -0.00003233 -0.00101364
0.28502408 0.20414105 0.11825655 -0.00412802 -0.00183985 -0.00584995
0.30558461 0.80490464 0.57345033 0.00219464 0.00136325 -0.00202358
0.38663474 0.57287228 0.70638907 -0.00104132 -0.00032557 0.00191716
0.24593759 0.41911447 0.35056743 0.00084195 -0.00013024 0.00016941
0.60622907 0.42934719 0.64020586 -0.00048104 -0.00007714 -0.00086956
0.70699853 0.61160010 0.56182981 -0.00126238 0.00020705 -0.00113170
0.22569336 0.17533189 0.61225557 -0.00491959 -0.00387049 0.00496721
0.61750823 0.59770918 0.63505870 -0.00045909 0.00011165 -0.00114159
0.21154392 0.45714530 0.55008006 -0.00318645 -0.00029738 0.00087796
0.22981085 0.76453406 0.62053424 -0.00491521 -0.00175679 0.00255765
0.23904037 0.14534473 0.29247525 0.00074903 -0.00571803 0.00047901
0.73674947 0.48048845 0.51312101 -0.00152336 0.00021996 -0.00069369
0.57044894 0.79150575 0.15059784 -0.00125947 -0.00043662 0.00261350
0.78319198 0.14688684 0.37214029 -0.00216215 -0.00612752 0.00021122
0.73399794 0.26644036 0.28449339 -0.00152719 -0.00050119 0.00124894
0.73252237 0.62333351 0.63127172 0.00219370 0.00048697 0.00216750
0.21921355 0.52999121 0.56410795 -0.00294582 0.00000033 0.00140956
0.58051461 0.58505630 0.15356101 -0.00050889 0.00019413 0.00127028
0.24217013 0.29065549 0.42630139 0.00142960 -0.00074605 0.00012733
0.81839269 0.34583411 0.47658619 0.00313323 -0.00068947 0.00103751
0.50706661 0.51581806 0.14134739 -0.00005145 0.00004313 0.00121482
0.45589134 0.55584615 0.14527506 0.00022941 0.00018468 0.00133279
0.51204914 0.67065954 0.87604022 0.00135552 0.00485310 0.00561790
0.33829960 0.56906706 0.11989289 -0.00189100 -0.00012536 -0.00282719
0.46841773 0.84701574 0.66260433 -0.00024865 0.00447117 -0.00158667
0.21446246 0.60089952 0.55576062 -0.00292060 0.00015849 0.00156290
0.56495452 0.63723677 0.83828050 0.00459177 0.00110915 0.00203479
0.25462359 0.55975926 0.48474151 0.00153667 0.00005674 -0.00065450
0.54821879 0.40565687 0.79865289 0.00141078 0.00092130 0.00079797
0.56309611 0.23045270 0.75023121 0.00069919 0.00018839 0.00390264
0.77131289 0.85435355 0.49470204 -0.00031449 0.00583833 -0.00116955
0.82447791 0.82263494 0.53085536 0.00654442 0.00389566 0.00171843
0.41826460 0.33167693 0.15485597 0.00062102 -0.00040984 0.00149382
0.73420370 0.60051763 0.28448471 -0.00133702 0.00026589 0.00097234
0.69843543 0.16960673 0.12069489 0.00442396 -0.00498125 -0.00363857
0.46069098 0.14976808 0.66880655 -0.00110662 -0.00481453 -0.00211174
0.42630520 0.26648769 0.15229745 0.00070865 -0.00055661 0.00155827
0.76214445 0.66559577 0.20639822 0.00288533 0.00075782 -0.00176356
0.60949582 0.14462873 0.67727542 -0.00057659 -0.00641570 -0.00023527
0.45046526 0.70471138 0.14616448 0.00031323 0.00099766 0.00134064
0.25494859 0.85264486 0.53245533 0.00251904 0.00558996 -0.00041657
0.48232073 0.40827912 0.76579446 -0.00012526 0.00100503 0.00065110
0.20359296 0.85419834 0.40843379 -0.00076512 0.00659686 0.00017387
0.60126221 0.84466296 0.71471918 0.00263527 0.00582205 0.00393857
0.53244710 0.16947974 0.06021307 0.00093188 -0.00521265 -0.00617895
0.75968599 0.17096221 0.43503189 -0.00342993 -0.00184849 -0.00048276
0.36653209 0.40177470 0.10521907 -0.00109529 0.00015042 -0.00323295
0.25867465 0.62641817 0.49646172 0.00137310 0.00006436 -0.00094866
0.25860226 0.81821066 0.65456784 -0.00356487 0.00369535 0.00537966
0.47997016 0.32136229 0.07683412 -0.00047046 -0.00059469 -0.00314045
0.38745630 0.83379394 0.72285950 -0.00047069 0.00492099 0.00586013
0.46845403 0.46663228 0.66005492 0.00031712 -0.00015973 -0.00053595
0.41006652 0.33552858 0.64560640 0.00024989 -0.00028933 -0.00087649
0.73413908 0.67569238 0.28438914 -0.00100769 0.00049916 0.00087378
0.24261574 0.75385439 0.37399966 0.00195369 -0.00000972 0.00034325
0.22530876 0.14659099 0.36523080 0.00142473 -0.00535843 0.00071375
0.25981212 0.71264136 0.30480996 0.00153550 0.00065334 0.00073499
0.19414543 0.65291649 0.51009184 -0.00337246 0.00056091 0.00049298
0.38137159 0.20929633 0.73789060 -0.00208569 -0.00209973 0.00523479
0.21034500 0.37479848 0.54778188 -0.00336279 -0.00016848 0.00092550
0.75236642 0.14483039 0.55649018 -0.00022260 -0.00632442 -0.00036651
0.17644472 0.63359493 0.38317728 -0.00331173 0.00023283 -0.00006635
0.70348418 0.45050994 0.56597918 -0.00112879 -0.00004380 -0.00133420
0.25626770 0.69767761 0.18714446 -0.00205913 0.00009811 -0.00197545
0.24241957 0.63304919 0.42909425 0.00117658 0.00033285 -0.00013627
0.53016275 0.43842283 0.66051233 -0.00010027 -0.00011248 -0.00040884
0.50735617 0.71137959 0.81210136 0.00121532 0.00386018 0.00249079
0.25566548 0.32818621 0.31563303 0.00147031 -0.00044819 0.00036705
0.28404909 0.85537130 0.19627203 0.00008265 0.00655652 -0.00066729
0.64570332 0.31404907 0.69352412 0.00062300 0.00000258 0.00213515
0.48153433 0.50389302 0.07662290 0.00046408 -0.00006481 -0.00351503
0.54492307 0.34271801 0.14483991 -0.00038115 -0.00039326 0.00139968
0.41275522 0.51093805 0.64652449 0.00015847 -0.00001736 -0.00063612
0.31121054 0.20396033 0.22370748 0.00191080 0.00074482 0.00202738
0.52899700 0.56780356 0.80625606 0.00042307 -0.00122987 0.00020678
0.33280706 0.63611108 0.20316833 0.00097358 0.00027027 0.00142415
0.59418291 0.35568675 0.64494777 -0.00042173 -0.00018471 -0.00099073
0.81167161 0.75412160 0.55066901 0.00420219 -0.00119387 0.00178134
0.69888377 0.79102552 0.23164478 -0.00214450 -0.00105799 0.00188229
0.54860204 0.21665554 0.14548263 -0.00062914 0.00052015 0.00262222
0.35946465 0.38081449 0.61999303 0.00077732 -0.00014461 -0.00127321
0.73526567 0.31580645 0.51646376 -0.00094706 -0.00069150 -0.00057539
0.30564788 0.41066191 0.14146984 -0.00207135 -0.00040887 -0.00266890
0.25921631 0.33215940 0.18386178 -0.00230876 -0.00046831 -0.00256687
0.24223158 0.71113294 0.42792198 0.00159978 0.00107085 -0.00037298
0.18035421 0.74928498 0.28344011 -0.00466739 -0.00033586 -0.00055298
0.34013578 0.49867630 0.60635513 0.00072674 -0.00014907 -0.00130353
0.75589675 0.56969887 0.34605893 -0.00157016 0.00046364 0.00035865
0.62438810 0.47215733 0.17196496 -0.00074118 -0.00003010 0.00145320
0.62454790 0.14613625 0.13951670 -0.00003731 -0.00621828 0.00066439
0.42663157 0.40667874 0.15215997 0.00050885 -0.00000251 0.00133644
0.82550156 0.67283344 0.43352211 0.00305092 0.00051944 0.00037603
0.29779434 0.65272623 0.14755411 -0.00166417 0.00074598 -0.00285158
0.36567089 0.77114141 0.72813219 -0.00198702 -0.00083170 0.00538671
0.73815823 0.67058122 0.51040590 -0.00133197 0.00066714 -0.00079636
0.35641134 0.40979618 0.18538480 0.00091093 0.00005351 0.00134727
0.43697900 0.36033452 0.79691684 -0.00298606 0.00015587 0.00060914
0.59554344 0.66967773 0.64482445 -0.00035089 0.00056502 -0.00098856
0.50174463 0.27000982 0.74316514 -0.00027552 -0.00032001 0.00035844
0.40971285 0.29257175 0.71410018 -0.00073137 0.00056559 0.00108780
0.52811140 0.14680584 0.67702097 0.00038645 -0.00536140 -0.00225339
0.22992192 0.83897746 0.59730589 -0.00418714 0.00590033 0.00214249
0.16318148 0.18384403 0.30257824 -0.00626465 -0.00305627 -0.00219439
0.66740090 0.70417243 0.20073272 -0.00082604 0.00080487 0.00095199
0.81057101 0.70237225 0.50425559 0.00233402 0.00019069 0.00074714
0.73440582 0.42896482 0.28522345 -0.00116756 0.00009679 0.00074040
0.52948904 0.45032874 0.14265236 -0.00047966 0.00000298 0.00150547
0.72045523 0.74188483 0.65198201 0.00198322 -0.00146211 0.00179345
0.43152374 0.85262847 0.10059223 -0.00021938 0.00664648 -0.00127575
0.44384116 0.37616810 0.08105902 -0.00089110 0.00002874 -0.00330763
0.15377310 0.22809082 0.46490142 -0.00618848 0.00101610 0.00166454
0.54663372 0.40129995 0.72413540 -0.00030095 0.00021983 0.00054116
0.14765283 0.20140682 0.36800051 -0.00714429 -0.00072095 -0.00004831
0.33371285 0.25195089 0.10710531 -0.00213153 0.00116199 -0.00337912
0.24476461 0.22585273 0.44577116 0.00224822 -0.00020732 -0.00046289
0.64444661 0.49677709 0.69436073 0.00099230 -0.00005944 0.00204656
0.81285369 0.62156928 0.30602661 0.00317802 0.00043011 -0.00087601
0.47755831 0.16087790 0.73504806 -0.00157248 -0.00482283 0.00546908
0.61405665 0.37889960 0.70731813 0.00086414 -0.00004855 0.00157932
0.73606855 0.35791847 0.28883889 -0.00130356 -0.00071670 0.00064720
0.44983211 0.68528920 0.65684366 0.00030627 0.00042618 -0.00085932
0.56009877 0.58331573 0.72207063 -0.00016579 -0.00027945 0.00097771
0.17109782 0.15831484 0.41996047 -0.00415561 -0.00621819 -0.00047663
0.44733641 0.69908547 0.75169688 -0.00148005 -0.00012137 0.00122425
0.41450715 0.42540494 0.71576971 -0.00030119 -0.00004991 0.00149534
0.76038104 0.38140759 0.43102583 -0.00166646 -0.00013724 -0.00047142
0.81997484 0.47093496 0.47013894 0.00319465 0.00005387 0.00058267
0.74406958 0.31166029 0.18420953 0.00236433 0.00052593 -0.00170589
0.22411209 0.30977771 0.57249492 -0.00236660 -0.00029597 0.00174777
0.52302963 0.36582664 0.66124612 -0.00008980 -0.00008879 -0.00047867
0.45181894 0.46956214 0.14588319 0.00021313 -0.00017819 0.00151848
0.62476683 0.57224917 0.70309865 0.00062828 0.00002594 0.00192324
0.17619620 0.49670893 0.41929734 -0.00334143 -0.00026282 -0.00075689
0.82513964 0.65340441 0.36756447 0.00319864 0.00074457 -0.00060877
0.53407282 0.32243830 0.85524660 0.00365115 -0.00369083 0.00394130
0.28228804 0.28160715 0.64242250 -0.00253793 0.00014623 0.00124029
0.32495719 0.20140001 0.59334362 0.00147438 -0.00008871 -0.00179205
0.24098532 0.37314078 0.39719582 0.00160812 -0.00018878 0.00010724
0.50761861 0.82456350 0.74811333 -0.00086874 0.00433367 0.00551676
0.83478069 0.22876856 0.28530812 0.00583119 0.00056491 -0.00142391
0.72767746 0.55303413 0.16714743 0.00286162 -0.00026115 -0.00222882
0.80437249 0.41155815 0.52121854 0.00319258 -0.00027353 0.00103230
0.26530650 0.77666038 0.51195395 0.00198443 -0.00019758 -0.00152028
0.76161736 0.58046591 0.41259882 -0.00164219 0.00033990 -0.00007067
0.45425227 0.40182292 0.65785098 0.00031243 -0.00012882 -0.00062235
0.30655092 0.35153514 0.57452548 0.00110960 -0.00049307 -0.00096928
0.82625073 0.33528733 0.37753180 0.00316954 -0.00058326 -0.00035151
0.38737667 0.43912107 0.63584346 0.00052667 -0.00021415 -0.00113662
0.69673395 0.68073249 0.57400388 -0.00076840 0.00066942 -0.00093799
0.46101600 0.74580240 0.06689864 -0.00057503 -0.00190595 -0.00334284
0.64100689 0.80209029 0.07520323 0.00336066 0.00235840 -0.00608742
0.46625772 0.20312785 0.14336926 0.00066687 0.00044323 0.00318002
0.18412803 0.35790211 0.47482637 -0.00328052 -0.00028444 0.00108977
0.48848593 0.45904997 0.81891251 -0.00016039 0.00081312 -0.00041514
0.54736525 0.32170045 0.07922967 0.00069866 0.00012093 -0.00317298
0.28475508 0.42870402 0.64485723 -0.00182619 0.00014464 0.00229896
0.26027411 0.55183607 0.62055242 -0.00233396 0.00040890 0.00208405
0.50991535 0.76734662 0.66193843 0.00040360 -0.00076178 -0.00157206
0.61856782 0.26420003 0.16901317 -0.00120860 -0.00075662 0.00168222
0.54958886 0.45493323 0.07959791 0.00080843 0.00033277 -0.00348442
0.76166737 0.76648909 0.39223221 -0.00204619 -0.00023643 0.00024686
0.56975752 0.73873454 0.65309900 -0.00058111 0.00021479 -0.00107100
0.33469832 0.33731240 0.12186695 -0.00219885 -0.00053740 -0.00253441
0.23141988 0.85313600 0.47047678 0.00197076 0.00539891 -0.00072647
0.39062205 0.71463817 0.70778376 -0.00074880 -0.00082120 0.00127296
0.25678521 0.42842409 0.18671480 -0.00260735 -0.00022964 -0.00222923
0.38470802 0.48381740 0.16878331 0.00067588 -0.00017241 0.00144494
0.80199510 0.38783690 0.27555516 0.00318395 -0.00036482 -0.00143637
0.68136925 0.14694919 0.65387553 0.00232524 -0.00580266 0.00166760
0.76709074 0.39874187 0.21324036 0.00306289 -0.00065933 -0.00182414
0.19948277 0.26337299 0.52509797 -0.00277867 0.00032801 0.00021785
0.18600787 0.48355088 0.48230678 -0.00306099 -0.00015777 0.00128953
0.20424294 0.23566487 0.58623660 -0.00525285 0.00072025 0.00244432
0.63885260 0.19755062 0.07409035 0.00205279 -0.00239770 -0.00678360
0.24672139 0.47055349 0.60461873 -0.00219508 0.00003511 0.00217002
0.41138467 0.57823652 0.64604926 0.00048984 0.00007794 -0.00087749
0.23800758 0.65938854 0.59337777 -0.00266265 0.00050342 0.00189036
0.73722053 0.39301220 0.62635314 0.00231996 -0.00031251 0.00215304
0.57824922 0.22171885 0.05545197 0.00100355 0.00013789 -0.00615841
0.78412282 0.29286307 0.23964441 0.00243660 0.00067957 -0.00100580
0.66660434 0.56585127 0.60298145 -0.00078884 0.00028545 -0.00106503
0.45601425 0.67644888 0.83875889 -0.00471457 0.00266407 0.00323683
0.53787935 0.72828835 0.72473800 0.00058363 -0.00044215 0.00004633
0.20587337 0.52463353 0.26472709 -0.00290904 0.00042546 -0.00171913
0.63689899 0.85352242 0.14431012 0.00016210 0.00590068 -0.00099233
0.55698359 0.53053927 0.91965199 0.00614357 0.00085732 0.00399169
0.28126937 0.25946122 0.15500891 -0.00172696 0.00196195 -0.00167008
0.44899324 0.52694464 0.85068303 -0.00249303 -0.00061472 -0.00033765
0.73063833 0.73156422 0.17070049 0.00192734 -0.00059897 -0.00182042
0.69630289 0.24567363 0.68622553 0.00337912 0.00020511 0.00302051
0.22209843 0.61632210 0.23432893 -0.00273571 0.00072532 -0.00178846
0.41352901 0.80815411 0.64686042 0.00031335 0.00004504 -0.00302514
0.18443343 0.66664219 0.32705966 -0.00301891 0.00047080 -0.00105672
0.17574194 0.32754809 0.41063392 -0.00339424 -0.00069002 -0.00036184
0.33831102 0.29740113 0.68348491 -0.00077630 0.00066588 0.00208355
0.78425479 0.14502974 0.49446535 0.00009988 -0.00661199 -0.00037529
0.36960998 0.85485244 0.13620166 0.00034414 0.00639379 0.00070459
0.44363177 0.56053531 0.90825456 -0.00623241 0.00028176 0.00380305
0.61412627 0.74353063 0.08680918 0.00038651 -0.00184727 -0.00308986
0.30594468 0.44793454 0.57385182 0.00122357 -0.00000771 -0.00104018
0.69509584 0.64653587 0.22749133 -0.00121582 0.00049273 0.00130643
0.54991567 0.16431035 0.73772126 0.00099620 -0.00477058 0.00562309
0.67823762 0.78876561 0.71126896 0.00188426 0.00064757 0.00613893
0.83847260 0.16974193 0.34099516 0.00620348 -0.00436720 -0.00201629
0.16495618 0.83094049 0.46210805 -0.00655791 0.00402172 0.00115832
0.57868069 0.79767466 0.05468637 0.00115315 0.00172779 -0.00666111
0.79465640 0.82113695 0.59170133 0.00515074 0.00412628 0.00427360
0.85328567 0.76967710 0.42500862 0.00586490 -0.00110453 -0.00023631
0.44077194 0.65145719 0.08155924 -0.00006442 0.00058486 -0.00348888
0.24389568 0.68778944 0.36301091 0.00152563 0.00069486 0.00020493
0.19410038 0.59528226 0.29406062 -0.00312828 0.00057211 -0.00102863
0.75951356 0.37892783 0.36490032 -0.00168847 -0.00030386 0.00040345
