ply
format ascii 1.0
element vertex 832
property float x
property float y
property float z
property float nx
property float ny
property float nz
end_header
0.064217 -0.294284 0.072049 -0.528682 0.596062 -0.604323 
0.060267 -0.302186 0.067177 -0.504342 0.636892 -0.583101 
0.056276 -0.309864 0.062012 -0.488548 0.66165 -0.568806 
0.052226 -0.31721 0.056408 -0.461072 0.709687 -0.532689 
0.047884 -0.324046 0.050398 -0.434636 0.752834 -0.494299 
0.043221 -0.330462 0.044184 -0.410038 0.789283 -0.457057 
0.038129 -0.336345 0.037779 -0.375077 0.833169 -0.406383 
0.032447 -0.341511 0.031236 -0.320138 0.88616 -0.33501 
0.026038 -0.345695 0.024671 -0.263062 0.927204 -0.266628 
0.01928 -0.349098 0.018017 -0.211337 0.955467 -0.205961 
0.012323 -0.351623 0.01118 -0.154559 0.977749 -0.141842 
0.005272 -0.353227 0.004156 -0.0748527 0.995491 -0.0582575 
-0.001808 -0.353348 -0.002924 0.0405702 0.997506 0.0577622 
-0.008858 -0.351986 -0.010001 0.125686 0.982091 0.140357 
-0.015654 -0.349552 -0.017015 0.211508 0.951784 0.222196 
-0.022159 -0.345872 -0.023753 0.285551 0.913338 0.2903 
-0.028561 -0.341338 -0.030094 0.361701 0.861654 0.355984 
-0.034814 -0.335818 -0.035768 0.40071 0.832145 0.383362 
-0.041004 -0.330127 -0.041322 0.445508 0.793078 0.415392 
-0.046892 -0.323624 -0.046304 0.4733 0.76751 0.432338 
-0.05278 -0.317122 -0.051286 0.516758 0.720302 0.462737 
-0.058093 -0.309631 -0.055455 0.566125 0.656978 0.497877 
-0.063393 -0.302116 -0.059601 0.568596 0.655928 0.496445 
-0.068365 -0.294262 -0.063484 0.608093 0.595719 0.52473 
-0.073013 -0.286073 -0.067105 0.612934 0.588776 0.52693 
-0.077661 -0.277885 -0.070726 0.634286 0.55028 0.543022 
-0.081552 -0.269216 -0.074093 0.660323 0.493643 0.565942 
-0.085329 -0.260473 -0.077421 0.655314 0.50237 0.564082 
-0.088978 -0.251655 -0.080669 0.67526 0.446762 0.58688 
-0.092015 -0.242471 -0.083537 0.685647 0.406414 0.603917 
-0.095053 -0.233289 -0.086406 0.681231 0.410585 0.606089 
-0.097965 -0.224038 -0.089159 0.68851 0.372589 0.622199 
-0.100439 -0.214543 -0.091507 0.686973 0.327825 0.648536 
-0.102912 -0.20505 -0.093854 0.668002 0.346072 0.658792 
-0.105384 -0.195555 -0.096202 0.663833 0.314896 0.678356 
-0.107449 -0.185903 -0.098277 0.660354 0.278661 0.697338 
-0.109426 -0.176218 -0.100294 0.649281 0.280567 0.706907 
-0.111402 -0.166534 -0.10231 0.640401 0.277645 0.716101 
-0.113224 -0.156809 -0.104257 0.638891 0.240724 0.730664 
-0.114601 -0.146969 -0.106004 0.635674 0.213495 0.741848 
-0.115977 -0.137129 -0.10775 0.628601 0.226692 0.743957 
-0.117354 -0.127289 -0.109496 0.628979 0.201279 0.750914 
-0.118291 -0.117372 -0.111073 0.630438 0.168229 0.757791 
-0.119113 -0.107435 -0.112608 0.630161 0.17227 0.757113 
-0.119936 -0.097498 -0.114142 0.633736 0.157582 0.757328 
-0.120378 -0.087534 -0.115618 0.63823 0.126461 0.759388 
-0.120557 -0.077551 -0.117055 0.642376 0.120316 0.756887 
-0.120738 -0.067566 -0.118493 0.648719 0.115298 0.752243 
-0.121033 -0.057551 -0.119648 0.660086 0.0965617 0.744958 
-0.121354 -0.047527 -0.12074 0.670927 0.120898 0.731602 
-0.122646 -0.037577 -0.121258 0.692116 0.104441 0.71419 
-0.1247 -0.027715 -0.121385 0.70895 0.259429 0.65581 
-0.12877 -0.018485 -0.121328 0.74982 0.41222 0.517537 
-0.133815 -0.009837 -0.122321 0.718167 0.547122 0.429994 
-0.139601 -0.001843 -0.124214 0.687017 0.642442 0.339523 
-0.145973 0.005494 -0.126846 0.635729 0.729837 0.25137 
-0.15292 0.011996 -0.130196 0.598545 0.778704 0.188054 
-0.159661 0.018134 -0.134478 0.602065 0.781879 0.161813 
-0.166057 0.024126 -0.139407 0.612827 0.774268 0.157962 
-0.171549 0.03002 -0.145479 0.648057 0.733058 0.206513 
-0.176136 0.03643 -0.151725 0.668818 0.700876 0.2479 
-0.180148 0.043183 -0.158037 0.722415 0.592054 0.357195 
-0.182358 0.05136 -0.163518 0.762329 0.435943 0.478338 
-0.183721 0.059962 -0.168447 0.764451 0.365511 0.531053 
-0.183943 0.069138 -0.172634 0.75735 0.171928 0.62997 
-0.182261 0.078575 -0.175598 0.727253 0.0245621 0.68593 
-0.179682 0.087991 -0.177854 0.676928 -0.116938 0.726701 
-0.175631 0.097185 -0.178764 0.591245 -0.245864 0.768102 
-0.170302 0.105646 -0.178422 0.485714 -0.442717 0.753714 
-0.16424 0.113579 -0.177294 0.413199 -0.547184 0.727912 
-0.157038 0.120107 -0.174594 0.250034 -0.699934 0.66901 
-0.149375 0.125476 -0.17108 0.173096 -0.751913 0.636132 
-0.141322 0.129859 -0.166875 0.0219476 -0.827913 0.560427 
-0.133464 0.132667 -0.161226 -0.112189 -0.870335 0.479511 
-0.126094 0.134791 -0.154795 -0.193894 -0.886295 0.420578 
-0.119473 0.136017 -0.147292 -0.297649 -0.903381 0.30872 
-0.114087 0.136628 -0.138784 -0.311578 -0.920048 0.237553 
-0.10982 0.138161 -0.129807 -0.110103 -0.927217 0.357975 
-0.107358 0.14304 -0.12148 0.207095 -0.755415 0.621659 
-0.106147 0.150878 -0.115383 0.468735 -0.4465 0.762185 
-0.105968 0.160146 -0.111466 0.642225 -0.268814 0.717834 
-0.104771 0.169858 -0.109049 0.724253 -0.255701 0.64037 
-0.10264 0.179515 -0.107198 0.732973 -0.292921 0.613961 
-0.100035 0.189131 -0.10562 0.732931 -0.31169 0.6047 
-0.097135 0.198657 -0.104007 0.726098 -0.329357 0.603577 
-0.094117 0.208144 -0.102382 0.715535 -0.343366 0.608366 
-0.091125 0.217561 -0.100376 0.702 -0.362847 0.612811 
-0.088153 0.226923 -0.098073 0.68602 -0.386252 0.616592 
-0.085208 0.236171 -0.095339 0.671269 -0.403859 0.621527 
-0.082278 0.245356 -0.092369 0.651434 -0.433687 0.622535 
-0.079278 0.25435 -0.088932 0.633757 -0.455203 0.625414 
-0.076259 0.263304 -0.085398 0.615277 -0.477645 0.627128 
-0.073037 0.272014 -0.081461 0.586474 -0.521683 0.619592 
-0.069703 0.280626 -0.077413 0.576933 -0.529355 0.622038 
-0.066012 0.288921 -0.073017 0.538453 -0.590173 0.601469 
-0.062184 0.297011 -0.068371 0.524026 -0.603642 0.600844 
-0.058234 0.304912 -0.063499 0.496262 -0.649847 0.575693 
-0.054194 0.312313 -0.057968 0.468959 -0.696047 0.543688 
-0.050017 0.319436 -0.052187 0.455444 -0.717939 0.526435 
-0.045637 0.326208 -0.046126 0.422838 -0.769278 0.478977 
-0.040684 0.332261 -0.039756 0.382867 -0.821978 0.421622 
-0.035231 0.337704 -0.033266 0.345952 -0.862177 0.370092 
-0.029207 0.342408 -0.026712 0.296717 -0.904157 0.307342 
-0.022662 0.346313 -0.020119 0.245897 -0.937482 0.246297 
-0.01577 0.349333 -0.013406 0.173693 -0.970596 0.166658 
-0.008749 0.351333 -0.006449 0.135525 -0.983169 0.12252 
-0.051224 -0.042824 -0.19364 0.493823 0.763436 0.416299 
-0.042507 -0.047847 -0.194195 0.462211 0.768856 0.441838 
-0.03379 -0.052869 -0.19475 0.470755 0.751756 0.461793 
-0.025074 -0.057893 -0.195247 0.435847 0.760517 0.481301 
-0.016369 -0.062932 -0.194669 0.401575 0.766244 0.501605 
-0.007663 -0.067973 -0.19409 0.407174 0.750433 0.520634 
0.001032 -0.073003 -0.193397 0.364314 0.763999 0.532523 
0.00964 -0.077949 -0.191676 0.325401 0.772091 0.545884 
0.018247 -0.082896 -0.189954 0.32765 0.758164 0.563767 
0.026815 -0.087825 -0.188049 0.283666 0.772282 0.568431 
0.035182 -0.092668 -0.185212 0.248674 0.779316 0.575177 
0.043548 -0.097512 -0.182373 0.247492 0.771154 0.586574 
0.051829 -0.102303 -0.179255 0.202918 0.791047 0.577121 
0.059861 -0.106938 -0.175314 0.175656 0.800689 0.57275 
0.067892 -0.111574 -0.171373 0.174527 0.801898 0.571402 
0.075742 -0.116103 -0.167012 0.139958 0.828243 0.54261 
0.083301 -0.120463 -0.161972 0.137267 0.842578 0.520788 
0.090859 -0.124821 -0.156934 0.153547 0.860163 0.486357 
0.098074 -0.128992 -0.151306 0.16127 0.892923 0.420334 
0.105015 -0.133012 -0.145209 0.212419 0.910134 0.355717 
0.111957 -0.137034 -0.139114 0.280008 0.916308 0.286311 
0.118341 -0.140715 -0.132264 0.262432 0.939479 0.220246 
0.124568 -0.1443 -0.1252 0.236812 0.929421 0.283013 
0.130745 -0.147856 -0.118085 0.127911 0.942303 0.30936 
0.136095 -0.150943 -0.110125 0.02741 0.93969 0.340928 
0.141446 -0.154031 -0.102166 -0.0405708 0.925245 0.377195 
0.146399 -0.156892 -0.0939 -0.124708 0.928451 0.349895 
0.15071 -0.159386 -0.085142 -0.177715 0.918535 0.353145 
0.155021 -0.161881 -0.076383 -0.22294 0.917015 0.330728 
0.158482 -0.163881 -0.067156 -0.27615 0.920641 0.275972 
0.161672 -0.165724 -0.057777 -0.295535 0.91244 0.283042 
0.164657 -0.167447 -0.048326 -0.328107 0.919497 0.216497 
0.166636 -0.168591 -0.038513 -0.353738 0.918905 0.174596 
0.168615 -0.169734 -0.0287 -0.364515 0.918655 0.152322 
0.169789 -0.170396 -0.018743 -0.382575 0.921374 0.0686088 
0.170462 -0.17076 -0.008696 -0.38645 0.919892 0.0667502 
0.171036 -0.171071 0.00135 -0.385549 0.922666 -0.00622585 
0.170364 -0.170707 0.011396 -0.385753 0.920131 -0.0674818 
0.169692 -0.170344 0.021443 -0.379762 0.921755 -0.078415 
0.168328 -0.169568 0.031367 -0.361561 0.917736 -0.16442 
0.166349 -0.168425 0.04118 -0.352456 0.920574 -0.168278 
0.16437 -0.167282 0.050993 -0.321118 0.919434 -0.226989 
0.16121 -0.165456 0.06038 -0.290723 0.911985 -0.28942 
0.158019 -0.163614 0.069759 -0.271503 0.920304 -0.281649 
0.154395 -0.161519 0.078897 -0.217514 0.914823 -0.340273 
0.150084 -0.159024 0.087655 -0.176795 0.920802 -0.347659 
0.145773 -0.156529 0.096413 -0.114326 0.927836 -0.355034 
0.14067 -0.153582 0.104563 -0.0301606 0.924694 -0.379514 
0.135319 -0.150495 0.112523 0.0374537 0.941123 -0.335982 
0.129892 -0.147364 0.120403 0.142366 0.941237 -0.306277 
0.123665 -0.14378 0.127467 0.247309 0.928892 -0.275676 
0.117439 -0.140195 0.134531 0.26066 0.940184 -0.21934 
0.110949 -0.136451 0.14124 0.277748 0.91287 -0.299207 
0.104008 -0.132429 0.147335 0.20058 0.910175 -0.362422 
0.097066 -0.128408 0.153432 0.160769 0.888464 -0.429866 
0.089762 -0.124188 0.158907 0.154084 0.855632 -0.494117 
0.082203 -0.11983 0.163945 0.132225 0.842803 -0.521727 
0.074645 -0.11547 0.168984 0.144777 0.824556 -0.546943 
0.066726 -0.110901 0.173186 0.180175 0.798497 -0.574404 
0.058695 -0.106266 0.177127 0.174329 0.803345 -0.569426 
0.050664 -0.101631 0.181069 0.211431 0.789908 -0.575623 
0.042334 -0.09681 0.184027 0.256248 0.770251 -0.583995 
0.033967 -0.091966 0.186864 0.249677 0.783756 -0.568672 
0.025601 -0.087122 0.189702 0.292475 0.772355 -0.563849 
0.016997 -0.082177 0.191445 0.334708 0.758086 -0.559711 
0.008391 -0.077231 0.193168 0.327216 0.77489 -0.54081 
-0.000221 -0.07228 0.194837 0.371992 0.763397 -0.52806 
-0.008927 -0.067241 0.195416 0.411224 0.751575 -0.51578 
-0.017632 -0.0622 0.195994 0.404689 0.767596 -0.497015 
-0.026339 -0.057162 0.196468 0.441448 0.759555 -0.477703 
-0.035055 -0.05214 0.195911 0.471036 0.753325 -0.458941 
-0.043772 -0.047117 0.195356 0.466426 0.767931 -0.439009 
-0.052472 -0.042103 0.194636 0.498267 0.761927 -0.41376 
-0.061073 -0.037137 0.19294 0.521368 0.759154 -0.389693 
-0.069674 -0.03217 0.191244 0.517336 0.772628 -0.36798 
-0.078226 -0.027228 0.189311 0.541786 0.769569 -0.337982 
-0.086593 -0.022384 0.186473 0.556021 0.771111 -0.310205 
-0.09496 -0.01754 0.183636 0.55161 0.783169 -0.287007 
-0.103229 -0.012762 0.180472 0.565492 0.783569 -0.257367 
-0.111269 -0.008136 0.176538 0.569607 0.788062 -0.233463 
-0.119309 -0.003509 0.172604 0.566935 0.794964 -0.215909 
-0.127149 0.001009 0.168214 0.578734 0.792016 -0.194367 
-0.134709 0.005381 0.16319 0.580275 0.793829 -0.18198 
-0.142271 0.009751 0.158165 0.58151 0.79476 -0.173791 
-0.149483 0.013917 0.152529 0.593505 0.788447 -0.161565 
-0.156448 0.017938 0.14646 0.592981 0.788108 -0.165102 
-0.163414 0.021958 0.14039 0.611327 0.775307 -0.158673 
-0.16977 0.02564 0.133514 0.61845 0.770418 -0.154841 
-0.17598 0.029241 0.126444 0.622393 0.766464 -0.158619 
-0.182123 0.032801 0.119303 0.635301 0.757683 -0.149361 
-0.187472 0.035889 0.111344 0.645339 0.751118 -0.139138 
-0.192823 0.038976 0.103385 0.645281 0.751145 -0.13926 
-0.197772 0.041823 0.095111 0.653873 0.747002 -0.120157 
-0.202127 0.044311 0.086372 0.652828 0.748898 -0.113874 
-0.206483 0.0468 0.077634 0.654318 0.749759 -0.098635 
-0.209936 0.04881 0.068406 0.658821 0.748576 -0.0747586 
-0.213125 0.05068 0.059032 0.654329 0.752674 -0.0730433 
-0.216092 0.05241 0.049578 0.654292 0.754201 -0.0555311 
-0.218066 0.053522 0.039761 0.653336 0.755717 -0.0452025 
-0.22004 0.054635 0.029943 0.651303 0.757878 -0.0377396 
-0.221201 0.055297 0.019983 0.652003 0.75804 -0.0163317 
-0.221871 0.055688 0.009937 0.650691 0.759182 -0.0156128 
-0.222444 0.056022 -0.000109 0.649744 0.760152 0.00153601 
-0.221773 0.055632 -0.010154 0.650643 0.759221 0.0157437 
-0.221104 0.055241 -0.0202 0.651572 0.758354 0.0187801 
-0.219754 0.054474 -0.030126 0.650791 0.758165 0.0407119 
-0.21778 0.053361 -0.039944 0.653224 0.755899 0.0437521 
-0.215805 0.052249 -0.049761 0.652873 0.755255 0.0578473 
-0.212663 0.050409 -0.059151 0.653355 0.753428 0.0739817 
-0.209473 0.048539 -0.068524 0.657481 0.749521 0.0770536 
-0.20585 0.046439 -0.077661 0.652743 0.750722 0.101699 
-0.201495 0.04395 -0.086399 0.653247 0.748798 0.112119 
-0.197139 0.041461 -0.095137 0.651947 0.748309 0.122472 
-0.192046 0.038529 -0.103298 0.643708 0.752226 0.140698 
-0.186697 0.03544 -0.111258 0.644933 0.751541 0.138736 
-0.181288 0.032318 -0.119158 0.633031 0.759246 0.151054 
-0.175079 0.028718 -0.126228 0.621338 0.767485 0.157816 
-0.168868 0.025117 -0.133299 0.616135 0.772412 0.154134 
-0.162403 0.021375 -0.140031 0.606006 0.779339 0.159335 
-0.155438 0.017354 -0.146099 0.594083 0.78758 0.163653 
-0.148472 0.013333 -0.152168 0.591629 0.789548 0.163061 
-0.141173 0.009117 -0.157653 0.579918 0.795598 0.175266 
-0.133612 0.004746 -0.162677 0.58141 0.793012 0.181918 
-0.12605 0.000375 -0.167701 0.576801 0.7929 0.196495 
-0.118142 -0.004181 -0.171934 0.565071 0.795677 0.218157 
-0.110102 -0.008807 -0.175868 0.571014 0.786772 0.234378 
-0.102062 -0.013433 -0.179801 0.563316 0.784334 0.259799 
-0.093745 -0.018244 -0.182806 0.549336 0.783869 0.289447 
-0.085379 -0.023088 -0.185644 0.557685 0.769511 0.311193 
-0.077012 -0.027932 -0.188482 0.538234 0.770972 0.34045 
-0.068425 -0.032891 -0.190248 0.51354 0.773704 0.371024 
-0.059824 -0.037858 -0.191944 0.523197 0.75689 0.391641 
0.007574 -0.259721 0.118003 -0.0458325 0.44707 -0.893324 
-0.001938 -0.256636 0.119374 0.0351625 0.42279 -0.905545 
-0.011478 -0.253532 0.120309 0.0776693 0.413068 -0.907382 
-0.02107 -0.25039 0.120394 0.168088 0.39018 -0.905266 
-0.030625 -0.247297 0.119618 0.213671 0.385047 -0.897822 
-0.04016 -0.244232 0.118357 0.293095 0.372398 -0.880577 
-0.049485 -0.24125 0.115918 0.365403 0.364078 -0.856696 
-0.058694 -0.238309 0.113073 0.412012 0.366694 -0.834135 
-0.067622 -0.235462 0.10932 0.496004 0.359461 -0.790423 
-0.076222 -0.232742 0.104834 0.529844 0.370511 -0.762881 
-0.084621 -0.230101 0.099898 0.601939 0.372466 -0.706356 
-0.092349 -0.227699 0.093869 0.647603 0.383584 -0.658387 
-0.099765 -0.225392 0.087454 0.704949 0.389739 -0.592579 
-0.106608 -0.223256 0.080349 0.743625 0.381965 -0.548747 
-0.112801 -0.221368 0.072627 0.771259 0.388483 -0.504223 
-0.11864 -0.219606 0.064593 0.808991 0.391572 -0.438412 
-0.123413 -0.218144 0.05582 0.847727 0.388741 -0.360886 
-0.12768 -0.21685 0.04679 0.860215 0.392181 -0.325921 
-0.131246 -0.215789 0.037408 0.889609 0.388834 -0.239591 
-0.133794 -0.214993 0.027695 0.901319 0.388231 -0.192094 
-0.135954 -0.214301 0.017861 0.914511 0.386987 -0.117942 
-0.136731 -0.214097 0.0078 0.922523 0.383738 -0.0411782 
-0.137062 -0.214009 -0.002262 0.923676 0.382989 0.0119077 
-0.136285 -0.214214 -0.012324 0.918121 0.382849 0.102369 
-0.134733 -0.214691 -0.022257 0.912709 0.382909 0.142626 
-0.132535 -0.215397 -0.032084 0.893855 0.387325 0.225838 
-0.129202 -0.216397 -0.041543 0.875298 0.388558 0.287884 
-0.125451 -0.21752 -0.050832 0.854873 0.389542 0.342709 
-0.120677 -0.218982 -0.059605 0.818247 0.391538 0.420915 
-0.115331 -0.220605 -0.067981 0.798884 0.385823 0.461437 
-0.109405 -0.222392 -0.075955 0.751129 0.38628 0.535343 
-0.102686 -0.22448 -0.083178 0.721468 0.382657 0.577112 
-0.095642 -0.226676 -0.090042 0.666732 0.390351 0.634897 
-0.08793 -0.229072 -0.096098 0.612767 0.378958 0.693475 
-0.079808 -0.231615 -0.101485 0.578412 0.364734 0.729663 
-0.071409 -0.234256 -0.106421 0.507973 0.364908 0.78026 
-0.062506 -0.237092 -0.110229 0.439733 0.365619 0.82034 
-0.053462 -0.239978 -0.113606 0.394089 0.361666 0.844921 
-0.044149 -0.242955 -0.116114 0.307619 0.373067 0.875324 
-0.034697 -0.245988 -0.117838 0.267502 0.372634 0.888587 
-0.025163 -0.249054 -0.119099 0.184056 0.389326 0.902524 
-0.015573 -0.252191 -0.119104 0.110189 0.405002 0.907652 
-0.006 -0.255319 -0.118718 0.0595818 0.415832 0.907487 
0.003512 -0.258404 -0.117347 -0.0316106 0.441723 0.896594 
0.012875 -0.261455 -0.115229 -0.071966 0.452721 0.888743 
0.022127 -0.264481 -0.112555 -0.15683 0.479016 0.863683 
0.030988 -0.267345 -0.108674 -0.240073 0.502179 0.830771 
0.039615 -0.270106 -0.104268 -0.286552 0.511413 0.810151 
0.04789 -0.272709 -0.099108 -0.372649 0.529469 0.762099 
0.055578 -0.275155 -0.093059 -0.438939 0.536244 0.720954 
0.062901 -0.277469 -0.086534 -0.487622 0.534251 0.690507 
0.069734 -0.279585 -0.079412 -0.565367 0.541033 0.62261 
0.075783 -0.281425 -0.071555 -0.628443 0.533792 0.565796 
0.081338 -0.283131 -0.063322 -0.672443 0.516763 0.529884 
0.086338 -0.2847 -0.054695 -0.732143 0.508981 0.452665 
0.090407 -0.28591 -0.045541 -0.782553 0.500069 0.370866 
0.093878 -0.286951 -0.036138 -0.810169 0.487945 0.324863 
0.096724 -0.287821 -0.026499 -0.843213 0.481989 0.238073 
0.098545 -0.288377 -0.016587 -0.867281 0.478019 0.139 
0.09957 -0.288656 -0.006565 -0.87762 0.474719 0.066513 
0.099852 -0.288722 0.003506 -0.880245 0.474306 -0.0142133 
0.099191 -0.288569 0.013578 -0.871108 0.476058 -0.120585 
0.097502 -0.288058 0.023509 -0.851798 0.479419 -0.211182 
0.095138 -0.287336 0.033276 -0.831528 0.487481 -0.266315 
0.092124 -0.286418 0.042861 -0.79417 0.495112 -0.35236 
0.088103 -0.285227 0.052044 -0.744852 0.503104 -0.438271 
0.083473 -0.283801 0.06088 -0.705994 0.516942 -0.48409 
0.078314 -0.282193 0.069394 -0.649467 0.529158 -0.546063 
0.072385 -0.280395 0.077364 -0.58248 0.54871 -0.599695 
0.065818 -0.278373 0.084734 -0.514416 0.544377 -0.662594 
0.058816 -0.276187 0.091649 -0.467925 0.540989 -0.69884 
0.051233 -0.273769 0.097858 -0.386064 0.52903 -0.7557 
0.043148 -0.271217 0.103306 -0.332724 0.522729 -0.784888 
0.034763 -0.268565 0.108232 -0.264654 0.508622 -0.819306 
0.025922 -0.265709 0.112177 -0.171761 0.482743 -0.858753 
0.016825 -0.262747 0.115329 -0.131516 0.472315 -0.871563 
-0.026381 -0.085036 -0.165095 0.373868 0.535764 0.757086 
-0.01764 -0.090128 -0.165237 0.322977 0.548093 0.771544 
-0.0089 -0.095219 -0.165378 0.312 0.5384 0.782804 
-0.000183 -0.100295 -0.164927 0.242898 0.559095 0.792725 
0.008509 -0.105356 -0.163839 0.226935 0.54539 0.806877 
0.0172 -0.110417 -0.162753 0.166363 0.55891 0.812369 
0.025711 -0.115389 -0.16048 0.101571 0.563697 0.819713 
0.034221 -0.12036 -0.158198 0.073045 0.547536 0.833588 
0.042571 -0.125223 -0.155266 -0.00866686 0.555163 0.831697 
0.050794 -0.13 -0.151819 -0.048367 0.531466 0.845698 
0.058934 -0.134719 -0.148137 -0.137121 0.528868 0.837554 
0.066748 -0.139216 -0.143548 -0.206036 0.495279 0.843948 
0.074562 -0.143712 -0.13896 -0.295314 0.460041 0.837348 
0.081867 -0.147938 -0.133394 -0.405791 0.404421 0.81962 
0.089121 -0.152137 -0.127731 -0.494212 0.318942 0.808722 
0.095945 -0.156064 -0.121405 -0.599499 0.263256 0.755842 
0.10256 -0.159858 -0.114758 -0.611514 0.24391 0.752701 
0.108803 -0.16344 -0.107677 -0.683364 0.304055 0.66375 
0.114636 -0.166787 -0.100121 -0.636032 0.404761 0.656987 
0.120183 -0.169967 -0.092305 -0.629972 0.503836 0.591004 
0.125149 -0.172804 -0.083961 -0.618428 0.564035 0.547185 
0.129908 -0.175525 -0.075474 -0.6228 0.612276 0.487072 
0.133937 -0.177832 -0.066487 -0.629083 0.641853 0.438497 
0.137806 -0.180047 -0.057419 -0.64236 0.667533 0.376528 
0.140802 -0.181754 -0.047908 -0.654424 0.683471 0.323415 
0.143669 -0.183384 -0.038355 -0.66795 0.698813 0.255936 
0.145506 -0.184409 -0.02846 -0.68068 0.706596 0.193381 
0.147228 -0.185372 -0.018547 -0.68812 0.713979 0.129326 
0.14787 -0.185764 -0.008459 -0.695338 0.715573 0.0667815 
0.148383 -0.186078 0.00163 -0.695269 0.718712 -0.0073659 
0.147741 -0.185686 0.011718 -0.694414 0.715062 -0.0804743 
0.146976 -0.185228 0.021785 -0.686521 0.713065 -0.14222 
0.145139 -0.184204 0.03168 -0.679105 0.705054 -0.204243 
0.143198 -0.183119 0.041541 -0.664284 0.696789 -0.270575 
0.140202 -0.181412 0.051051 -0.652462 0.681742 -0.33094 
0.13716 -0.179678 0.060537 -0.638004 0.663883 -0.390142 
0.133131 -0.177371 0.069525 -0.628387 0.637727 -0.44546 
0.129102 -0.175064 0.078513 -0.619949 0.605479 -0.499057 
0.124157 -0.172238 0.086872 -0.618329 0.55405 -0.557403 
0.119191 -0.169399 0.095215 -0.630179 0.488818 -0.603267 
0.113469 -0.166118 0.102873 -0.641728 0.384564 -0.663548 
0.107637 -0.162771 0.11043 -0.676023 0.283322 -0.680236 
0.101238 -0.1591 0.117328 -0.609089 0.240394 -0.755792 
0.094623 -0.155307 0.123976 -0.584029 0.271244 -0.765073 
0.087671 -0.151298 0.130104 -0.47278 0.333835 -0.815496 
0.080417 -0.147099 0.135768 -0.385693 0.418113 -0.822449 
0.073 -0.142813 0.141119 -0.272363 0.464972 -0.842389 
0.065186 -0.138317 0.145708 -0.204287 0.509525 -0.835853 
0.057372 -0.133821 0.150297 -0.116366 0.530447 -0.839693 
0.04915 -0.129045 0.153749 -0.0346996 0.532755 -0.845558 
0.040926 -0.124268 0.157196 0.00418209 0.555527 -0.831488 
0.032519 -0.119366 0.159896 0.0847747 0.54492 -0.834191 
0.02401 -0.114395 0.162177 0.110391 0.561715 -0.819933 
0.015463 -0.109405 0.164211 0.179025 0.552284 -0.814207 
0.00677 -0.104344 0.165299 0.221596 0.550077 -0.805177 
-0.001921 -0.099284 0.166385 0.255961 0.553756 -0.792362 
-0.010648 -0.094201 0.166592 0.31992 0.533954 -0.782652 
-0.019388 -0.08911 0.16645 0.329589 0.544386 -0.771373 
-0.028113 -0.084025 0.166081 0.384192 0.528278 -0.757178 
-0.03678 -0.078967 0.164803 0.414771 0.51905 -0.747363 
-0.045447 -0.073909 0.163524 0.438568 0.515019 -0.736487 
-0.053984 -0.06895 0.161396 0.490139 0.4874 -0.722638 
-0.062465 -0.064035 0.158895 0.494697 0.484613 -0.721405 
-0.070877 -0.05916 0.156144 0.542152 0.455325 -0.706223 
-0.079044 -0.054434 0.152498 0.563004 0.430714 -0.705346 
-0.087212 -0.049709 0.148851 0.587635 0.403766 -0.701184 
-0.095023 -0.045199 0.144303 0.630869 0.352938 -0.69097 
-0.102734 -0.040751 0.139499 0.634674 0.321685 -0.702643 
-0.110232 -0.036428 0.134296 0.682111 0.26072 -0.683191 
-0.117381 -0.032313 0.128439 0.678364 0.225619 -0.699227 
-0.13094 -0.024523 0.115673 0.780317 0.257307 -0.569998 
-0.137355 -0.020844 0.10877 0.788163 0.305412 -0.534344 
-0.143195 -0.017499 0.101245 0.824357 0.326404 -0.462489 
-0.148749 -0.014322 0.09341 0.828317 0.363048 -0.426717 
-0.153938 -0.011352 0.085278 0.850709 0.384406 -0.358505 
-0.158483 -0.008755 0.076622 0.851826 0.40908 -0.327178 
-0.162961 -0.006198 0.067926 0.863264 0.426843 -0.269408 
-0.166333 -0.004279 0.058584 0.873744 0.432314 -0.222881 
-0.169706 -0.002361 0.049241 0.874525 0.444508 -0.193958 
-0.172102 -0.000991 0.039532 0.88553 0.443737 -0.137602 
-0.174184 0.000203 0.029705 0.884635 0.450319 -0.120967 
-0.175698 0.001067 0.01977 0.889256 0.452729 -0.0652666 
-0.176461 0.001495 0.009691 0.888739 0.455662 -0.0501502 
-0.177072 0.001837 -0.000387 0.887403 0.460946 0.00675843 
-0.176309 0.001409 -0.010465 0.888617 0.455772 0.0513005 
-0.175545 0.000981 -0.020543 0.887632 0.45432 0.0755129 
-0.173768 -3.6e-05 -0.030428 0.884277 0.448808 0.128943 
-0.171686 -0.00123 -0.040255 0.885011 0.44176 0.146984 
-0.169032 -0.002744 -0.049867 0.874372 0.439541 0.205616 
-0.165659 -0.004663 -0.05921 0.874993 0.426819 0.228502 
-0.16212 -0.006677 -0.068455 0.860578 0.422852 0.283906 
-0.157575 -0.009275 -0.077111 0.85477 0.402473 0.327695 
-0.15303 -0.011872 -0.085767 0.845569 0.383624 0.371276 
-0.147638 -0.014957 -0.093734 0.824773 0.358551 0.437253 
-0.142085 -0.018134 -0.101571 0.820398 0.322141 0.472411 
-0.136073 -0.021579 -0.108909 0.777606 0.301927 0.551516 
-0.129657 -0.025258 -0.115811 0.791356 0.24292 0.561022 
-0.123101 -0.029021 -0.122512 0.681861 0.246505 0.688695 
-0.115952 -0.033135 -0.128368 0.697053 0.215498 0.68387 
-0.108804 -0.03725 -0.134225 0.669276 0.275424 0.690081 
-0.101193 -0.041639 -0.139217 0.6296 0.329758 0.703465 
-0.093483 -0.046088 -0.144022 0.62482 0.361759 0.691904 
-0.085578 -0.050653 -0.148339 0.576815 0.412115 0.705298 
-0.077411 -0.055379 -0.151985 0.568986 0.43033 0.700765 
-0.069243 -0.060104 -0.155631 0.532463 0.464993 0.707294 
-0.060769 -0.065017 -0.158154 0.488701 0.489881 0.721933 
-0.052289 -0.069933 -0.160655 0.483672 0.492902 0.723263 
-0.043714 -0.07492 -0.162538 0.427148 0.521031 0.738966 
-0.035047 -0.079978 -0.163816 0.420412 0.516093 0.746259 
0.004442 0.096626 -0.165452 -0.277896 -0.551823 0.786299 
0.013182 0.091534 -0.16531 -0.334311 -0.53341 0.776988 
0.021923 0.086443 -0.165169 -0.341856 -0.544575 0.765881 
0.030627 0.081367 -0.164477 -0.40143 -0.52261 0.752152 
0.039295 0.076309 -0.163198 -0.408864 -0.527804 0.744482 
0.047961 0.071251 -0.16192 -0.456182 -0.511116 0.728463 
0.056446 0.066332 -0.159446 -0.50049 -0.484015 0.717802 
0.064925 0.061417 -0.156945 -0.504971 -0.480563 0.716982 
0.073249 0.056597 -0.153868 -0.555532 -0.445164 0.702292 
0.081416 0.051871 -0.150222 -0.558671 -0.431268 0.708445 
0.089556 0.047163 -0.146505 -0.602891 -0.39308 0.69427 
0.097266 0.042714 -0.1417 -0.636003 -0.344713 0.690415 
0.104977 0.038265 -0.136896 -0.644006 -0.311715 0.698634 
0.112316 0.034038 -0.131395 -0.697717 -0.243417 0.67375 
0.119465 0.029922 -0.125538 -0.660594 -0.223849 0.716594 
0.1264 0.025935 -0.119376 -0.776679 -0.253549 0.576612 
0.132815 0.022256 -0.112474 -0.767976 -0.293538 0.569252 
0.139231 0.018576 -0.105572 -0.801014 -0.30945 0.512462 
0.144827 0.015374 -0.097783 -0.830129 -0.330584 0.448999 
0.15038 0.012197 -0.089947 -0.833677 -0.368221 0.411577 
0.155285 0.009392 -0.081583 -0.856145 -0.384712 0.344982 
0.159829 0.006796 -0.072927 -0.85585 -0.409638 0.315781 
0.163974 0.004429 -0.064036 -0.870375 -0.422328 0.253152 
0.167347 0.002512 -0.054694 -0.870594 -0.435995 0.227978 
0.170668 0.000622 -0.045332 -0.877367 -0.446717 0.175135 
0.17275 -0.000572 -0.035505 -0.885752 -0.445922 0.128829 
0.174832 -0.001766 -0.025678 -0.885285 -0.452412 0.107669 
0.175972 -0.002413 -0.015672 -0.891146 -0.450482 0.0540788 
0.176735 -0.00284 -0.005593 -0.890743 -0.452957 0.0375133 
0.176913 -0.00294 0.004485 -0.890136 -0.454981 -0.0255068 
0.17615 -0.002512 0.014563 -0.890587 -0.452491 -0.0458923 
0.175317 -0.002044 0.024628 -0.885341 -0.455576 -0.0928533 
0.173235 -0.00085 0.034455 -0.883616 -0.448137 -0.135632 
0.171153 0.000343 0.044282 -0.882062 -0.442735 -0.161096 
0.168133 0.002064 0.053757 -0.873208 -0.435261 -0.219216 
0.164761 0.003982 0.0631 -0.873813 -0.421511 -0.242443 
0.160888 0.00619 0.07215 -0.858215 -0.413831 -0.303661 
0.156344 0.008787 0.080806 -0.858456 -0.390264 -0.332789 
0.151674 0.011456 0.089362 -0.838794 -0.376375 -0.393405 
0.146122 0.014633 0.097197 -0.825885 -0.343835 -0.446869 
0.140568 0.017811 0.105033 -0.811839 -0.312478 -0.49323 
0.134311 0.021398 0.112106 -0.766921 -0.298709 -0.567983 
0.127895 0.025077 0.119008 -0.793481 -0.257015 -0.551661 
0.121132 0.028963 0.125414 -0.662281 -0.211469 -0.718794 
0.113983 0.033078 0.131271 -0.703864 -0.227248 -0.673004 
0.106775 0.037228 0.137017 -0.655538 -0.298231 -0.693779 
0.099064 0.041677 0.141821 -0.628424 -0.341076 -0.699107 
0.091353 0.046125 0.146626 -0.614004 -0.377676 -0.69308 
0.083321 0.050769 0.150613 -0.566106 -0.421734 -0.708283 
0.075154 0.055494 0.15426 -0.56197 -0.436636 -0.702523 
0.066903 0.060271 0.157603 -0.516795 -0.472221 -0.714094 
0.058423 0.065187 0.160104 -0.49489 -0.484944 -0.72105 
0.049943 0.070102 0.162605 -0.468089 -0.501109 -0.727862 
0.041315 0.075129 0.164142 -0.415439 -0.523024 -0.744215 
0.032648 0.080188 0.165421 -0.409209 -0.517123 -0.751752 
0.023961 0.085256 0.166377 -0.355005 -0.538205 -0.7644 
0.01522 0.090347 0.166519 -0.327837 -0.537623 -0.776843 
0.00648 0.095439 0.16666 -0.291744 -0.543211 -0.787278 
-0.002222 0.100506 0.16586 -0.227274 -0.558012 -0.798104 
-0.010915 0.105567 0.164774 -0.211402 -0.544057 -0.811979 
-0.019556 0.110602 0.163356 -0.142096 -0.559776 -0.81637 
-0.028066 0.115573 0.161074 -0.103512 -0.550454 -0.828424 
-0.036575 0.120545 0.158794 -0.0485153 -0.55041 -0.833483 
-0.044844 0.125353 0.15553 0.028019 -0.550909 -0.834095 
-0.053068 0.13013 0.152083 0.0712528 -0.527627 -0.846482 
-0.061092 0.13477 0.148078 0.165027 -0.521067 -0.83741 
-0.068906 0.139266 0.143489 0.226315 -0.478917 -0.848186 
-0.076612 0.143705 0.138693 0.332688 -0.444967 -0.831458 
-0.083866 0.147904 0.13303 0.424705 -0.37242 -0.825184 
-0.09112 0.152104 0.127367 0.52587 -0.297184 -0.796958 
-0.097763 0.155916 0.120762 0.625791 -0.254235 -0.737394 
-0.104378 0.159709 0.114116 0.597077 -0.240583 -0.765257 
-0.110399 0.163164 0.106777 0.67568 -0.353644 -0.646832 
-0.116232 0.166512 0.099221 0.627595 -0.437456 -0.644016 
-0.121534 0.169548 0.091182 0.628086 -0.524955 -0.574395 
-0.1265 0.172385 0.082838 0.618759 -0.578226 -0.531782 
-0.130992 0.174955 0.074169 0.626811 -0.620288 -0.47154 
-0.135021 0.177262 0.065181 0.634605 -0.647434 -0.422027 
-0.138597 0.179306 0.055965 0.648985 -0.669799 -0.360815 
-0.141593 0.181013 0.046454 0.661168 -0.68537 -0.305162 
-0.144132 0.18245 0.036792 0.675929 -0.697445 -0.238098 
-0.145969 0.183475 0.026898 0.687104 -0.705001 -0.175675 
-0.147352 0.184259 0.016928 0.695004 -0.710207 -0.112138 
-0.147994 0.184651 0.006841 0.699768 -0.712887 -0.0460093 
-0.148144 0.184743 -0.003247 0.699713 -0.713853 0.0285368 
-0.147502 0.184351 -0.013335 0.696755 -0.710596 0.0979085 
-0.146398 0.183714 -0.023348 0.6885 -0.707218 0.160659 
-0.144561 0.182689 -0.033244 0.678838 -0.699618 0.222964 
-0.142292 0.181411 -0.042995 0.663876 -0.689446 0.289712 
-0.139296 0.179704 -0.052505 0.651734 -0.674183 0.347448 
-0.13596 0.1778 -0.061844 0.63679 -0.654209 0.408055 
-0.131931 0.175493 -0.070832 0.628385 -0.628302 0.45866 
-0.127658 0.173046 -0.07965 0.61867 -0.590312 0.51844 
-0.122692 0.170209 -0.087995 0.62596 -0.540042 0.562609 
-0.117592 0.167292 -0.096217 0.628055 -0.462472 0.625833 
-0.111758 0.163945 -0.103774 0.657124 -0.366728 0.658558 
-0.099305 0.1568 -0.117971 0.617341 -0.231582 0.751838 
-0.09269 0.153006 -0.124619 0.556387 -0.284148 0.780829 
-0.085557 0.148884 -0.130468 0.44462 -0.353104 0.823183 
-0.078304 0.144684 -0.136132 0.357984 -0.432607 0.827465 
-0.070728 0.140314 -0.141178 0.247131 -0.47199 0.846257 
-0.062914 0.135818 -0.145767 0.183457 -0.516216 0.836579 
-0.054985 0.131244 -0.150038 0.0896618 -0.528456 0.844213 
-0.046762 0.126467 -0.153484 0.0359742 -0.54706 0.83632 
-0.038538 0.121689 -0.156932 -0.0299172 -0.554958 0.83134 
-0.03005 0.116733 -0.159301 -0.10248 -0.545553 0.831787 
-0.02154 0.111761 -0.161582 -0.126637 -0.563215 0.816549 
-0.012941 0.106746 -0.163278 -0.200698 -0.547841 0.812152 
-0.004249 0.101686 -0.164365 -0.217658 -0.561729 0.798176 
2.9e-05 -0.000612 -0.253506 1.90353e-06 -7.53629e-06 1 
0.00874 -0.005642 -0.252909 -0.0584524 0.0502344 0.997025 
0.017452 -0.010673 -0.252311 -0.0312623 0.0517684 0.99817 
0.026163 -0.015703 -0.251714 -0.0368903 0.0712444 0.996776 
0.034839 -0.020713 -0.25076 -0.0911777 0.118446 0.988766 
0.043431 -0.025676 -0.249004 -0.125478 0.153791 0.980104 
0.052024 -0.030637 -0.247246 -0.0997798 0.153305 0.983129 
0.060617 -0.0356 -0.245489 -0.13024 0.183823 0.974293 
0.069064 -0.04047 -0.243009 -0.186352 0.227606 0.955756 
0.077422 -0.045282 -0.240087 -0.199743 0.245002 0.948724 
0.08578 -0.050094 -0.237164 -0.176929 0.238878 0.954795 
0.094138 -0.054906 -0.234242 -0.235135 0.276192 0.931896 
0.102136 -0.059535 -0.230228 -0.295304 0.312097 0.90299 
0.110122 -0.064156 -0.226177 -0.280371 0.300496 0.911644 
0.118108 -0.068779 -0.222125 -0.298258 0.303673 0.904889 
0.12592 -0.0733 -0.217687 -0.362504 0.32965 0.871735 
0.133412 -0.077631 -0.21252 -0.405673 0.339666 0.848561 
0.140902 -0.081962 -0.207355 -0.394448 0.314382 0.863467 
0.148392 -0.086295 -0.202188 -0.447716 0.323625 0.833557 
0.155415 -0.090336 -0.196222 -0.514816 0.339653 0.787147 
0.162293 -0.094291 -0.190009 -0.52225 0.320461 0.790291 
0.169173 -0.098245 -0.183796 -0.550809 0.311234 0.774431 
0.175869 -0.102101 -0.177353 -0.576991 0.319819 0.75153 
0.181974 -0.105646 -0.170162 -0.634993 0.358147 0.684481 
0.188079 -0.10919 -0.16297 -0.603699 0.356938 0.712841 
0.194185 -0.112734 -0.155779 -0.633503 0.394481 0.665626 
0.199629 -0.115875 -0.147923 -0.668325 0.439159 0.600401 
0.204867 -0.118889 -0.139858 -0.654873 0.459507 0.599996 
0.210105 -0.121903 -0.131794 -0.647412 0.484999 0.587906 
0.214998 -0.124724 -0.123474 -0.673762 0.530062 0.514857 
0.219209 -0.127167 -0.114651 -0.682603 0.564121 0.464566 
0.223421 -0.129609 -0.105828 -0.653397 0.573849 0.493731 
0.227632 -0.132052 -0.097005 -0.674376 0.609712 0.416494 
0.230791 -0.133871 -0.087614 -0.692476 0.640439 0.332136 
0.233901 -0.135661 -0.078197 -0.672932 0.6464 0.359624 
0.237012 -0.13745 -0.06878 -0.67943 0.664524 0.311101 
0.239372 -0.138813 -0.059105 -0.693058 0.684873 0.224987 
0.241262 -0.139909 -0.049267 -0.689638 0.693721 0.207727 
0.243153 -0.141004 -0.03943 -0.685092 0.699817 0.202248 
0.244669 -0.14188 -0.029528 -0.693099 0.711611 0.11499 
0.245316 -0.142247 -0.019479 -0.694167 0.717769 0.0542217 
0.245963 -0.142613 -0.009429 -0.689282 0.718558 0.0925417 
0.24661 -0.14298 0.000621 -0.692357 0.721555 6.94093e-07 
0.245963 -0.142613 0.010671 -0.689366 0.718477 -0.092549 
0.245316 -0.142247 0.02072 -0.694323 0.717618 -0.0542255 
0.244669 -0.14188 0.03077 -0.693304 0.711411 -0.114995 
0.243153 -0.141004 0.040672 -0.685318 0.699591 -0.202267 
0.241262 -0.139909 0.050509 -0.689854 0.693502 -0.207743 
0.239372 -0.138813 0.060347 -0.693217 0.684708 -0.225 
0.237012 -0.13745 0.070022 -0.679484 0.664464 -0.311109 
0.233901 -0.135661 0.079439 -0.672852 0.646494 -0.359605 
0.230791 -0.133871 0.088856 -0.692229 0.640702 -0.332144 
0.227632 -0.132052 0.098246 -0.674015 0.610161 -0.416422 
0.223421 -0.129609 0.10707 -0.65292 0.574432 -0.493683 
0.219209 -0.127167 0.115892 -0.682094 0.564819 -0.464465 
0.214998 -0.124725 0.124716 -0.673215 0.530809 -0.514804 
0.210105 -0.121903 0.133035 -0.646883 0.485729 -0.587885 
0.204867 -0.118889 0.1411 -0.654425 0.460216 -0.599941 
0.199629 -0.115875 0.149164 -0.667906 0.439768 -0.600422 
0.194185 -0.112734 0.15702 -0.633203 0.394993 -0.665608 
0.188079 -0.10919 0.164211 -0.603492 0.357301 -0.712834 
0.181974 -0.105646 0.171403 -0.634862 0.358318 -0.684513 
0.175869 -0.102101 0.178594 -0.577141 0.319815 -0.751416 
0.169173 -0.098245 0.185037 -0.550865 0.311055 -0.774463 
0.162293 -0.094291 0.191251 -0.522415 0.320202 -0.790287 
0.155415 -0.090336 0.197463 -0.515048 0.339269 -0.787161 
0.148392 -0.086295 0.20343 -0.448026 0.323117 -0.833588 
0.140902 -0.081962 0.208596 -0.394844 0.313746 -0.863517 
0.133412 -0.077631 0.213762 -0.406187 0.338898 -0.848623 
0.12592 -0.0733 0.218928 -0.363058 0.328681 -0.87187 
0.118108 -0.068779 0.223366 -0.298985 0.302551 -0.905025 
0.110122 -0.064156 0.227418 -0.281262 0.299202 -0.911795 
0.102136 -0.059535 0.23147 -0.296319 0.31062 -0.903167 
0.094138 -0.054906 0.235484 -0.236193 0.274529 -0.932119 
0.08578 -0.050094 0.238406 -0.177983 0.237046 -0.955056 
0.077422 -0.045282 0.241328 -0.200899 0.243141 -0.948958 
0.069064 -0.04047 0.244251 -0.187557 0.225771 -0.955955 
0.060617 -0.0356 0.246731 -0.131341 0.182002 -0.974487 
0.052024 -0.030637 0.248488 -0.10074 0.15154 -0.983304 
0.043431 -0.025676 0.250245 -0.12643 0.15223 -0.980225 
0.034839 -0.020713 0.252002 -0.0919875 0.117062 -0.988855 
0.026163 -0.015703 0.252955 -0.0375599 0.0700646 -0.996835 
0.017452 -0.010673 0.253553 -0.0318598 0.050831 -0.998199 
0.00874 -0.005642 0.25415 -0.05873 0.0497092 -0.997035 
2.9e-05 -0.000612 0.254748 -7.33847e-05 -5.9091e-05 -1 
-0.008683 0.004418 0.25415 0.0586371 -0.0499206 -0.99703 
-0.017394 0.009449 0.253553 0.0316519 -0.0510934 -0.998192 
-0.026106 0.014479 0.252955 0.0374772 -0.0702477 -0.996825 
-0.034781 0.019488 0.252002 0.0919286 -0.117152 -0.98885 
-0.043374 0.024451 0.250245 0.126398 -0.152263 -0.980224 
-0.051966 0.029413 0.248488 0.100711 -0.151587 -0.9833 
-0.060559 0.034376 0.246731 0.131314 -0.182053 -0.974481 
-0.069007 0.039245 0.244251 0.187545 -0.225793 -0.955952 
-0.077364 0.044058 0.241328 0.200881 -0.243168 -0.948955 
-0.085722 0.04887 0.238406 0.178003 -0.237014 -0.95506 
-0.09408 0.053682 0.235484 0.236291 -0.27438 -0.932139 
-0.102078 0.058311 0.23147 0.296529 -0.310293 -0.90321 
-0.110064 0.062932 0.227418 0.281634 -0.298641 -0.911864 
-0.11805 0.067555 0.223366 0.299508 -0.301682 -0.905143 
-0.125863 0.072076 0.218928 0.363843 -0.327492 -0.87199 
-0.133354 0.076407 0.213762 0.407167 -0.337375 -0.84876 
-0.140844 0.080738 0.208596 0.396081 -0.31192 -0.863612 
-0.148334 0.08507 0.20343 0.449148 -0.320911 -0.833836 
-0.155357 0.089112 0.197463 0.516719 -0.33789 -0.786659 
-0.162236 0.093066 0.191251 0.518704 -0.320988 -0.79241 
-0.169115 0.097021 0.185037 0.550685 -0.329886 -0.76676 
-0.175811 0.100877 0.178594 0.563916 -0.321778 -0.760564 
-0.181917 0.104422 0.171403 0.631094 -0.369684 -0.681949 
-0.188022 0.107966 0.164211 0.601337 -0.359817 -0.71339 
-0.194127 0.11151 0.15702 0.632487 -0.396466 -0.665414 
-0.199572 0.114651 0.149164 0.6672 -0.440756 -0.600482 
-0.20481 0.117665 0.1411 0.654081 -0.460793 -0.599873 
-0.210048 0.120678 0.133035 0.646928 -0.485737 -0.58783 
-0.21494 0.1235 0.124716 0.673634 -0.530244 -0.514838 
-0.219151 0.125943 0.115892 0.682894 -0.56371 -0.464636 
-0.223364 0.128385 0.10707 0.654162 -0.572848 -0.493881 
-0.227575 0.130828 0.098246 0.675663 -0.608195 -0.416628 
-0.230734 0.132647 0.088856 0.694241 -0.638426 -0.332326 
-0.233844 0.134436 0.079439 0.675162 -0.643942 -0.359854 
-0.236954 0.136226 0.070022 0.682037 -0.661714 -0.311384 
-0.239314 0.137589 0.060347 0.696028 -0.681757 -0.225284 
-0.241205 0.138685 0.050509 0.692924 -0.690366 -0.207971 
-0.243095 0.13978 0.040672 0.688582 -0.696308 -0.202509 
-0.244612 0.140656 0.03077 0.696756 -0.707997 -0.115204 
-0.245259 0.141023 0.02072 0.697936 -0.714098 -0.0543078 
-0.245906 0.141389 0.010671 0.693067 -0.714896 -0.092636 
-0.246553 0.141755 0.000621 0.696075 -0.717969 1.77346e-09 
-0.245906 0.141389 -0.009429 0.692918 -0.715042 0.0926262 
-0.245259 0.141023 -0.019479 0.697642 -0.714386 0.0543007 
-0.244612 0.140656 -0.029528 0.696326 -0.708422 0.115188 
-0.243095 0.13978 -0.03943 0.68803 -0.696866 0.202465 
-0.241205 0.138685 -0.049267 0.692266 -0.69104 0.20792 
-0.239314 0.137589 -0.059105 0.695294 -0.682525 0.225225 
-0.236954 0.136226 -0.06878 0.681266 -0.662549 0.311296 
-0.233844 0.134436 -0.078197 0.67438 -0.64481 0.359766 
-0.230734 0.132647 -0.087614 0.693495 -0.639297 0.332212 
-0.227575 0.130828 -0.097005 0.674959 -0.60902 0.416563 
-0.223364 0.128385 -0.105828 0.653554 -0.573618 0.493792 
-0.219151 0.125943 -0.114651 0.682381 -0.564376 0.464581 
-0.21494 0.1235 -0.123474 0.673238 -0.530797 0.514786 
-0.210048 0.120678 -0.131794 0.646639 -0.486154 0.587803 
-0.20481 0.117665 -0.139858 0.653891 -0.461072 0.599867 
-0.199572 0.114651 -0.147923 0.66713 -0.440919 0.600439 
-0.194127 0.11151 -0.155779 0.632462 -0.39651 0.665411 
-0.188022 0.107966 -0.16297 0.601321 -0.359765 0.71343 
-0.181917 0.104422 -0.170161 0.631152 -0.369604 0.681938 
-0.175811 0.100877 -0.177353 0.563997 -0.321605 0.760577 
-0.169115 0.097021 -0.183796 0.550672 -0.329868 0.766777 
-0.162236 0.093066 -0.190009 0.518612 -0.32115 0.792404 
-0.155357 0.089112 -0.196222 0.516522 -0.338207 0.786652 
-0.148334 0.08507 -0.202188 0.448848 -0.321408 0.833806 
-0.140844 0.080738 -0.207355 0.395647 -0.312617 0.863559 
-0.133354 0.076407 -0.21252 0.406577 -0.338266 0.848688 
-0.125863 0.072076 -0.217687 0.363185 -0.328622 0.87184 
-0.11805 0.067555 -0.222125 0.298671 -0.302977 0.904987 
-0.110064 0.062932 -0.226177 0.28064 -0.300094 0.911693 
-0.102078 0.058311 -0.230228 0.295429 -0.311898 0.903018 
-0.09408 0.053682 -0.234242 0.235168 -0.276141 0.931902 
-0.085722 0.04887 -0.237164 0.176899 -0.238928 0.954788 
-0.077364 0.044058 -0.240087 0.199674 -0.245109 0.948711 
-0.069007 0.039245 -0.243009 0.186282 -0.227721 0.955742 
-0.060559 0.034376 -0.245489 0.130147 -0.183983 0.974275 
-0.051966 0.029413 -0.247246 0.0996818 -0.153469 0.983113 
-0.043374 0.024451 -0.249004 0.125388 -0.15392 0.980095 
-0.034781 0.019488 -0.25076 0.0911034 -0.118572 0.988757 
-0.026106 0.014479 -0.251714 0.0368357 -0.0713502 0.996771 
-0.017394 0.009449 -0.252311 0.0312289 -0.0518348 0.998167 
-0.008683 0.004418 -0.252909 0.0584227 -0.0502712 0.997025 
0.025584 0.056406 -0.195277 -0.437921 -0.760341 0.479695 
0.034301 0.051384 -0.194722 -0.471769 -0.751316 0.461475 
0.043017 0.046362 -0.194167 -0.463272 -0.768107 0.442029 
0.051729 0.041341 -0.193551 -0.495466 -0.76243 0.416191 
0.060329 0.036375 -0.191855 -0.522477 -0.757579 0.391269 
0.06893 0.031409 -0.190159 -0.51481 -0.773218 0.370277 
0.077505 0.026456 -0.188333 -0.53959 -0.770014 0.340472 
0.08587 0.021612 -0.185496 -0.557247 -0.769277 0.312552 
0.094237 0.016768 -0.182658 -0.550325 -0.782634 0.290905 
0.102538 0.011968 -0.179597 -0.564511 -0.78292 0.261465 
0.110577 0.007343 -0.175664 -0.571109 -0.786014 0.236678 
0.118618 0.002716 -0.17173 -0.566344 -0.794266 0.219993 
0.126502 -0.001826 -0.16744 -0.578287 -0.791432 0.198038 
0.134063 -0.006198 -0.162415 -0.5818 -0.792272 0.183885 
0.141623 -0.010568 -0.157392 -0.581331 -0.794229 0.176789 
0.148892 -0.014766 -0.151853 -0.592981 -0.788144 0.16493 
0.155857 -0.018787 -0.145783 -0.595806 -0.786058 0.164708 
0.162822 -0.022808 -0.139715 -0.607735 -0.776183 0.167924 
0.169249 -0.026529 -0.132931 -0.621626 -0.767348 0.157344 
0.175459 -0.03013 -0.12586 -0.620702 -0.767867 0.158458 
0.181668 -0.03373 -0.11879 -0.633004 -0.759669 0.149028 
0.187032 -0.036826 -0.110844 -0.644475 -0.752146 0.137583 
0.192382 -0.039913 -0.102885 -0.643541 -0.752565 0.139644 
0.197423 -0.042815 -0.094683 -0.652218 -0.74828 0.121196 
0.201779 -0.045303 -0.085944 -0.65284 -0.749077 0.112621 
0.206134 -0.047792 -0.077207 -0.653285 -0.750402 0.100582 
0.209697 -0.04986 -0.068037 -0.658005 -0.749143 0.0762578 
0.212886 -0.05173 -0.058664 -0.65363 -0.753226 0.0736048 
0.215965 -0.05353 -0.049251 -0.652994 -0.755229 0.0568128 
0.217939 -0.054643 -0.039433 -0.652453 -0.756549 0.0440306 
0.219914 -0.055755 -0.029616 -0.649677 -0.759188 0.0394116 
0.221196 -0.056485 -0.019677 -0.650023 -0.759712 0.0175244 
0.221866 -0.056876 -0.009631 -0.648598 -0.760964 0.0159476 
0.222535 -0.057267 0.000414 -0.647581 -0.761997 0.000368048 
0.221893 -0.056892 0.01046 -0.648787 -0.760804 -0.0158766 
0.221224 -0.056501 0.020506 -0.650394 -0.759409 -0.0168754 
0.219996 -0.055802 0.030454 -0.650024 -0.758932 -0.0386096 
0.218021 -0.054689 0.040271 -0.652478 -0.756502 -0.0444752 
0.216047 -0.053577 0.050089 -0.6531 -0.755198 -0.056005 
0.213017 -0.051806 0.05952 -0.653278 -0.753593 -0.0729763 
0.209828 -0.049937 0.068892 -0.657451 -0.749732 -0.0752294 
0.206313 -0.047895 0.078089 -0.652768 -0.751053 -0.0990622 
0.201958 -0.045406 0.086826 -0.65188 -0.749957 -0.112325 
0.197603 -0.042917 0.095564 -0.652092 -0.748592 -0.119937 
0.192603 -0.04004 0.103798 -0.643593 -0.752666 -0.13886 
0.187252 -0.036953 0.111758 -0.644477 -0.752146 -0.137568 
0.181902 -0.033864 0.119717 -0.633678 -0.759184 -0.148633 
0.175715 -0.030278 0.126811 -0.621043 -0.767562 -0.158603 
0.169504 -0.026677 0.133882 -0.621586 -0.767429 -0.157113 
0.163109 -0.022973 0.140707 -0.608804 -0.77569 -0.166319 
0.156144 -0.018953 0.146775 -0.5952 -0.786451 -0.165023 
0.149178 -0.014932 0.152845 -0.593421 -0.787964 -0.164207 
0.141935 -0.010748 0.158427 -0.581767 -0.794097 -0.17595 
0.134374 -0.006377 0.163451 -0.581177 -0.792822 -0.183483 
0.126813 -0.002007 0.168475 -0.578625 -0.791473 -0.196884 
0.118949 0.002526 0.172809 -0.566846 -0.79426 -0.218715 
0.110909 0.007152 0.176743 -0.570479 -0.786724 -0.235837 
0.102868 0.011778 0.180676 -0.565001 -0.783085 -0.259907 
0.094582 0.016568 0.183783 -0.550921 -0.782925 -0.288988 
0.086215 0.021412 0.186621 -0.556619 -0.770355 -0.311011 
0.077848 0.026256 0.189458 -0.54052 -0.770101 -0.338796 
0.069284 0.031204 0.191331 -0.516002 -0.773153 -0.368749 
0.060683 0.036171 0.193027 -0.522058 -0.758441 -0.390158 
0.052082 0.041138 0.194723 -0.496774 -0.762445 -0.414601 
0.043377 0.046154 0.195385 -0.464752 -0.768471 -0.439838 
0.034659 0.051176 0.195941 -0.471724 -0.752764 -0.459154 
0.025943 0.0562 0.196496 -0.43994 -0.760544 -0.477521 
0.017237 0.061238 0.195964 -0.403085 -0.768469 -0.496968 
0.008532 0.066279 0.195385 -0.411713 -0.751012 -0.516212 
-0.000173 0.071317 0.194799 -0.369692 -0.764275 -0.528404 
-0.008781 0.076264 0.193078 -0.325788 -0.775088 -0.541388 
-0.017388 0.08121 0.191356 -0.333169 -0.758551 -0.559999 
-0.025978 0.08615 0.189555 -0.290113 -0.773095 -0.564055 
-0.034345 0.090994 0.186717 -0.250075 -0.78277 -0.569854 
-0.042712 0.095837 0.18388 -0.25336 -0.770854 -0.584459 
-0.051024 0.100647 0.180864 -0.208425 -0.790311 -0.576166 
-0.059056 0.105283 0.176922 -0.175137 -0.802615 -0.570207 
-0.067086 0.109918 0.172981 -0.179416 -0.800557 -0.571768 
-0.07498 0.114473 0.168722 -0.145385 -0.827215 -0.54275 
-0.082539 0.118832 0.163683 -0.136898 -0.844128 -0.518369 
-0.090098 0.123191 0.158645 -0.15715 -0.858617 -0.487936 
-0.097369 0.127393 0.153115 -0.166197 -0.891835 -0.420724 
-0.104311 0.131414 0.147019 -0.21743 -0.911348 -0.349527 
-0.111252 0.135435 0.140922 -0.293891 -0.917655 -0.267465 
-0.117705 0.139158 0.134164 -0.284029 -0.93461 -0.214082 
-0.123931 0.142742 0.1271 -0.241946 -0.930359 -0.275489 
-0.130158 0.146326 0.120036 -0.137618 -0.94128 -0.308307 
-0.13554 0.149432 0.112108 -0.0328439 -0.940943 -0.336969 
-0.140891 0.15252 0.104149 0.0330975 -0.924972 -0.378592 
-0.145939 0.155435 0.095958 0.116355 -0.9286 -0.352369 
-0.15025 0.15793 0.087199 0.174081 -0.921078 -0.348296 
-0.154561 0.160424 0.078441 0.215663 -0.916975 -0.335627 
-0.158127 0.162486 0.069271 0.26867 -0.922129 -0.278379 
-0.161318 0.164328 0.059894 0.287588 -0.914077 -0.285931 
-0.164415 0.166117 0.050482 0.31842 -0.921589 -0.221997 
-0.166394 0.16726 0.040669 0.3473 -0.922249 -0.169819 
-0.168374 0.168403 0.030856 0.356878 -0.920451 -0.159398 
-0.169669 0.169139 0.020921 0.374549 -0.924249 -0.0740027 
-0.170342 0.169502 0.010874 0.379292 -0.922691 -0.0691294 
-0.171013 0.169866 0.000827 0.378013 -0.925799 -0.00176176 
-0.170369 0.169517 -0.009219 0.379677 -0.922543 0.0689959 
-0.169697 0.169154 -0.019265 0.375535 -0.924072 0.0711663 
-0.168455 0.16845 -0.02921 0.358199 -0.920506 0.156081 
-0.166476 0.167308 -0.039023 0.34826 -0.921563 0.171573 
-0.164497 0.166164 -0.048836 0.321387 -0.921192 0.219354 
-0.16145 0.164404 -0.058265 0.290114 -0.913733 0.284475 
-0.158259 0.162561 -0.067643 0.271573 -0.921643 0.277169 
-0.154739 0.160527 -0.076839 0.218866 -0.917009 0.333456 
-0.150427 0.158033 -0.085597 0.176153 -0.919809 0.350601 
-0.146117 0.155538 -0.094356 0.120759 -0.928324 0.351613 
-0.14111 0.152647 -0.102579 0.037046 -0.924829 0.378575 
-0.135759 0.149559 -0.110539 -0.0300137 -0.940711 0.337877 
-0.13041 0.14647 -0.118499 -0.134869 -0.941743 0.308107 
-0.124187 0.142889 -0.125567 -0.239714 -0.930339 0.2775 
-0.11796 0.139305 -0.132631 -0.283131 -0.93463 0.215183 
-0.111538 0.1356 -0.13943 -0.295876 -0.918343 0.262876 
-0.104596 0.13158 -0.145526 -0.221263 -0.911492 0.346734 
-0.097655 0.127558 -0.151622 -0.167063 -0.893165 0.417548 
-0.090408 0.12337 -0.157196 -0.156905 -0.859955 0.485653 
-0.08285 0.119012 -0.162234 -0.13751 -0.84367 0.518952 
-0.075292 0.114652 -0.167274 -0.142728 -0.827486 0.543043 
-0.067417 0.110109 -0.171577 -0.176441 -0.80063 0.57259 
-0.059386 0.105473 -0.175519 -0.174333 -0.801099 0.57258 
-0.051355 0.100838 -0.17946 -0.205343 -0.790151 0.577491 
-0.043056 0.096036 -0.182521 -0.250679 -0.770859 0.585607 
-0.034689 0.091192 -0.185359 -0.249516 -0.781272 0.57215 
-0.026323 0.086349 -0.188196 -0.28689 -0.772451 0.56658 
-0.017742 0.081414 -0.190044 -0.329875 -0.757555 0.563287 
-0.009135 0.076468 -0.191765 -0.324624 -0.772761 0.545399 
-0.000528 0.071522 -0.193487 -0.366656 -0.763502 0.531628 
0.008173 0.066486 -0.194121 -0.409794 -0.750321 0.518736 
0.016878 0.061446 -0.194699 -0.401534 -0.767834 0.499201 
