ply
format ascii 1.0
element vertex 805
property float x
property float y
property float z
property float nx
property float ny
property float nz
end_header
-0.0515336 -0.359702 0.0197382 0.658721 -0.752333 0.00906513 
-0.0313011 0.127111 0.123285 -0.268539 0.102446 0.957806 
0 0.364888 -0.0128099 -0.177279 0.0511157 -0.982832 
-0.0775768 -0.196379 0.0171977 -0.999987 -0.00286725 0.00415183 
0.0690793 0.0845104 0.0806889 0.95423 0.00119366 0.299072 
0.0345298 -0.0821736 -0.122424 0.0657712 0.0155216 -0.997714 
-0.0830948 -0.377877 -0.068213 -0.662337 -0.679231 -0.316157 
0.0796683 -0.178778 -0.0718798 0.982142 0.0300494 0.185727 
0.0842725 -0.260734 0.011931 0.97419 0.220352 0.0489828 
-0.0230657 0.209632 0.154108 -0.0213505 -0.00800703 0.99974 
-0.0769993 0.263431 -0.0680973 -0.772811 0.510375 -0.377201 
-0.0775778 -0.207825 0.0171483 -0.999629 0.00802009 0.0260253 
-0.0799778 0.210976 -0.0842754 -0.989233 -0.0503075 -0.137433 
-0.0739951 -0.0242449 -0.11025 -0.749921 0.00393847 -0.661516 
0.033534 0.334206 -0.024181 0.357931 0.673666 -0.646575 
0.0348245 0.00689305 -0.120755 0.074391 0.0557622 -0.995669 
-0.0342776 -0.320336 -0.141724 -0.167738 0.00789619 -0.9858 
0 0.156709 -0.14073 -0.058619 -0.595394 -0.801293 
0.0330821 0.148057 0.122852 0.480497 -0.358444 0.8004 
0 0.544182 0.0231607 -0.163871 0.677759 0.716791 
0.0401259 -0.331609 0.151317 0.153627 -0.00616017 0.98811 
0 0.474575 -0.0421154 0.0105573 -0.341231 -0.93992 
0.0172283 -0.360305 0.0589533 0.0494237 -0.997834 -0.0434168 
0 0.197787 0.155518 -0.00390547 0.0123609 0.999916 
-0 -0.360662 0.0706122 -0.00977373 -0.998945 -0.0448655 
-0.0271438 0.449753 0.102077 -0.306087 0.879094 0.365382 
0.0708465 0.211234 0.127929 0.937857 -0.246299 0.24446 
0.0689172 -0.0770986 0.0809965 0.942891 0.000753776 0.333102 
0.0753409 0.231206 0.116399 0.951772 0.0251903 0.305772 
-0 -0.314915 0.155732 0.00160805 0.0139807 0.999901 
0.0394772 -0.377865 0.151189 0.140206 -0.749737 0.646712 
-0.0389422 0.181081 0.151656 -0.369177 -0.38527 0.845739 
0.0614719 0.247411 -0.1025 0.303896 0.738029 -0.602463 
-0.0777993 0.269369 -0.0584023 -0.791735 0.490745 -0.363766 
-0.0801163 0.212638 -0.0493085 -0.977737 -0.189596 0.0899077 
-0.0627278 -0.375876 0.0156205 0.621591 -0.772 -0.132819 
-0.0597146 -0.377858 -0.130536 -0.407349 -0.749605 -0.521688 
-0.0517304 -0.359688 0.00267502 0.604791 -0.796327 -0.00957496 
0.0776856 -0.230662 0.0155681 0.996578 0.0487342 0.066764 
-0.0283908 0.0151789 0.124097 -0.274912 -0.000297192 0.961469 
-0.0836822 0.252715 0.0347741 -0.995942 -0.0861036 0.026196 
-0 -0.354983 0.155732 0.0144854 0.0273909 0.99952 
0.0742947 0.248765 -0.0923773 0.704523 0.476385 -0.526028 
0.0305278 -0.367249 0.122231 -0.314865 -0.739848 -0.594546 
0.0473497 -0.37564 0.120748 -0.370648 -0.835303 -0.406066 
-0 -0.0643203 0.127111 -0.000104582 0.000784091 1 
-0.0847066 -0.256471 -0.0459068 -0.992917 0.116641 -0.0226034 
-0 -0.375877 -0.121889 -0.0129022 -0.753302 0.657548 
-0.055856 -0.375684 -0.0912737 0.638926 -0.713723 0.287006 
-0.050257 0.441999 0.0886198 -0.3345 0.929107 -0.157704 
0.0693226 0.13364 0.079881 0.954548 -0.00196213 0.298052 
0.0785509 0.225721 -0.00028668 0.971069 -0.232322 0.0552332 
-0.0495044 -0.361083 0.070721 0.495757 -0.862399 -0.102434 
-0 -0.0486327 -0.125285 -0.00170814 -0.00258843 -0.999995 
0.0227947 0.261003 0.152179 0.155697 0.0852338 0.984121 
0.0755318 -0.196675 -0.105104 0.730895 -0.0133573 -0.682359 
0.0776945 -0.10256 0.0157095 0.999283 -0.00262157 -0.0377661 
-0.022767 0.334476 0.144075 -0.215159 0.182802 0.959317 
0.0669028 0.193638 0.0879799 0.970836 -0.192429 0.142996 
0.0346049 -0.0938592 -0.12259 0.06409 0.0109782 -0.997884 
-0.0689795 0.0547539 0.0810034 -0.947909 -0.000285011 0.318542 
0.0777064 -0.0135155 0.015753 0.999204 0.0042281 -0.0396582 
-0.079785 0.0368305 -0.0715376 -0.984917 -0.0237255 0.17139 
0.00563465 -0.246455 0.126872 0.0537496 0.269278 0.961561 
0.0259522 -0.360974 0.0727274 -0.03461 -0.996697 -0.073464 
-0.0641201 0.188483 0.108078 -0.907473 -0.419104 0.0290753 
-0.0502718 -0.290347 0.147251 -0.299734 0.333523 0.893824 
0.0851437 -0.258481 -0.0345485 0.989112 0.146587 -0.0130399 
0.0257881 -0.3713 -0.113476 -0.193149 -0.778352 0.597378 
-0.0754428 -0.285258 0.117796 -0.854751 0.357517 0.376275 
-0.0775224 0.0259498 0.0188076 -0.999592 0.00894262 -0.0271124 
0.0283948 -0.0361312 0.124125 0.275902 -0.00078993 0.961185 
0.0714467 0.238061 0.124592 0.891651 0.116233 0.437548 
0 0.457221 0.092154 -0.23518 -0.573149 -0.784978 
0.0629898 -0.375913 -0.00710205 -0.62361 -0.781524 0.0181745 
0.0786814 -0.28338 0.106923 0.915639 0.295367 0.272696 
-0.0771546 0.178569 0.0243009 -0.999154 0.000118797 0.0411221 
0 0.305952 0.150441 0.00542305 0.11426 0.993436 
0 0.235028 -0.128069 -0.0027913 0.672431 -0.740154 
0.0173183 0.487035 -0.0432457 0.295965 -0.291454 -0.909648 
-0 -0.212337 0.127111 -0.000181728 0.0250554 0.999686 
0.0474792 0.164978 -0.13805 0.385051 0.00203136 -0.922893 
0.0567114 0.45235 0.0265753 0.293192 0.449139 0.843986 
-0.050076 -0.377867 -0.136428 -0.296693 -0.74547 -0.596865 
-0.0794725 -0.0419726 -0.076488 -0.987833 -0.00305552 0.15549 
0.0448013 0.184145 -0.138733 0.334108 0.0424562 -0.941578 
-0 -0.140271 -0.124882 -0.000568362 -0.0330268 -0.999454 
0.0277866 -0.234776 0.124215 0.263999 -0.0612897 0.962574 
0.0855076 -0.270486 0.0336438 0.982604 0.173763 0.0655472 
-0.0689686 0.0376453 0.0810143 -0.945756 -0.000740037 0.324876 
0.0227848 0.328843 0.145159 0.180338 0.176926 0.967561 
-0.0789098 0.317032 0.0122701 -0.962475 0.219916 -0.158993 
-0.0572019 0.191886 0.143607 -0.72769 -0.380677 0.570572 
-0.0828881 -0.302175 0.0815384 -0.998752 0.0158085 0.0473867 
0.0350371 0.0184926 -0.119894 0.0692617 0.0885707 -0.993659 
0.0761686 0.363412 0.0531139 0.798881 0.267985 -0.538492 
-0.0739357 -0.0989697 -0.110398 -0.764032 0.000546227 -0.645178 
0.0771041 0.108995 0.0248467 0.998014 7.63923e-05 0.0629904 
0.0798878 0.130049 -0.068036 0.99901 0.00387156 -0.0443103 
-0.0689449 0.00875116 0.0809876 -0.943762 -0.0008767 0.330623 
-0 -0.0358553 0.127111 -0.000131987 0.000755447 1 
0.0283542 0.298783 -0.0616755 0.227915 0.696435 -0.680466 
0.0573294 0.442216 0.031852 -0.0867559 0.475522 0.875415 
0.0761014 0.226494 -0.0954626 0.961231 0.0420807 -0.272516 
-0.0281248 0.33936 -0.0220124 -0.28287 0.678637 -0.677818 
0.0251305 0.555168 -0.00176803 0.304376 0.922963 -0.23557 
0 0.46676 0.0857975 -0.520119 -0.464766 -0.716567 
0.0454708 0.331036 -0.0195402 0.475235 0.678471 -0.560204 
0.00569299 0.218812 -0.143426 0.00100918 0.402355 -0.915483 
-0.0620721 -0.375876 0.0440597 0.791105 -0.61141 -0.018189 
-0.0852031 -0.377881 0.0339039 -0.752244 -0.656386 0.0573181 
-0.0847729 -0.37788 0.0510027 -0.805922 -0.59199 0.00613953 
0 0.0609246 0.127111 -8.29876e-05 -0.00070659 1 
-0.0283938 0.0380448 0.124127 -0.273219 -0.000870832 0.961951 
0.0856955 -0.268489 0.0222905 0.98828 0.152572 0.00494749 
-0.0747862 0.0216294 -0.107214 -0.774412 0.0442098 -0.631135 
-0.0556147 0.168904 0.108928 -0.883365 -0.259843 0.390063 
0.0272526 0.38404 -0.0118062 0.378045 -0.325588 -0.866646 
0 0.384185 0.135044 0.0146294 0.275812 0.9611 
-0.0770379 0.207419 0.025976 -0.998512 0.0122136 0.0531443 
-0.0172194 -0.358531 0.00837494 0.0691516 -0.997597 0.00437701 
0.0830315 -0.349204 0.0796437 0.997573 -0.0669347 0.0192024 
-0.0769034 -0.377869 0.113001 -0.637622 -0.745375 0.194559 
-0.0646472 0.154616 -0.125598 -0.614235 -0.436576 -0.657356 
-0.00569695 -0.240377 -0.121653 -0.00724865 0.600731 -0.799418 
-0 -0.0257223 -0.125322 -0.000158845 -0.00169871 -0.999999 
0.0785212 0.327853 0.0253679 0.891318 0.366038 -0.267522 
0.0797553 0.0312898 -0.0721616 0.98501 -0.02437 0.170766 
0.0340492 -0.349151 -0.141609 0.137671 -0.0367485 -0.989796 
0.0769706 0.213164 0.0268364 0.997799 0.0305581 0.0588483 
-0.0380324 -0.375354 -0.111776 0.332718 -0.818302 0.468701 
0.0832223 0.22877 -0.0420699 0.969558 -0.237401 0.0599752 
0.078985 0.297238 -0.0154314 0.898059 0.350179 -0.266204 
0.039405 -0.366433 0.151496 0.165476 0.207539 0.964129 
-0.0843269 -0.377877 0.0624233 -0.851575 -0.518671 0.0761674 
-0.0689369 -0.0885618 0.0810004 -0.942958 -0.000692643 0.33291 
0.0347938 -0.224588 -0.114836 0.174667 0.0114677 -0.984561 
0.0824975 0.222344 -0.0581076 0.983771 -0.178525 0.0179769 
-0.0759422 -0.214007 -0.103687 -0.750714 -0.132922 -0.647116 
-0.0399439 -0.296884 0.151343 -0.218587 0.110192 0.969576 
0.0689795 0.0547539 0.0810034 0.947558 -0.000803429 0.319582 
-0 -0.35797 0.00832846 -0.0150163 -0.999819 -0.0116895 
0.078804 0.32051 0.0167211 0.91456 0.287369 -0.284603 
0 0.552238 0.0152872 -0.0201538 0.737015 0.675576 
-0.0775926 -0.184924 0.0170633 -0.999921 -0.000998625 -0.0125617 
0 0.275965 -0.0890824 0.00628006 0.690021 -0.723762 
0.0759422 -0.214007 -0.103687 0.725384 -0.161533 -0.669122 
-0.0349412 -0.219085 -0.115218 -0.191834 -0.0909432 -0.977205 
0.0725454 0.406607 0.0500286 0.869081 -0.097934 -0.484879 
-0.0464953 -0.37537 -0.104608 0.496856 -0.722322 0.481026 
0.0564573 -0.375817 0.100896 -0.658788 -0.737622 -0.148027 
0.0218266 0.421211 -0.0160228 -0.715563 -0.355341 -0.601417 
-0.0505556 -0.360478 0.0538002 0.592593 -0.80343 -0.0577323 
-0.0787951 0.23482 0.104092 -0.986566 -0.0713568 0.146953 
0.0228926 -0.224945 -0.116622 0.115973 0.00538614 -0.993238 
-0.0685572 -0.179492 0.0821169 -0.942975 0.00123882 0.332861 
-0.0158458 0.50323 -0.0482623 -0.246804 -0.201282 -0.947931 
-0.0741167 -0.139195 -0.109888 -0.743314 -0.0255235 -0.668456 
0 0.296433 -0.0695895 0.00510323 0.689759 -0.724021 
-0.0284007 0.0494179 0.124139 -0.272183 -0.000774745 0.962245 
0.080939 -0.354986 -0.0853562 0.990582 0.0321378 -0.133097 
0.0282336 -0.206784 0.124091 0.288639 -0.00532799 0.957423 
-0.0830335 -0.343447 0.0797159 -0.999829 0.00821169 0.0165865 
0.0115244 0.127743 -0.111774 0.0996887 -0.25326 -0.962248 
0.0762913 0.130013 0.0351895 0.996285 -0.0048388 0.085985 
-0 0.0542081 -0.119473 -0.000597603 0.0940394 -0.995568 
-0 -0.358459 0.0196531 -0.00714085 -0.99818 -0.0598805 
-0.0119477 0.451974 0.105937 -0.228809 0.614394 0.755094 
0.0125361 0.446854 0.0970233 -0.210606 -0.329003 -0.920544 
-0.034062 -0.34339 -0.141674 -0.130817 -0.00297068 -0.991402 
-0.0225613 0.196209 0.154241 -0.0144707 0.0961472 0.995262 
0 0.267777 -0.0968797 0.00608963 0.689497 -0.724263 
0.0784352 -0.377873 0.107328 0.505856 -0.851993 0.134971 
0.011389 0.183183 -0.14437 0.0663482 0.0543869 -0.996313 
-0.0708465 0.211234 0.127929 -0.943938 -0.238249 0.228515 
-0.0754112 0.0444785 -0.10482 -0.782361 0.0432001 -0.621326 
-0.0714477 0.238061 0.124592 -0.88286 0.142892 0.44737 
-0.0346257 -0.0307013 -0.121631 -0.0797899 0.0148121 -0.996702 
0 0.209191 0.155374 -0.00794962 0.01219 0.999894 
0.022768 0.362139 0.138395 0.179278 0.231809 0.956098 
-0.0424844 0.523934 -0.012443 -0.948114 0.317478 0.0169396 
-0.0788337 0.290979 -0.0249534 -0.853262 0.429548 -0.29569 
-0.0765068 0.0844689 -0.10063 -0.765277 0.0527544 -0.641536 
0.0549492 0.248074 0.142817 0.563755 0.171646 0.80791 
-0.0556879 0.180341 -0.133916 -0.490154 0.0730353 -0.86857 
0.0225979 0.144017 0.125324 0.206982 -0.363729 0.908218 
-0.0795407 -0.110465 -0.0765987 -0.988214 -0.000697298 0.153074 
0.0114335 0.175601 0.155406 -0.00648588 -0.266075 0.963931 
-0.028548 0.252201 -0.108922 -0.146695 0.713023 -0.685623 
0.0268343 0.529765 -0.0457555 0.308955 0.512959 -0.800887 
0.022413 0.542455 -0.0235798 -0.221503 0.861614 -0.456681 
0 0.25959 -0.104677 0.00466734 0.689982 -0.723812 
-0.0830453 0.226674 -0.0474089 -0.974079 -0.221096 0.0478256 
-0 0.0428023 -0.120538 -0.000337073 0.0919567 -0.995763 
-0 -0.014268 -0.125256 -0.000370657 0.0226009 -0.999744 
-0.0788614 -0.234311 -0.00752035 -0.98384 0.171169 0.0525371 
-0.0224476 0.40079 -0.00565631 -0.203816 0.410494 0.888793 
-0.0221589 0.435282 0.111501 -0.109565 0.337178 0.935044 
0.0687263 -0.162265 0.0816026 0.942347 0.00131605 0.334634 
-0.0790433 0.310226 0.00320506 -0.952446 0.249776 -0.174526 
-0.028369 -0.110353 0.124102 -0.276398 0.00136499 0.961042 
-0.0450347 0.249754 0.147663 -0.368002 0.161304 0.915727 
0.0739357 -0.0989697 -0.110398 0.763707 0.000661094 -0.645563 
0.028377 -0.156129 0.12406 0.277777 -2.48698e-05 0.960646 
-0.0784114 -0.235332 0.00376971 -0.988545 0.138816 0.0592431 
0.0172075 -0.358605 0.0140383 0.00135336 -0.999805 -0.0196842 
-0.0146918 0.514118 -0.0512576 -0.225596 -0.372927 -0.900018 
0.0339483 -0.29137 0.152537 0.188673 0.277973 0.941878 
0.0720183 0.195739 -0.114263 0.903986 -0.00744206 -0.427498 
-0.084405 -0.27548 0.0619545 -0.979816 0.186735 0.0713467 
0.0812218 0.215548 -0.0740098 0.99197 -0.113838 -0.0551016 
-0.0465882 -0.362163 0.0930796 0.52694 -0.837564 -0.144291 
-0 -0.195258 0.127111 -0.000820757 -0.00465228 0.999989 
-0.0365926 -0.376843 0.140101 0.000786258 -0.999828 0.018529 
-0.0766947 0.131075 0.030253 -0.996777 -0.00297534 0.0801693 
-0.0856125 -0.26149 -0.0175031 -0.988471 0.151093 0.00974975 
0.0586358 -0.375842 0.0895622 -0.601304 -0.791537 -0.109101 
-0 -0.37738 -0.139061 0.109263 -0.844942 -0.523578 
-0.0858607 -0.349209 0.00595613 -0.996743 -0.05781 0.0562256 
-0.0283473 0.306631 -0.0537239 -0.26815 0.681065 -0.681356 
-0.0796693 -0.178778 -0.0718798 -0.983285 0.0299973 0.179587 
-0.0170918 -0.359822 0.0478254 -0.0777586 -0.995982 -0.0444222 
-0.0278054 0.153989 0.132653 -0.351206 -0.68464 0.638688 
-0 -0.0715431 -0.125233 0.00132641 -0.000385203 -0.999999 
0 0.243215 -0.120272 9.21744e-05 0.69389 -0.720081 
0.0598036 0.324941 -0.0118437 0.623989 0.63792 -0.451327 
0.0683753 -0.2024 0.0826983 0.9468 -0.00341084 0.321806 
0.0741167 -0.139195 -0.109888 0.742706 -0.0262369 -0.669104 
-0.0202394 0.452623 -0.0303734 -0.409092 -0.298935 -0.862138 
0.0208684 -0.362125 0.0992127 0.0521381 -0.998482 -0.0177438 
-0.0808678 -0.337803 -0.0853899 -0.988528 -0.0075301 -0.150848 
-0.0641587 0.232544 -0.120112 -0.572641 0.495799 -0.65289 
-0 -0.255671 -0.137058 -0.0127525 0.769996 -0.637922 
-0.0744183 -0.377308 -0.0845414 -0.488244 -0.86675 0.101791 
-0.0229411 0.220988 0.15393 -0.0499242 0.0223676 0.998503 
-0.0114018 -0.225387 -0.117577 -0.0573771 -0.041044 -0.997509 
-0.0272536 0.38404 -0.0118062 -0.383217 -0.327328 -0.863713 
0.0705014 -0.255519 -0.118168 0.65554 0.322634 -0.682769 
-0.0705538 0.117312 0.0747883 -0.9739 -0.00563248 0.226908 
0.076317 0.135181 -0.101389 0.7517 -0.374759 -0.542681 
-0 -0.358702 -0.0143199 -0.00593211 -0.998686 0.0509075 
-0.0684761 -0.19095 0.0824115 -0.944421 0.00201235 0.328732 
-0.0328002 -0.363016 0.11707 0.18609 -0.847779 -0.49663 
-0 -0.274846 -0.144785 0.00515241 -0.109653 -0.993957 
-0.0795625 0.220506 -0.027917 -0.96158 -0.252575 0.107563 
0.0206676 0.447332 -0.0283245 0.0590003 -0.365836 -0.928807 
0.0771516 0.190202 0.0243464 0.999349 0.00340373 0.0359156 
-0.0798384 0.0480988 -0.0702847 -0.984016 -0.0236804 0.176499 
0.0424834 0.523934 -0.012443 0.960274 0.243074 -0.137076 
0.0339414 -0.37787 -0.141576 0.228783 -0.592113 -0.772697 
-0.0212995 0.436682 -0.0237796 -0.690657 -0.275522 -0.668641 
-0 -0.303468 0.155732 0.00282713 -0.056476 0.9984 
0.0630442 -0.375993 -0.0355354 -0.763617 -0.645635 0.00671739 
0.0227492 -0.375788 0.131244 0.0434435 -0.745332 -0.665276 
-0.0283888 -0.0476468 0.124092 -0.276016 -0.000236055 0.961153 
0.081206 0.288288 0.0214361 0.997186 0.0505017 -0.0554071 
0.0282138 0.318635 -0.0420244 0.26287 0.667496 -0.69667 
-0.0626477 -0.376 -0.0638639 0.736655 -0.675412 0.0340217 
0.0516681 -0.35965 0.00836505 -0.620754 -0.783992 -0.00463732 
-0.0699684 -0.241907 -0.10977 -0.550816 0.430478 -0.715046 
-0.0346732 0.15841 -0.141542 -0.182286 -0.417434 -0.890236 
-0.0416013 0.388047 -0.0048474 -0.443449 0.242627 -0.862835 
-0.0414935 0.445731 0.0951019 -0.307353 0.951041 -0.0324957 
0.022685 0.389823 0.130337 0.170901 0.293014 0.94071 
0.0715951 0.11871 0.0698419 0.982725 -0.00492375 0.185006 
-0.0346781 -0.111769 -0.122576 -0.0672938 -0.0302236 -0.997275 
0.059775 -0.375848 -0.0808796 -0.634261 -0.748014 0.195418 
-0 -0.337811 0.155732 4.62541e-05 -0.00823427 0.999966 
-0 -0.220214 -0.118741 0.000269141 -0.139834 -0.990175 
0.0809004 -0.34354 -0.0854007 0.987713 -0.00509145 -0.156193 
0.0688489 0.408449 0.0304844 0.742867 -0.649891 0.160595 
0 0.400623 0.130305 0.0114853 0.308138 0.951272 
0.037983 0.133112 -0.114902 0.15449 -0.625888 -0.764459 
-0.0228481 -0.291698 0.154265 -0.165537 0.283465 0.944587 
-0.0170463 -0.361872 -0.0834032 -0.0315134 -0.999353 0.0173507 
-0.0573344 0.395908 0.00876555 -0.542597 0.446779 -0.711321 
0.0299275 0.443806 0.0917614 -0.281878 0.301853 -0.91073 
0.0601537 -0.375853 0.078102 -0.467614 -0.882187 -0.0555347 
-0.0624815 -0.243781 0.0979686 -0.866864 0.243191 0.435207 
-0.0669028 0.193638 0.0879799 -0.970043 -0.18906 0.152558 
-0 -0.151707 -0.124291 -0.00058591 -0.0672562 -0.997736 
-0.0800035 0.0956591 -0.0657447 -0.986474 -0.0105881 0.163575 
0.0518313 0.490129 0.00767679 0.956559 0.253421 0.144127 
-0.0858607 -0.360711 0.00566639 -0.981025 0.178469 0.0757494 
0.028376 -0.0246582 0.124099 0.27568 0.00279496 0.961245 
0.0283809 -0.167516 0.124073 0.278363 0.00154721 0.960475 
0.0343973 -0.314641 -0.141654 0.180731 0.00142736 -0.983532 
0.0795486 -0.0131911 -0.0761171 0.986845 -0.00833649 0.161457 
-0.0834656 0.253989 0.0461601 -0.993963 -0.105516 0.0300684 
0.0638758 0.199133 0.137991 0.86461 -0.314195 0.392085 
0.0367409 0.225964 -0.134535 0.123563 0.638028 -0.760035 
0.0798809 0.0595124 -0.0690555 0.982201 -0.0228012 0.186446 
0.0231131 0.203433 0.154211 0.0451127 -0.0169537 0.998838 
0.0712944 0.123625 -0.0999452 0.473362 -0.103479 -0.874769 
-0.0830216 -0.331747 0.0799759 -0.999955 -0.000153162 0.00947372 
-0.0177465 0.159653 -0.143757 0.0422601 -0.344952 -0.937668 
0.0791185 -0.227519 -0.0811802 0.998814 -0.0218609 -0.0435061 
-0.0673013 0.199853 0.122299 -0.917379 -0.386272 0.0959692 
-0.0812831 -0.240019 -0.071952 -0.981611 0.164568 -0.0967352 
-0.0799185 0.301229 0.0102162 -0.998619 0.0410894 0.0327271 
-0.0798245 -0.228643 -0.0699366 -0.996614 0.069092 -0.0445764 
0 0.195466 -0.144417 0.00154713 0.0536614 -0.998558 
0.0858617 -0.35497 0.00579198 0.998262 -0.0504989 0.0303781 
-0.0776144 -0.156297 0.0168556 -0.999482 -0.000584632 -0.0321912 
0.0814493 0.247104 0.0850173 0.989549 -0.141565 0.0274118 
0 0.536001 0.0311489 -0.303021 0.669022 0.678666 
-0.0794873 -0.0647317 -0.0765147 -0.988636 0.00257586 0.150305 
-0.0497714 -0.377862 0.147399 -0.0151581 -0.816333 0.577383 
-0.00575925 -0.361211 -0.0709374 0.00795105 -0.998705 0.0502581 
-0.077737 -0.036595 0.0152289 -0.999217 0.000525879 -0.0395696 
0 0.100776 0.127111 -0.000764861 0.00716566 0.999974 
0.0790829 0.303609 -0.00598758 0.917449 0.359803 -0.169789 
-0.0112604 0.175319 -0.144479 -0.0355612 0.0503594 -0.998098 
-0.0691308 0.090773 0.0804892 -0.956726 -0.000776631 0.290989 
-0.0415766 0.247905 -0.110363 -0.202429 0.776233 -0.597063 
0.0778992 0.339724 0.0374866 0.854208 0.377308 -0.357724 
0.0741404 0.219376 0.120508 0.972922 -0.108632 0.204015 
-0.0176713 -0.361338 -0.070884 0.0201834 -0.99854 0.0501116 
0.0054082 0.452388 0.106641 0.103731 0.351813 0.930305 
-0.0756871 0.200752 -0.104763 -0.96187 0.0114786 -0.273267 
-0.0362583 0.542764 -0.0232614 -0.769806 0.568064 -0.291036 
0.0630126 -0.375946 -0.0184752 -0.733682 -0.679424 -0.00962635 
0 0.416606 0.124216 0.0105605 0.394106 0.919004 
-0.0857974 -0.264487 -0.000438968 -0.991964 0.12464 0.0217083 
0.077736 -0.036595 0.0152289 0.999207 0.000512426 -0.0398027 
-0.0733691 0.245904 -0.0972396 -0.724128 0.490009 -0.485315 
0.0798552 -0.21111 -0.069105 0.994393 -0.0258586 0.102538 
-0.073465 0.396562 0.0538447 -0.988953 0.038678 -0.143092 
0.0850814 -0.377881 -0.0345752 0.669025 -0.742924 -0.0216686 
-0.035755 0.125345 -0.108724 -0.096147 -0.280956 -0.954892 
0.0837089 -0.277468 0.0732861 0.980897 0.159979 0.110673 
-0.0282682 0.283324 -0.0773503 -0.209401 0.694831 -0.688012 
0.0652296 0.19226 0.112865 0.911429 -0.40812 0.052303 
0.0164886 0.38229 -0.014841 0.214808 -0.080956 -0.973295 
0.0775758 -0.202103 0.0172254 0.999905 0.00371487 0.0132578 
0.0752322 -0.185092 -0.1061 0.742692 -0.0456988 -0.668072 
0.0655471 0.242779 0.133292 0.804418 0.153737 0.573826 
-0.0351429 0.024418 -0.119308 -0.0678379 0.103369 -0.992327 
-0.0171462 0.249332 0.153711 -0.097411 0.0505895 0.993958 
-0.079872 -0.205096 -0.0692563 -0.991642 0.0130882 0.128353 
-0.0290108 -0.263961 -0.142701 -0.231781 0.367075 -0.900851 
-0.0401259 -0.331609 0.151317 -0.153061 0.00842887 0.988181 
-0.0824184 -0.251461 -0.0744222 -0.989925 0.0652212 -0.12568 
0 0.254794 0.15437 0.00229027 0.050891 0.998702 
-0.0777232 -0.236359 0.0150351 -0.990856 0.11199 0.0752481 
-0.0699387 -0.241905 0.0767334 -0.95796 0.167349 0.233038 
-0.0346821 -0.275363 -0.141688 -0.205472 -0.0665342 -0.976399 
-0.0801746 0.208857 -0.0600883 -0.984531 -0.170386 0.0408344 
-0.0232654 0.126779 -0.110659 -0.0782796 -0.28802 -0.95442 
-0.0738606 -0.23991 0.0543372 -0.974106 0.172675 0.145949 
0.0801469 -0.230201 -0.0528863 0.986379 0.161692 0.0302046 
-0.0227275 0.378685 0.133781 -0.225318 0.286824 0.931109 
0.0741335 -0.00700272 -0.1098 0.751361 0.0264912 -0.659359 
-0.034951 0.0126839 -0.120458 -0.0722867 0.0779124 -0.994336 
-0.0221055 0.423498 0.117502 -0.148101 0.465465 0.872587 
0.00576815 -0.291962 0.155451 -0.000480446 0.275235 0.961377 
0.0673013 0.199853 0.122299 0.917992 -0.382945 0.103174 
0.0690091 0.425018 0.0591896 0.652255 0.719403 -0.238797 
-0.0792154 0.223437 -0.0170255 -0.960665 -0.262471 0.0907342 
-0.0706022 -0.225139 -0.105596 -0.546303 -0.114325 -0.829748 
-0.0744065 0.385303 0.0561033 -0.993022 0.0724487 -0.0930471 
0.0532315 0.431075 0.0696985 -0.441122 0.653321 -0.615291 
-0.0796416 0.00905079 -0.0745705 -0.986504 -0.0204759 0.162452 
0.0450337 0.249754 0.147663 0.367335 0.149314 0.918025 
-0.0394762 -0.377863 -0.140255 -0.0996476 -0.721507 -0.685199 
-0.0473497 -0.37564 0.120748 0.483171 -0.750123 -0.45151 
-0.0406648 0.141333 -0.121702 -0.144406 -0.624605 -0.767474 
-0.0794468 0.203328 -0.0763634 -0.991875 -0.127212 -0.000387773 
-0 -0.362129 0.104584 0.0240372 -0.997534 0.0659476 
0.0795961 -0.00205634 -0.0755347 0.986629 -0.0159197 0.162205 
-0.0682803 -0.219548 0.0830039 -0.949898 0.017864 0.312049 
-0.0776708 -0.00216215 0.0163592 -0.999279 0.00643465 -0.0374115 
0.0672529 -0.377851 -0.122651 0.586069 -0.698483 -0.410664 
0.0798245 -0.228643 -0.0699366 0.995046 0.0846651 -0.0521062 
0.0522644 -0.360473 -0.0370246 -0.671797 -0.740693 0.00791747 
0 0.44241 0.112102 0.072605 0.448911 0.890622 
-0.0812228 0.215548 -0.0740098 -0.99246 -0.109263 -0.0555418 
0.0800114 0.102111 -0.0655232 0.987842 -0.00199687 0.155445 
-0 -0.286295 -0.144785 0.00550932 0.0285027 -0.999579 
0 0.350977 0.143187 0.0130383 0.185943 0.982474 
0.0347147 -0.286624 -0.141687 0.173121 0.018228 -0.984732 
-0.0283819 -0.167516 0.124073 -0.278117 0.00134159 0.960546 
-0.0855086 -0.270486 0.0336438 -0.983945 0.169871 0.0547313 
-0.0592716 -0.370557 0.00377861 0.78488 -0.617092 -0.0562231 
0.0225613 0.411862 0.122626 0.147002 0.371787 0.916605 
-0.0795803 -0.14941 -0.0750976 -0.984892 0.0136415 0.172632 
-0.0794369 0.130079 -0.0226404 -0.999544 -0.00502873 0.0297661 
-0 -0.00739037 0.127111 0.000303917 0.000440274 1 
-0.0838948 0.244829 0.00156747 -0.970864 -0.228976 0.0706691 
-0 0.105533 -0.114684 -0.000219729 0.0688875 -0.997624 
0.0852021 -0.377881 0.0339039 0.705094 -0.709022 0.0114578 
-0 -0.0600879 -0.125259 -0.00183545 -0.000860722 -0.999998 
0 0.40366 -0.0120484 0.79644 0.246158 0.55235 
0.0113445 0.16004 -0.14415 -0.06033 -0.368311 -0.927743 
0.0283928 0.0323301 0.124131 0.27379 -0.00238779 0.961787 
0.0230123 0.215312 0.15402 0.0509116 0.0247829 0.998396 
-0.0226296 0.406418 0.12468 -0.200511 0.337913 0.919571 
-0.078095 0.19755 -0.0923407 -0.991709 -0.0123137 -0.12791 
-0.0219789 0.416122 -0.0134012 -0.957943 0.161731 0.237039 
0.0777281 -0.0249786 0.0153782 0.999189 0.00211499 -0.040202 
-0.0312101 -0.376706 -0.128654 0.0250343 -0.979748 0.198661 
-0.0815373 -0.377877 0.091087 -0.82134 -0.559699 0.110166 
-0.0284571 0.259965 -0.100945 -0.190525 0.701762 -0.686462 
-0.0784698 -0.377874 -0.0967531 -0.734031 -0.676652 0.0577933 
-0.0191922 0.465121 -0.0351438 -0.323274 -0.314338 -0.892572 
-0.0530782 0.482935 0.0118182 -0.692639 0.380532 0.612737 
0.0530031 -0.375722 0.111948 -0.568409 -0.789765 -0.230612 
0.0744183 -0.377308 -0.0845414 0.492851 -0.867136 0.0719189 
-0.0281683 -0.246145 0.124085 -0.191756 0.279983 0.940659 
0.077028 0.203332 -0.0997662 0.975124 -0.0115362 -0.221359 
-0.0731506 0.214027 0.0610833 -0.983472 -0.169888 0.0626098 
0 0.266182 0.15375 0.00204734 0.0580092 0.998314 
0.0822681 0.251069 0.0743828 0.985184 -0.170941 0.0138431 
-0.00583935 0.381383 -0.0163837 -0.0858393 -0.459105 -0.884225 
-0 -0.155408 0.127111 -3.08104e-06 -0.000134707 1 
-0.0787961 0.225271 -0.00579376 -0.966657 -0.247605 0.0653201 
-0.0463291 -0.264128 -0.138465 -0.250258 0.39737 -0.882875 
-0.0826676 0.268494 0.0268492 -0.994093 0.10767 0.0136765 
-0.0795516 -0.0990983 -0.0765928 -0.98875 -0.00148738 0.149572 
-0.0692524 0.103877 0.0800877 -0.960552 0.00482061 0.278059 
-0.0350302 -0.197128 -0.116762 -0.126987 -0.073008 -0.989214 
-0.0815086 -0.291229 -0.0819565 -0.996685 -0.00193325 -0.0813311 
-0 -0.359683 0.0479629 -0.00331694 -0.998974 -0.0451702 
0 0.251403 -0.112474 0.00246296 0.688328 -0.725395 
-0.0739763 -0.0357347 -0.11029 -0.75325 -2.65731e-05 -0.657735 
-0.0344645 0.103807 -0.111284 -0.141822 0.0756671 -0.986996 
0.0113543 -0.363006 0.121058 -0.0885318 -0.880638 -0.465444 
-0.0169494 -0.37583 0.131906 0.0565958 -0.698039 -0.71382 
0.0288783 0.354752 -0.00928056 0.542612 0.388319 -0.744836 
0.0283967 0.0037662 0.12413 0.275192 0.0014566 0.961388 
0 0.533963 -0.0382865 -0.0990943 0.867738 -0.487043 
0.0856807 -0.26249 -0.011817 0.987946 0.154504 0.0095682 
0.084405 -0.27548 0.0619545 0.980124 0.181827 0.0793523 
0.0481645 0.505093 -0.00124985 0.966274 0.250348 -0.060338 
-0.0798463 -0.217039 -0.0691415 -0.99871 -0.0244392 0.0445041 
0.0638729 0.185552 0.0955825 0.957026 -0.191703 0.217604 
0.035041 -0.213649 -0.115589 0.177102 -0.0939827 -0.979695 
0.0341135 -0.331811 -0.141757 0.159675 0.00396744 -0.987162 
-0.0512864 -0.359913 0.0311202 0.652104 -0.756884 -0.0434311 
0.0198053 0.457805 -0.0323512 0.177262 -0.335897 -0.925068 
-0.0283176 0.294891 -0.0656518 -0.234465 0.692945 -0.681802 
-0.0743343 -0.376873 0.00487627 0.203236 -0.979088 -0.00904214 
-0.0115106 0.243428 -0.119707 -0.0446798 0.695136 -0.717488 
0.0343023 -0.250947 -0.129047 0.0993434 0.787015 -0.608883 
-0.0396433 0.53338 -0.0179283 -0.979376 0.201974 0.00538795 
0.0770834 0.131947 0.0252047 0.9974 -0.000562606 0.0720641 
0.0740247 -0.0184866 -0.110188 0.748917 0.00638167 -0.662633 
0 0.140626 0.127111 0.000845142 -0.429191 0.903213 
-0 -0.26167 0.136652 0.00323404 0.594189 0.804319 
-0 -0.191672 -0.121078 -0.000903875 -0.0856174 -0.996328 
-0.0692821 0.139207 0.0800471 -0.94691 0.00100609 0.321498 
-0.0345575 -0.123507 -0.121992 -0.0737498 -0.0624843 -0.995317 
0.0114424 0.249182 0.154185 0.0703162 0.0456252 0.996481 
-0.0481655 0.505093 -0.00124985 -0.898857 0.384047 0.211103 
0.0283928 -0.0591168 0.124121 0.275973 0.00134128 0.961164 
0.064219 -0.260792 -0.12661 0.581029 0.387259 -0.715847 
-0.0108599 -0.362783 -0.108363 0.0717019 -0.9323 0.354508 
-0.0227542 0.345621 0.141911 -0.218882 0.187099 0.957645 
-0.0795388 -0.0188762 -0.0762744 -0.987107 -0.00530646 0.159972 
-0.0749335 0.232577 -0.0976837 -0.970002 -0.0210313 -0.242184 
-0.0783788 0.275428 -0.0487745 -0.808298 0.481018 -0.339524 
0.0172946 -0.358939 -0.0144079 0.0357554 -0.998863 0.0315256 
-0.0340551 0.54834 -0.013599 -0.694317 0.70797 -0.129238 
-0.0553853 0.428618 0.0654265 0.534502 0.613603 -0.581205 
0 0.0893895 0.127111 0.00103305 -0.00142447 0.999998 
-0.0518857 -0.366533 -0.0779485 0.650752 -0.737322 0.181326 
0.0784688 -0.377874 -0.0967531 0.743924 -0.659516 0.107776 
-0.0281663 0.326858 -0.0341035 -0.306794 0.659906 -0.685858 
0.0283799 -0.0763491 0.124097 0.276196 -0.000927195 0.961101 
-0.0307888 -0.362397 -0.099077 0.0970679 -0.923992 0.369886 
0.0283977 0.0437329 0.124136 0.272996 0.000537903 0.962015 
0.0404463 -0.319804 0.151247 0.187521 0.0171835 0.98211 
-0.00563564 -0.246455 0.126872 -0.0446688 0.269113 0.962072 
0.0283888 -0.0476468 0.124092 0.276037 -0.000408231 0.961147 
0 0.413915 -0.0171343 0.993953 -0.0409277 -0.101899 
0.0345001 -0.134919 -0.121245 0.0821308 -0.0726349 -0.993971 
-0.0747832 -0.167819 -0.107583 -0.750935 -0.0362269 -0.659382 
-0.0750987 0.0330569 -0.106018 -0.779485 0.044472 -0.62484 
-0 -0.183872 0.127111 -9.55626e-06 0.000853746 1 
-0 -0.0829983 -0.125207 0.00232043 -0.00258589 -0.999994 
-0.0530248 -0.224511 -0.110674 -0.187598 0.0111391 -0.982183 
-0 -0.0371775 -0.125311 -0.000347667 -0.00132506 -0.999999 
-0.0655065 0.4305 0.0686839 -0.532204 0.816776 -0.222791 
-0.0795961 -0.00205634 -0.0755347 -0.986769 -0.014837 0.161451 
0.0283888 0.0208808 0.124098 0.27462 -0.00134363 0.961552 
-0 -0.332088 -0.144785 -0.000150107 0.00465139 -0.999989 
-0.0782394 0.225995 0.00600558 -0.97576 -0.209458 0.063399 
-0.0283938 -0.0591168 0.124121 -0.275982 0.000701691 0.961162 
-0 -0.367258 -0.11435 -0.0245905 -0.707279 0.706507 
-0.0312309 0.236775 -0.124356 -0.0784407 0.685158 -0.724158 
0.0769073 -0.225765 -0.0980555 0.918527 -0.0963729 -0.383433 
0.0858617 -0.300513 0.0062172 0.999867 -0.00142262 0.016231 
-0.0741335 -0.00700272 -0.1098 -0.751773 0.0232073 -0.659013 
0.0172946 -0.359872 -0.0370454 0.0967339 -0.994426 0.0419423 
-0.0448023 0.184145 -0.138733 -0.334562 -0.00583762 -0.942356 
-0.0720183 0.195739 -0.114263 -0.89406 0.00535478 -0.447915 
0.0250543 0.189034 0.154029 0.0612937 0.0902094 0.994035 
0.0799778 0.210976 -0.0842754 0.989941 -0.0534028 -0.131015 
-0.0785983 0.281615 -0.03922 -0.823156 0.469325 -0.319607 
-0 -0.144022 0.127111 5.63178e-06 0.000194454 1 
0.0170908 -0.359822 0.0478254 0.0873175 -0.995181 -0.0446248 
-0.0714586 0.20812 0.0708317 -0.980089 -0.186832 0.0672296 
0.0739288 -0.110476 -0.110416 0.759764 -0.000449472 -0.650198 
-0.0300234 -0.255703 0.129907 -0.160733 0.606965 0.778305 
0.0559618 0.462508 0.0212403 0.602151 0.424423 0.676225 
0 0.149011 0.134508 0.000188412 -0.71006 0.704141 
-0 -0.271786 0.143012 0.00414911 0.501179 0.865334 
0.0795595 -0.0934043 -0.0765829 0.988883 -0.000826679 0.148695 
0.0761973 -0.263561 0.0847176 0.886806 0.391084 0.246228 
-0 -0.104171 0.127111 8.02093e-06 -0.000215982 1 
-0.068933 -0.0146082 0.0810063 -0.943027 -0.000699686 0.332714 
-0.0304467 0.53204 -0.0418187 -0.396392 0.62341 -0.673969 
-0.0345832 0.229906 -0.130848 -0.0382857 0.762634 -0.645696 
0.035226 -0.361626 -0.0731406 0.0973459 -0.994032 0.0492374 
0.0113939 0.336749 -0.0297198 0.15938 0.672482 -0.722749 
-0.00576815 -0.291962 0.155451 0.0100876 0.275115 0.961358 
-0.0784965 -0.226933 -0.0866527 -0.994542 -0.0659203 -0.0808694 
-0.045626 0.399025 0.0142004 0.539809 0.83965 0.0599551 
0.050076 -0.377867 -0.136428 0.291247 -0.650956 -0.701022 
0.028372 -0.104667 0.124094 0.276321 0.00124895 0.961065 
0.0716188 -0.376876 0.0790375 -0.107799 -0.994135 0.0086192 
-0.0283918 0.0266015 0.124119 -0.274144 -0.00163434 0.961687 
-0.0769647 0.353105 0.0479797 -0.994794 0.0952536 -0.0362236 
0.0839788 -0.377878 0.0681578 0.573982 -0.816764 0.0586658 
0.0826666 0.268494 0.0268492 0.992066 0.125209 -0.0113156 
-0.0116154 -0.377878 -0.144155 0.226359 -0.670259 -0.706763 
0.0352952 -0.276243 0.142309 0.190761 0.602494 0.774991 
-0.0689023 -0.111444 0.0809806 -0.942996 0.00056234 0.332803 
-0.0688964 -0.123009 0.0810024 -0.94299 -8.78832e-05 0.332821 
0 0.157532 0.141744 -0.0147329 -0.644553 0.764418 
0.0353575 0.0418372 -0.117506 0.0667943 0.103235 -0.992412 
0.0630847 0.433106 0.07321 0.413553 0.874826 -0.252296 
-0.0849005 -0.27349 0.0506338 -0.97857 0.191288 0.0762226 
-0.0549502 0.248074 0.142817 -0.564519 0.190308 0.803182 
-0.0725038 -0.253231 0.0833431 -0.87454 0.405492 0.265999 
-0 -0.123091 -0.125115 0.000346189 -0.00388105 -0.999992 
0.0400072 0.216122 -0.13871 0.278915 0.201045 -0.939035 
0.0283977 0.0607495 0.12414 0.271684 -0.000786041 0.962386 
0.0799659 0.08321 -0.0666545 0.98077 -0.0228978 0.193817 
-0.0724949 0.120386 0.0650952 -0.986217 -0.0115287 0.165057 
-0.0283928 -0.00187735 0.124131 -0.27537 4.78152e-05 0.961338 
-0.0341263 0.250062 0.151079 -0.228244 0.108492 0.96754 
-0.0776371 -0.133199 0.0165243 -0.999344 -0.00269081 -0.0361272 
0.0719481 0.317126 -0.00260956 0.75532 0.547853 -0.35965 
0.022681 0.400945 0.126741 0.165569 0.323383 0.931671 
0.0345931 -0.157513 -0.119636 0.0918415 -0.0694333 -0.99335 
-0.0776045 -0.173472 0.0169485 -0.999721 -0.00105087 -0.0235915 
0.0799798 0.115678 -0.0659237 0.998292 0.0101683 0.0575331 
-0.0807976 -0.248001 0.0138791 -0.944401 0.318086 0.0832359 
0.0419652 0.145586 -0.1253 0.138107 -0.797874 -0.586792 
-0.0283829 -0.0706333 0.124097 -0.276154 -0.0017077 0.961112 
-0.0172382 -0.360369 -0.0485441 -0.0824759 -0.995659 0.0431398 
-0.0279102 -0.217956 0.124178 -0.287074 0.0211069 0.957676 
-0.0345525 -0.359096 0.00238429 -0.150949 -0.988492 0.00990357 
0 0.123548 0.127111 -0.00517516 0.101 0.994873 
0.00583836 0.381383 -0.0163837 0.0819917 -0.198751 -0.976614 
0.0514327 -0.359781 0.0254203 -0.66227 -0.749117 -0.0149203 
0.0282672 0.283324 -0.0773503 0.193102 0.695676 -0.691915 
-0.0739684 -0.0472354 -0.11031 -0.756698 0.00113022 -0.653763 
-0.0337861 0.0931908 -0.112499 -0.122794 0.111753 -0.98612 
-0.0617695 -0.375861 0.0554329 0.78253 -0.619783 -0.0592946 
0.0173282 -0.359391 -0.0257731 0.0863317 -0.995358 0.0425438 
0.0739723 -0.127703 -0.110314 0.747558 -0.00633016 -0.664166 
0.0739723 -0.041486 -0.1103 0.754664 0.000987436 -0.65611 
-0.069108 0.151868 0.0806533 -0.944059 -0.00854736 0.329666 
-0.0423044 -0.239267 -0.118148 -0.153537 0.540494 -0.82722 
0.0729874 -0.377866 -0.112564 0.621375 -0.700097 -0.351791 
-0.0216674 0.426348 -0.0186749 -0.940508 -0.133915 -0.312268 
0.0516117 -0.263887 -0.136077 0.399749 0.360322 -0.842834 
-0.078801 0.13113 -0.00509462 -0.999099 0.00239444 0.0423714 
-0.0689389 -0.0030116 0.0809945 -0.943315 7.50898e-05 0.331898 
-0.0374242 -0.361163 0.0746577 -0.15729 -0.986878 -0.0364996 
-0.0560409 -0.263326 -0.133559 -0.469039 0.420501 -0.776647 
-0.0722309 -0.240904 0.0655165 -0.969088 0.168639 0.180078 
0 0.170305 -0.144785 -0.0518751 -0.0329903 -0.998109 
0.0346257 0.0710537 -0.114636 0.0862388 0.092878 -0.991936 
-0 -0.32064 -0.144785 -3.39123e-05 -0.00176394 -0.999998 
-0.0795427 -0.121726 -0.0765295 -0.987398 0.00462876 0.158189 
0.0752984 0.127375 0.0451881 0.993875 -0.0102912 0.110026 
-0.0403434 -0.308327 0.151262 -0.207785 -0.0296574 0.977725 
0.0161277 0.558318 0.00370741 0.0443298 0.996709 -0.0678635 
0.0454144 -0.362448 0.0986005 -0.48934 -0.829118 -0.270387 
0.0283859 -0.133171 0.124088 0.277013 -0.00243413 0.960863 
0.0172006 -0.375672 -0.120384 -0.00271436 -0.786183 0.617988 
-0.0776826 -0.10884 0.0158677 -0.9993 -0.0028001 -0.0373044 
-0.0689053 -0.0999774 0.0809816 -0.942969 -0.00254774 0.332871 
-0 -0.247944 -0.129331 -0.00855956 0.71651 -0.697524 
-0 -0.36164 0.0932596 0.00282485 -0.997103 -0.0760162 
0.0530189 -0.244904 0.111852 0.656667 0.293656 0.694661 
0 0.4906 0.0699378 -0.999977 0.000317861 -0.00679753 
0.0812584 -0.308929 -0.0833587 0.989329 -0.00783838 -0.145488 
0.0727165 0.148449 -0.11224 0.723399 -0.322274 -0.610601 
0.0784104 -0.235332 0.00376971 0.988422 0.149096 0.0281673 
-0 -0.115557 0.127111 8.10214e-07 0.000717551 1 
-0.0708198 -0.287006 0.128085 -0.780341 0.397646 0.482643 
-0.0171373 -0.240612 -0.121541 -0.0332643 0.55561 -0.830777 
-0.0700059 0.411192 0.035232 -0.973368 0.0474461 -0.224285 
0.0747852 0.0216294 -0.107214 0.773518 0.0455334 -0.632137 
0.0546506 0.472718 0.0158252 0.809821 0.354337 0.467584 
0 0.20706 -0.14404 0.00381948 -0.0571966 -0.998356 
0.0739644 -0.0529996 -0.11032 0.757881 -0.000350835 -0.652393 
0.0686126 -0.173758 0.0819666 0.942511 0.00131514 0.334173 
0.0374242 -0.361163 0.0746577 0.116745 -0.991951 -0.0490192 
0.0220303 0.440444 0.108926 0.109772 0.414882 0.903229 
-0.0580316 0.432231 0.0374105 0.850024 0.0782299 0.520903 
-0.0352962 -0.276243 0.142309 -0.187421 0.572532 0.798173 
0.0788001 0.13113 -0.00509462 0.999088 0.000294657 0.0426896 
-0.080765 0.292743 0.0177426 -0.994031 0.107177 -0.0203624 
-0.0843823 -0.377878 -0.0514623 -0.672402 -0.739944 0.0189419 
0.084584 -0.377878 0.0567145 0.664442 -0.747052 0.0207629 
0.0837356 0.237023 -0.0205202 0.95886 -0.269871 0.0880702 
0 0.128324 -0.112345 -0.00874024 -0.234618 -0.972048 
0 0.317275 0.149085 0.00641688 0.134942 0.990833 
-0.0801222 0.130993 -0.0512695 -0.999951 -0.000596525 0.00988672 
-0.0194909 -0.362586 -0.0995952 0.0445319 -0.992381 0.114881 
0.0830077 -0.325478 0.0801965 0.999929 -0.0064376 0.00999616 
-0.0778656 0.125409 -0.0938913 -0.940561 -0.0744969 -0.331354 
-0.0725454 0.406607 0.0500286 -0.987142 0.0389119 -0.155038 
-0.0483168 -0.361604 0.0819122 0.502876 -0.860894 -0.077314 
0.0855413 -0.260485 -0.0231813 0.987699 0.156224 0.0067309 
-0 -0.231631 -0.117806 0.00095862 0.131065 -0.991373 
-0.022772 0.356598 0.139709 -0.224856 0.201608 0.953307 
0.0232466 -0.36141 -0.0711371 -0.0348185 -0.998158 0.0496749 
0.0840461 -0.377877 -0.0573234 0.696917 -0.71713 0.00560574 
-0.0283779 -0.156129 0.12406 -0.277685 0.000813809 0.960672 
0.0174112 -0.377878 -0.143752 -0.136044 -0.617422 -0.774779 
-0.0708415 0.150971 -0.11634 -0.729153 -0.376718 -0.571331 
0.0491029 0.224374 -0.134127 0.217634 0.433209 -0.874623 
-0 -0.0529343 0.127111 0.000102012 -0.000775623 1 
-0.0340423 -0.354913 -0.141598 -0.132483 -0.024747 -0.990876 
-0.0777291 -0.0249786 0.0153782 -0.999202 0.00217485 -0.0398841 
-0.0687807 -0.156565 0.0814326 -0.942562 0.0011669 0.334029 
0.0835259 0.232917 -0.0313218 0.961545 -0.263343 0.077985 
0.0693829 0.201232 0.0797742 0.976568 -0.193998 0.0931616 
-0.0172916 -0.36086 -0.0599153 -0.0276717 -0.998612 0.0448233 
0.0222934 0.405907 -0.00822839 -0.987509 0.0693279 0.141494 
0.0406361 -0.264198 -0.140252 0.242498 0.291028 -0.925471 
0.0114483 -0.358354 0.00270172 -0.0282658 -0.999518 0.0128412 
0.0830265 -0.360711 0.079524 0.968752 0.244985 0.0387565 
-0.0638729 0.185552 0.0955825 -0.962038 -0.167387 0.215554 
-0.0777261 -0.0774991 0.0152833 -0.999287 -0.0011537 -0.0377459 
0.0283809 -0.00754958 0.124119 0.275329 -0.00317413 0.961345 
-0.0282138 0.318635 -0.0420244 -0.297305 0.664401 -0.685698 
-0.0465783 0.436305 0.0787566 0.35171 0.626907 -0.695189 
-0.0795407 -0.0761078 -0.0765374 -0.988898 0.0038945 0.148547 
-0.064219 -0.260792 -0.12661 -0.546191 0.408896 -0.731081 
-0.0814493 0.247104 0.0850173 -0.993285 -0.108031 0.0413963 
0.0770962 0.149253 0.0250969 0.998249 -0.00062082 0.0591406 
0.045005 -0.290772 0.149414 0.307247 0.302997 0.902104 
0 0.0780036 0.127111 0.000253267 0.00103623 0.999999 
0.0744816 0.010189 -0.108396 0.765172 0.0437187 -0.64234 
-0.0814028 -0.302972 -0.082801 -0.994007 -0.00664071 -0.109116 
0.0783788 0.275428 -0.0487745 0.821661 0.463984 -0.331048 
0.0799837 0.214683 -0.0439616 0.973132 -0.206447 0.10195 
0.0775926 -0.213544 0.0169189 0.999312 -0.0109748 0.0354207 
0.0453096 0.514512 -0.00691911 0.969284 0.221986 -0.105884 
-0.0509462 -0.360196 0.0424676 0.630865 -0.775156 -0.0337929 
-0.0795862 -0.13817 -0.075946 -0.98591 0.0106768 0.166938 
0.0389432 -0.362258 -0.0910344 -0.26587 -0.936185 0.229935 
-0.0819348 -0.268166 -0.0784697 -0.996296 -0.0235411 -0.0827086 
0.0795219 -0.0704187 -0.0765255 0.988784 0.0036545 0.14931 
0.0776015 0.225885 0.0171542 0.987686 -0.145584 0.05729 
-0.0797978 0.1375 -0.069906 -0.999503 -0.00871793 -0.0303004 
-0.0284373 0.0894331 0.124089 -0.26636 0.000578477 0.963874 
-0.0227552 0.277971 0.150727 -0.20149 0.08556 0.975747 
-0.0453106 0.514512 -0.00691911 -0.934301 0.341213 0.103226 
0.0365926 -0.376843 0.140101 -0.0757624 -0.964405 -0.253342 
-0 0.00858601 -0.12373 0.000839222 0.0933282 -0.995635 
-0.0146918 0.541904 -0.0245331 0.181383 0.829053 -0.528934 
-0.0766878 0.227237 0.112626 -0.976221 -0.0803944 0.20132 
0.0738606 -0.23991 0.0543372 0.973347 0.173621 0.149841 
0.0792886 -0.233283 -0.0188342 0.98035 0.191108 0.0488958 
-0.0227522 0.289089 0.149747 -0.215731 0.081892 0.973013 
0 0.243401 0.154865 0.00121286 0.0314363 0.999505 
-0.0225218 0.390627 -0.00035689 0.323865 0.542621 0.775032 
0.079779 -0.192761 -0.0701611 0.983488 0.0334085 0.177864 
-0.0769014 0.218912 0.0277521 -0.997562 -0.0258203 0.0648264 
0.0793024 0.128535 -0.078882 0.998568 0.017674 -0.0504937 
0.0803447 0.296915 0.0139423 0.998603 0.0499754 -0.0171475 
-0.028377 -0.0933915 0.124087 -0.276476 -0.00117706 0.96102 
-0.0337456 0.0820916 -0.113654 -0.099776 0.0971043 -0.99026 
0.0795358 -0.116139 -0.0765809 0.987791 0.00107928 0.155781 
0 0.523653 0.0429749 -0.525168 0.576049 0.626391 
0.0228887 0.226648 0.153847 0.0729119 0.0151379 0.997223 
0.0809815 -0.32057 -0.0846304 0.98698 -0.00379426 -0.160796 
-0 0.0381526 0.127111 -3.99144e-06 -3.78329e-05 1 
0.0776035 -0.173472 0.0169485 0.99969 -0.000829625 -0.0248685 
0.0774453 0.0373437 0.0200348 0.999719 0.00982151 -0.0215682 
0.0776174 0.00909924 0.0172185 0.999353 0.00811853 -0.0350263 
-0.035404 0.0475905 -0.116905 -0.0665247 0.105012 -0.992243 
0.0326005 0.233687 -0.127305 0.0690315 0.72217 -0.688263 
-0.0752579 -0.37787 -0.107125 -0.625555 -0.71377 -0.314983 
0 0.51457 0.0510215 -0.697418 0.465938 0.544528 
-0.0299275 0.443806 0.0917614 0.271344 0.461165 -0.844807 
0 0.49988 0.062978 -0.943067 0.202429 0.263905 
-0 -0.208797 -0.119675 -0.000717773 -0.0633285 -0.997992 
0.0180174 -0.361586 0.0883152 0.0184581 -0.997825 -0.0632798 
0.0593557 0.420333 0.0511055 -0.894674 0.365357 -0.257048 
0.061194 -0.375848 0.0667655 -0.631047 -0.775433 -0.022 
-0 -0.359435 -0.0313059 8.20653e-05 -0.999275 0.0380781 
0 0.354436 -0.015912 -0.117066 0.479845 -0.869508 
0.0228323 0.249577 0.153076 0.123814 0.0630694 0.990299 
0.0858597 -0.366433 0.0055764 0.980811 0.193197 0.0261619 
-0.0240338 -0.362493 0.105315 -0.119024 -0.990678 0.0662551 
-0.0800905 -0.229695 -0.0585635 -0.991035 0.133253 0.00961479 
0.0648489 -0.224948 -0.107694 0.280206 0.00291061 -0.959935 
-0.078985 0.297238 -0.0154314 -0.881712 0.386889 -0.270002 
-0 -0.359193 0.0366392 -0.00174728 -0.999367 -0.035521 
0.0769993 0.263431 -0.0680973 0.782682 0.49528 -0.37697 
-0.0487954 0.185778 0.148187 -0.55748 -0.399411 0.727796 
0.0284373 0.0894331 0.124089 0.269905 0.00108061 0.962886 
-0.0325214 -0.266528 0.136491 -0.203395 0.519755 0.82975 
-0.0757246 0.05591 -0.103623 -0.783385 0.0451579 -0.619894 
0.0815511 -0.285428 -0.0814314 0.994562 0.00146006 -0.104132 
-0.0346227 -0.163192 -0.119231 -0.0910468 -0.0689316 -0.993458 
-0 -0.375877 0.132836 0.00828139 -0.709132 -0.705027 
0.0739081 0.216547 0.0559738 0.987347 -0.14388 0.0666727 
0.0164046 0.497799 -0.0467483 0.278877 -0.248138 -0.927715 
-0.0769548 -0.237374 0.0262945 -0.987341 0.131024 0.0893953 
-0.0284037 0.271552 -0.0892188 -0.202288 0.695176 -0.68979 
-0.0393941 -0.354909 0.151473 -0.144525 0.119154 0.982301 
0 0.18387 -0.14474 -0.0101818 0.0147626 -0.999839 
-0.017791 0.446259 0.095982 0.236548 0.134302 -0.962293 
0.0492186 0.401522 0.0185139 -0.458563 -0.549543 0.698371 
0.0422589 0.153837 0.119206 0.623108 -0.391222 0.67726 
0.0683812 -0.230986 0.0827626 0.953583 -0.0618239 0.294715 
0.0858567 -0.343471 0.00616578 0.999247 0.012373 0.0367732 
0.0757236 0.05591 -0.103623 0.780737 0.0437349 -0.623327 
0.0325204 -0.266528 0.136491 0.214952 0.518158 0.827833 
-0.0228026 0.311755 0.147713 -0.214896 0.113903 0.969972 
-0.0335271 0.22089 -0.14001 -0.180748 0.427001 -0.886002 
-0.0757998 0.128777 0.0401428 -0.995115 -0.00890925 0.0983187 
-0 -0.263398 -0.144785 -0.00534422 0.393262 -0.919411 
0.0689706 0.0319395 0.0810093 0.945055 -0.000881692 0.32691 
-0.0777321 -0.0658343 0.015217 -0.999277 -0.000424324 -0.0380237 
0.0689528 0.0204338 0.0809925 0.944261 -0.00186769 0.329193 
-0.0800085 0.108815 -0.0655559 -0.995808 0.00308167 0.0914194 
0.0460364 0.443949 0.0919997 0.334744 0.940811 -0.0531181 
-0.0466426 0.157364 -0.138073 -0.268728 -0.497187 -0.824979 
0.0708198 -0.287006 0.128085 0.780141 0.404965 0.476848 
-0.0346257 0.0710537 -0.114636 -0.0824849 0.0927955 -0.992263 
0 0.288946 0.152305 0.00346188 0.0851789 0.99636 
0.0337861 0.0931908 -0.112499 0.138133 0.104121 -0.984925 
-0 0.0941273 -0.115749 -0.00218207 0.0989367 -0.995091 
0 0.312808 -0.0539948 0.00952383 0.689795 -0.723943 
-0.0409555 0.210295 -0.138756 -0.320298 -0.0374255 -0.946577 
0.0760371 0.0673474 -0.102424 0.776989 0.0452315 -0.627887 
0.0602743 0.123008 -0.103213 0.165331 -0.173489 -0.970859 
-0.028372 -0.0132614 0.124106 -0.275514 -0.00301353 0.961292 
0.0796109 -0.166682 -0.073456 0.983033 0.0245925 0.181775 
0.0858508 -0.331833 0.00675416 0.999401 -0.00401664 0.0343656 
-0.0113207 0.141709 0.126648 -0.155558 -0.42253 0.8929 
0.0212985 0.436682 -0.0237796 -0.164574 -0.414773 -0.894918 
-0.0808965 -0.349263 -0.085377 -0.989673 0.0324548 -0.139622 
-0.077119 0.10317 0.0246678 -0.998314 0.000260515 0.0580487 
-0.0373382 0.395095 0.00737913 0.501406 0.841066 0.202978 
-0 -0.326363 0.155732 -0.000520641 -0.00136809 0.999999 
0.0346514 -0.036422 -0.121713 0.0786282 0.0160381 -0.996775 
0.0345515 -0.359096 0.00238429 0.122134 -0.99247 0.0092721 
0.0114997 -0.377876 0.155223 -0.273289 -0.619488 0.735899 
-0.0172293 -0.360305 0.0589533 -0.0272442 -0.998627 -0.0447511 
-0.0761696 0.363412 0.0531139 -0.995653 0.0894608 -0.0259236 
0.0838938 0.244829 0.00156747 0.971755 -0.225568 0.0693605 
0.0689251 -0.0203467 0.0810103 0.942866 -5.26788e-05 0.333171 
0.0563791 -0.239881 -0.11473 0.223925 0.525676 -0.820684 
0.0814611 -0.297116 -0.0823698 0.992416 -0.00168446 -0.122912 
0.0592667 -0.377855 0.14172 0.333094 -0.84211 0.424144 
0.0683001 -0.213836 0.0829505 0.949444 0.0141451 0.313619 
0.0803397 0.241596 0.0949437 0.993174 -0.0979071 0.0634077 
0.0336329 -0.24596 0.122744 0.324385 0.286751 0.901415 
0.0228481 -0.291698 0.154265 0.105507 0.278153 0.954725 
-0.070712 0.24033 -0.106664 -0.703337 0.497445 -0.507804 
0.0794755 -0.0590654 -0.0765067 0.988439 0.00223466 0.1516 
0.0432399 0.124503 -0.107234 0.329546 -0.281191 -0.901294 
-0.0782809 -0.268823 0.085044 -0.896869 0.387144 0.213883 
0.0227532 0.345621 0.141911 0.176242 0.191359 0.965567 
0.0799205 0.0711387 -0.0678303 0.981019 -0.0231103 0.192531 
0.0775926 -0.184924 0.0170633 0.999901 -0.00213678 -0.0138778 
-0.0771021 0.155048 0.0250465 -0.998514 -0.00081863 0.0544982 
-0.0331513 -0.375671 0.129058 0.134247 -0.875222 -0.46472 
-0.00675308 0.538026 -0.0312506 -0.0289719 0.864567 -0.501682 
-0.0503262 0.391785 0.00162186 -0.471727 0.417157 -0.776822 
-0.022685 0.395398 0.128584 -0.217702 0.309462 0.925656 
-0.0347503 -0.180252 -0.118006 -0.0985977 -0.0706267 -0.992618 
0.034692 -0.297826 -0.141659 0.176475 -0.0103733 -0.98425 
0.0420166 0.203492 -0.138856 0.321922 0.000412683 -0.946766 
-0.0344349 0.176573 -0.141958 -0.222027 0.093427 -0.970554 
-0.0563791 -0.239881 -0.11473 -0.251858 0.522071 -0.814867 
-0.0283651 -0.195658 0.124069 -0.283224 -0.000734301 0.959053 
0.0689369 -0.0088282 0.0810004 0.943077 -0.00076202 0.332572 
0.0689439 0.00875116 0.0809876 0.943668 -4.72806e-05 0.330895 
0.0685275 -0.242382 0.0821653 0.940105 0.184922 0.286366 
0.0793973 0.222098 -0.0225019 0.959476 -0.26235 0.102853 
0.0737874 0.237933 -0.0998157 0.870302 0.226528 -0.437332 
0.0795516 -0.0818868 -0.0765522 0.988966 0.00115635 0.148141 
-0.0795279 -0.0304382 -0.0764316 -0.987436 -0.00438048 0.157961 
-0.0279438 -0.377871 0.153628 -0.451943 -0.686756 0.569311 
0.0449328 -0.239212 -0.117544 0.16598 0.519036 -0.838482 
0.055328 -0.289839 0.144553 0.438917 0.353568 0.82604 
-0.0853524 -0.259483 -0.0288753 -0.988981 0.148003 -0.00330888 
0.0280407 0.22022 -0.141271 0.209203 0.446306 -0.870083 
0.0800292 0.207048 -0.065547 0.986969 -0.160079 0.0163249 
0.0281653 0.326858 -0.0341035 0.274544 0.672985 -0.686816 
0.0815373 -0.377877 0.091087 0.466448 -0.883897 0.0339588 
0.0227631 0.294705 0.14929 0.201866 0.0812086 0.976041 
