ply
format ascii 1.0
element vertex 806
property float x
property float y
property float z
property float nx
property float ny
property float nz
end_header
-0.188392 0.00132667 -0.105829 0.996008 0.0876202 0.0170405 
0.0109343 0.105846 -0.150961 0.0368894 -0.998125 0.0488456 
0.142909 0.0579106 -0.00769333 -0.824266 -0.565481 0.0285691 
0.0914574 -0.0895215 0.455183 -0.263964 0.309525 -0.913519 
4.85179e-08 0.0532356 0.322074 -0.000532368 -0.962183 -0.272405 
-0.167224 0.0428684 0.0990374 0.911738 -0.4041 0.0737393 
0.136083 0.0669173 0.189136 0.257497 -0.96627 -0.00412464 
-0.112547 -0.0914923 -0.311539 0.205159 0.763109 0.612841 
0.120175 0.0608626 -0.313747 -0.873875 -0.479417 0.0806338 
-0.172087 -0.0914602 -0.16037 0.959315 0.277803 0.0503995 
0.163428 -0.0902588 0.412667 -0.470287 0.882436 0.0116837 
0.162557 0.0421715 -0.162542 -0.236246 -0.970801 0.04164 
-0.0201822 0.0577459 0.304577 0.0310877 -0.990889 -0.131042 
0.132196 0.0649591 0.229753 0.252122 -0.966831 -0.0409042 
-0.173366 -0.0891673 0.220364 0.718388 0.695643 5.66789e-05 
0.18947 0.00319111 0.00716713 -0.97913 -0.203227 0.00170546 
0.189863 0.0124031 -0.150347 -0.95673 0.278111 0.0855657 
0.159668 0.0418051 -0.186731 -0.360944 -0.930659 0.0599487 
0.136979 0.054117 -0.166832 -0.758244 -0.649518 0.0565021 
-0.0105428 0.058643 0.0848996 0.0135237 -0.981551 -0.190722 
0.0578837 0.0367134 0.417039 -0.0212012 -0.971094 -0.237754 
-0.111028 -0.0896397 0.448794 0.309385 0.406444 -0.8597 
0.125412 0.0608577 0.156719 0.523932 -0.84987 0.0567045 
-0.0794195 -0.0913813 -0.321105 0.145618 0.771838 0.618919 
-0.136979 0.054117 -0.166832 0.760352 -0.647035 0.0566688 
-0.0815288 -0.0894747 0.457897 0.23903 0.25395 -0.937216 
-0.187634 0.0248264 0.181437 0.84548 -0.526534 0.0890302 
0.0327154 0.032662 0.430243 0.0559218 -0.948343 -0.312279 
0.118775 0.0967757 -0.161952 -0.478538 -0.866321 0.143138 
0.0704775 0.0528195 0.305407 -0.146159 -0.984908 -0.0927051 
-0.168136 0.0431839 -0.0715649 0.385964 -0.922505 0.00411257 
0.157908 -0.0917404 -0.28473 -0.600293 0.778644 0.182653 
0.0208498 -0.00116245 -0.415054 -0.131295 0.477909 0.868542 
-0.0914573 -0.0895215 0.455183 0.265722 0.290505 -0.919238 
0 0.0694086 0.0545139 -0.000114054 -0.940202 -0.340617 
-0.136052 0.054205 -0.178172 0.740596 -0.669642 0.0556485 
0.141701 0.0645893 0.0861513 0.1087 -0.991608 0.0699893 
0.0212901 0.00323037 0.484387 -0.0930526 -0.307517 -0.946982 
0 0.09554 -0.0162932 -0.000224327 -0.930245 -0.36694 
-0.185046 0.0359139 0.347764 0.219198 -0.961134 -0.167849 
0.138399 0.067265 0.158442 0.267112 -0.963425 0.0215275 
0.021862 0.106007 -0.150797 0.000580084 -0.999285 0.037792 
-0.114623 0.0468094 0.35401 0.116653 -0.963533 -0.240822 
-0.127679 0.0946157 -0.0420947 0.670144 -0.71883 -0.184908 
-0.148483 0.0264685 0.378508 0.0857469 -0.971832 -0.219524 
0.142803 0.058434 0.00368631 -0.853226 -0.521319 -0.0152034 
0 0.0596663 0.226072 3.79179e-05 -0.999902 -0.014014 
-0.0654805 0.104503 -0.150431 0.0710331 -0.997424 -0.00995063 
0.168777 0.0430142 0.117303 -0.903565 -0.419678 0.0862584 
0.104406 0.0539467 0.277896 0.165424 -0.986152 -0.0118125 
0.0920008 0.00273737 -0.39866 -0.335381 0.254169 0.907148 
0.17355 -0.0887059 0.187539 -0.732343 0.680845 0.0111488 
0.188392 0.00132667 -0.105829 -0.996006 0.0859041 0.0243507 
-0.1735 -0.0884567 0.172584 0.739015 0.673483 0.0166642 
0.174604 -0.0878607 0.113526 -0.780783 0.618351 -0.0895542 
0.0205911 -0.0892078 0.467635 -0.0651024 0.226107 -0.971925 
-0.131718 0.055204 -0.223478 0.722332 -0.689481 0.0534094 
0.142942 0.0574094 -0.0190728 -0.796436 -0.604241 0.0241466 
0.133227 0.0614778 0.102331 0.50731 -0.861721 0.00855839 
-0.129024 0.00171559 0.45516 0.401515 -0.75015 -0.525415 
-0.0747861 -0.0289292 -0.381595 0.218174 0.671114 0.708524 
0 0.103949 -0.174634 -0.000280177 -0.99725 0.0741153 
-0.173547 -0.0886581 0.184549 0.734584 0.67841 0.0121071 
0.127436 0.0611621 0.143147 0.532188 -0.844284 0.0629346 
0.174247 0.0425562 0.165869 -0.848094 -0.521187 0.0953945 
-0.15733 -0.0917229 -0.289018 0.577473 0.76775 0.277641 
-0.142901 0.0569329 -0.0304516 0.778125 -0.627326 0.0313577 
-0.123407 0.0589372 -0.29123 0.835321 -0.545148 0.0710786 
-0.0308739 0.102767 -0.0398879 0.0203595 -0.978688 -0.204344 
-0.19077 0.0229235 -0.150355 0.991915 -0.0858424 0.0934684 
0.0844393 0.00241827 0.472607 -0.255865 -0.291618 -0.921679 
-0 0.0758806 -0.36394 0.015355 -0.979024 0.203166 
0.173145 -0.089341 0.235253 -0.697224 0.716839 -0.00449382 
0 0.0879424 0.00393331 -0.000290068 -0.936605 -0.350388 
-0.0104407 -0.00221742 -0.415998 0.139918 0.44776 0.883139 
-0.162349 -0.091808 -0.250425 0.771589 0.629394 0.09227 
-0 -0.0341516 -0.396001 -0.000101904 0.530243 0.847846 
0.0928369 0.0589711 0.0632698 -0.123303 -0.949936 -0.287085 
-0.0103006 0.102767 -0.0385167 0.0133041 -0.96166 -0.273921 
-0.0423934 0.0179872 0.46111 -0.047262 -0.941792 -0.332857 
0.167307 0.0430141 -0.101933 -0.341238 -0.939657 0.0245328 
0.137685 0.0672528 0.168694 0.262648 -0.964803 0.0131181 
0.119547 0.0529255 0.324596 0.179978 -0.969711 -0.165129 
0.112547 -0.0914923 -0.311539 -0.202408 0.769156 0.60616 
0.186077 0.0389862 0.289539 -0.68107 -0.732099 0.0131897 
-0.0920008 0.00273737 -0.39866 0.334235 0.269298 0.903197 
-0.109574 0.0561018 0.251138 -0.320689 -0.947157 -0.00729022 
0.169978 0.0430377 0.129466 -0.891754 -0.443078 0.0919552 
-0.140635 0.0545149 -0.11006 0.720382 -0.691887 0.0483855 
0.136052 0.0542049 -0.178172 -0.739288 -0.671096 0.0555234 
0.175889 0.00213677 -0.277361 -0.934504 -0.33594 0.117674 
-0.12065 -0.089716 0.445112 0.324057 0.480009 -0.815217 
-0.0537572 -0.0280395 -0.388297 0.188132 0.643665 0.741823 
0.173369 -0.0876734 0.126323 -0.769998 0.635873 -0.0526228 
0.0628509 0.0202753 0.457075 -0.00347599 -0.923749 -0.382982 
-0.14235 0.0556787 -0.0645817 0.744191 -0.666728 0.0406654 
-0.0928369 0.0589711 0.0632698 0.123551 -0.949745 -0.287609 
-0 -0.0843575 -0.344786 -0.000216179 0.831927 0.554884 
-0.0828466 0.0588733 0.0676859 0.124614 -0.939949 -0.317753 
0 0.0598949 0.148702 -0.000127395 -0.999963 0.0085489 
-0.0415337 0.000534708 -0.412131 0.184531 0.455305 0.871003 
0.150492 0.0413155 -0.24705 -0.511731 -0.854659 0.0876839 
0.021772 -0.0107058 0.482206 -0.0755 0.363977 -0.928343 
-0.17488 0.00218776 -0.285032 0.929771 -0.347068 0.12276 
-0.121119 0.100467 -0.117325 0.602021 -0.794193 0.0826388 
0.1866 0.0366022 0.256272 -0.79251 -0.607571 0.0527741 
0.162879 -0.0918079 -0.246137 -0.782477 0.615516 0.0941783 
-0.155394 0.0414507 -0.21692 0.453464 -0.887942 0.0770084 
-0.0960111 0.0500978 0.317818 -0.00261888 -0.9994 0.034543 
0.121024 0.102765 -0.0603192 -0.235104 -0.956083 -0.175017 
0.123407 0.0589371 -0.29123 -0.833848 -0.5472 0.0725956 
-0.121093 0.0547085 0.314731 -0.340335 -0.938059 -0.0649401 
4.85179e-08 0.0157093 0.463727 6.70555e-07 -0.954161 -0.299293 
0.171577 0.00231328 -0.307999 -0.92672 -0.349179 0.138796 
-0.162582 -0.0902738 0.421492 0.544429 0.801772 -0.246493 
-0.0916421 0.0274823 0.43186 0.231239 -0.899963 -0.369589 
0.189053 0.00526933 0.0567786 -0.900849 -0.433639 0.0206998 
-0.123161 0.10214 -0.0838893 0.565814 -0.822807 0.0533235 
-0.111108 0.0420775 0.373461 0.239411 -0.928683 -0.28325 
0.0948293 0.0023209 0.469637 -0.265276 -0.377792 -0.887075 
-0.189517 0.0023274 -0.025497 0.99665 -0.0816931 0.00398306 
0.16778 0.0430372 -0.0411606 -0.43226 -0.901428 -0.02407 
0.116755 0.0586868 0.210808 0.442111 -0.896569 0.0264906 
0.167707 0.0429288 0.105128 -0.909004 -0.409348 0.0783977 
-0.0342679 -0.0912848 -0.328918 0.0560891 0.846648 0.52919 
-0.170381 0.00234385 -0.315641 0.92917 -0.339794 0.145544 
0.131534 0.0596328 0.0414065 -0.0619549 -0.972512 -0.224458 
0.188332 0.0139292 0.123251 -0.83326 -0.546221 0.0855655 
-0.052284 0.0586988 0.0781377 0.0772133 -0.950433 -0.301189 
-0.171997 0.0429173 0.147686 0.870716 -0.482271 0.0962684 
-0.0635324 0.00265514 0.477754 0.234895 -0.198368 -0.951564 
-0.0905475 -0.0914146 -0.318263 0.166631 0.765451 0.621545 
-0.0636309 -0.0077375 0.477239 0.194783 0.211748 -0.957717 
-0.151517 0.0413197 -0.241028 0.500789 -0.861301 0.0858533 
0.164947 0.0423272 0.0563553 -0.842639 -0.537611 0.0305576 
-0.179128 -0.0890235 0.0366454 0.877086 0.479258 -0.0321303 
0.148381 0.0413479 -0.259084 -0.53162 -0.842114 0.0906895 
0.0212361 0.0163511 0.463083 0.0342421 -0.966202 -0.255502 
0.0226153 0.031187 0.432418 0.0763073 -0.953066 -0.292989 
-0.137392 0.0160879 0.41705 0.104058 -0.938973 -0.327874 
0 0.0969396 -0.242179 0.00177385 -0.991491 0.130167 
0.0100946 0.0579229 0.304076 0.0191127 -0.992463 -0.121042 
0.189448 0.00200553 -0.0417096 -0.999416 -0.0334741 0.00692725 
0.115628 0.0717341 -0.308468 -0.909849 -0.405924 0.0860259 
0.130446 0.00292101 -0.381373 -0.470455 0.100179 0.876719 
0.13889 0.0178886 0.411288 -0.0907163 -0.945944 -0.311384 
0.140635 0.0545149 -0.11006 -0.716623 -0.695788 0.0482676 
-0.153502 0.0413641 -0.228979 0.478655 -0.87418 0.0818455 
-0.0816802 0.102766 -0.0486558 0.024182 -0.995317 -0.0935891 
-0.115468 0.00218029 0.462986 0.328765 -0.569861 -0.753108 
0.164692 0.0422019 0.0441531 -0.777015 -0.629262 0.0166624 
-0.116077 0.08593 -0.240446 0.914118 -0.395741 0.0881917 
-0.175041 0.0423719 0.17192 0.842194 -0.530866 0.0942917 
0.166778 0.0427993 0.0929443 -0.905233 -0.419342 0.068601 
0 0.0600064 0.170808 -0.000161777 -0.999998 0.00182943 
-0.177113 -0.0907979 -0.0917822 0.965158 0.256837 0.0500432 
-0.180182 0.0404365 0.208117 0.819405 -0.567613 0.0799441 
-0.0529098 0.0190427 0.459606 -0.0364332 -0.930806 -0.363693 
-0.115712 0.0817254 -0.263026 0.91949 -0.383501 0.0864044 
-0.145077 0.0415114 -0.277117 0.559118 -0.823757 0.0938748 
0.140656 0.0663125 0.11724 0.304742 -0.951039 0.0515577 
-0.172725 0.00227665 -0.300351 0.92475 -0.355985 0.134579 
0.0424751 0.00293217 0.481726 -0.154708 -0.220838 -0.962962 
0.120644 0.0999049 -0.125687 -0.556901 -0.824878 0.0971464 
0.189517 0.0023274 -0.025497 -0.996827 -0.0795083 0.00389293 
0.141923 0.0638308 0.0757563 0.00222612 -0.996383 0.0849437 
0.122632 0.101806 -0.0922483 -0.629225 -0.77418 0.0687112 
0.166669 0.0428826 -0.114069 -0.304277 -0.952127 0.0294741 
-0.119547 0.0529255 0.324596 -0.196934 -0.967 -0.16164 
-0.0205952 0.102767 -0.039037 0.0147843 -0.971538 -0.236422 
0.121093 0.0547085 0.314731 0.329787 -0.941725 -0.0662938 
-0.135638 0.0427916 -0.325081 0.645287 -0.758467 0.0912866 
-0.0615148 0.102767 -0.0442971 0.0234705 -0.991975 -0.124239 
-0.164938 0.0421293 0.0136534 0.551547 -0.833886 -0.0207211 
-0.14881 0.00266004 -0.370503 0.507123 -0.0393888 0.860973 
-0.139708 0.00281335 -0.376126 0.517916 0.0358397 0.85468 
0.179466 -0.0899679 -0.0275316 -0.946475 0.32258 0.0113064 
0.141068 0.0658316 0.106894 0.322409 -0.944166 0.0678389 
-0.0844624 -0.00325716 0.472941 0.228559 -0.0662593 -0.971273 
-0.142803 0.0584341 0.00368636 0.853382 -0.521062 -0.0152522 
0.171296 0.0429812 0.141616 -0.877151 -0.47067 0.0952703 
0 0.0577515 0.303406 7.87687e-06 -0.994851 -0.101353 
0.172723 0.0428267 0.153751 -0.862111 -0.497475 0.0963552 
0.138135 0.0686606 0.0158412 -0.865508 -0.497783 -0.0557403 
0.0815289 -0.0894747 0.457897 -0.238387 0.263362 -0.934779 
-0.140656 0.0663125 0.11724 -0.305657 -0.950743 0.0515888 
-0.18947 0.00319111 0.00716713 0.97805 -0.208358 0.00239106 
-0.138067 0.0423403 -0.313107 0.611416 -0.785085 0.0990528 
0.127679 0.0946157 -0.0420947 -0.692232 -0.694909 -0.194721 
4.85179e-08 0.0350456 0.388782 -0.0010904 -0.956528 -0.291638 
0.143943 0.0416001 -0.283122 -0.568356 -0.817316 0.0946852 
0.165868 0.0427254 -0.126198 -0.253685 -0.966773 0.0315217 
0.116311 0.0489774 0.344236 -0.0483635 -0.974671 -0.218351 
-0.16794 0.0431477 -0.0837167 0.37045 -0.928758 0.0132691 
-0.0805022 0.051263 0.305408 0.159349 -0.984575 -0.0722533 
0.100621 0.0320651 0.413341 -0.321635 -0.883794 -0.339792 
0.0715185 -0.0894327 0.460294 -0.210641 0.234107 -0.949118 
-0.142794 0.0417073 -0.289125 0.576396 -0.811589 0.0953453 
-0.162453 -0.0388595 -0.334419 0.714005 0.432463 0.550611 
-0.166686 -0.090179 0.374388 0.609983 0.7911 -0.0456226 
-0.167951 0.0430972 -0.0472441 0.420182 -0.907263 -0.0179076 
-0.184037 0.0305718 0.380448 0.0345429 -0.97685 -0.211118 
-0.178406 0.0412547 0.196075 0.823603 -0.560678 0.0855452 
-0.130446 0.00292101 -0.381373 0.470831 0.0985012 0.876707 
-0.13015 -0.0898071 0.441102 0.329953 0.556434 -0.76257 
0.120757 0.0550276 0.30311 0.442218 -0.892515 -0.0886535 
0.117372 0.09284 -0.195509 -0.8191 -0.564123 0.104113 
0.134251 0.0661567 0.209491 0.254863 -0.966725 -0.0220701 
-0.166289 0.0428067 -0.120134 0.272992 -0.961533 0.0305001 
-0.169362 0.0430348 0.123386 0.900787 -0.424909 0.0896385 
-0.104049 0.0345046 0.403392 0.319109 -0.892655 -0.318334 
-0.0103011 -0.0891425 0.468196 0.0397609 0.231919 -0.971922 
-0.124938 0.0581088 -0.279958 0.813726 -0.57716 0.0688222 
-0.120489 0.0997046 -0.128474 0.527876 -0.843183 0.101925 
0.12407 0.102575 -0.0699551 -0.482359 -0.875973 -0.00096058 
0.139649 0.066986 0.137878 0.281685 -0.958754 0.0380096 
0.170059 -0.0916039 -0.18181 -0.937345 0.336393 0.0906894 
-0.14208 0.0629829 0.0653461 0.0439316 -0.997551 0.0544315 
0.166459 -0.0901863 0.377335 -0.537891 0.842026 -0.04081 
-0.187419 0.027908 0.198064 0.84759 -0.524076 0.0832827 
0 0.0921299 -0.275628 0.00542665 -0.988049 0.154047 
-0.127436 0.0611621 0.143147 -0.531876 -0.844484 0.0628869 
0.111108 0.0420775 0.373461 -0.237977 -0.929093 -0.283114 
0 0.0581253 0.292363 0.00021497 -0.999924 -0.0122942 
0.117953 0.0510156 0.334432 0.0497465 -0.981165 -0.186654 
-0.165408 0.0426395 -0.13226 0.216156 -0.975881 0.0305562 
-0.0980592 0.101344 -0.15036 0.135474 -0.990185 0.0343547 
0.173826 0.00223458 -0.292696 -0.926476 -0.35363 0.128796 
0.112459 0.0592425 0.0531432 -0.0818069 -0.980065 -0.181054 
0.183135 0.0124214 0.422242 -0.552524 -0.78726 -0.273749 
0.185741 0.00136597 -0.168913 -0.99667 0.0613493 0.0537119 
0 0.106824 -0.0830209 0.000856123 -0.99993 -0.0117663 
0.159613 -0.0917803 -0.271867 -0.681201 0.729273 0.0642332 
-0.137685 0.0672528 0.168694 -0.262965 -0.964716 0.0131408 
-0.111701 0.0506466 0.304072 -0.312894 -0.944691 -0.0982656 
-0.187558 -0.00860758 -0.150262 0.99169 0.118103 0.0510226 
-0.128706 0.0623163 0.259964 -0.25483 -0.964518 -0.069038 
0.0747861 -0.0289292 -0.381595 -0.216791 0.67531 0.704953 
-0.0109342 0.105846 -0.150961 -0.0368951 -0.998146 0.0484123 
0.131934 0.0436571 -0.34302 -0.666735 -0.730949 0.145526 
0.0318312 0.017072 0.462267 0.0473877 -0.953873 -0.296445 
-0.179676 -0.0895991 -0.00185056 0.922396 0.386195 -0.00615282 
0.12207 0.0594214 0.0474674 -0.0762415 -0.987739 -0.136229 
0.131086 0.0641925 0.239849 0.250918 -0.966685 -0.0505959 
0.115563 0.0744348 -0.297068 -0.914413 -0.394701 0.0897787 
0.0720762 0.00216666 -0.405118 -0.269648 0.344066 0.899393 
-0.134142 -0.0915847 -0.303453 0.241344 0.762596 0.600167 
-0.0436924 0.105668 -0.150563 0.0351845 -0.999359 0.00662672 
0.0531119 -0.00915709 0.478857 -0.166402 0.275833 -0.946692 
0.163646 0.00238169 -0.353753 -0.949236 -0.142898 0.280233 
-0 0.0803498 -0.341971 0.0160828 -0.980931 0.19369 
-0.179612 -0.0894095 0.010985 0.909279 0.415921 -0.0148732 
0.056953 -0.0913257 -0.32573 -0.100673 0.80026 0.591142 
-0.12207 0.0594214 0.0474674 0.0767495 -0.987578 -0.13711 
-0.0106567 0.00338135 0.485183 0.0454315 -0.485218 -0.873212 
-0.0945104 -0.000451079 0.470099 0.224003 -0.243957 -0.943561 
0.0308596 -0.0892631 0.466776 -0.0947173 0.218762 -0.97117 
0.0201823 0.0577459 0.304577 -0.0310453 -0.990766 -0.131983 
0 0.0597852 0.13765 -8.85798e-05 -0.999944 0.0105902 
0.168163 0.0431834 -0.0654868 -0.396668 -0.917962 -0.000872849 
-0.141068 0.0658316 0.106894 -0.323304 -0.943863 0.0678061 
-0 0.0735592 -0.374901 0.0137433 -0.97647 0.215215 
0.134411 0.043054 -0.331064 -0.641839 -0.762266 0.083626 
0.112007 -0.0619716 -0.341556 -0.212853 0.610462 0.762908 
0.165746 0.0423409 -0.00463282 -0.490402 -0.870264 -0.0463178 
-0.0820888 0.00249852 -0.402069 0.300933 0.311958 0.901178 
-0.116982 0.0912948 -0.206719 0.863366 -0.494704 0.0993345 
0.138638 0.0541166 -0.144136 -0.77074 -0.634774 0.0549774 
-0.021053 0.0586461 0.0840298 0.021871 -0.978086 -0.20705 
-0.187294 0.00127791 -0.137489 0.986121 0.127631 -0.10619 
-0.0226152 0.031187 0.432418 -0.0761751 -0.952864 -0.29368 
-0.142942 0.0574094 -0.0190727 0.797808 -0.602431 0.0240482 
0.169634 -0.090032 0.330124 -0.580217 0.813925 -0.0295543 
0.0312174 -0.000247692 -0.413766 -0.162862 0.473909 0.865382 
-0.0327154 0.032662 0.430243 -0.0556937 -0.948118 -0.313001 
0.178149 -0.0886331 0.0622901 -0.850008 0.524487 -0.0489801 
-0.161022 -0.0559676 -0.321971 0.637379 0.502772 0.583925 
-0.188878 0.0067485 0.0733937 0.848526 -0.508394 0.14676 
0.0110319 -0.0110648 0.482825 -0.0708391 0.371363 -0.925782 
-0.101697 0.0527443 0.291233 -0.0744633 -0.971818 -0.223663 
0.0456331 -0.0913034 -0.327505 -0.0778891 0.821592 0.56473 
-0.185275 0.00140439 -0.176735 0.99913 0.0367887 0.0196651 
0.179143 -0.0608432 -0.149248 -0.981098 0.190951 0.0313754 
0.181038 0.0017823 -0.231142 -0.97498 -0.202783 0.0910661 
0.119011 0.0593693 0.197317 0.46947 -0.88223 0.0356223 
0.187309 0.0293845 0.206379 -0.84708 -0.525364 0.0803034 
0.106881 0.0370058 0.393283 -0.304136 -0.903453 -0.302116 
-0.13937 0.0541989 -0.132781 0.75988 -0.647903 0.0529607 
-0.16011 -0.0643823 -0.315557 0.603617 0.530626 0.595048 
0.129922 0.0633121 0.249919 0.250714 -0.966163 -0.0605877 
0.125711 0.00214182 0.45934 -0.32151 -0.799902 -0.506742 
0.19077 0.0229235 -0.150355 -0.984462 -0.150497 0.0904732 
-0.169112 -0.0900679 0.338986 0.618562 0.784976 -0.0345391 
-0.0741251 -0.00572842 0.475294 0.220859 0.0896879 -0.971173 
0.0419341 0.0586713 0.0806314 -0.0564162 -0.960774 -0.271533 
0.129184 0.0561291 -0.246093 -0.751917 -0.656791 0.0569754 
0.0426968 -0.00987006 0.480227 -0.127032 0.314282 -0.940792 
-0.117953 0.0510156 0.334432 -0.0711364 -0.980527 -0.183049 
0.184885 0.0345338 0.356083 -0.0658834 -0.981272 -0.181009 
-0 -0.0712607 -0.360623 -0.000561481 0.754264 0.656571 
0 0.10621 -0.0598038 0.000417372 -0.999992 -0.00401588 
0.0324637 -0.0269025 -0.394087 -0.162664 0.60026 0.783089 
0.167372 -0.0917289 -0.20754 -0.889604 0.446594 0.095701 
-0.112007 -0.0619716 -0.341556 0.216168 0.612567 0.760285 
-0.0716303 0.102767 -0.0463431 0.0222955 -0.994248 -0.104759 
0.132895 0.0548518 -0.212161 -0.71448 -0.697659 0.0528137 
-0.127827 0.0567074 -0.257389 0.771769 -0.633055 0.0601145 
0.121203 0.0599597 0.183805 0.49225 -0.869361 0.0436036 
-0.139518 -0.0899155 0.436759 0.337045 0.631277 -0.698492 
-0.139054 0.0671756 0.14817 -0.273792 -0.961328 0.0297869 
0.139518 -0.0899156 0.436759 -0.30169 0.731947 -0.610932 
4.85179e-08 -0.0113527 0.483224 4.67678e-05 0.355819 -0.934555 
-0.183134 0.0124215 0.422242 0.523113 -0.812343 -0.257783 
-0.133251 0.0656134 0.219634 -0.254147 -0.966659 -0.0312988 
0.0109665 -0.0254684 -0.399019 -0.172718 0.534398 0.827398 
-0.115563 0.0744348 -0.297068 0.91149 -0.401888 0.0875927 
-0.141416 0.0652567 0.0965307 -0.252565 -0.965832 0.0581308 
0.0103006 0.102767 -0.0385167 -0.0133152 -0.961577 -0.274214 
4.85179e-08 0.0249188 0.421847 -0.000370723 -0.989932 0.141545 
-0.0531119 -0.00915709 0.478857 0.1612 0.27187 -0.948737 
0.0614362 -0.089393 0.462377 -0.18188 0.218044 -0.958841 
0.185203 0.0370351 0.339446 -0.246037 -0.961672 -0.121045 
-0.178825 -0.0903185 -0.0532244 0.955236 0.294554 0.0276174 
0.140036 0.0543325 -0.121422 -0.734707 -0.676512 0.0503611 
0.0513436 0.102767 -0.0425308 -0.0238849 -0.988386 -0.150077 
0 0.10474 -0.163285 -0.000195716 -0.99779 0.0664406 
0.162724 -0.0340444 -0.337784 -0.74014 0.407586 0.534852 
0.111484 0.00296779 -0.390752 -0.403971 0.17336 0.898194 
-0 0.0781452 -0.352964 0.0161812 -0.979707 0.199781 
-0.0859241 0.0253942 0.439979 0.170002 -0.911057 -0.375598 
0.101593 -0.0914516 -0.315073 -0.185281 0.766749 0.614628 
-0.101593 -0.0914516 -0.315073 0.18642 0.763181 0.61871 
0.114623 0.0468094 0.35401 -0.130941 -0.961219 -0.242719 
0.134009 0.0545697 -0.200837 -0.714422 -0.697695 0.0531336 
0.186344 0.0380999 0.272905 -0.745664 -0.665316 0.0365944 
4.85179e-08 0.0445038 0.355524 -0.0012618 -0.964907 -0.26259 
0.101697 0.0527443 0.291233 0.0739791 -0.971756 -0.224091 
-0.178352 -0.0904851 -0.0660747 0.959562 0.27925 0.0354918 
0.0308739 0.102767 -0.0398879 -0.0204423 -0.978503 -0.205215 
-0.167556 0.0429601 -0.0350758 0.44094 -0.897027 -0.0302379 
-0.0715184 -0.0894326 0.460294 0.210828 0.230394 -0.949984 
0.0643085 -0.0285122 -0.385064 -0.201723 0.662884 0.721036 
-0.127436 0.0612035 0.269983 -0.263541 -0.961246 -0.0809491 
-0.0208498 -0.00116245 -0.415054 0.131327 0.478734 0.868082 
-0.0456332 -0.0913034 -0.327505 0.0778229 0.821905 0.564283 
-0.167009 0.042952 -0.108002 0.319279 -0.947275 0.0270438 
0 0.0599754 0.192914 -0.000125835 -0.999989 -0.00458327 
-0.145474 0.0242234 0.388165 0.0837679 -0.960249 -0.266281 
-0.135062 0.054355 -0.189508 0.723833 -0.687839 0.0542611 
-0.0682182 -0.0913516 -0.323595 0.123441 0.783495 0.609014 
-0.0763552 0.10363 -0.150394 0.0895172 -0.995971 -0.00533715 
-0.116635 0.0896294 -0.217945 0.889931 -0.446245 0.0942765 
-0.0954897 -0.0296208 -0.373923 0.250352 0.680122 0.689027 
0.116635 0.0896294 -0.217945 -0.890285 -0.445559 0.0941816 
-0.179198 -0.0901458 -0.0403766 0.949597 0.31287 0.0194463 
0.185798 0.0391671 0.306174 -0.585956 -0.8101 -0.0198401 
0.0117018 0.0296355 0.433296 0.197875 -0.946809 -0.253767 
-0.120175 0.0608626 -0.313747 0.870821 -0.489207 0.0484437 
-0.129184 0.0561291 -0.246093 0.752372 -0.656264 0.0570437 
-0.132572 0.0819367 -0.0130275 0.877396 -0.47636 -0.0570696 
0.0905475 -0.0914146 -0.318263 -0.166008 0.767327 0.619395 
-0.0872152 0.102575 -0.150372 0.100663 -0.994873 0.00972807 
0.163034 -0.0253115 -0.343736 -0.791196 0.350114 0.501426 
-0.149446 0.0413247 -0.253068 0.521252 -0.848732 0.0891654 
0 0.0592373 0.104498 1.25221e-05 -0.997389 0.0722109 
0.108886 0.0999468 -0.150356 -0.0766276 -0.994436 0.0722901 
0.136427 0.0148375 0.420886 -0.0953489 -0.936992 -0.336086 
0.0820888 0.00249847 -0.402069 -0.301843 0.299647 0.905043 
0 0.105685 -0.0481445 0.000178236 -0.983591 -0.18041 
-0 0.0824911 -0.33096 0.0151062 -0.982063 0.187948 
0.161271 -0.0918026 -0.259002 -0.73278 0.672939 0.100928 
-0.020591 -0.0892078 0.467635 0.0650647 0.22672 -0.971784 
0 0.0657761 0.0646403 -6.65265e-05 -0.944166 -0.329469 
-0 -0.0643584 -0.368214 -0.000660987 0.727252 0.68637 
0.167773 0.0431128 -0.0897904 -0.365291 -0.930729 0.0174746 
-0.187842 0.0216521 0.16481 0.840606 -0.533845 0.0916047 
-0.184721 0.0328831 0.364401 0.068783 -0.986648 -0.14763 
0.0436924 0.105668 -0.150563 -0.0351999 -0.999343 0.00861171 
0.0106214 0.0158788 0.463567 0.0452546 -0.965381 -0.256889 
-0.0228667 -0.09127 -0.329965 0.0351378 0.873381 0.485768 
0.172469 -0.0914275 -0.156082 -0.973287 0.215559 0.0790349 
-0.189224 0.00438364 0.0401685 0.926507 -0.376019 0.013914 
-0.162891 -0.0301734 -0.340446 0.762516 0.385368 0.519673 
-0.170894 -0.0915505 -0.173234 0.940427 0.325932 0.0967726 
-0.117372 0.09284 -0.195509 0.819122 -0.564103 0.104056 
0.183831 0.020137 0.405984 -0.27977 -0.866002 -0.414451 
0.117802 0.0942673 -0.184312 -0.746698 -0.655563 0.1126 
0.189091 0.00155499 -0.0739098 -0.999346 0.0326011 0.0156208 
4.85179e-08 0.0317414 0.399825 -0.000875185 -0.965865 -0.259045 
0.13015 -0.0898072 0.441102 -0.300972 0.64309 -0.704167 
0.171385 -0.0898461 0.294625 -0.624758 0.780531 -0.021206 
0.0872152 0.102575 -0.150372 -0.100635 -0.994832 0.0134658 
-0.168142 0.0431695 -0.0594073 0.401721 -0.915741 -0.00615078 
0.0916545 0.102766 -0.0512226 -0.023311 -0.994854 -0.0985981 
-0.0106213 0.0158788 0.463567 -0.0452699 -0.965473 -0.25654 
-0.183831 0.0201371 0.405984 0.261056 -0.843577 -0.469285 
-0.0217368 -0.0262257 -0.396656 0.138399 0.566532 0.812335 
-0.147297 0.0413862 -0.265098 0.540657 -0.836212 0.0918645 
-0.142618 0.0217495 0.397811 0.0943179 -0.954696 -0.28224 
0.187739 0.0232449 0.173123 -0.844052 -0.52856 0.0905503 
-0.0834716 0.0438825 0.370602 -0.0472106 -0.992144 -0.115847 
0.0103011 -0.0891425 0.468196 -0.0397682 0.231537 -0.972013 
0.177466 -0.0884379 0.0751061 -0.832092 0.551717 -0.0568482 
0.187294 0.00127786 -0.137489 -0.993303 0.115385 -0.0059305 
-0.161883 0.0420766 -0.168592 0.26128 -0.964206 0.0451673 
0.0318972 0.00307986 0.483229 -0.124341 -0.242905 -0.962048 
0.163805 0.0423627 -0.150435 -0.194446 -0.980302 0.034616 
0.162828 -0.00760524 -0.355224 -0.885493 0.187158 0.425293 
-0.136186 0.0731559 0.00623922 0.883865 -0.465782 -0.0427816 
-0.159122 -0.0726992 -0.309019 0.571211 0.551636 0.607796 
0.17754 0.0415954 0.190044 -0.826994 -0.555247 0.0882161 
0.1713 -0.0915218 -0.168945 -0.956375 0.278255 0.088996 
-0.161817 -0.0474588 -0.32826 0.673123 0.471536 0.569701 
0.15446 0.0414025 -0.22295 -0.46738 -0.880459 0.0796686 
-0.170428 -0.0899633 0.315343 0.634922 0.772061 -0.0282074 
0.176355 -0.0909427 -0.104639 -0.972593 0.225111 0.0582145 
0.134135 0.0115342 0.430456 -0.130384 -0.925692 -0.355097 
0 0.10692 -0.09458 0.000949564 -0.999995 -0.00297215 
-0.184243 0.00149624 -0.19234 0.995947 -0.0380292 0.0815093 
0.115712 0.0817253 -0.263026 -0.920676 -0.380781 0.0858059 
0.105173 0.00224074 0.466424 -0.276488 -0.505765 -0.817163 
0 0.0594566 0.115548 -8.84271e-06 -0.999989 0.00460059 
0.14163 0.0550153 -0.0873261 -0.712471 -0.700257 0.0449977 
-0 -0.0124613 -0.411244 0.00024911 0.607956 0.793971 
-0.126115 0.0599723 0.279976 -0.276522 -0.957823 -0.078176 
0.188518 0.0111727 0.10663 -0.838101 -0.540279 0.075394 
0.188878 0.0067485 0.0733937 -0.872644 -0.486522 0.0423007 
-0.173541 -0.0888432 0.196501 0.729901 0.683504 0.00812389 
0.167344 -0.0901555 0.365544 -0.54848 0.83534 -0.0371173 
-0.179627 -0.0897854 -0.0146895 0.933401 0.358827 0.00251798 
-0.0100946 0.0579229 0.304076 -0.0190935 -0.992521 -0.120568 
-0.096513 0.0297151 0.422906 0.285307 -0.889517 -0.356874 
-0.0899456 0.0471397 0.344277 -0.069205 -0.993499 -0.0903909 
0.164911 0.0425497 -0.13832 -0.205316 -0.978189 0.0314798 
0.177042 -0.0712203 -0.148836 -0.975553 0.215237 0.0443699 
0.0302618 0.0572542 0.304934 -0.0579835 -0.989829 -0.12991 
-0.12941 0.0613679 0.129558 -0.534712 -0.842615 0.0638957 
0.106035 -0.0422042 0.460821 -0.0281255 0.25134 -0.96749 
0.121819 0.0598542 -0.302493 -0.853634 -0.514716 0.0798484 
-0.186473 0.0374216 0.264588 0.780373 -0.623742 0.0443132 
0.172906 -0.0894651 0.24715 -0.685107 0.728397 -0.00815129 
0.0105428 0.058643 0.0848996 -0.0135212 -0.98156 -0.190675 
-0.142909 0.0579107 -0.00769333 0.824882 -0.564584 0.0285515 
-0.165673 0.0425621 0.0746549 0.887864 -0.457258 0.0511077 
-0.133227 0.0614778 0.102331 -0.506951 -0.86193 0.00881306 
0.0403322 0.0564819 0.305171 -0.086523 -0.988634 -0.122951 
0.14208 0.0629829 0.065346 -0.0462699 -0.99745 0.0543451 
0.111337 0.102765 -0.0570671 -0.00889955 -0.98453 -0.174991 
0 0.0903556 -0.286734 0.00722588 -0.98686 0.161417 
0.187943 0.0200596 0.156497 -0.839426 -0.535588 0.0922437 
0 0.0917274 -0.00617938 -0.00026955 -0.937453 -0.348113 
0 0.105969 -0.140503 0.000226639 -0.999137 0.0415306 
0.177774 0.00202528 -0.261992 -0.94716 -0.301875 0.10844 
-0.183071 0.00160366 -0.207895 0.991207 -0.108684 0.0754753 
0.131718 0.055204 -0.223478 -0.721977 -0.689857 0.0533587 
0.173101 -0.0878122 0.139602 -0.761044 0.648401 0.0197133 
-0.116755 0.0586868 0.210808 -0.441831 -0.896709 0.0264351 
0 0.0590475 0.259224 0.000266706 -0.999721 -0.0236381 
0 0.0599072 0.203968 -8.43385e-05 -0.99997 -0.00775319 
-0.0411266 0.102767 -0.0410568 0.0226504 -0.984202 -0.175597 
-0.142789 0.0564838 -0.0418297 0.765729 -0.642249 0.0342802 
0.139267 0.0421497 -0.307116 -0.598678 -0.795387 0.094575 
0.136857 0.042554 -0.319096 -0.612634 -0.784202 0.098528 
-0.119694 0.0983903 -0.150355 0.363115 -0.926342 0.100195 
0.100739 0.0491299 0.304842 -0.00588525 -0.996648 -0.0815999 
0 0.0841842 0.0140458 -0.000288239 -0.937851 -0.347037 
0.127436 0.0612035 0.269983 0.260877 -0.961933 -0.0814176 
-0.0512922 -0.0893532 0.46415 0.15271 0.212285 -0.965202 
-0.0503923 0.0554628 0.305312 0.109934 -0.987624 -0.111862 
-0.188237 0.0154023 0.131562 0.827127 -0.555762 0.0836087 
4.85179e-08 0.0283651 0.410846 -0.00063088 -0.913439 -0.406974 
-0.140455 0.0419813 -0.301122 0.592793 -0.799687 0.0953814 
0.163082 -0.0164972 -0.34955 -0.844179 0.292291 0.449365 
-0.0114386 -0.0912589 -0.330642 0.0203168 0.899544 0.436357 
-0.17665 -0.0882436 0.0879176 0.802264 0.593426 -0.0649476 
0 0.0767461 0.0342742 -0.000221757 -0.939304 -0.343085 
0.182613 0.00419578 0.438201 -0.761555 -0.167723 -0.626021 
-0.115628 0.0717341 -0.308468 0.906568 -0.409946 0.100394 
-0.133176 0.0433423 -0.337043 0.667563 -0.733121 0.129976 
0.173292 -0.0880626 0.151609 -0.752993 0.657527 0.0256793 
0.0415337 0.000534708 -0.412131 -0.184584 0.45278 0.872307 
-0.101802 0.00289122 -0.394888 0.36854 0.227347 0.901383 
-0.178702 -0.0888285 0.0494698 0.858704 0.510869 -0.0405061 
-0.19028 0.00833222 0.0854254 0.832863 -0.54893 0.0708101 
0 0.0621669 0.0747726 -2.92206e-05 -0.932348 -0.361563 
0.133251 0.0656133 0.219634 0.253585 -0.966805 -0.0313639 
-0.178149 -0.0886331 0.0622901 0.839586 0.541037 -0.0487246 
0.0530211 0.00278982 0.479895 -0.1846 -0.206653 -0.960842 
-0.0403321 0.0564819 0.305171 0.0865733 -0.988855 -0.12112 
-0.178652 0.00196604 -0.254294 0.954686 -0.278827 0.104066 
0.13937 0.0541988 -0.132781 -0.756066 -0.652366 0.0527504 
-0.17348 -0.0890126 0.208439 0.724604 0.689153 0.00403869 
0.112888 0.0445099 0.363752 -0.192829 -0.944827 -0.264799 
0.0625597 0.0587398 0.0751372 -0.0974486 -0.942011 -0.321121 
-0.126141 0.0987192 -0.0518309 0.523937 -0.798026 -0.297732 
0.179128 -0.0890235 0.0366454 -0.884755 0.464948 -0.0321303 
0.0217368 -0.0262257 -0.396656 -0.138132 0.567295 0.811847 
-0.0674251 0.0385818 0.407357 0.025857 -0.981098 -0.191778 
-0.106881 0.0370059 0.393283 0.304793 -0.903202 -0.302205 
-0.165418 0.0422439 0.00146089 0.503333 -0.863265 -0.0378002 
0.139708 0.00281335 -0.376126 -0.518471 0.0495261 0.85366 
-0.129922 0.0633121 0.249919 -0.25244 -0.96573 -0.0603357 
0.0965131 0.0297151 0.422906 -0.296869 -0.883992 -0.361146 
0.168072 0.043141 -0.0533264 -0.413134 -0.910593 -0.0118604 
-0.0628508 0.0202753 0.457075 0.00749516 -0.921414 -0.38851 
0.186578 0.00130745 -0.15323 -0.993316 0.063049 0.0966898 
-0.0302618 0.0572542 0.304934 0.0580322 -0.990008 -0.128516 
0.0619729 0.00173402 -0.407809 -0.239246 0.385248 0.89126 
0.165387 0.0424806 0.0685559 -0.875634 -0.481005 0.0435861 
-0.0431398 -0.027505 -0.391302 0.173152 0.623759 0.762196 
0 0.106879 -0.106107 0.00091115 -0.999953 0.00962417 
0.129256 0.0904522 -0.0323825 -0.792192 -0.597366 -0.12484 
-0.140036 0.0543325 -0.121422 0.738466 -0.672396 0.050521 
-0.123399 -0.0915367 -0.307665 0.223927 0.763353 0.605928 
-0.180283 0.00184387 -0.23887 0.968798 -0.228857 0.0951622 
-0.188787 0.00141575 -0.0899031 0.997953 0.0591868 0.0242311 
-0.123335 0.0604564 0.170272 -0.510261 -0.858524 0.0506948 
-0.0462854 0.0347498 0.424791 -0.000482145 -0.95751 -0.288401 
-0.176355 -0.0909426 -0.104639 0.966639 0.249111 0.0596001 
0.17086 -0.0899163 0.306467 -0.608851 0.792919 -0.0240803 
-0 0.0687595 -0.396778 0.0093328 -0.955337 0.29537 
0.187896 0.00128247 -0.12169 -0.992309 0.114738 0.0464538 
-0.164796 0.0422599 0.0502543 0.817755 -0.575039 0.0246206 
0 0.100909 -0.20852 0.000138162 -0.994613 0.103656 
-0.0578837 0.0367134 0.417039 0.0236195 -0.970413 -0.240294 
0.168749 -0.0916731 -0.194675 -0.91528 0.391749 0.0937828 
0.166563 0.0426169 -0.0168141 -0.471379 -0.880404 -0.0518728 
-0.0799974 0.042148 0.383688 -0.0156366 -0.991298 -0.130708 
0.131339 0.0614737 0.115952 0.530913 -0.843311 0.0834129 
-0.176689 0.0418938 0.184008 0.831299 -0.548376 0.090697 
0.184554 0.0309498 0.37272 -0.0169926 -0.969734 -0.243572 
-0 0.102767 -0.03834 -8.82213e-08 -0.953725 -0.30068 
-0.162608 -0.00362915 -0.357699 0.899806 0.094343 0.425968 
0.166494 0.00239217 -0.338525 -0.959 -0.242097 0.147338 
-0.117802 0.0942673 -0.184312 0.746966 -0.655227 0.112779 
0.0431397 -0.027505 -0.391302 -0.172646 0.625667 0.760746 
-0.144764 -0.0916364 -0.298908 0.264701 0.761373 0.591815 
-0.0916545 0.102766 -0.0512226 0.0213992 -0.99491 -0.098474 
-0.16784 0.00238397 -0.330903 0.942017 -0.289669 0.169399 
0.17665 -0.0882437 0.0879175 -0.814411 0.57657 -0.0655937 
0.0462855 0.0347498 0.424791 0.00108476 -0.957848 -0.287273 
0.162291 -0.0902788 0.424433 -0.389426 0.88939 -0.239444 
-0.14163 0.0550153 -0.087326 0.716728 -0.695896 0.0450461 
0 0.103044 -0.185956 -0.000256016 -0.996408 0.0846776 
-0.105173 0.00224079 0.466424 0.239114 -0.449045 -0.86092 
-0.100621 0.0320651 0.413341 0.315048 -0.886831 -0.338046 
-0.141701 0.0645893 0.0861514 -0.11051 -0.991406 0.0700171 
0.0537572 -0.0280395 -0.388297 -0.187377 0.646344 0.739682 
0.120651 -0.089716 0.445112 -0.308497 0.549336 -0.776569 
0 0.105454 -0.151161 -2.40604e-06 -0.998602 0.052854 
0.0834716 0.0438825 0.370602 0.0486044 -0.992119 -0.115492 
-0.121035 0.00297511 -0.386248 0.43886 0.147219 0.886413 
0.0327819 0.105945 -0.150665 -0.0149588 -0.999616 0.0233345 
-0.189448 0.00200553 -0.0417096 0.999367 -0.0348893 0.00690517 
0.152521 0.0413361 -0.235005 -0.490614 -0.867315 0.0840389 
-0.14084 0.0598794 0.0349779 0.373001 -0.892643 -0.2531 
0.142623 0.0589769 0.0150659 -0.859351 -0.496518 0.12242 
-0.181754 0.00172131 -0.223404 0.981169 -0.172082 0.087727 
-0.137841 0.0540884 -0.155486 0.774301 -0.630281 0.0566037 
-0.163009 -0.0125546 -0.352089 0.873424 0.266273 0.407711 
-0.0117017 0.0296355 0.433296 -0.19783 -0.946683 -0.254273 
0.168168 -0.09012 0.353745 -0.558005 0.829103 -0.0349087 
-0.021772 -0.0107058 0.482206 0.0756318 0.362674 -0.928842 
0.179627 -0.0897855 -0.0146895 -0.937739 0.34733 0.00271718 
-0.0545924 0.105185 -0.150486 0.0534882 -0.998555 -0.00512898 
0.141416 0.0652567 0.0965307 0.251345 -0.966155 0.0580559 
-0.179466 -0.0899679 -0.0275316 0.9424 0.334306 0.0110728 
-0.124743 0.0586212 0.289941 -0.31576 -0.94148 -0.11795 
0.164634 0.0421226 0.0319513 -0.689829 -0.723973 8.83621e-05 
-0.122458 0.101682 -0.0950345 0.620293 -0.780546 0.0773667 
0.128706 0.0623162 0.259964 0.252643 -0.965071 -0.069352 
0.140196 0.0640927 0.0254232 -0.714486 -0.667234 -0.210496 
-0.0755758 0.0225941 0.4501 0.0889813 -0.915829 -0.391587 
0.172611 -0.0895769 0.259035 -0.671517 0.740897 -0.0116609 
-0.188426 0.0125154 0.11494 0.822293 -0.558345 0.109934 
0.161481 -0.0512519 -0.325481 -0.659926 0.485015 0.573811 
-0.102711 0.0590933 0.0584164 0.110243 -0.965055 -0.237731 
-0.16963 -0.0916284 -0.186098 0.923089 0.374213 0.088718 
-0.130842 0.00570701 0.445692 0.309656 -0.870548 -0.382437 
0.115468 0.00218029 0.462986 -0.215004 -0.661511 -0.718454 
0.094155 -0.0215167 0.468319 -0.0980038 0.322034 -0.941642 
-0.175508 -0.0910786 -0.117498 0.968378 0.242827 0.0572708 
0.0654805 0.104503 -0.150431 -0.0710459 -0.997449 -0.0068824 
0 0.093821 -0.2645 0.00392263 -0.98922 0.146383 
-0.115753 0.0688947 -0.319897 0.8819 -0.463102 0.0882581 
0.142171 0.0620471 0.0549213 -0.0574358 -0.976927 0.205705 
0.0859241 0.0253942 0.439979 -0.181757 -0.905225 -0.384099 
0.17778 -0.0906453 -0.0789274 -0.967403 0.249459 0.0436082 
0.116124 0.0635857 -0.33997 -0.814153 -0.557579 0.162051 
-0.188791 0.00189195 -0.150319 0.991704 0.100608 0.080006 
0.162192 -0.0426924 -0.331698 -0.696635 0.449987 0.558759 
-0.056953 -0.0913257 -0.32573 0.100628 0.800454 0.590887 
0.158041 0.0416441 -0.198813 -0.406156 -0.911278 0.0678967 
0 0.0598041 0.21502 -2.91071e-05 -0.999941 -0.010901 
0.1057 -0.0299079 -0.369706 -0.285747 0.679315 0.675929 
0.144313 0.0232617 0.392025 -0.100733 -0.957203 -0.27132 
0.0816802 0.102766 -0.0486558 -0.0240641 -0.99517 -0.0951718 
-0.0625597 0.0587398 0.0751372 0.0975198 -0.941929 -0.321341 
-0.186724 0.0356537 0.247956 0.815935 -0.575266 0.0576152 
-0.115869 0.0838919 -0.251725 0.918309 -0.386234 0.0867883 
-0.104406 0.0539467 0.277896 -0.164821 -0.98625 -0.0120662 
0.126115 0.0599723 0.279976 0.273281 -0.958721 -0.0785648 
0.175856 0.0421518 0.177967 -0.836128 -0.540655 0.0926466 
-0.138638 0.0541166 -0.144136 0.774371 -0.630319 0.0552041 
-0.189053 0.00526933 0.0567786 0.889241 -0.457414 -0.00474521 
0.153603 0.0296019 0.36305 -0.0770637 -0.95287 -0.293428 
0.189522 0.00272083 -0.00920569 -0.990722 -0.135887 0.00206101 
-0.0643085 -0.0285122 -0.385064 0.2028 0.659389 0.723933 
0.142901 0.0569329 -0.0304517 -0.775826 -0.630163 0.0314607 
-0.16544 -0.0917809 -0.224695 0.846419 0.52369 0.0965587 
4.85179e-08 0.0382755 0.377717 -0.00123659 -0.961536 -0.274677 
0.18814 0.0169229 0.139873 -0.834871 -0.542886 0.0909101 
0.144764 -0.0916364 -0.298908 -0.271462 0.788841 0.551397 
0.134335 0.0775805 -0.00338349 -0.887834 -0.458247 -0.0419559 
-0 -0.0421134 -0.389474 -0.000411405 0.670517 0.741894 
0.120034 0.0990637 -0.136838 -0.453904 -0.88845 0.0680257 
-0.119886 0.0988367 -0.139627 0.421609 -0.904996 0.0568138 
-0 -0.0572066 -0.375564 -0.000670672 0.706073 0.708138 
-0.16637 0.0427238 0.0868494 0.902095 -0.426897 0.0631147 
0.179676 -0.0895991 -0.00185061 -0.927203 0.374511 -0.00598822 
0.156303 0.0415075 -0.210886 -0.440237 -0.894796 0.0743782 
-0.173046 -0.0877466 0.136598 0.755108 0.655508 0.0109952 
-0.15905 -0.091769 -0.276155 0.677521 0.734484 0.0387057 
0 0.0599685 0.159755 -0.000153314 -0.999988 0.00497022 
-0.131086 0.0641925 0.239849 -0.252204 -0.96636 -0.0504205 
-0.11827 0.0955785 -0.173127 0.635681 -0.764965 0.103624 
-0.163702 -0.0902535 0.409725 0.597179 0.802107 -0.00153698 
-0.134335 0.0775805 -0.00338349 0.886686 -0.460367 -0.0430101 
0.111701 0.0506465 0.304072 0.31406 -0.944557 -0.0958095 
-0.0851823 -0.0292966 -0.377884 0.236115 0.678396 0.695722 
-0.132196 0.0649591 0.229753 -0.253007 -0.966604 -0.0407957 
4.85179e-08 0.0147924 0.452901 0.000110645 -0.990699 0.136073 
-0.189368 0.00374364 0.0236243 0.957123 -0.289679 0.000991508 
-0.134009 0.0545697 -0.200837 0.714957 -0.697142 0.0531948 
-0.1698 -0.0900191 0.327169 0.625671 0.779456 -0.0313725 
0.0930277 0.0486569 0.331064 0.0740013 -0.988565 -0.131386 
0.147261 0.0255975 0.382372 -0.100398 -0.960622 -0.259086 
0.159678 -0.068091 -0.312666 -0.596592 0.542383 0.591522 
-0.042475 0.00293217 0.481726 0.156682 -0.21845 -0.963188 
0.175508 -0.0910787 -0.117498 -0.974762 0.213411 0.0655298 
4.85179e-08 0.0504093 0.333246 -0.000862404 -0.970596 -0.240713 
-0.16476 -0.0902314 0.397952 0.602709 0.795313 -0.0649572 
-0.0867614 0.0455477 0.357457 -0.0688084 -0.991692 -0.108682 
0.0916421 0.0274823 0.43186 -0.246453 -0.892756 -0.377157 
0.167279 0.0428649 -0.0289898 -0.452499 -0.890953 -0.0380471 
-0.0748247 0.0403837 0.396117 0.0118753 -0.988045 -0.15371 
0 0.0600086 0.181861 -0.000152166 -0.999999 -0.00140495 
-0.158869 0.041722 -0.192773 0.382777 -0.921634 0.0638149 
0.0545925 0.105185 -0.150486 -0.0535045 -0.998564 -0.00257813 
-0.121819 0.0598542 -0.302493 0.85434 -0.512333 0.0872777 
0.11204 0.0570514 0.237719 0.37071 -0.928742 0.00355435 
-0.173369 -0.0876734 0.126323 0.760221 0.647332 -0.0550104 
0.119694 0.0983903 -0.150355 -0.36264 -0.925374 0.11034 
-0.142025 0.0553279 -0.075955 0.729395 -0.682729 0.0431648 
4.85179e-08 0.047498 0.344396 -0.00111626 -0.966004 -0.258523 
0 0.0993806 -0.0264092 -0.0001464 -0.951873 -0.306492 
0.0423934 0.0179872 0.46111 0.0472533 -0.941552 -0.333538 
0.0228667 -0.09127 -0.329965 -0.0351643 0.873168 0.48615 
-0.163922 -0.0918024 -0.23756 0.811543 0.576028 0.0979233 
0.0517888 0.00119266 -0.410146 -0.2112 0.421952 0.881675 
-0.132846 0.00942824 0.436181 0.196023 -0.899326 -0.390881 
-0.189863 0.0124031 -0.150347 0.986079 0.142718 0.0853178 
-0.168365 -0.0901103 0.350794 0.613829 0.788529 -0.0379013 
0.179198 -0.0901459 -0.0403766 -0.953585 0.300478 0.0197207 
-0.0323002 -0.0102996 0.481347 0.102462 0.339798 -0.934901 
-0.115941 0.0659145 -0.331355 0.817272 -0.548042 0.17809 
-0.135195 0.0665909 0.199325 -0.256301 -0.96651 -0.0129835 
-0.18861 0.00991289 0.0983202 0.816195 -0.577328 -0.0227827 
0.189309 0.00174979 -0.0578463 -0.999934 0.00314355 0.0110503 
-0.142171 0.0620471 0.0549213 0.05541 -0.97708 0.205536 
-0.142605 0.0560649 -0.0532065 0.756078 -0.653394 0.0377284 
0.178702 -0.0888286 0.0494698 -0.867744 0.49535 -0.0406109 
-0.101543 0.102766 -0.0540306 0.0535929 -0.991927 -0.114933 
-0.140196 0.0640927 0.0254232 0.714312 -0.667381 -0.210623 
0.106707 0.0428556 -0.375767 -0.494224 -0.574704 0.652271 
0.184776 0.00144801 -0.184544 -0.997746 -0.00384922 0.0669947 
-0 -0.049795 -0.382656 -0.000585166 0.672259 0.740316 
0.170277 -0.089978 0.3183 -0.593822 0.804148 -0.0268476 
0.116077 0.08593 -0.240446 -0.914816 -0.394183 0.0879269 
0.17943 -0.0892175 0.0238171 -0.900563 0.434091 -0.02348 
0 0.0804523 0.0241591 -0.000264357 -0.938548 -0.345148 
-0.106035 -0.0422042 0.460821 0.0865485 0.246361 -0.965306 
-0.0604411 0.0542307 0.305383 0.129999 -0.98627 -0.101842 
-0.163198 0.0422672 -0.156489 0.197357 -0.979642 0.0367739 
0 -0.0890644 0.468461 -2.43679e-06 0.233087 -0.972456 
-0.187197 0.0308026 0.214694 0.846292 -0.527152 0.0768128 
-0.112459 0.0592425 0.0531432 0.082325 -0.979858 -0.181935 
-0.15164 0.0284917 0.368847 0.062002 -0.953998 -0.293331 
0.0106568 0.00338135 0.485183 -0.0455011 -0.485786 -0.872893 
0.101294 -0.0895757 0.45215 -0.285671 0.374758 -0.882014 
-0.0324638 -0.0269025 -0.394087 0.162938 0.598994 0.784001 
0.0799974 0.042148 0.383688 0.0168013 -0.991328 -0.130329 
0 0.0586425 0.0851934 2.64823e-07 -0.98126 -0.192689 
0 0.0730651 0.0443921 -0.000168382 -0.940309 -0.340322 
-0.182004 0.0394215 0.220133 0.818513 -0.570114 0.0707521 
-6.93807e-06 -0.0912515 -0.330944 2.44581e-05 0.913307 0.407273 
0.179288 0.040869 0.202099 -0.821088 -0.564729 0.0830345 
0.188787 0.0014157 -0.0899032 -0.998027 0.0586856 0.0222974 
0.130883 0.0862266 -0.0226937 -0.851479 -0.51781 -0.0828066 
-0.17269 -0.0895501 0.256065 0.692504 0.721324 -0.0114028 
0.181111 -0.0504394 -0.149578 -0.983443 0.179905 0.0217798 
0.184628 -0.0295618 -0.15003 -0.98958 0.142884 0.0177952 
0.136186 0.0731558 0.00623922 -0.884345 -0.464919 -0.0422499 
-0.171507 -0.0898271 0.291662 0.657616 0.753038 -0.0217927 
0.187528 0.0263847 0.18975 -0.846962 -0.524591 0.0863657 
-0.164376 0.0424572 -0.144379 0.178532 -0.983446 0.0309861 
0.0635324 0.00265514 0.477754 -0.211484 -0.198677 -0.956975 
-0.165096 0.00239168 -0.346141 0.965052 -0.209658 0.15722 
0.115557 0.0769988 -0.285696 -0.917895 -0.387252 0.086628 
-0.0419341 0.0586713 0.0806314 0.0564469 -0.960731 -0.271681 
0.175697 -0.0880511 0.100724 -0.797757 0.598889 -0.0701079 
0.164501 -0.0902372 0.400896 -0.499969 0.864156 -0.057143 
0.063631 -0.0077375 0.477239 -0.177848 0.217127 -0.959805 
-0.115557 0.0769989 -0.285696 0.91583 -0.391663 0.0886344 
0.0748247 0.0403837 0.396117 -0.00934746 -0.988277 -0.152384 
-0.173401 -0.0882381 0.160603 0.743616 0.668332 0.0191907 
0.0604411 0.0542307 0.305383 -0.129961 -0.986003 -0.104441 
0.157742 0.00246892 -0.364502 -0.701781 -0.070574 0.708889 
-0.129256 0.0904522 -0.0323825 0.783434 -0.606284 -0.136569 
0.126412 0.0573664 -0.268677 -0.791831 -0.607416 0.0636299 
-0.181111 -0.0504393 -0.149578 0.983402 0.180054 0.0223941 
0 0.0587735 0.270272 0.00031554 -0.99969 -0.0248858 
0.173457 -0.0890527 0.211422 -0.717047 0.697018 0.00317552 
-0.115607 0.0794284 -0.274349 0.918516 -0.385787 0.0865846 
0.142605 0.0560649 -0.0532065 -0.751867 -0.658228 0.0378313 
0.0727507 0.0587971 0.0716475 -0.114372 -0.937794 -0.327813 
-0.105701 -0.0299078 -0.369706 0.287215 0.676214 0.678411 
0.132022 0.00797168 0.439991 -0.195662 -0.888577 -0.414906 
0.0899456 0.0471396 0.344277 0.0758508 -0.993155 -0.0888295 
-0.121203 0.0599597 0.183805 -0.492084 -0.869456 0.0435779 
0.14881 0.00266004 -0.370503 -0.503303 -0.0123691 0.864021 
-0.179143 -0.0608431 -0.149248 0.980752 0.192831 0.0307006 
4.85179e-08 0.00734275 0.474721 -0.000137638 -0.916181 -0.400765 
-0.189091 0.00155504 -0.0739098 0.999366 0.0322272 0.0151017 
-0.189522 0.00272088 -0.00920569 0.990255 -0.139248 0.00200864 
-0.177042 -0.0712203 -0.148836 0.977401 0.207378 0.0410018 
-0.141923 0.0638308 0.0757563 -0.0044392 -0.996374 0.0849668 
-0.186175 0.00133346 -0.161078 0.973237 0.0872782 0.212583 
-0.11901 0.0593694 0.197317 -0.469283 -0.88233 0.0355859 
-0.174813 -0.0815682 -0.148335 0.975565 0.21363 0.0513411 
0.186846 0.0345876 0.23964 -0.825003 -0.561549 0.063504 
0.0529099 0.0190427 0.459606 0.0360566 -0.931146 -0.36286 
-0.108886 0.0999468 -0.150356 0.0771124 -0.994834 0.0660207 
-0.0704775 0.0528196 0.305407 0.146198 -0.98516 -0.0899181 
0.173328 -0.0892038 0.223344 -0.707832 0.706381 -0.00070929 
0.135195 0.0665909 0.199324 0.256065 -0.966572 -0.0130048 
-0.125412 0.0608577 0.156719 -0.523687 -0.850024 0.0566677 
0.137841 0.0540884 -0.155486 -0.77129 -0.63398 0.0563967 
0.0906356 0.049761 0.305252 -0.112523 -0.992003 -0.0571779 
0.102711 0.0590932 0.0584164 -0.109867 -0.965275 -0.237011 
-0 0.0711844 -0.385847 0.0116293 -0.981028 0.193515 
0.0740061 0.00253045 0.475319 -0.233548 -0.232979 -0.944021 
0.183675 0.0015483 -0.200124 -0.994306 -0.0767103 0.0739721 
0.148743 -0.0900438 0.432082 -0.219832 0.810342 -0.543157 
-0.121776 0.101125 -0.106179 0.632348 -0.77056 0.0798358 
-0.176854 0.00208243 -0.269681 0.940776 -0.319621 0.113064 
0.021053 0.0586461 0.0840298 -0.0218617 -0.978104 -0.206966 
-0.157186 0.0415724 -0.204851 0.422758 -0.90345 0.0710938 
-0.174576 -0.0912053 -0.130358 0.966311 0.237968 0.0980497 
0 0.0592878 0.248174 0.000193186 -0.999798 -0.0201008 
0.168931 -0.0900791 0.341939 -0.568331 0.82217 -0.0321882 
0.0342679 -0.0912849 -0.328918 -0.056141 0.846348 0.529664 
-0.160724 -0.0917971 -0.26329 0.722467 0.682934 0.107904 
-0.0930276 0.0486569 0.331064 -0.0666858 -0.988854 -0.13312 
0.115753 0.0688947 -0.319897 -0.900082 -0.419758 0.11686 
0.0522841 0.0586988 0.0781376 -0.0771656 -0.950494 -0.301009 
0.0205952 0.102767 -0.039037 -0.0148217 -0.971395 -0.237007 
0.160629 -0.0597193 -0.319136 -0.627601 0.512008 0.586485 
0.15036 0.0277085 0.372712 -0.108887 -0.971072 -0.212517 
0.157641 -0.084533 -0.299366 -0.542734 0.633876 0.551037 
-0.116311 0.0489774 0.344236 0.0275044 -0.976202 -0.215112 
0.173431 -0.0882944 0.1636 -0.745892 0.665801 0.0188167 
-0.0513436 0.102767 -0.0425308 0.0236608 -0.988603 -0.148675 
-0.173474 0.0427071 0.159812 0.855579 -0.508652 0.0962181 
0.109574 0.0561018 0.251138 0.32154 -0.946869 -0.00710317 
-0.165754 -0.0902069 0.386173 0.608799 0.792089 -0.0442537 
-0.111484 0.00296783 -0.390752 0.402973 0.187569 0.895785 
0 0.106704 -0.117603 0.000747628 -0.999784 0.0207831 
0 0.0596391 0.126598 -4.55584e-05 -0.999829 0.0184871 
-0.0318311 0.017072 0.462267 -0.047495 -0.954095 -0.295713 
0.0104407 -0.00221742 -0.415998 -0.1399 0.447354 0.883347 
0.178825 -0.0903185 -0.0532244 -0.959291 0.281036 0.0279252 
-0.168297 -0.0916932 -0.198963 0.901213 0.422974 0.094384 
0.116333 0.0878418 -0.229186 -0.905992 -0.413505 0.0905109 
-0.185654 0.0389635 0.314491 0.560972 -0.826786 -0.0416618 
-0.101294 -0.0895757 0.45215 0.289746 0.341735 -0.894016 
0.174576 -0.0912053 -0.130358 -0.977409 0.199063 0.0710331 
0.177113 -0.090798 -0.0917822 -0.970242 0.236684 0.0510955 
-0.164638 0.0421554 0.0380521 0.737965 -0.674797 0.00746977 
0.14235 0.0556787 -0.0645817 -0.739481 -0.671945 0.0407133 
-0.186212 0.0386254 0.281222 0.731516 -0.681376 0.0247129 
0.109201 0.0395413 0.383239 -0.274937 -0.915634 -0.293298 
0.0323003 -0.0102996 0.481347 -0.102867 0.341713 -0.934158 
-0.11204 0.0570514 0.237719 -0.370043 -0.929008 0.00341544 
0.0114386 -0.0912589 -0.330642 -0.0203366 0.899442 0.436567 
-0.112888 0.0445099 0.363752 0.18789 -0.945975 -0.264252 
0.189368 0.00374359 0.0236243 -0.959576 -0.281437 0.00261226 
0.12941 0.0613679 0.129558 0.535102 -0.842365 0.0639348 
-0.164681 0.0421059 0.0258511 0.643305 -0.765591 -0.0053033 
0 -0.0696777 0.472231 -0.00130463 0.176932 -0.984222 
0.165511 -0.0902133 0.389119 -0.523983 0.850889 -0.0378059 
0.171851 -0.0897666 0.282772 -0.640899 0.767409 -0.018191 
-0.134251 0.0661568 0.209491 -0.255206 -0.966636 -0.0220319 
0.124743 0.0586212 0.289941 0.312014 -0.942563 -0.119254 
0.0512923 -0.0893532 0.46415 -0.152762 0.211847 -0.96529 
-0.181272 -0.00571639 0.437418 0.6701 0.280282 -0.68732 
