ply
format ascii 1.0
element vertex 807
property float x
property float y
property float z
property float nx
property float ny
property float nz
end_header
0.166337 0.0377908 -0.246443 -0.731387 -0.681821 0.0138866 
0.118942 0.0348457 -0.355235 -0.269963 -0.911109 0.311449 
-0.154327 -0.0466368 -0.432686 0.904192 -0.0797699 0.419612 
0.145451 -0.0931238 -0.449499 -0.971675 0.161544 0.172485 
-0.0845966 -0.0905227 0.306966 0.146071 0.745057 -0.650809 
0.169574 -0.0799608 0.279312 -0.714051 0.165886 -0.680157 
0.0918208 -0.0371608 0.3643 0.0338768 0.798021 -0.601677 
-0.0750676 0.0277182 -0.386459 0.0198127 -0.941598 0.336155 
-0.143919 -0.0159384 0.330884 0.781385 0.0734804 -0.619708 
0.164192 0.00800403 -0.380308 -0.730742 -0.493599 0.471567 
0.167547 -0.092161 0.212664 -0.704511 0.709609 0.0109615 
0.0581907 0.000773063 0.39521 0.308542 0.361332 -0.87991 
0.164053 -0.0929619 -0.0121516 -0.997328 0.0681724 0.0262721 
-0.124438 0.0542977 0.0261384 0.706776 -0.704725 -0.0618878 
-0.130586 0.0705904 -0.168046 0.685653 -0.727867 -0.00950015 
-0.163361 -0.0160793 0.304882 0.813922 0.095799 -0.573021 
-0.168688 -0.0918905 0.252851 0.779751 0.624613 0.0429698 
0.0428958 0.0281038 -0.387224 -0.0186366 -0.950574 0.309939 
0.0744288 -0.0826592 0.317833 -0.133143 0.708005 -0.693543 
-0.0208477 -0.092501 -0.503549 0.106045 -0.442173 0.890639 
-0.103328 0.0255296 -0.392261 -0.0127029 -0.963553 0.267217 
-0.165671 -0.0926962 0.106319 0.756706 0.653713 0.00741547 
0.0853997 0.054538 0.258833 0.188593 -0.962161 -0.196669 
-0.12407 0.0763088 -0.144946 0.70885 -0.704769 -0.0288648 
-0.16769 0.0234865 -0.0103709 0.804719 -0.560195 0.196491 
0.0979543 0.0838 0.0789478 -0.645783 -0.755307 -0.111697 
-0.167985 0.0119985 0.302178 0.851282 0.0534441 -0.52198 
-0.122405 -0.0929209 -0.469228 0.473209 0.00926567 0.880901 
-0 -0.0168752 -0.474354 0.0252181 -0.358925 0.933026 
-0.152907 -0.0037562 -0.426638 0.868947 -0.025048 0.494271 
0.129319 0.0592652 -0.248449 -0.24986 -0.942405 0.222356 
-0.139603 -0.0824542 0.299042 0.322887 0.686874 -0.651113 
0.133686 0.0521747 -0.273089 -0.22098 -0.945683 0.238433 
-0.168271 -0.0919848 0.239435 0.763882 0.64524 0.0122313 
0.101741 -0.090535 0.302689 -0.160606 0.747464 -0.644596 
0.163361 -0.0160793 0.304882 -0.814071 0.0999084 -0.572107 
-0.0742248 -0.0905302 0.309131 0.1266 0.751406 -0.647581 
0.164718 -0.0926679 -0.341717 -0.953575 0.273001 0.127146 
-0 0.040184 -0.354148 -0.0011326 -0.949574 0.313541 
-0.112998 0.0618181 0.0779549 0.809378 -0.579396 -0.0959594 
-0.105007 -0.0548376 0.341408 0.0964539 0.762809 -0.63939 
-0.166479 0.0529214 0.306748 0.932213 -0.214349 -0.291604 
-0 0.0481885 -0.329492 -0.000841383 -0.952524 0.304462 
-0.150571 -0.0159741 0.322334 0.792109 0.0813585 -0.604934 
-0.115108 0.0327175 -0.36457 0.21191 -0.928041 0.306323 
0.108594 -0.0609992 0.333518 -0.121618 0.754919 -0.644442 
-0.104064 0.0937717 -0.103267 0.581751 -0.813326 -0.00821063 
0.127074 0.0627344 -0.236145 -0.25224 -0.942851 0.217733 
-0.165501 -0.0927436 0.0931006 0.779323 0.626575 0.00767795 
0.0216874 0.0959136 -0.159972 -0.0191385 -0.991563 0.128207 
-0.0972885 0.082376 0.0919058 0.716447 -0.687334 -0.119478 
-0.0428958 0.0281038 -0.387224 0.0187174 -0.949216 0.314068 
-0.167058 0.058398 0.156511 0.123324 -0.988691 0.0853245 
-0.160643 -0.0142275 -0.404725 0.959882 -0.0938537 0.264231 
0.169439 -0.092603 -0.289902 -0.952879 0.288662 -0.093251 
-0.158158 0.0403185 -0.198549 0.492453 -0.865418 -0.0924193 
0.166968 0.0317483 -0.131228 -0.564109 -0.822068 -0.077361 
-0.140274 0.0616508 -0.202633 0.698849 -0.715258 -0.00397079 
-0.164053 -0.0929619 -0.0121516 0.997373 0.0675058 0.0262672 
-0.173875 -0.0486628 -0.300724 0.999545 0.0110028 0.028102 
-0 0.0969944 -0.116283 -0.0011474 -0.999933 0.0115233 
0.153574 0.0421348 -0.154118 -0.614366 -0.788075 -0.0386324 
0.0966956 -0.0428973 0.35684 -0.0203162 0.787633 -0.615809 
-0 -0.0924985 -0.504806 -3.09014e-06 -0.532726 0.846288 
-0.0109908 -0.0908029 0.315873 0.0207722 0.758993 -0.650767 
0.128334 0.0522062 0.358727 -0.757725 -0.107956 -0.643582 
0.164272 -0.0929505 0.000961753 -0.983745 0.179079 0.0132969 
0.10253 0.0922843 -0.0380919 -0.68195 -0.729769 -0.0488054 
0.163269 -0.0929684 -0.0514288 -0.978163 0.206654 0.0221739 
0 0.0635939 0.32502 -0.32917 -0.93424 -0.137273 
-0.0857916 0.0275897 -0.386204 0.017558 -0.941252 0.337249 
-0.164473 -0.0929345 0.0140864 0.960651 0.277387 0.0143715 
-0.141941 0.0525223 0.342005 0.779472 -0.149161 -0.60842 
-0.162608 -0.0929493 -0.0775664 0.935848 0.351416 0.0263718 
0.0427894 -0.0906181 0.313833 -0.0733292 0.745397 -0.662575 
-0.16669 -0.0923938 0.172652 0.71223 0.701882 0.00949023 
-0.115992 0.0596836 0.0650587 0.796234 -0.598982 -0.0850427 
-0.0923718 -0.0159083 0.389 0.397748 0.479637 -0.782142 
-0.0991877 0.0863534 0.052997 0.573393 -0.813078 -0.100621 
0.130168 0.0403853 -0.326923 -0.342147 -0.911257 0.22923 
-0.135224 0.052371 0.350432 0.768069 -0.123848 -0.628277 
-0.106039 0.0915974 -0.125532 0.462048 -0.881173 0.100233 
0 0.0601828 0.347784 -0.555049 -0.822328 -0.125291 
0 0.0730338 0.256591 -0.0439516 -0.990877 -0.127397 
-0.164192 0.00800403 -0.380308 0.730151 -0.494122 0.471935 
0.103328 0.0255296 -0.392261 0.0123922 -0.963521 0.267345 
-0.118459 -0.0524566 0.340291 0.307455 0.683108 -0.662446 
0.0708967 0.0883883 0.0621615 0.101934 -0.993897 -0.0421787 
-0.171959 0.010568 -0.019973 0.937114 -0.337279 0.0897836 
-0 0.0708381 -0.255109 -2.58708e-05 -0.960559 0.278075 
0.128828 0.0518868 0.00439307 -0.671087 -0.739238 -0.0562928 
0.166203 0.036497 -0.277602 -0.773694 -0.632131 0.0425184 
0.167235 -0.0926625 -0.204894 -0.850768 0.516364 -0.09778 
0.164473 -0.0929345 0.0140864 -0.959874 0.280063 0.0143569 
0 0.0511347 0.408961 -0.974793 0.191476 -0.114526 
0.063796 -0.0905486 0.310996 -0.102854 0.752614 -0.65038 
0 -0.0323224 0.377049 -0.104299 0.671195 -0.733907 
-0.167301 0.0467855 0.0771422 0.0732949 -0.977123 0.199646 
0 0.0823679 0.176536 -0.00543284 -0.99972 -0.0230222 
0.117816 0.0760948 -0.186986 -0.33103 -0.926234 0.180306 
-0.0744288 -0.0826592 0.317833 0.134141 0.716277 -0.684801 
0.122489 0.0695189 -0.211558 -0.261903 -0.94265 0.206924 
0.166236 -0.0925277 0.146068 -0.700269 0.713838 0.00762551 
0.157712 -0.0300287 -0.419455 -0.954609 -0.0634488 0.291027 
-0.166762 0.059724 0.246645 0.53565 -0.842794 -0.0527123 
-0.166969 0.0426713 0.305916 0.931347 0.0397082 -0.36196 
0.130586 0.0705904 -0.168046 -0.685551 -0.727966 -0.00925756 
-0.113098 0.0824583 -0.162416 0.408222 -0.900307 0.151002 
0.154736 0.0527703 0.324711 -0.81651 -0.177038 -0.549517 
0.166245 0.0371167 -0.267236 -0.728593 -0.68358 0.0432544 
-0.031209 -0.0925062 -0.502039 0.156693 -0.390418 0.907205 
-0.145863 -0.0836898 -0.454358 0.909042 -0.112139 0.401332 
0.12016 0.0728331 -0.199271 -0.290283 -0.936813 0.195237 
0.161348 -0.0928852 -0.116712 -0.868639 0.49425 0.0344107 
-0.166585 0.0559114 0.286737 0.855843 -0.509513 -0.0890469 
0 0.0530008 0.393237 -0.997623 -0.0683731 0.0086245 
0.166656 0.0360941 -0.183697 -0.390501 -0.9188 -0.0575858 
-0.162226 -0.0929327 -0.0906226 0.912317 0.408484 0.0286239 
-0.163555 -0.0929709 -0.0383463 0.99273 0.118319 0.0220744 
-0.146636 0.0554614 -0.22566 0.611963 -0.789496 0.0468692 
0.156451 0.0410619 -0.180765 -0.550555 -0.834721 -0.0114126 
-0.166598 0.0366992 -0.194181 0.35093 -0.935697 -0.0363092 
0.12273 0.0368351 -0.345849 -0.307396 -0.902108 0.302834 
0.177292 -0.0412512 -0.0201225 -0.969456 0.234632 0.0714337 
0.166436 0.0377855 -0.225578 -0.663349 -0.748262 -0.00847341 
0.169442 -0.0492195 0.288768 -0.809174 0.150003 -0.568099 
-0.16739 0.0251019 -0.0684173 0.730058 -0.680094 -0.0669934 
-0.166905 0.0607672 0.206536 0.31907 -0.947713 0.0058868 
-0.167205 0.0522116 0.106773 0.00795707 -0.987178 0.159427 
0 0.0966853 -0.0472972 -0.00181938 -0.999803 -0.0197479 
0.168594 -0.0084022 0.298561 -0.829052 0.0869286 -0.552373 
0.166077 0.0329002 -0.311969 -0.788659 -0.609607 0.0799745 
-0.123023 -0.0158864 0.355915 0.752383 0.0783504 -0.654049 
0.150571 -0.0159741 0.322334 -0.791617 0.0888409 -0.604524 
-0.145318 -0.0907124 0.287621 0.290263 0.694963 -0.657855 
-0.137106 -0.0159126 0.339326 0.771061 0.0678319 -0.633139 
0.101724 0.0910575 -0.0120364 -0.690834 -0.720353 -0.0619709 
-0.0907148 0.0673436 0.195025 0.149971 -0.971154 -0.185386 
0.166837 0.0605827 0.226587 -0.418571 -0.907841 -0.0249578 
-0.0863659 -0.0316083 0.371533 -0.0142711 0.830864 -0.556292 
-0.166534 0.0545086 0.296747 0.921938 -0.387318 0.00379733 
-0.167116 0.0563656 0.136571 0.0518008 -0.991895 0.116023 
-0.118942 0.0348457 -0.355235 0.270113 -0.911048 0.311496 
0.156761 -0.0907967 0.282581 -0.303097 0.575989 -0.75919 
-0 -0.0717269 -0.495053 -0.00251406 -0.305586 0.952161 
0.159003 0.042568 -0.271665 -0.528553 -0.847354 0.0512087 
0.120914 -0.0864284 0.30177 -0.198228 0.737646 -0.645434 
0.116848 -0.0501985 0.343365 -0.31013 0.680732 -0.663644 
-0 0.0181013 -0.418516 0.00630716 -0.940579 0.339516 
0.162954 -0.0929612 -0.064502 -0.958747 0.283198 0.0245429 
-0.163747 -0.092711 -0.180924 0.811846 0.565408 -0.145667 
-0.0842178 0.0516507 0.271522 -0.174168 -0.962088 -0.209888 
-0.000333725 -0.051772 -0.48857 0.000410719 -0.314708 0.949189 
-0 0.0968348 -0.127781 -0.000861578 -0.999881 0.0154225 
0.166937 0.0606123 0.196516 -0.282533 -0.959012 0.02172 
-0.0821662 0.0949733 -0.138905 0.156991 -0.974489 0.16039 
-0.167464 0.0239985 -0.0579927 0.76246 -0.643871 -0.0639226 
-0 0.0963276 -0.150776 -0.000238541 -0.999938 0.0111052 
0.144246 -0.0840286 -0.455249 -0.869488 -0.0803536 0.487375 
0.16959 -0.0696942 0.282657 -0.753237 0.213735 -0.622054 
-0.143525 -0.0931841 -0.458258 0.78067 0.21085 0.588299 
0.136166 0.0484107 -0.0349442 -0.657111 -0.751466 -0.0591906 
-0.161454 -0.0927397 -0.169023 0.804361 0.574155 -0.152803 
0.166776 0.0345863 -0.162714 -0.466232 -0.88206 -0.067805 
-0.0958562 0.0792296 0.117782 0.792312 -0.582977 -0.179946 
-0.101129 -0.0282122 0.372887 0.404904 0.597106 -0.692472 
-0.149415 -0.0336162 -0.437859 0.780171 -0.134126 0.611018 
0.104292 0.0938048 -0.116301 -0.46398 -0.880055 0.101121 
-0.166968 0.0602957 0.186502 0.240119 -0.970011 0.0377035 
-0.164838 -0.0928888 0.0403717 0.900282 0.435169 0.0109676 
-0.063665 0.0954596 -0.1492 0.0912807 -0.982256 0.163833 
-0.010724 0.0284895 -0.387989 0.0246015 -0.944498 0.327595 
0.0842178 0.0516507 0.271522 0.251159 -0.947418 -0.19829 
-0 0.0881351 -0.192671 0.000284877 -0.968251 0.249979 
0.146961 -0.0907235 0.286927 -0.298809 0.664281 -0.68516 
-0.111903 -0.0672601 0.325568 0.146274 0.746398 -0.649225 
-0.151608 0.0138057 -0.397373 0.686563 -0.704591 0.179392 
0.0978162 0.0942596 -0.124851 -0.248079 -0.945581 0.210557 
-0.151045 -0.0929647 -0.422971 0.943886 0.276002 0.181389 
0.0904036 0.0946475 -0.132371 -0.197133 -0.967405 0.158951 
-0.159694 -0.0927777 -0.155798 0.819007 0.573244 -0.0248707 
0.122405 -0.0929209 -0.469228 -0.471299 -0.0423575 0.880956 
0.0817311 0.0455433 0.296819 0.371952 -0.902046 -0.219008 
-0.0949058 -0.0905264 0.3045 0.165577 0.738912 -0.653141 
0.143919 -0.0159384 0.330884 -0.781002 0.0804374 -0.619326 
0.127075 -0.0906115 0.294695 -0.218456 0.755316 -0.61788 
0 0.0900767 0.0905557 0.000502997 -0.997242 -0.0742142 
-0.146088 -0.0931045 -0.44657 0.96382 0.251248 0.0890227 
0.167028 0.0591862 0.166498 -0.16717 -0.983475 0.0694983 
0.0972885 0.082376 0.0919058 -0.716492 -0.687888 -0.11597 
-0.147171 -0.0536871 -0.444978 0.753829 -0.146538 0.640522 
0.086366 -0.0316083 0.371533 0.0493336 0.837265 -0.544568 
0.151997 0.0426743 -0.140811 -0.629229 -0.775894 -0.0453791 
-0.165669 -0.0926853 -0.192883 0.827359 0.549115 -0.118109 
0.0994907 -0.0259165 0.375919 -0.446648 0.556019 -0.700962 
-0.155134 -0.0907837 0.283327 0.258822 0.634149 -0.728606 
0.105007 -0.0548376 0.341408 -0.0939144 0.763526 -0.638912 
-0 0.028618 -0.388244 1.33671e-05 -0.943626 0.331015 
-0 0.0971297 -0.0932866 -0.00156302 -0.999999 0.000643219 
0.121302 0.0520315 0.366904 -0.750575 -0.0765372 -0.656337 
-0.000336587 -0.0908858 0.315966 0.000708828 0.758496 -0.651678 
-0.0784979 0.00780736 -0.446164 0.250868 -0.870768 0.42288 
-0.166236 -0.0925277 0.146068 0.71632 0.697727 0.00794941 
-0.166203 0.036497 -0.277601 0.773794 -0.632031 0.0421958 
0.167538 0.0323617 0.0185321 -0.516703 -0.823658 0.23368 
-0.120805 0.0790925 -0.133382 0.732919 -0.678876 -0.0442266 
-0.169439 -0.092603 -0.289902 0.944288 0.314478 -0.0970758 
0.129646 -0.0682168 0.31869 -0.32254 0.680687 -0.657749 
0.160844 -0.0928542 -0.129747 -0.849395 0.526854 0.0308755 
-0.10253 0.0922843 -0.0380919 0.685223 -0.726749 -0.0480139 
0.108555 0.064975 0.0949818 -0.815076 -0.568651 -0.110846 
0.160754 0.0528597 0.315819 -0.782502 -0.175151 -0.597505 
0.0857915 0.0275897 -0.386204 -0.0175192 -0.941569 0.336364 
0.166044 0.0313188 -0.322217 -0.630595 -0.764697 0.132621 
-0.168085 0.0243939 -0.299578 0.993884 -0.107043 -0.0271172 
-0.163519 -0.0926886 -0.350831 0.946698 0.296212 0.126576 
-0.122489 0.0695189 -0.211558 0.261799 -0.942672 0.206953 
-0 0.0521058 -0.317138 -0.000662862 -0.953922 0.300054 
-0 0.0137202 -0.430717 0.0108182 -0.943608 0.330889 
-0.0415273 -0.0925159 -0.499995 0.204886 -0.344931 0.915994 
0.0993072 0.0228758 -0.401383 0.0513614 -0.962952 0.264735 
-0.170302 -0.0616415 -0.0203718 0.934882 0.351803 0.0472208 
0 0.0862792 0.136435 -0.001072 -0.997061 -0.0766006 
-0.143467 0.0585784 -0.214149 0.666572 -0.745303 0.0143071 
-0.166385 0.0378675 -0.236018 0.710726 -0.703461 0.00334948 
-0.135797 0.0485545 -0.285427 0.168567 -0.953181 0.251061 
-0.165959 0.0250202 -0.352758 0.382644 -0.907344 0.174102 
0.164661 -0.092914 0.0272229 -0.930464 0.366184 0.0120841 
0.0741933 0.00445467 -0.454949 -0.301683 -0.783574 0.543137 
-0.148696 0.0218561 -0.372322 0.214498 -0.933823 0.286296 
-0.166488 0.0375561 -0.215124 0.567105 -0.823439 -0.0184205 
-0.167538 0.0323617 0.0185321 0.517349 -0.823279 0.233584 
0.167035 0.0306933 -0.120738 -0.593648 -0.800912 -0.0782387 
-0.106138 0.0666926 0.103421 0.815584 -0.565156 -0.124178 
-0.166542 0.0371902 -0.204657 0.421543 -0.905625 -0.0463106 
0.173063 -0.017233 -0.300449 -0.996481 -0.0624299 -0.0559333 
0.142755 0.0458105 -0.0745007 -0.651076 -0.756729 -0.0588241 
-0.125402 -0.0906042 0.295287 0.217746 0.747658 -0.627371 
0.137852 0.0448849 -0.297781 -0.117402 -0.956784 0.266048 
-0.0586763 0.0326899 0.402054 0.296864 0.343541 -0.890983 
-0.167268 0.0487318 0.0869983 0.0390949 -0.98163 0.186746 
0.164195 -0.0823077 -0.0207943 -0.993237 0.113232 0.0256594 
-0.165337 -0.0927866 0.0798973 0.805937 0.591946 0.00815845 
-0.0214479 0.0283609 -0.387734 0.0175243 -0.94681 0.321316 
0.167636 0.026562 -0.000770105 -0.713754 -0.670697 0.201795 
0.167301 0.0467855 0.0771422 -0.0726426 -0.977174 0.199634 
-0.166949 -0.0923204 0.18597 0.716311 0.6977 0.010601 
-0.112467 -0.0928256 -0.4741 0.424541 -0.0671196 0.902917 
0 0.0882705 0.113501 0.000400338 -0.996672 -0.0815112 
-0.0325241 0.0958521 -0.158392 0.0320486 -0.989556 0.140539 
-0.0965893 0.0808528 0.104851 0.772554 -0.626277 -0.104581 
-0.17318 -0.0696411 -0.300797 0.996406 0.064747 0.0546129 
-0.166035 -0.0925882 0.132802 0.725086 0.688616 0.00754908 
0.141773 0.0373993 -0.322541 -0.204646 -0.944676 0.256335 
0 0.0964299 -0.0358014 -0.00168548 -0.999694 -0.0246707 
-0.0934477 0.0737514 0.156483 0.476013 -0.866828 -0.148394 
-0.169961 -0.0925997 -0.277701 0.945518 0.317877 0.0703603 
-0.167335 0.0447047 0.0673088 0.120037 -0.969947 0.211644 
0.159694 -0.0927777 -0.155798 -0.822892 0.567647 -0.0250366 
0.16669 -0.0923938 0.172652 -0.690817 0.722973 0.00900753 
0.130138 -0.0158956 0.347667 -0.760587 0.0665823 -0.645813 
0.171589 -0.0905942 -0.300817 -0.974683 0.223385 -0.00962515 
0.0897292 0.0649972 0.207832 -0.0620162 -0.980088 -0.188632 
-0.127332 0.0734744 -0.156501 0.692666 -0.721066 -0.0166762 
0.143467 0.0585784 -0.214149 -0.666211 -0.745622 0.0145069 
0.0322228 -0.090669 0.314808 -0.0558159 0.7478 -0.661573 
-0.0620308 -0.0925543 -0.494464 0.28928 -0.269035 0.918661 
0.15044 -0.0929808 -0.425936 -0.952518 0.237144 0.190978 
0 -0.0552845 0.354853 -0.0407461 0.710714 -0.7023 
0 0.0872976 0.12497 -0.000146386 -0.995922 -0.0902195 
-0.166839 0.033706 -0.152218 0.500154 -0.862909 -0.0723442 
-0.178562 -0.0202661 -0.0200466 0.992718 -0.0839475 0.086398 
0.100862 -0.0158952 0.380173 -0.719384 0.279212 -0.636024 
-0.0869638 0.0141827 -0.428421 0.055659 -0.936273 0.346835 
0 0.0548394 0.381884 -0.942954 -0.327742 -0.0585104 
-0.115314 -0.090567 0.298662 0.200711 0.741762 -0.639925 
0.127332 0.0734744 -0.156501 -0.692274 -0.721434 -0.0170142 
-0.166337 0.0377908 -0.246443 0.731155 -0.68207 0.0138914 
-0.101277 0.0903054 0.000984271 0.686277 -0.724078 -0.0688103 
-0.108594 -0.0609992 0.333518 0.123495 0.754255 -0.644863 
0.167244 0.027357 -0.0893119 -0.674562 -0.734411 -0.0748731 
-0.177314 -0.00978338 -0.0200261 0.983231 -0.158431 0.0903166 
0.143627 0.0335843 -0.334951 -0.177308 -0.94622 0.270609 
-0.168459 -0.092643 -0.21695 0.86588 0.494582 -0.0751053 
3.24004e-07 0.0959631 -0.161176 -1.10773e-06 -0.994619 0.103596 
0.133695 0.0192489 0.348963 -0.727098 0.144441 -0.671167 
0.161313 -0.0927294 -0.365986 -0.951858 0.269451 0.146159 
-0.160754 0.0528597 0.315819 0.787152 -0.17681 -0.590872 
0.132291 -0.0930332 -0.464183 -0.370028 0.0320163 0.928469 
0 0.061904 0.336405 -0.433216 -0.891346 -0.133512 
0.031209 -0.0925062 -0.502039 -0.156105 -0.398557 0.903761 
0.103531 0.0934435 -0.0771958 -0.643493 -0.764809 -0.031366 
-0.167616 0.0218959 -0.0371992 0.834716 -0.545568 -0.0748587 
0.11194 0.0625732 0.0822309 -0.81131 -0.575713 -0.101645 
0.166633 0.0571321 0.276721 -0.782042 -0.619512 -0.067936 
0 0.0916919 0.0675995 0.000270832 -0.997826 -0.0658997 
-0.16994 -0.0926144 -0.241175 0.907715 0.418311 -0.032712 
0.135797 0.0485545 -0.285427 -0.168564 -0.953178 0.251072 
-0 -0.0814682 -0.498301 -0.00176102 -0.401303 0.915944 
-0.168861 -0.0185991 0.296427 0.828596 0.10035 -0.55078 
0.16754 0.0229262 -0.047586 -0.797945 -0.600858 -0.0474714 
-0.164272 -0.0929505 0.000961753 0.984047 0.177413 0.0133052 
-0.165936 0.0223652 -0.362865 0.416593 -0.806233 0.420046 
0.166905 0.0607672 0.206536 -0.323202 -0.946312 0.00586981 
-0.145436 0.0448639 -0.0921416 0.647294 -0.760116 -0.0568717 
0.155964 0.0458531 -0.260168 -0.533433 -0.838811 0.108834 
-0.0993072 0.0228758 -0.401383 -0.0521178 -0.963 0.264415 
-0.177292 -0.0412512 -0.0201225 0.969572 0.234672 0.069701 
-0.167173 0.0284864 -0.0997781 0.646894 -0.758668 -0.0771423 
-0.0996464 0.0514841 0.39084 0.684831 0.078171 -0.724497 
-0.14344 0.0455637 -0.0789077 0.650657 -0.757112 -0.0585406 
-0.167316 0.0262251 -0.0788577 0.700676 -0.709835 -0.0720232 
-0.16741 0.0401485 0.0477158 0.250144 -0.940322 0.230699 
-0 0.0635165 -0.279971 -0.000227274 -0.957962 0.286895 
0.112535 -0.0441646 0.351545 -0.317936 0.673957 -0.666857 
-0.178873 -0.0308484 -0.0200672 0.995435 0.0524205 0.0797636 
0.0804252 0.0423217 0.309425 0.404187 -0.911107 -0.0807195 
-0 0.0744128 -0.242653 5.93697e-05 -0.961842 0.273607 
-0.166776 0.0345863 -0.162714 0.465965 -0.882205 -0.0677486 
0.10381 0.0936515 -0.090232 -0.62223 -0.782699 -0.0145405 
0.146122 -0.0637702 -0.448449 -0.787668 -0.126155 0.603046 
0.167372 0.0424915 0.0574995 -0.178524 -0.95851 0.222233 
-0.173861 -0.0381765 -0.300657 0.999904 -0.0134923 0.00312957 
0.111228 0.0304534 -0.373853 -0.134736 -0.945961 0.294964 
0.152907 -0.0037562 -0.426638 -0.868414 -0.025403 0.495188 
-0 0.0914209 -0.180137 0.000247566 -0.961958 0.273198 
0.117988 -0.0799959 0.309652 -0.181048 0.725136 -0.664379 
-0.10983 -0.0403829 0.356645 0.327454 0.665742 -0.670494 
0.169961 -0.0925997 -0.277701 -0.952129 0.297662 0.0696239 
0.167116 0.0563656 0.136571 -0.0555173 -0.991698 0.115985 
-0.0533157 -0.0905779 0.312563 0.0911361 0.749367 -0.655853 
-0.165096 -0.0926617 -0.338676 0.947388 0.294988 0.124248 
-0.15341 -0.0929042 -0.411072 0.942095 0.280312 0.184072 
-0 0.0847912 -0.20519 0.000262801 -0.965106 0.26186 
-0.0952399 0.020098 -0.410451 -0.0543019 -0.959449 0.276601 
0 -0.0400573 0.369777 -0.0784497 0.688909 -0.72059 
0.17318 -0.069641 -0.300797 -0.996858 0.0634274 0.0474428 
-0.152888 0.0490978 -0.248669 0.544425 -0.834577 0.0841562 
-0.11754 0.0818246 -0.121808 0.755117 -0.652869 -0.0596691 
-0.0904036 0.0946475 -0.132371 0.168696 -0.967427 0.18875 
-0.167372 0.0424915 0.0574996 0.179209 -0.958384 0.222225 
-0.072214 -0.0925857 -0.491058 0.32517 -0.236796 0.915528 
-0.169356 -0.0926269 -0.229046 0.887274 0.45815 -0.0533223 
0.167314 0.0324326 0.304901 -0.902074 0.00473991 -0.431555 
-0.167636 0.026562 -0.000770051 0.714145 -0.670315 0.20168 
0.161807 -0.0929113 -0.103671 -0.890556 0.453854 0.0304392 
-0.167654 0.0222095 0.303653 0.873348 0.0388792 -0.485543 
-0.170228 -0.0926006 -0.265508 0.93936 0.342932 -0.000104 
0.173595 -0.027698 -0.300569 -0.998944 -0.0376985 -0.0262461 
0.072214 -0.0925857 -0.491058 -0.323442 -0.257979 0.910402 
-0.108378 -0.0158872 0.372161 0.757386 0.183844 -0.626553 
0.100961 0.0704158 0.120165 -0.831157 -0.551281 -0.0725809 
0.0991877 0.0863534 0.052997 -0.573003 -0.813343 -0.100701 
0.166035 -0.0925882 0.132802 -0.711466 0.702683 0.00728663 
-0.169291 -0.0390041 0.291526 0.833835 0.125628 -0.537529 
-0.151746 -0.0136759 -0.43046 0.852205 -0.112429 0.510986 
0.16616 -0.0926449 -0.329545 -0.959663 0.270153 0.077867 
-0.117816 0.0760948 -0.186986 0.330863 -0.926254 0.180507 
0.172492 -0.0801232 -0.300811 -0.998587 0.0444547 0.0291157 
-0.166999 0.0598195 0.176496 0.201762 -0.977963 0.0536671 
-0.00133528 -0.0389876 -0.483304 0.00625853 -0.423859 0.905707 
0.154095 0.00557443 -0.422551 -0.90218 -0.290673 0.318716 
-0.166044 0.0313188 -0.322217 0.630409 -0.764788 0.132979 
-0.161348 -0.0928852 -0.116712 0.866421 0.498133 0.0343308 
-0.167235 -0.0926625 -0.204894 0.845332 0.525337 -0.0971336 
0.0942859 0.0756797 0.143599 -0.605351 -0.780821 -0.154498 
0.150328 0.0432294 -0.127517 -0.63658 -0.769622 -0.0494724 
-0.0853996 0.054538 0.258833 -0.132916 -0.970057 -0.203279 
-0.172492 -0.0801232 -0.300811 0.998114 0.0390948 0.0473271 
0.166969 0.0426713 0.305916 -0.932146 0.0469974 -0.359021 
0 0.0931097 0.0446339 -3.69847e-05 -0.998356 -0.0573161 
-0.0216874 0.0959136 -0.159972 0.019237 -0.991451 0.129056 
0.166488 0.0375561 -0.215124 -0.568226 -0.822666 -0.0184298 
0.11754 0.0818246 -0.121808 -0.761013 -0.645966 -0.0598884 
0.112467 -0.0928256 -0.4741 -0.423751 -0.109436 0.899143 
0.167205 0.0522116 0.106773 -0.00822515 -0.987179 0.159408 
0.11546 0.0793033 -0.174702 -0.372997 -0.913003 0.165226 
0.140274 0.0616508 -0.202633 -0.698908 -0.7152 -0.00405967 
-0.0104444 -0.0924989 -0.504485 0.0509713 -0.498834 0.865197 
-0.169095 -0.0287985 0.29408 0.832344 0.112727 -0.542675 
-0.122741 -0.0584684 0.332079 0.30827 0.684887 -0.660227 
-0.0581906 0.000773063 0.39521 0.0263475 0.224056 -0.97422 
0.163816 -0.0929687 -0.0252541 -0.999399 0.0331604 0.0101447 
0.102891 0.0927607 -0.0511248 -0.671521 -0.739765 -0.0425131 
-0.17306 -0.017234 -0.300443 0.996471 -0.0625551 -0.0559636 
-0.165848 -0.0926444 0.119553 0.738555 0.674152 0.00737128 
0.139846 0.0411663 -0.310152 -0.139265 -0.954367 0.264176 
-0.172253 -0.00678753 -0.300288 0.992714 -0.0900288 -0.0800838 
0.146636 0.0554614 -0.22566 -0.611579 -0.789783 0.0470645 
0.123534 0.0548267 0.0304773 -0.717027 -0.694089 -0.0641276 
0.133801 0.0494585 -0.0218056 -0.658868 -0.750034 -0.0578019 
0.167145 0.055126 0.126622 -0.028625 -0.990995 0.130805 
0.155122 -0.0928627 -0.40211 -0.95116 0.252925 0.176984 
-0.108383 0.0886058 -0.137833 0.446214 -0.884595 0.135586 
-0.167087 0.0574569 0.146534 0.0853394 -0.991236 0.100841 
0.152827 -0.0929187 -0.414052 -0.950486 0.248706 0.186341 
-0.0432072 0.0957594 -0.156101 0.0483423 -0.987385 0.150778 
-0.127074 0.0627344 -0.236145 0.252023 -0.942896 0.217788 
-0.11546 0.0793033 -0.174702 0.372353 -0.913331 0.164864 
-0.137061 0.0646776 -0.191111 0.696813 -0.717216 -0.00724578 
-0.148455 0.0526567 0.333435 0.788677 -0.165206 -0.592196 
0.149777 0.0523008 -0.237166 -0.569602 -0.818708 0.0725956 
-0.0708967 0.0883883 0.0621615 -0.102241 -0.993842 -0.0427242 
-0.102141 0.0917169 -0.0250621 0.691435 -0.720301 -0.0555402 
-0.166721 0.0590361 0.256673 0.609699 -0.790103 -0.0632711 
0.166534 0.0545086 0.296747 -0.924175 -0.381684 0.014755 
0.169356 -0.0926269 -0.229046 -0.89315 0.446543 -0.053699 
-0.141357 0.0463268 -0.0656934 0.652989 -0.755031 -0.0594327 
-0.0732161 0.0952423 -0.1445 0.115357 -0.979222 0.166787 
0.13383 0.0676578 -0.179582 -0.687768 -0.725898 -0.00689631 
0.111024 0.0871297 -0.0986233 -0.743304 -0.667072 -0.0501409 
-0.16745 0.0376776 0.0379591 0.331509 -0.91342 0.236149 
-0.155679 -0.0928496 -0.399115 0.943975 0.281142 0.172833 
-0.166077 0.0329002 -0.311969 0.788506 -0.609961 0.0787811 
-0.166678 0.058173 0.266699 0.690769 -0.719415 -0.0726601 
-0.157712 -0.0300287 -0.419455 0.954057 -0.06492 0.292509 
0.100294 0.0885197 0.0270066 -0.639849 -0.763913 -0.0838517 
0.0827546 0.011051 -0.437321 -0.150414 -0.902865 0.402754 
0.147094 0.0258123 -0.35984 -0.0821127 -0.956775 0.278996 
0.0216215 -0.0907306 0.315487 -0.0375557 0.752064 -0.658019 
-0.154095 0.00557443 -0.422551 0.902708 -0.289898 0.317927 
0 0.0715476 0.268009 -0.0626341 -0.989479 -0.130416 
0 -0.0165603 0.391408 -0.161853 0.59279 -0.788926 
-0.0823503 -0.0926272 -0.487278 0.357301 -0.205349 0.911135 
0.0887054 0.0625442 0.220617 0.00403664 -0.981344 -0.192217 
0.149415 -0.0336162 -0.437859 -0.779769 -0.134067 0.611544 
-0.167314 0.0324326 0.304901 0.900136 0.00730354 -0.435548 
0.166598 0.0366992 -0.194181 -0.349427 -0.936246 -0.03666 
0.167058 0.058398 0.156511 -0.128003 -0.988102 0.0852631 
0.0985872 0.0851255 0.0659779 -0.585384 -0.803722 -0.106566 
-0.165008 -0.0928592 0.0535334 0.867686 0.497016 0.00977711 
0.063665 0.0954596 -0.1492 -0.0894407 -0.982797 0.161584 
-0.161807 -0.0929113 -0.103671 0.888809 0.457269 0.0303883 
0 0.0684684 0.29083 -0.12624 -0.982675 -0.135694 
0.0732161 0.0952423 -0.1445 -0.116189 -0.97992 0.162041 
0.1668 0.0602388 0.236616 -0.476715 -0.878179 -0.0393066 
0.16741 0.0401485 0.0477158 -0.249436 -0.940505 0.230722 
0.15938 -0.0927683 -0.37807 -0.951915 0.26305 0.157045 
-0.000644553 -0.0277832 -0.478256 0.0150624 -0.365208 0.930804 
0.110737 0.0855593 -0.150127 -0.436208 -0.888176 0.144449 
0.0432072 0.0957594 -0.156101 -0.0478749 -0.987656 0.149141 
-0.106928 0.0516669 0.382948 0.749808 0.0301193 -0.660969 
-0.167104 0.0296022 -0.110254 0.620181 -0.780548 -0.078224 
0.166949 -0.0923204 0.18597 -0.692023 0.721808 0.00986671 
-0.163269 -0.0929684 -0.0514288 0.977847 0.208145 0.0221673 
0.165959 0.0250202 -0.352758 -0.382928 -0.907226 0.174088 
0.170228 -0.0926006 -0.265508 -0.94546 0.325737 0.000213458 
0 0.0584312 0.359157 -0.690585 -0.714627 -0.111354 
-0.165985 0.02739 -0.342613 0.415094 -0.885303 0.20961 
-0 0.0970925 -0.104785 -0.00138194 -0.999982 0.00580021 
-0.134599 0.0490978 -0.0261823 0.657716 -0.751015 -0.0581837 
0 0.0652518 0.313629 -0.243935 -0.95988 -0.138296 
0.0829951 0.0486527 0.284184 0.311432 -0.931871 -0.186081 
-0 0.0966128 -0.139278 -0.000546525 -0.999653 0.0263492 
0.166585 0.0559114 0.286737 -0.860783 -0.500834 -0.0906578 
0.104884 0.067587 0.107624 -0.813305 -0.564823 -0.139679 
0.166162 0.0356739 -0.287943 -0.856315 -0.514177 0.0484469 
-0.166453 -0.0924629 0.159351 0.712121 0.702005 0.00858996 
0.166968 0.0602957 0.186502 -0.243967 -0.969052 0.037666 
0.115767 -0.015884 0.364077 -0.740651 0.0912886 -0.665659 
-0.0982217 0.0724254 0.128475 0.781948 -0.614461 -0.104856 
-0.173644 -0.0591526 -0.300769 0.998474 0.030327 0.0461443 
0.102141 0.0917169 -0.0250622 -0.689007 -0.722636 -0.0553692 
-0.160294 -0.0928184 -0.142776 0.828981 0.556474 0.0559322 
-0.166013 0.0294858 -0.332432 0.498675 -0.851802 0.160485 
0.157311 -0.0928126 -0.390114 -0.951735 0.256966 0.167835 
0.123023 -0.0158864 0.355915 -0.750104 0.0695087 -0.657657 
0.167174 0.0537406 0.116689 -0.0122639 -0.989318 0.145258 
0.159234 -0.0220285 -0.412263 -0.963418 -0.0645338 0.260116 
0.103225 0.0931469 -0.0641597 -0.658823 -0.751471 -0.0352695 
-0 -0.00735437 -0.47041 0.02834 -0.368656 0.929134 
-0 0.067206 -0.267548 -0.000119999 -0.959272 0.282486 
0.172258 -0.00678612 -0.300297 -0.992732 -0.0898725 -0.0800345 
-0.145142 -0.0738842 -0.45187 0.83036 -0.172129 0.529975 
-0.0997565 0.0874846 0.0400063 0.60276 -0.792583 -0.092148 
0.166721 0.0590361 0.256673 -0.617851 -0.783787 -0.062756 
0.137106 -0.0159126 0.339326 -0.770644 0.0721811 -0.633165 
0 0.095329 -0.00132032 -0.000952727 -0.999237 -0.0390528 
0.14478 0.0450907 -0.0877282 -0.646593 -0.760695 -0.0571042 
-0.164195 -0.0823077 -0.0207943 0.99325 0.113261 0.0250333 
0.0208477 -0.092501 -0.503549 -0.105722 -0.44771 0.887907 
-0 0.0224265 -0.406296 0.00303216 -0.945568 0.325411 
0.101066 -0.0487966 0.349196 -0.0600663 0.773406 -0.631059 
0.169544 -0.0594483 0.285811 -0.786978 0.166897 -0.593979 
-0.155534 0.0414222 -0.171878 0.578074 -0.81532 -0.032914 
0.150202 0.0178538 -0.384833 -0.468221 -0.858233 0.210248 
0.0109909 -0.0908029 0.315873 -0.0207915 0.755948 -0.654302 
-0.111228 0.0304534 -0.373853 0.134833 -0.945937 0.294998 
0 0.0957509 -0.0128128 -0.00120407 -0.99941 -0.0343201 
0 0.0948531 0.0101708 -0.000725685 -0.999043 -0.0437231 
-0.150202 0.0178538 -0.384833 0.468628 -0.858036 0.210145 
-0.102891 0.0927607 -0.0511248 0.675741 -0.735743 -0.045338 
-0.167236 0.0505412 0.0968759 0.0173245 -0.984722 0.173272 
0.165936 0.0223652 -0.362865 -0.416937 -0.806094 0.419971 
0.0533157 -0.0905779 0.312563 -0.0928544 0.746826 -0.658505 
-0.0918208 -0.0371608 0.3643 -0.0237176 0.793401 -0.608237 
-0.139188 0.0471634 -0.0525001 0.654112 -0.754059 -0.0594359 
0.107301 0.0280565 -0.383084 -0.0544224 -0.958541 0.279709 
0.0104443 -0.0924989 -0.504485 -0.0508736 -0.501641 0.863579 
0 0.0566498 0.370523 -0.828374 -0.553565 -0.0858076 
-0.166245 0.0371167 -0.267236 0.728557 -0.683612 0.0433462 
-0.156077 -0.0382308 -0.426272 0.937273 -0.0873463 0.337477 
0.100801 0.0894597 0.0139989 -0.668511 -0.739801 -0.0760764 
0.102478 -0.0927457 -0.478759 -0.410142 -0.161671 0.897578 
-0.0827546 0.011051 -0.437321 0.144835 -0.904567 0.400975 
-0.103225 0.0931469 -0.0641597 0.664646 -0.74675 -0.0247006 
0.165149 0.0150321 -0.371661 -0.555178 -0.573369 0.602516 
-0.063796 -0.0905486 0.310996 0.108181 0.751205 -0.651143 
-0.167493 0.0350812 0.0282307 0.421388 -0.875172 0.23771 
-0.164849 -0.0908665 0.278724 0.551166 0.572192 -0.607299 
-0.121699 0.0559344 0.0391447 0.738198 -0.671028 -0.0691765 
-0.169442 -0.0492195 0.288768 0.829653 0.140544 -0.540298 
-0.0518016 -0.0925315 -0.497456 0.249132 -0.304688 0.919292 
0.166385 0.0378675 -0.236018 -0.711127 -0.703056 0.0033487 
0.168098 0.0243974 -0.299601 -0.993928 -0.106634 -0.0271534 
-0.102295 0.0694484 0.115995 0.826879 -0.547596 -0.128101 
0.166678 0.058173 0.266699 -0.698772 -0.711696 -0.0721551 
0.166762 0.059724 0.246645 -0.543216 -0.837952 -0.0524596 
-0.115009 -0.0735994 0.317599 0.165996 0.738313 -0.653711 
0.0536197 0.0279753 -0.386969 -0.0189165 -0.949057 0.314537 
-0.110737 0.0855593 -0.150127 0.432946 -0.890786 0.138049 
-0.16754 0.0229262 -0.047586 0.79781 -0.601036 -0.0474956 
0.131525 0.0557451 -0.260763 -0.241258 -0.943145 0.228631 
-0.163122 0.000786347 -0.388719 0.854736 -0.320825 0.408042 
0.167268 0.0487318 0.0869983 -0.0385222 -0.981656 0.18673 
-0.1668 0.0602388 0.236616 0.470115 -0.881724 -0.0394413 
-0.127098 0.0528058 0.0131011 0.682013 -0.729082 -0.0574225 
0.168861 -0.0185991 0.296427 -0.825998 0.101376 -0.554482 
0.152888 0.0490978 -0.248669 -0.544296 -0.834656 0.0842127 
0.157054 -0.0160207 0.313669 -0.802474 0.0959643 -0.588919 
-0.100801 0.0894597 0.0139989 0.669525 -0.738886 -0.0760499 
0.163555 -0.0929709 -0.0383464 -0.992837 0.117416 0.0220766 
0.126472 0.0386826 -0.336411 -0.319238 -0.895928 0.308868 
0.0865412 0.0573155 0.246119 0.126983 -0.97216 -0.19693 
0.115009 -0.0735994 0.317599 -0.165907 0.739656 -0.652215 
-0.169145 -0.091792 0.266289 0.798808 0.598664 -0.0592238 
0.101277 0.0903054 0.000984217 -0.684923 -0.725358 -0.0688266 
0.111934 -0.0905571 0.299719 -0.195081 0.748457 -0.633842 
-0.126472 0.0386826 -0.336411 0.319329 -0.895888 0.30889 
0.169785 0.014034 -0.299877 -0.983825 -0.161192 -0.078135 
-0.165149 0.0150321 -0.371661 0.554685 -0.573658 0.602695 
0.166097 0.0347233 -0.299277 -0.895446 -0.440661 0.0631993 
0.150577 -0.0236294 -0.434198 -0.816382 -0.109009 0.567131 
-0.0536197 0.0279753 -0.386969 0.0189839 -0.947887 0.318041 
-0.154736 0.0527703 0.324711 0.815907 -0.172979 -0.551702 
-0.0916627 0.0695842 0.182197 0.237782 -0.954734 -0.178728 
0.120805 0.0790925 -0.133382 -0.735092 -0.676303 -0.0474704 
0.0415273 -0.0925159 -0.499995 -0.204019 -0.355751 0.91204 
-0 0.0597699 -0.292377 -0.000352091 -0.956635 0.291289 
-0.107301 0.0280565 -0.383084 0.0543789 -0.958548 0.279693 
-0.147345 0.0442171 -0.105394 0.644008 -0.763062 -0.0546746 
-0.0911254 0.0171993 -0.419464 -0.0168562 -0.951825 0.306178 
0.111903 -0.0672601 0.325568 -0.144657 0.746518 -0.64945 
-0.159234 -0.0220285 -0.412263 0.962916 -0.0659982 0.261604 
0.178873 -0.0308484 -0.0200672 -0.9953 0.0524077 0.0814289 
-0.118884 0.0577263 0.0521186 0.770377 -0.632776 -0.0781944 
0.167892 -0.092075 0.226039 -0.714621 0.699173 0.0217721 
0.167335 0.0447047 0.0673087 -0.119368 -0.970031 0.21164 
0.0750676 0.0277182 -0.386459 -0.0197861 -0.942191 0.334492 
-0.0817311 0.0455433 0.296819 -0.235133 -0.938084 -0.254383 
0.147977 -0.0930491 -0.437753 -0.954671 0.209818 0.211137 
0.154327 -0.0466368 -0.432686 -0.904985 -0.0775482 0.418315 
0 0.0668769 0.302232 -0.176917 -0.974569 -0.137534 
0.113098 0.0824583 -0.162416 -0.409032 -0.900311 0.148769 
0.108204 -0.0381094 0.359699 -0.337511 0.658402 -0.67275 
0.173875 -0.0486626 -0.300725 -0.99957 0.0109604 0.027214 
-0.163816 -0.0929687 -0.0252541 0.999391 0.0333754 0.0101493 
0.163098 -0.0926961 -0.353866 -0.952953 0.273257 0.131192 
-0.166633 0.0571321 0.276721 0.775131 -0.627956 -0.0695945 
-0.166968 0.0317483 -0.131228 0.563211 -0.822676 -0.0774398 
0.12407 0.0763088 -0.144947 -0.710059 -0.703571 -0.0283394 
0.156077 -0.0382308 -0.426272 -0.937978 -0.0861476 0.335821 
-0.143627 0.0335843 -0.334951 0.177326 -0.94622 0.270599 
-0.146122 -0.0637702 -0.448449 0.782888 -0.110884 0.612201 
0.0958562 0.0792296 0.117782 -0.809467 -0.572407 -0.130817 
0 0.0700255 0.279422 -0.0891515 -0.987067 -0.133231 
-0.109397 0.0319729 0.378107 0.72544 0.0849053 -0.683029 
0.173645 -0.0591526 -0.300769 -0.998579 0.0307566 0.0435261 
0.167104 0.0296022 -0.110254 -0.621617 -0.779419 -0.0780947 
0.121138 -0.0562155 0.335161 -0.309468 0.683511 -0.661092 
0.0996464 0.0514841 0.39084 -0.68582 -0.16715 -0.708316 
0.125405 -0.06222 0.326935 -0.313553 0.682758 -0.659944 
-0.115767 -0.015884 0.364077 0.728901 0.1095 -0.675806 
-0.166937 0.0606123 0.196516 0.278684 -0.960136 0.02175 
0.0903107 -0.0914967 0.304072 -0.145745 0.75837 -0.635322 
-0.170226 -0.0926056 -0.253331 0.925606 0.378411 -0.0077072 
-0.108167 -0.0274406 -0.454905 0.316521 -0.285021 0.904753 
0.0965893 0.0808528 0.104851 -0.773405 -0.623071 -0.116732 
0.108167 -0.0274406 -0.454905 -0.313029 -0.284278 0.9062 
0.166999 0.0598195 0.176496 -0.205848 -0.977114 0.0536171 
0.167464 0.0239985 -0.0579928 -0.762749 -0.643532 -0.0638862 
-0.157054 -0.0160207 0.313669 0.803091 0.0894344 -0.589106 
0.141941 0.0525223 0.342005 -0.777822 -0.162465 -0.607122 
0.167747 0.0202968 -0.0199364 -0.875376 -0.474827 0.0908639 
-0 0.07793 -0.230181 0.00013801 -0.963052 0.269314 
-0.135405 -0.0906526 0.291607 0.235125 0.736705 -0.634021 
0.133859 -0.0742103 0.310427 -0.333327 0.671971 -0.661323 
-0 0.0360971 -0.366448 -0.00110403 -0.948729 0.316089 
-0.121302 0.0520315 0.366904 0.752426 -0.0509515 -0.656703 
0.165985 0.02739 -0.342613 -0.415325 -0.885205 0.209564 
0.165669 -0.0926853 -0.192883 -0.832454 0.541195 -0.118859 
0.166872 0.0607581 0.21656 -0.367917 -0.929808 -0.00976167 
-0.167145 0.055126 0.126622 0.0261208 -0.991061 0.130829 
-0 0.0442146 -0.341829 -0.00101306 -0.95116 0.308697 
0.16769 0.0234865 -0.010371 -0.804501 -0.560478 0.196577 
0.165337 -0.0927866 0.0798973 -0.800022 0.599916 0.00806031 
-0.10778 0.0897007 -0.087012 0.708424 -0.704309 -0.0456495 
-0.167892 -0.092075 0.226039 0.748196 0.663249 0.0174297 
-0.168594 -0.0084022 0.298561 0.828787 0.0871821 -0.55273 
0 -0.0627968 0.34712 -0.0273193 0.722818 -0.690499 
-0.126999 -0.0644695 0.323845 0.313168 0.683886 -0.658958 
0.16739 0.0251019 -0.0684173 -0.730594 -0.679524 -0.0669285 
-0.0967562 -0.0220792 0.380961 0.46449 0.602045 -0.649454 
-0.130168 0.0403853 -0.326923 0.342207 -0.911222 0.229278 
0 0.0943242 0.0216602 -0.00050289 -0.998831 -0.0483354 
0.0784978 0.00780736 -0.446164 -0.258039 -0.86714 0.426009 
-0.155964 0.0458531 -0.260168 0.533496 -0.838774 0.108817 
-0.0108089 0.0959489 -0.160884 0.00693534 -0.993325 0.115142 
-0.166656 0.0360941 -0.183697 0.394207 -0.917222 -0.0574829 
0.010724 0.0284895 -0.387989 -0.0245679 -0.945177 0.325634 
0.0916627 0.0695842 0.182197 -0.22503 -0.957682 -0.179462 
0 0.0961181 -0.0243065 -0.00146457 -0.999563 -0.0295291 
0.16629 0.0375442 -0.256849 -0.734698 -0.677973 0.0238932 
-0.16959 -0.0696942 0.282657 0.804728 0.175919 -0.56698 
0.163122 0.000786347 -0.388719 -0.855363 -0.319986 0.407387 
-0.147094 0.0258123 -0.35984 0.0822296 -0.95677 0.278979 
0.152908 0.00971245 -0.409945 -0.821229 -0.57021 0.0210443 
0.137061 0.0646776 -0.191111 -0.697147 -0.716891 -0.00737697 
0.115108 0.0327175 -0.36457 -0.211761 -0.928092 0.306272 
0.169291 -0.0390041 0.291526 -0.820824 0.130311 -0.556118 
0.171169 0.00363786 -0.300107 -0.989754 -0.11058 -0.0903266 
-0.133686 0.0521747 -0.273089 0.220953 -0.945688 0.238441 
0.173862 -0.0381762 -0.300659 -0.999906 -0.0133896 0.0028855 
0.0932272 -0.0159068 0.38812 -0.52037 0.470551 -0.712599 
-0.162954 -0.0929612 -0.064502 0.958149 0.285216 0.0245292 
0.160643 -0.0142275 -0.404725 -0.960384 -0.0924322 0.262905 
-0.109717 0.0641514 0.090744 0.813323 -0.571345 -0.109867 
0.16745 0.0376776 0.0379591 -0.330787 -0.91367 0.236194 
0.170302 -0.0616415 -0.0203718 -0.934826 0.351757 0.0486461 
0 -0.070255 0.339155 -0.016715 0.737604 -0.675027 
0.135224 0.052371 0.350432 -0.766267 -0.139515 -0.627192 
-0.129679 0.0514487 3.429e-05 0.666521 -0.743382 -0.0559735 
0.166542 0.0371902 -0.204657 -0.422724 -0.905087 -0.0460579 
0.103855 -0.0320282 0.367824 -0.381141 0.633096 -0.673736 
0.137064 -0.0906618 0.290964 -0.24328 0.728377 -0.640532 
-0.166162 0.0356739 -0.287943 0.856509 -0.513748 0.0495463 
0.115011 0.0603745 0.0693644 -0.802331 -0.590366 -0.087938 
-0 0.0971068 -0.0817886 -0.00170135 -0.999988 -0.00457803 
0.148696 0.0218561 -0.372322 -0.214253 -0.933866 0.28634 
-0.104549 0.0922161 -0.075387 0.673018 -0.739315 -0.0214359 
-0.111024 0.0871297 -0.0986233 0.741046 -0.668983 -0.0575484 
-0.0876429 0.059984 0.23338 -0.0377662 -0.979567 -0.197539 
0.167616 0.0218959 -0.0371992 -0.834764 -0.545493 -0.0748697 
-0.1683 0.00179573 0.30048 0.836331 0.0715557 -0.543535 
-0.169775 0.0140313 -0.299859 0.983784 -0.161397 -0.0782335 
0.166689 -0.071878 -0.0205623 -0.951314 0.305814 0.0384753 
0.146718 0.0444274 -0.100974 -0.642394 -0.764402 -0.0549619 
0.169492 -0.0902518 0.275779 -0.683571 0.45898 -0.567511 
-0.15784 -0.092801 -0.387107 0.944755 0.283749 0.16409 
-0.0216214 -0.0907306 0.315487 0.0372956 0.757282 -0.652023 
0.0869637 0.0141827 -0.428421 -0.0594007 -0.935469 0.348382 
-0.145402 0.0297218 -0.347383 0.123473 -0.951242 0.282654 
-0.135432 -0.0764579 0.307325 0.326834 0.67771 -0.658702 
-0.13383 0.0676578 -0.179582 0.687757 -0.725909 -0.00683524 
-0.0924385 -0.0926801 -0.483165 0.384958 -0.170281 0.90709 
0.000537739 -0.0242247 0.384363 -0.137516 0.682878 -0.717472 
-0.166903 0.0327563 -0.141722 0.532441 -0.8431 -0.0754282 
-0.0985872 0.0851255 0.0659779 0.585603 -0.803527 -0.106836 
-0.12273 0.0368351 -0.345849 0.307518 -0.902054 0.302872 
-0.17513 0.000518017 -0.0200023 0.962474 -0.25575 0.0907558 
0.178562 -0.0202661 -0.0200466 -0.992594 -0.0839399 0.087817 
-0.12016 0.0728331 -0.199271 0.290246 -0.936831 0.195205 
0.104064 0.0937717 -0.103267 -0.57732 -0.815394 -0.0428425 
0.0925736 0.0717199 0.16935 -0.332258 -0.927098 -0.173477 
0.120769 0.056514 0.043473 -0.749416 -0.658148 -0.0722333 
0.168459 -0.092643 -0.21695 -0.871584 0.48438 -0.0756179 
-0.16769 -0.0926229 -0.314308 0.931314 0.299812 0.206801 
0.166903 0.0327563 -0.141722 -0.533038 -0.842723 -0.0754217 
0.151746 -0.0136759 -0.43046 -0.85173 -0.112759 0.511704 
0.151608 0.0138057 -0.397373 -0.686024 -0.705055 0.179634 
0.145402 0.0297218 -0.347383 -0.123421 -0.951247 0.28266 
-0.137852 0.0448849 -0.297781 0.117547 -0.956768 0.26604 
0.0952399 0.020098 -0.410451 0.0528668 -0.95935 0.277224 
0.165173 -0.0928252 0.0667084 -0.831247 0.555834 0.0087923 
-0.150577 -0.0236294 -0.434198 0.816771 -0.108702 0.566629 
-0.0741934 0.00445467 -0.454949 0.290566 -0.787827 0.543047 
-0.165173 -0.0928252 0.0667084 0.835764 0.549017 0.00886728 
-0.166436 0.0377855 -0.225578 0.662662 -0.748871 -0.00849739 
0.166626 0.0529292 0.306696 -0.935102 -0.208942 -0.286231 
-0.169574 -0.0799608 0.279312 0.803068 0.203353 -0.560116 
0.138042 -0.080205 0.30215 -0.346672 0.677429 -0.648774 
0.0325241 0.0958521 -0.158392 -0.031843 -0.989741 0.139282 
-0.148274 -0.0436356 -0.44145 0.748495 -0.144189 0.647275 
0.160294 -0.0928184 -0.142776 -0.832269 0.551521 0.0561526 
-0.139846 0.0411663 -0.310152 0.139433 -0.954356 0.264126 
0.0620308 -0.0925543 -0.494464 -0.287829 -0.286308 0.913883 
-0.0925735 0.0717199 0.16935 0.345132 -0.921566 -0.177764 
0.0876429 0.059984 0.23338 0.0659752 -0.978588 -0.194968 
-0.0887054 0.0625442 0.220617 0.0164964 -0.980896 -0.193833 
1.67402e-05 0.00172747 -0.464888 0.0306357 -0.806769 0.590072 
-0.166715 0.0353861 -0.173207 0.431699 -0.899863 -0.0623058 
-0.136935 0.0480836 -0.0393293 0.655696 -0.752698 -0.0592362 
0.167233 -0.0922428 0.199307 -0.696694 0.717271 0.0117957 
0.167493 0.0350812 0.0282307 -0.420682 -0.875492 0.237783 
-0.100294 0.0885197 0.0270066 0.640604 -0.763282 -0.0838298 
-0.0804251 0.0423217 0.309425 -0.221888 -0.972546 -0.0701419 
0.148568 0.0438104 -0.114238 -0.639683 -0.766837 -0.052593 
0 -0.0477079 0.362392 -0.057549 0.698148 -0.713637 
0.0821662 0.0949733 -0.138905 -0.144987 -0.975983 0.162589 
0.161939 -0.00662336 -0.396867 -0.92962 -0.188512 0.316654 
0.167087 0.0574569 0.146534 -0.0898308 -0.990844 0.100787 
-0.167547 -0.092161 0.212664 0.734804 0.678148 0.0133658 
-0.167244 0.027357 -0.0893119 0.673355 -0.735505 -0.0749974 
0.148274 -0.0436356 -0.44145 -0.748654 -0.145369 0.646827 
0.167173 0.0284864 -0.0997781 -0.648325 -0.75746 -0.0770042 
0.168271 -0.0919848 0.239435 -0.727778 0.685746 -0.00957432 
-0.167585 0.0295212 0.00886476 0.616337 -0.754671 0.224946 
-0.167233 -0.0922428 0.199307 0.723975 0.689719 0.0121788 
-0.0829951 0.0486527 0.284184 -0.206687 -0.957892 -0.199307 
-0.152533 0.0424932 -0.145245 0.625559 -0.778949 -0.043745 
-0.0897292 0.0649972 0.207832 0.0778385 -0.978782 -0.189546 
0.161454 -0.0927397 -0.169023 -0.808666 0.567852 -0.153635 
0.166453 -0.0924629 0.159351 -0.693464 0.720445 0.00817092 
-0.15408 0.0419567 -0.158556 0.607341 -0.793629 -0.035915 
0.0934478 0.0737514 0.156483 -0.460743 -0.872228 -0.164116 
0.166013 0.0294858 -0.332432 -0.498876 -0.851672 0.160555 
-0.0643437 0.0278468 -0.386714 0.018988 -0.944856 0.326936 
0.167985 0.0119985 0.302178 -0.853737 0.052601 -0.518041 
0.0950885 0.0775055 0.130699 -0.745626 -0.654443 -0.125482 
0.109397 0.0319729 0.378107 -0.789585 0.114474 -0.60287 
-0.171161 0.00363586 -0.300094 0.989726 -0.110775 -0.0903951 
0.166839 0.033706 -0.152218 -0.500391 -0.862777 -0.0722842 
-0.101724 0.0910575 -0.0120364 0.69265 -0.718614 -0.0618822 
0 0.0744833 0.245168 -0.0309191 -0.991775 -0.1242 
-0.161774 -0.0927206 -0.362959 0.945205 0.293906 0.142149 
-0.114279 0.084504 -0.110222 0.755161 -0.652442 -0.0636465 
-0.173592 -0.0276986 -0.300565 0.998942 -0.0377883 -0.0262173 
0.140644 0.046597 -0.0612932 -0.653823 -0.754297 -0.0595976 
0.17513 0.000518017 -0.0200023 -0.96241 -0.255743 0.0914485 
0.12622 0.0532876 0.0174502 -0.689674 -0.721739 -0.0586796 
-0.130138 -0.0158956 0.347667 0.759818 0.0676282 -0.646609 
0.0924384 -0.0926801 -0.483165 -0.382922 -0.200612 0.901735 
0.16741 -0.0926267 -0.317357 -0.943252 0.271015 0.191904 
0 0.0811543 0.187985 -0.006993 -0.991659 -0.128696 
-0.16629 0.0375442 -0.256849 0.734577 -0.678106 0.0238746 
0 0.0758954 0.233741 -0.0219291 -0.9924 -0.121085 
-0.169544 -0.0594483 0.285811 0.818893 0.159392 -0.551369 
-0 0.0813895 -0.217694 0.00020839 -0.964431 0.264333 
-0.0322228 -0.090669 0.314808 0.055232 0.753771 -0.654812 
-0.131525 0.0557451 -0.260763 0.241185 -0.943159 0.228649 
0.162226 -0.0929327 -0.0906227 -0.913637 0.40552 0.0286604 
0.147171 -0.0536871 -0.444978 -0.755026 -0.141169 0.640318 
0.165671 -0.0926962 0.106319 -0.747361 0.664379 0.00725311 
0.0321718 0.0282324 -0.387479 -0.0191619 -0.950021 0.311598 
0.0823502 -0.0926272 -0.487278 -0.355327 -0.230876 0.905781 
0.131355 0.0506137 -0.00869266 -0.661767 -0.747584 -0.056417 
-0.150894 0.043042 -0.131947 0.635775 -0.77036 -0.0483227 
-0.132291 -0.0930332 -0.464183 0.359941 0.100404 0.927557 
-0.0979543 0.0838 0.0789478 0.645919 -0.755338 -0.110695 
0.167236 0.0505412 0.0968758 -0.0170125 -0.98473 0.173254 
0.108383 0.0886058 -0.137833 -0.435725 -0.893104 0.111842 
-0.124795 0.0661525 -0.223848 0.252054 -0.943788 0.213851 
-0.149164 0.0436132 -0.118663 0.64082 -0.765929 -0.0519967 
-0 0.0970246 -0.0702909 -0.00180249 -0.999951 -0.00969765 
-0.167174 0.0537406 0.116689 0.011021 -0.989329 0.145279 
-0.159876 -0.0927581 -0.375053 0.945081 0.288814 0.152996 
0.145142 -0.0738842 -0.45187 -0.829907 -0.107792 0.547389 
0.164838 -0.0928888 0.0403717 -0.897994 0.439872 0.0109277 
0.162608 -0.0929493 -0.0775664 -0.936784 0.348912 0.026395 
0 0.0968838 -0.0587937 -0.00185177 -0.999889 -0.0147598 
0.166715 0.0353861 -0.173207 -0.43193 -0.899762 -0.0621627 
0.168688 -0.0918905 0.252851 -0.734208 0.668684 0.117478 
0.0214479 0.0283609 -0.387734 -0.0174541 -0.947972 0.317874 
-0.114156 0.0518505 0.374974 0.741036 -0.00940769 -0.671399 
0.0757352 -0.0892724 0.310356 -0.140931 0.751492 -0.644514 
-0.167028 0.0591862 0.166498 0.162728 -0.984216 0.0695578 
0.1683 0.00179573 0.30048 -0.837972 0.0711437 -0.541056 
-0.105147 -0.0905411 0.301732 0.184777 0.737174 -0.649947 
-0.105488 -0.034312 0.364781 0.363698 0.643643 -0.673385 
0 0.0924259 0.0561178 0.000145325 -0.998097 -0.0616589 
-0.101066 -0.0487966 0.349196 0.0633585 0.772221 -0.632187 
-0.128334 0.0522062 0.358727 0.75921 -0.0903576 -0.644542 
0.170226 -0.0926056 -0.253331 -0.931602 0.363396 -0.00785371 
0.158158 0.0403185 -0.198549 -0.491463 -0.865587 -0.0960344 
-0.174135 -0.0514741 -0.0202246 0.939609 0.337256 0.058246 
0.0518015 -0.0925315 -0.497456 -0.247978 -0.31851 0.914909 
-0.117988 -0.0799959 0.309652 0.183473 0.729302 -0.659133 
0 0.0909086 0.0790788 0.000380545 -0.997538 -0.0701275 
0.165501 -0.0927436 0.0931006 -0.771802 0.635819 0.00755141 
0.0911254 0.0171993 -0.419464 0.0144283 -0.951541 0.307183 
0.0997565 0.0874846 0.0400063 -0.602211 -0.793002 -0.0921394 
0.106928 0.0516669 0.382948 -0.742408 -0.0986855 -0.66264 
-0.161939 -0.00662336 -0.396867 0.929035 -0.189686 0.317669 
0.114279 0.084504 -0.110222 -0.77513 -0.626884 -0.0786706 
-0.0865412 0.0573155 0.246119 -0.0873591 -0.975641 -0.20123 
-0.164661 -0.092914 0.0272229 0.931905 0.3625 0.0121107 
-0.156893 0.0408795 -0.18521 0.534825 -0.844962 -0.00114541 
-0.159003 0.042568 -0.271665 0.528609 -0.847325 0.0511151 
-0.17159 -0.0905942 -0.300817 0.969203 0.245157 0.0232994 
-0.114155 -0.0464296 0.348481 0.312753 0.677892 -0.665318 
0 0.0798995 0.199431 -0.00896949 -0.994432 -0.104998 
0 -0.0776691 0.330918 -0.0085482 0.745517 -0.666432 
-0.132179 0.0502161 -0.0130606 0.659768 -0.749332 -0.0566397 
-0.149777 0.0523008 -0.237166 0.569837 -0.818554 0.072491 
-0.0321719 0.0282324 -0.387479 0.0192433 -0.948641 0.31577 
-0.129319 0.0592652 -0.248449 0.249716 -0.942435 0.22239 
0.114156 0.0518505 0.374974 -0.739349 -0.0648038 -0.670197 
