ply
format ascii 1.0
element vertex 815
property float x
property float y
property float z
property float nx
property float ny
property float nz
end_header
0.13488 0.0313455 0.0720986 0.827274 0.345955 0.442643 
0 -0.389936 0.200617 -0.00124666 0.217509 0.976057 
-0.123506 0.0395064 -0.0756971 -0.182097 0.976857 -0.112211 
-0.0802273 0.0723427 -0.0632308 -0.413567 0.850159 -0.325871 
0.0756971 0.0395064 -0.123506 0.112625 0.976623 -0.183093 
-0.0941715 0.0395064 0.0941715 -0.1219 0.984905 0.122896 
0.0811912 0.0476673 -0.0950712 0.606148 0.35444 -0.712009 
0.077657 -0.245546 0.0357923 0.798495 0.476946 0.367326 
-0.0750224 0.0723427 0.0693354 -0.387972 0.849744 0.35695 
0.083858 -0.245546 0.0166752 0.858228 0.484316 0.169947 
-0.116341 0.0165338 -0.0993765 -0.696068 -0.405519 -0.59249 
0.122895 0.00846929 0.0786851 0.490827 -0.812046 0.315706 
-0.0828298 0.126224 -0.0652871 -0.785616 0.0212043 -0.618351 
0.101144 0.0476673 -0.0734801 0.756697 0.354898 -0.549051 
0.069464 0.0165338 -0.136325 0.415129 -0.406618 -0.813836 
-0.0607247 -0.296632 0.119168 -0.245825 0.841723 0.4807 
0.123506 0.0395064 0.0756971 0.182346 0.97679 0.112393 
0.0853681 0.126224 -0.062042 0.808159 0.0246616 -0.588447 
0.123506 0.0476673 -0.0195669 0.923388 0.354995 -0.146061 
0.0585721 0.0165338 -0.14137 0.350189 -0.405093 -0.844551 
-0.0987018 -0.321693 0.135843 -0.4008 0.731304 0.551863 
0.137868 0.00846929 0.0478087 0.551141 -0.812054 0.191865 
-0.0100565 -0.245546 0.0849182 -0.111763 0.320017 0.940797 
-0.0203701 0.315017 0.0626525 -0.226226 0.681223 0.696245 
-0.146029 0.00846929 -9.03275e-19 -0.5916 -0.806231 1.56617e-05 
0.0851432 0.0395064 -0.117176 0.126316 0.97679 -0.17299 
0.135426 -0.440508 0.152422 0.651686 -0.126469 0.747871 
0.0970311 0.0313455 0.118204 0.595424 0.34623 0.724979 
0.143073 0.0395064 0.0226513 0.211553 0.976787 0.0336514 
-0.09279 0.0723427 -0.0427644 -0.474775 0.852636 -0.218176 
0.00298804 0.0313455 -0.152904 0.00460082 0.27046 -0.96272 
0.0944607 0.103251 -0.0391337 0.854605 -0.380706 -0.353148 
0.0518891 -0.321693 -0.159684 0.22129 0.700705 -0.678264 
-0.150559 0.0313455 -0.0268924 -0.923682 0.345929 -0.164755 
-0.155121 -0.321693 -0.064259 -0.618806 0.742996 -0.255022 
0.115441 0.0641818 -0.0182817 0.678306 0.726806 -0.107954 
-0.0518891 -0.321693 0.159684 -0.221288 0.700712 0.678258 
0.0279527 -0.440508 0.201966 0.143629 -0.0848254 0.985989 
-0.0353746 0.0723427 0.0958423 -0.201917 0.81796 0.538675 
-0.0534313 0.0723427 -0.0871673 -0.287272 0.839106 -0.461927 
0.0650622 0.315017 -0.0103136 0.655906 0.747741 -0.103304 
-0.055584 -0.245546 0.0650622 -0.583387 0.442002 0.681391 
-0.129064 0.0395064 -0.0657691 -0.191004 0.976748 -0.0973673 
-0.0763075 0.00846929 -0.124502 -0.30701 -0.808324 -0.502351 
-0.0533028 0.315017 -0.038716 -0.545456 0.738705 -0.395971 
0 0.347114 -0.0276956 0.000696509 0.607899 -0.794014 
-0.0120164 0.0723427 0.101465 -0.121167 0.650773 0.749542 
-0.0948463 0.00846929 -0.11104 -0.383341 -0.80652 -0.450083 
0.0312299 -0.296632 0.13006 0.113966 0.871837 0.476353 
-0.064259 -0.321693 -0.155121 -0.267221 0.712873 -0.648386 
-0.129514 0.0395064 0.0311013 -0.167663 0.985045 0.0396865 
-0.0340894 0.00846929 -0.14198 -0.129545 -0.824376 -0.551019 
0.0531743 0.00846929 0.135908 0.209457 -0.816901 0.537402 
-0.0799382 0.0165338 0.130478 -0.476972 -0.404962 0.780067 
-0.11814 0.00846929 -0.0858179 -0.478052 -0.806653 -0.347529 
0 0.315017 0.0658655 -2.74045e-06 0.65071 0.759326 
-0.0339287 0.334423 -0.0246433 -0.539088 0.745309 -0.392299 
-0.0987018 -0.321693 -0.135843 -0.400441 0.731873 -0.551369 
-0.113449 0.0476673 -0.0523068 -0.848525 0.356086 -0.391417 
-0.100983 0.103251 0.0160005 -0.913046 -0.381201 0.145026 
-0.020852 0.0395064 -0.13157 -0.0349566 0.989755 -0.138432 
-0.0657691 0.0395064 0.129064 -0.0967748 0.976958 0.190231 
0.20293 -0.440508 -0.0199845 0.986127 -0.141816 -0.086263 
-0.0858179 0.00846929 0.11814 -0.347072 -0.807221 0.477425 
0.0338324 -0.0376687 0.0664117 0.375873 -0.56421 0.73511 
-0.177869 -0.440508 0.0996014 -0.864234 -0.136289 0.484277 
0.13157 0.0395064 -0.020852 0.17247 0.984628 -0.027596 
-0.133209 0.0395064 -9.03275e-19 -0.17134 0.985212 -0.000388847 
0.0551342 0.126224 0.0899947 0.522391 -0.0153242 0.852568 
-0.0129803 0.0641818 -0.109562 0.0269586 0.942733 -0.332456 
0.124855 0.0476673 -0.00491581 0.933716 0.356107 -0.0369059 
-0.0632308 0.0723427 -0.0802273 -0.331091 0.844336 -0.421279 
0.0526924 -0.0376687 -0.0526924 0.574878 -0.582245 -0.574897 
-0.145579 0.00846929 0.0114702 -0.588578 -0.807116 0.0462559 
0.0987018 -0.321693 0.135843 0.400435 0.731883 0.551361 
-0.012402 0.126224 0.104742 -0.113597 -0.196364 0.973929 
0.112389 0.0641818 -0.0317118 0.659361 0.72851 -0.185785 
-0.0228441 0.00846929 0.144229 -0.0846267 -0.840407 0.535309 
0.143169 -0.321693 0.0877456 0.571517 0.741632 0.351212 
-0.117176 0.0395064 0.0851432 -0.172026 0.977121 0.125063 
-0.0475195 -0.245546 0.0711026 -0.502858 0.424729 0.752821 
0 -0.256728 0.0901232 -0.00184302 0.443773 0.896137 
-0.0230368 -0.0376687 -0.0708777 -0.257171 -0.551931 -0.793243 
-0.0871673 0.103251 -0.0534313 -0.788307 -0.378729 -0.484909 
-0.0120164 0.0165338 -0.152551 -0.0175395 -0.346466 -0.937899 
0.0131731 -0.321693 -0.167395 0.0596639 0.645312 -0.761585 
0.102429 0.0395064 -0.102429 0.151996 0.976662 -0.151749 
0.0899304 0.0165338 0.123795 0.537388 -0.408171 0.737977 
0.010667 0.36742 0.0173821 0.467286 0.435026 0.769673 
-0.011663 -0.0376687 -0.0736087 -0.131117 -0.540646 -0.83097 
-0.0671506 -0.245546 -0.0529494 -0.697376 0.46215 -0.5478 
0 0.138401 0.108566 -0.00390186 -0.222265 0.974978 
0.128807 0.0313455 0.0824443 0.789388 0.346525 0.506741 
0.14937 0.0313455 -0.0327721 0.916373 0.346768 -0.20003 
-0.20293 -0.440508 0.0199845 -0.986125 -0.141829 0.0862629 
0.165852 -0.321693 -0.0262819 0.659966 0.744037 -0.104183 
-0.0941715 0.0395064 -0.0941715 -0.125252 0.98419 -0.125224 
0.167909 -0.321693 -9.03275e-19 0.667969 0.744189 5.97042e-09 
-0.0411579 0.0395064 -0.126687 -0.0503877 0.987206 -0.151282 
0.0786209 -0.296632 -0.108212 0.326369 0.831907 -0.448791 
-0.144422 0.0395064 0.0113738 -0.215635 0.976341 0.0161069 
0.0750224 0.0723427 -0.0693354 0.387306 0.850304 -0.356339 
-0.0246433 0.334423 -0.0339287 -0.372201 0.77349 -0.51301 
-0.0722914 0.0641818 -0.0916976 -0.421831 0.731622 -0.535526 
0.0386518 0.0476673 0.118911 0.280825 0.325343 0.902933 
0.0983162 0.0723427 -0.0277278 0.503139 0.852494 -0.141795 
0.145225 0.00846929 0.0142976 0.580044 -0.812542 0.0576651 
0.10018 0.0723427 0.0199203 0.512239 0.852748 0.102134 
-0.0239365 0.0165338 -0.151137 -0.161067 -0.381557 -0.910204 
-0.0630381 -0.440508 -0.19403 -0.307344 -0.0980296 -0.946536 
0.201516 -0.440508 -0.0319367 0.97763 -0.14154 -0.155581 
0.0782996 0.0395064 -0.107762 0.100118 0.985555 -0.136594 
-0.0120164 -0.440508 0.20354 -0.066634 -0.0847273 0.994174 
-0.106606 -0.440508 -0.173949 -0.520146 -0.116359 -0.846114 
-0.0529494 -0.245546 -0.0671506 -0.555852 0.436823 -0.707258 
-0.0782996 0.0395064 0.107762 -0.10017 0.985537 0.136682 
0.0534313 0.0723427 0.0871673 0.28804 0.837594 0.464185 
-0.113578 0.0395064 -0.0695925 -0.148791 0.984668 -0.0910478 
0 0.261521 -0.0982199 0.000247841 0.373605 -0.927588 
0.0387482 0.334423 0.0160647 0.624706 0.736683 0.258923 
0.020338 0.36742 -0.00160647 0.829236 0.554871 -0.0669784 
0.130478 0.0165338 -0.0799382 0.779343 -0.407157 -0.476285 
-0.120261 0.0476673 0.0339287 -0.899016 0.356332 0.254554 
0 -0.440508 0.204022 -0.00860359 -0.0844398 0.996391 
0.0190849 -0.0794049 0.0587327 0.310395 -0.0483197 0.949379 
-0.102075 0.0723427 0.00401619 -0.521955 0.852736 0.020128 
0 0.200764 -0.112903 0.000186476 0.0827128 -0.996573 
0.0361135 0.0641818 0.111168 0.221853 0.77728 0.588742 
-0.102075 0.103251 0.00401619 -0.923582 -0.381738 0.0356772 
0 -0.321693 0.167909 -9.62968e-07 0.63374 0.773546 
-0.109047 -0.321693 -0.127683 -0.440907 0.735174 -0.514898 
-0.0817053 -0.440508 0.186801 -0.389422 -0.101464 0.915454 
-0.0853038 -0.245546 -0.00671506 -0.870889 0.486408 -0.0704245 
0.102429 0.0395064 0.102429 0.151065 0.976833 0.151579 
0.201998 -0.440508 0.0279527 0.979219 -0.141768 0.145025 
0.0203701 0.315017 0.0626525 0.226279 0.681064 0.696384 
-0.0427644 0.103251 -0.09279 -0.394758 -0.328166 -0.85818 
0 0.0641818 -0.116887 -0.0946077 0.864715 -0.493273 
0.0799382 0.0165338 0.130478 0.47649 -0.406341 0.779644 
0.145514 0.0165338 -0.0472946 0.868329 -0.408076 -0.281919 
0.148792 0.0165338 0.035728 0.887465 -0.40819 0.21398 
0.132791 0.0395064 -0.0104421 0.170553 0.985254 -0.0136246 
-0.101915 0.103251 -0.00803237 -0.921281 -0.38197 -0.0730753 
0 -0.173833 -0.0685643 -9.83015e-05 0.195421 -0.98072 
0.0427644 0.0723427 0.09279 0.236644 0.814724 0.529361 
-0.0983162 0.0723427 0.0277278 -0.503274 0.852407 0.141834 
0.152904 0.0313455 0.00298804 0.937887 0.346498 0.0175294 
-0.00318082 0.36742 -0.0201452 -0.12383 0.417151 -0.900362 
-0.147988 0.0313455 -0.0386196 -0.907516 0.345661 -0.238608 
0.0411579 0.0395064 -0.126687 0.0511345 0.985932 -0.159131 
0.126687 0.0395064 0.0411579 0.166185 0.984635 0.0536389 
0.118718 -0.321693 0.118718 0.477446 0.737628 0.477442 
0.0465878 0.315017 -0.0465878 0.482642 0.730833 -0.482638 
-0.0523068 0.0476673 -0.113449 -0.394763 0.348972 -0.84993 
0.0554234 0.0395064 -0.133819 0.0823947 0.976791 -0.197713 
0.0499614 -0.0794049 -0.0363063 0.807549 -0.0677757 -0.585894 
0.0802273 0.103251 0.0632308 0.72773 -0.376215 0.573472 
-0.0160005 -0.440508 -0.20338 -0.0869907 -0.0825173 -0.992786 
-0.121931 0.0313455 -0.092308 -0.747858 0.34569 -0.566751 
-0.116502 0.0641818 -0.00915691 -0.684283 0.727225 -0.0538505 
0.0166752 -0.245546 0.083858 0.182511 0.339241 0.922825 
-0.035728 0.0165338 -0.148792 -0.210788 -0.395425 -0.893984 
-0.149691 -0.440508 0.138382 -0.727683 -0.128315 0.673804 
0.109047 -0.321693 0.127683 0.440899 0.735185 0.51489 
0.10908 0.00846929 0.0969347 0.436677 -0.812162 0.386918 
-0.149627 -0.321693 0.0762433 -0.597276 0.742254 0.303842 
0.136325 0.0165338 0.069464 0.813264 -0.408139 0.414757 
-0.118718 -0.321693 -0.118718 -0.477454 0.737617 -0.477451 
0 -0.100482 -0.0620742 -0.000274948 0.015063 -0.999887 
-0.13006 -0.296632 0.0312299 -0.558369 0.818781 0.133497 
0.108212 0.0165338 -0.108212 0.645942 -0.407613 -0.645453 
-0.0472946 0.0165338 -0.145514 -0.284444 -0.40116 -0.870725 
-0.0864926 0.0395064 0.101272 -0.114437 0.984404 0.133613 
0.197307 -0.440508 0.0515036 0.960331 -0.140999 0.240592 
0.120261 0.0476673 -0.0339287 0.89905 0.356256 -0.254538 
-0.148792 0.0165338 0.035728 -0.888676 -0.405553 0.213968 
-0.109015 0.0476673 0.061046 -0.815053 0.356543 0.456689 
0.0738014 0.00846929 0.125915 0.294621 -0.812636 0.502813 
0.0357923 -0.245546 0.077657 0.383874 0.39609 0.834119 
0.108212 -0.296632 -0.0786209 0.459755 0.822699 -0.334352 
0.0736087 -0.0376687 -0.011663 0.798982 -0.588073 -0.125689 
0.114317 0.0313455 0.101593 0.700907 0.346421 0.623475 
0.107762 0.0395064 -0.0782996 0.140453 0.984769 -0.102479 
0 -0.235394 0.0827656 -0.00193983 0.257259 0.966341 
0 -0.0473396 0.0692391 -0.000803544 -0.418957 0.908006 
0.0230368 -0.0376687 -0.0708777 0.257082 -0.55236 -0.792973 
-0.102429 0.0395064 0.102429 -0.151756 0.976737 0.15151 
-0.0311013 0.0395064 -0.129514 -0.0210352 0.991938 -0.124964 
0.0338002 0.0395064 0.140856 0.0518066 0.973885 0.221054 
-0.039198 -0.321693 0.163282 -0.170678 0.685283 0.707995 
-0.0226513 0.0395064 0.143073 -0.0343557 0.976873 0.21104 
0.0160005 -0.440508 0.20338 0.0869892 -0.0825453 0.992784 
0.116341 0.00846929 0.0880669 0.465085 -0.812082 0.352448 
-0.044403 0.0313455 -0.14635 -0.272611 0.345933 -0.897782 
0 -0.353951 0.188182 -0.000767156 0.431517 0.902104 
-0.0451098 0.00846929 -0.138864 -0.179016 -0.81599 -0.549648 
0.19403 -0.440508 0.0630381 0.941417 -0.140439 0.306613 
-0.0940752 0.0395064 -0.11014 -0.138881 0.976836 -0.162799 
0 -0.0684166 -0.062781 0.000500632 -0.160455 -0.987043 
-0.0877456 -0.321693 0.143169 -0.359619 0.7268 0.585181 
0.0199845 -0.245546 -0.0832154 0.218395 0.349826 -0.911002 
-0.0746047 -0.245546 0.0418005 -0.769239 0.472599 0.430025 
0.0105063 -0.296632 0.133337 0.0343177 0.906258 0.42133 
-0.101144 0.0476673 0.0734801 -0.756706 0.354904 0.549035 
0.09279 0.103251 0.0427644 0.840424 -0.379886 0.386488 
-0.0996657 0.0641818 -0.0610782 -0.58572 0.726222 -0.359908 
0.0489011 0.0641818 0.106059 0.270512 0.745226 0.609476 
-0.10169 -0.296632 0.086846 -0.429893 0.824083 0.36889 
0.117176 0.0395064 -0.0851432 0.172275 0.977055 -0.12524 
0.135843 -0.321693 -0.0987018 0.543914 0.740345 -0.395027 
0.0243863 0.0476673 0.122542 0.27741 0.21355 0.936718 
-0.0131731 -0.321693 -0.167395 -0.0596488 0.645547 -0.761388 
-0.0591825 -0.440508 0.195122 -0.298939 -0.0923606 0.949792 
-0.151137 0.0165338 -0.0239365 -0.902709 -0.40575 -0.143119 
0.203862 -0.440508 0.00401619 0.989806 -0.142034 0.0105378 
-0.0558732 0.00846929 0.134912 -0.223582 -0.811822 0.539403 
0.101272 0.0395064 -0.0864926 0.131745 0.984962 -0.111773 
-0.0441459 0.126224 -0.095778 -0.417952 -0.0434851 -0.907428 
0.123795 0.0165338 -0.0899304 0.737842 -0.408561 -0.537278 
-0.0585721 0.0165338 -0.14137 -0.349975 -0.402604 -0.845829 
0.0708777 -0.0376687 0.0230368 0.769763 -0.587426 0.249792 
-0.127683 -0.321693 -0.109047 -0.51144 0.739343 -0.43795 
0.0636807 0.00846929 0.131313 0.253382 -0.813846 0.522926 
0 -0.245546 -0.085593 0.00515764 0.304953 -0.952353 
0.0511823 -0.296632 0.12357 0.201796 0.848907 0.488503 
0.0554234 0.0395064 0.133819 0.0814027 0.976547 0.199322 
-0.0790707 -0.245546 0.03274 -0.810848 0.479001 0.336279 
0 0.0395064 -0.133209 0.000620567 0.988585 -0.15066 
0.0615601 -0.0794049 0.00485155 0.994375 -0.0714377 0.0782006 
-0.113256 -0.440508 0.169515 -0.551629 -0.114968 0.826128 
0 -0.245546 0.085593 -0.00515787 0.304923 0.952363 
-0.0489011 0.0641818 -0.106059 -0.270126 0.74408 -0.611045 
-0.0926293 -0.440508 0.181789 -0.450904 -0.106183 0.886234 
-0.086846 -0.296632 -0.10169 -0.364874 0.828254 -0.425278 
0 -0.276519 -0.103875 0.00016386 0.686863 -0.726787 
-0.0509574 0.0395064 -0.123056 -0.0638984 0.985853 -0.154955 
0.123056 -0.440508 -0.162575 0.592462 -0.1188 -0.796791 
-0.114317 0.0313455 -0.101593 -0.701148 0.345563 -0.623681 
0.0120164 0.103251 -0.101465 0.121759 -0.115584 -0.985807 
0 -0.0376687 -0.0745083 2.2717e-05 -0.538088 -0.842889 
-0.0648694 0.0641818 0.0970953 -0.379034 0.731148 0.567235 
0.151491 0.0313455 -0.0209484 0.929432 0.346292 -0.12743 
-0.0361135 0.0641818 -0.111168 -0.225943 0.774336 -0.591061 
0.103425 0.126224 0.0205629 0.98018 0.0313032 0.195623 
0.0857536 0.0641818 -0.0792635 0.502104 0.72941 -0.464601 
-0.083858 -0.245546 -0.0166752 -0.858263 0.484255 -0.169945 
0.0698816 -0.296632 0.114028 0.286326 0.835814 0.468436 
0.14137 0.0165338 0.0585721 0.843326 -0.408017 0.349747 
0.126205 -0.440508 0.160101 0.614427 -0.123498 0.779248 
0.0695925 0.0395064 0.113578 0.0901497 0.984971 0.147324 
0.0941715 0.0395064 -0.0941715 0.121789 0.984932 -0.12279 
0.035728 0.0165338 0.148792 0.214832 -0.39863 0.891595 
-0.0465878 0.315017 0.0465878 -0.484679 0.728135 0.484671 
0.0272458 0.334423 -0.0319046 0.417731 0.765293 -0.489721 
0.167266 -0.440508 0.116598 0.807527 -0.135024 0.574168 
-0.11104 0.00846929 0.0948463 -0.450366 -0.806249 0.38358 
0 -0.00679222 -0.105224 -0.00137767 -0.838387 -0.545074 
0 -0.415094 0.204247 -0.00139842 0.0668908 0.997759 
-0.111168 0.0641818 -0.0361135 -0.653575 0.726413 -0.212517 
0.145514 0.0165338 0.0472946 0.868282 -0.407972 0.282217 
0.0199203 0.103251 0.10018 0.194815 -0.165323 0.966807 
-0.136325 0.0165338 -0.069464 -0.813838 -0.406537 -0.415205 
0.105995 0.0313455 0.110236 0.649005 0.346739 0.677174 
0.163282 -0.321693 0.039198 0.649795 0.743794 0.156644 
0.101272 0.0395064 0.0864926 0.130701 0.985031 0.112385 
-0.123056 0.0395064 -0.0509574 -0.158399 0.985217 -0.0652428 
0 0.0641818 0.116887 0.088731 0.886642 0.453864 
0 0.323852 0.0571905 -0.000362635 0.74776 0.663969 
0 -0.121527 -0.0624276 6.37905e-05 0.0602243 -0.998185 
-0.0262819 -0.321693 0.165852 -0.11631 0.66597 0.736856 
-0.081384 -0.245546 -0.0264426 -0.833341 0.482026 -0.270543 
-0.0664117 0.0723427 0.0777534 -0.342431 0.849639 0.401067 
0.0104421 0.0395064 -0.132791 0.00850022 0.988001 -0.154214 
-0.151137 0.0165338 0.0239365 -0.902939 -0.405159 0.143346 
-0.104228 0.126224 0.0165146 -0.987076 0.0328342 0.156851 
-0.103104 -0.440508 0.175909 -0.511247 -0.110721 0.852272 
-0.13157 0.0395064 0.020852 -0.172651 0.984594 0.0276867 
-0.0695925 0.0395064 -0.113578 -0.0902967 0.984922 -0.147563 
-0.0353746 0.103251 0.0958423 -0.328158 -0.316064 0.890177 
0 -0.0899433 0.0619135 0.000336064 0.0250429 0.999686 
-0.105385 0.126224 0.0041447 -0.998644 0.0323663 0.0407666 
-0.0587006 0.315017 -0.0299126 -0.595684 0.74358 -0.303727 
0.0437925 -0.0376687 -0.0602749 0.480931 -0.575858 -0.66113 
-0.0447243 -0.245546 -0.0729661 -0.474422 0.419375 -0.773982 
0.125915 0.00846929 -0.0738014 0.504615 -0.811123 -0.295707 
0 -0.331911 0.175491 -0.000207988 0.561698 0.827342 
0.0945571 -0.296632 0.0945571 0.398838 0.825742 0.398847 
-0.123506 0.0395064 0.0756971 -0.183629 0.97656 0.112296 
0.0534313 0.103251 0.0871673 0.49032 -0.351779 0.797394 
-0.0228441 0.00846929 -0.144229 -0.0935691 -0.842252 -0.530901 
0.0972238 0.0723427 0.0315833 0.494335 0.854478 0.15969 
0.113256 -0.440508 -0.169515 0.551634 -0.11489 -0.826136 
0.0729661 -0.245546 0.0447243 0.751845 0.471326 0.461066 
0.127201 -0.296632 0.0413185 0.54539 0.819123 0.177728 
-0.0587327 -0.0794049 -0.0190849 -0.948854 -0.0691472 -0.308051 
0.0823158 -0.245546 -0.0231975 0.843005 0.48252 -0.237732 
0.113578 0.0395064 -0.0695925 0.145056 0.985372 -0.0894455 
-0.100373 0.126224 -0.0326114 -0.95091 0.03107 -0.307903 
-0.107987 0.0641818 0.0447243 -0.635116 0.726215 0.263136 
0 -0.342674 -0.182238 0.000482327 0.499586 -0.866264 
0.0916976 0.0641818 0.0722914 0.536804 0.729332 0.424164 
-0.0315833 0.0723427 -0.0972238 -0.222381 0.76927 -0.598974 
0.0239365 0.0165338 -0.151137 0.154839 -0.384888 -0.909883 
0.0295913 -0.245546 -0.0802273 0.321592 0.378242 -0.86805 
0.133337 -0.296632 0.0105063 0.572913 0.81831 0.0462578 
0.0612709 0.0313455 -0.140117 0.375499 0.345851 -0.859876 
0.039198 -0.321693 0.163282 0.17056 0.685819 0.707504 
-0.128807 0.0313455 -0.0824443 -0.789608 0.345815 -0.506885 
0.0386196 0.0313455 -0.147988 0.238882 0.342385 -0.908685 
-0.123506 0.0476673 0.0195669 -0.923359 0.355071 0.146059 
-0.0146832 0.0560209 -0.124084 -0.122254 0.32926 -0.936291 
-0.127683 -0.321693 0.109047 -0.51173 0.738996 0.438198 
0.199171 -0.440508 -0.0436961 0.964945 -0.141053 -0.221324 
-0.0948463 0.00846929 0.11104 -0.383444 -0.806413 0.450187 
-0.123056 0.0395064 0.0509574 -0.162035 0.984505 0.0670427 
0.060532 -0.245546 0.060532 0.630686 0.452 0.630818 
0.0181853 0.36742 0.00925329 0.761443 0.520421 0.386479 
0.0693997 0.0476673 -0.103875 0.519604 0.355655 -0.776866 
0.0827013 0.0723427 -0.0600822 0.421819 0.853239 -0.30668 
-0.039198 -0.321693 -0.163282 -0.17056 0.685816 -0.707507 
0 0.163141 0.112614 -0.00129456 -0.111569 0.993756 
-0.0662831 0.00846929 0.130092 -0.266755 -0.809265 0.523384 
0.150559 0.0313455 0.0268924 0.923412 0.346652 0.164748 
0.0226513 0.0395064 0.143073 0.0357496 0.974657 0.220831 
0 -0.0132824 -0.0963885 -0.00119148 -0.777826 -0.628478 
0.101593 0.0313455 -0.114317 0.623588 0.346272 -0.70088 
0.0891272 0.0723427 -0.0499292 0.45609 0.852168 -0.256497 
0.0315833 0.0723427 0.0972238 0.22019 0.760779 0.610518 
-0.0104421 0.0395064 -0.132791 -0.00590263 0.98549 -0.169628 
0.0567407 0.103251 -0.0849504 0.516454 -0.363852 -0.775169 
0.064259 -0.321693 0.155121 0.267218 0.71288 0.64838 
-0.0447564 0.0395064 -0.137771 -0.0693084 0.975662 -0.208038 
0 -0.0132824 0.0963885 0.00496489 -0.77783 0.628455 
-0.0358565 -0.440508 0.200713 -0.164548 -0.0857146 0.982638 
-0.0272779 0.0641818 0.113642 -0.144282 0.76102 0.63248 
-0.0823158 -0.245546 0.0231975 -0.843037 0.482466 0.237728 
-0.0705564 -0.440508 0.191267 -0.345112 -0.0967716 0.933559 
0 -0.267137 -0.09626 0.000368055 0.570096 -0.821578 
-0.0120164 0.103251 0.101465 -0.120978 -0.109381 0.98661 
0 -0.163488 0.0666366 0.000109146 0.141268 0.989971 
-0.124502 0.00846929 0.0763075 -0.503869 -0.807009 0.307983 
-0.14635 0.0313455 0.044403 -0.898091 0.34544 0.272221 
0.0664117 -0.0376687 0.0338324 0.721043 -0.586668 0.368671 
0 0.103251 -0.102236 0.00660424 0.0195561 -0.999787 
0.0357601 0.334423 -0.0219123 0.573084 0.740367 -0.351328 
0.0533028 0.315017 0.038716 0.547942 0.735893 0.397771 
0.0120164 0.0165338 -0.152551 0.0315838 -0.347594 -0.937113 
-0.105995 0.0313455 -0.110236 -0.649222 0.345892 -0.677399 
0.0137193 0.0641818 -0.115987 0.09669 0.780598 -0.61751 
-0.0209163 -0.296632 -0.132084 -0.0713849 0.888169 -0.453939 
0.0877456 -0.321693 0.143169 0.35927 0.727428 0.584614 
0.14635 0.0313455 -0.044403 0.897869 0.346079 -0.27214 
-0.101915 0.0723427 -0.00803237 -0.517962 0.854414 -0.0411353 
0.123795 0.0165338 0.0899304 0.737692 -0.40851 0.537522 
0.0854644 -0.245546 -0.00334147 0.87318 0.486271 -0.0331348 
-0.0338324 -0.0376687 0.0664117 -0.374707 -0.56785 0.732899 
0.130478 0.0165338 0.0799382 0.778741 -0.407979 0.476566 
0.13006 -0.296632 -0.0312299 0.558379 0.818774 -0.1335 
0.0299126 0.315017 0.0587006 0.323973 0.700928 0.635407 
0.123056 0.0395064 -0.0509895 0.160889 0.984699 -0.0669498 
-0.107762 0.0395064 0.0782996 -0.14058 0.984741 0.102578 
0.102075 0.103251 -0.00401619 0.923579 -0.381744 -0.0356771 
0.0786851 0.00846929 -0.122895 0.314937 -0.813052 -0.489653 
0.0570298 -0.0794049 -0.0236152 0.922041 -0.0699633 -0.380716 
0.095778 0.126224 0.0441459 0.90776 0.0291122 0.418478 
0.0743155 -0.440508 0.189885 0.371868 -0.103016 0.922552 
-0.0246433 0.126224 0.102622 -0.233804 -0.120008 0.964849 
0.132502 -0.440508 -0.155121 0.644316 -0.122348 -0.754909 
-0.108212 0.0165338 0.108212 -0.646669 -0.404851 0.646464 
-0.038716 0.315017 0.0533028 -0.409732 0.716691 0.564335 
0.0817053 -0.440508 -0.186801 0.389424 -0.101393 -0.915461 
0.151137 0.0165338 -0.0239365 0.90182 -0.407854 -0.142743 
0.0692391 -0.245546 -0.0503148 0.715776 0.465569 -0.52049 
0.144422 0.0395064 0.0113738 0.213851 0.976712 0.0173453 
-0.112389 0.0641818 0.0317118 -0.65933 0.72854 0.185778 
0.0557447 0.0313455 0.142398 0.341011 0.346635 0.873817 
0.141209 0.00846929 0.0368525 0.564957 -0.81179 0.147716 
-0.0199203 0.103251 -0.10018 -0.19585 -0.176621 -0.964597 
-0.069464 0.0165338 -0.136325 -0.415846 -0.404788 -0.814383 
0.10018 0.103251 0.0199203 0.906508 -0.38146 0.180916 
0 -0.0205758 -0.0881955 -0.000763936 -0.705554 -0.708656 
-0.140856 0.0395064 -0.0338002 -0.20755 0.976943 -0.0500554 
-0.0773357 0.0476673 -0.0981235 -0.578277 0.355071 -0.73452 
0.0239686 -0.440508 -0.202448 0.118183 -0.0843635 -0.989402 
-0.0708777 -0.0376687 0.0230368 -0.767783 -0.590283 0.24915 
0.129064 0.0395064 0.0657691 0.191259 0.976691 0.0974367 
0.140117 0.0313455 0.0612709 0.85948 0.346895 0.375444 
-0.0399048 0.334423 -0.0129482 -0.648874 0.730909 -0.211504 
-0.038716 0.315017 -0.0533028 -0.407715 0.720001 -0.561576 
0 0.315017 -0.0658655 -7.79869e-07 0.644983 -0.764197 
-0.201998 -0.440508 -0.0279527 -0.979221 -0.141753 -0.145025 
0.0786209 -0.296632 0.108212 0.326626 0.831616 0.449144 
-0.152422 -0.440508 -0.135426 -0.747373 -0.131283 -0.651305 
-0.0811912 0.0476673 0.0950712 -0.606179 0.354348 0.712028 
-0.167266 -0.440508 -0.116598 -0.807534 -0.134964 -0.574173 
-0.0311013 0.0395064 0.129514 -0.0396458 0.985495 0.165011 
-0.0209163 -0.296632 0.132084 -0.0713532 0.888274 0.453738 
-0.203701 -0.440508 0.00800024 -0.989114 -0.141981 0.0386635 
-0.137771 0.0395064 -0.0447564 -0.203547 0.97679 -0.0667133 
0.0160647 0.334423 -0.0387482 0.22922 0.802329 -0.551114 
-0.0891272 0.103251 0.0499292 -0.806399 -0.379609 0.453451 
0 -0.00139447 0.114767 0.007469 -0.89613 0.443728 
0 0.150707 -0.110943 0.00298984 -0.158721 -0.987319 
-0.0146832 0.0476673 0.124084 -0.103275 0.322006 0.941088 
0 -0.31379 -0.16068 -8.72528e-05 0.720411 -0.693547 
-0.097513 0.126224 0.0403868 -0.923695 0.0307585 0.381892 
0 -0.427817 0.204633 -0.00148441 -0.00942482 0.999954 
-0.0511823 -0.296632 0.12357 -0.201653 0.849141 0.488156 
-0.0658655 0.315017 -9.03275e-19 -0.6637 0.747999 4.61555e-06 
-0.0827013 0.0723427 0.0600822 -0.422292 0.852882 0.307021 
-0.0961314 -0.440508 -0.179829 -0.459046 -0.112216 -0.881297 
0.0773357 0.0476673 0.0981235 0.578351 0.354846 0.734571 
-0.060532 -0.245546 -0.060532 -0.630701 0.451983 -0.630815 
0.121931 0.0313455 0.092308 0.747615 0.346524 0.566562 
0.118718 -0.321693 -0.118718 0.47779 0.737182 -0.477787 
-0.167909 -0.321693 -9.03275e-19 -0.667976 0.744183 -7.14157e-09 
0.0146832 0.0476673 -0.124084 0.102397 0.331739 -0.937797 
-0.107762 0.0395064 -0.0782996 -0.137931 0.985368 -0.100121 
-0.0774321 0.126224 0.0715845 -0.734511 0.0187286 0.678339 
-0.127201 -0.296632 -0.0413185 -0.545377 0.819133 -0.177724 
-0.100983 0.0723427 0.0160005 -0.512919 0.854555 0.0815501 
0 -0.132033 -0.0634879 8.91906e-05 0.10872 -0.994072 
-0.118686 0.0395064 -0.0604677 -0.151537 0.985409 -0.0774952 
-0.043664 -0.0794049 -0.043664 -0.705727 -0.0647859 -0.705515 
-0.0427644 0.0723427 -0.09279 -0.233154 0.81796 -0.525909 
-0.118911 0.0476673 -0.0386518 -0.888875 0.354965 -0.289659 
-0.188504 -0.440508 0.0780747 -0.915232 -0.138823 0.378258 
0.116341 0.0165338 0.0993765 0.695064 -0.40843 0.591668 
-0.133337 -0.296632 0.0105063 -0.572933 0.818294 0.0462822 
-0.0586042 0.126224 0.0876814 -0.555951 -0.00391102 0.831206 
0 0.138401 -0.108566 0.00363052 -0.222573 -0.974909 
0.0230368 -0.0376687 0.0708777 0.25743 -0.550698 0.794016 
0.0150045 0.0313455 -0.152197 0.0954632 0.327784 -0.939917 
-0.0194062 0.36742 -0.00629738 -0.791334 0.555418 -0.25554 
-0.134912 0.00846929 0.0558732 -0.54503 -0.807407 0.225912 
-0.118204 0.0313455 0.0970311 -0.725196 0.345419 0.595632 
-0.0884204 0.0476673 -0.0884204 -0.6613 0.354229 -0.661214 
0 -0.204903 -0.0743798 -0.000236895 0.224862 -0.974391 
0 0.356881 -0.0227156 0.00349301 0.241305 -0.970443 
-0.203862 -0.440508 -0.00401619 -0.989806 -0.142033 -0.0105378 
0.032258 -0.0794049 0.0526602 0.521276 -0.0606625 0.851229 
0.0944607 0.0723427 -0.0391337 0.480149 0.854453 -0.198409 
0 0.0165338 0.153033 0.00150697 -0.344605 0.938747 
0.0567728 0.0476673 -0.111393 0.42501 0.353199 -0.833437 
0.0100565 -0.245546 -0.0849182 0.111763 0.320002 -0.940802 
-0.118718 -0.321693 0.118718 -0.477783 0.73719 0.47778 
-0.0419611 0.334423 -9.03275e-19 -0.685955 0.727644 4.17276e-05 
0.133755 -0.296632 -9.03275e-19 0.574869 0.818246 -1.18046e-05 
0.0364991 0.126224 -0.0989267 0.345202 -0.0602614 -0.936592 
0 0.284076 -0.0872316 0.000148954 0.50078 -0.865574 
0 -0.132033 0.0634879 3.57446e-05 0.108767 0.994067 
0.0602749 -0.0376687 0.0437925 0.656151 -0.584522 0.477284 
0.116694 0.0641818 -0.00459452 0.684792 0.728269 -0.0261506 
0.0262819 -0.321693 -0.165852 0.11631 0.665967 -0.736858 
0.131924 0.0313455 -0.0773357 0.809671 0.346344 -0.473791 
0.0472946 0.0165338 -0.145514 0.283614 -0.402335 -0.870454 
0.0996657 0.0641818 0.0610782 0.585652 0.726297 0.359868 
0.0509574 0.0395064 -0.123056 0.065273 0.98552 -0.156491 
0 -0.301163 0.143458 6.1701e-05 0.881587 0.472022 
0.0920189 0.126224 -0.0515357 0.871764 0.0279135 -0.48913 
0 -0.184179 -0.0705242 -0.000165125 0.184728 -0.98279 
0.0653193 0.0476673 0.106606 0.488729 0.35181 0.798357 
0 0.0723427 -0.102236 -0.0719637 0.580744 -0.810899 
0.0262819 -0.321693 0.165852 0.116252 0.666384 0.73649 
-0.116341 0.0165338 0.0993765 -0.696201 -0.405195 0.592555 
-0.0299126 0.315017 0.0587006 -0.323936 0.701012 0.635332 
-0.116694 0.0641818 0.00459452 -0.6848 0.728262 0.02615 
-0.0899304 0.0165338 0.123795 -0.538344 -0.405435 0.738789 
0.0120164 -0.440508 -0.20354 0.0666348 -0.0847032 -0.994176 
0.125466 0.0313455 -0.0874565 0.770273 0.346429 -0.535412 
-0.201516 -0.440508 0.0319367 -0.977627 -0.14156 0.155581 
-0.0802273 0.103251 -0.0632308 -0.727612 -0.376585 -0.573381 
0.066733 0.0313455 0.137611 0.408999 0.345677 0.844528 
-0.09279 0.103251 -0.0427644 -0.840371 -0.380029 -0.386465 
0.117176 0.0395064 0.0851432 0.173132 0.976813 0.125945 
0.109015 0.0476673 -0.061046 0.81508 0.356534 -0.456648 
-0.0853359 -0.440508 -0.18513 -0.416265 -0.107716 -0.90284 
0.0239365 0.0165338 0.151137 0.14525 -0.385372 0.911258 
-0.145579 0.00846929 -0.0114702 -0.5889 -0.806877 -0.0463273 
0 0.327772 -0.0524032 1.05373e-05 0.815031 -0.579417 
-0.0239686 -0.440508 0.202448 -0.118182 -0.0843988 0.989399 
-0.0708777 -0.0376687 -0.0230368 -0.768094 -0.589836 -0.24925 
0.0630381 -0.440508 0.19403 0.307342 -0.0980938 0.94653 
-0.152197 0.0313455 -0.0150045 -0.933789 0.345506 -0.0930796 
0.0353746 0.103251 -0.0958423 0.327681 -0.321481 -0.888412 
-0.103264 0.00846929 -0.103264 -0.417478 -0.807112 -0.417471 
-0.14137 0.0165338 0.0585721 -0.844613 -0.405214 0.3499 
-0.199942 -0.440508 -0.0397763 -0.970852 -0.141413 -0.193516 
0 -0.402435 0.20293 -0.00126656 0.142993 0.989723 
0.0698816 -0.296632 -0.114028 0.2861 0.836098 -0.468067 
0.0722914 0.103251 0.0722914 0.656249 -0.372284 0.65631 
-0.0854644 -0.245546 0.00334147 -0.873215 0.486208 0.0331259 
-0.0664117 0.103251 0.0777534 -0.603192 -0.370152 0.706503 
0.0315833 0.103251 0.0972238 0.295427 -0.270727 0.916204 
-0.167395 -0.321693 0.0131731 -0.665974 0.744159 0.0520127 
-0.0615601 -0.0794049 -0.00485155 -0.994484 -0.0698916 -0.0782096 
0.113449 0.0476673 0.0523068 0.848475 0.356065 0.391545 
0.142398 0.0313455 -0.0557447 0.873757 0.346701 -0.341096 
0.116341 0.0165338 -0.0993765 0.695185 -0.408078 -0.591769 
0.122542 0.0476673 0.0243863 0.916331 0.356305 0.182713 
-0.115506 0.0476673 0.0478408 -0.863676 0.354823 0.358001 
0 0.11485 0.103071 0.00461249 -0.151751 0.988408 
-0.132791 0.0395064 0.0104421 -0.170837 0.985206 0.0135968 
0.097513 0.126224 -0.0403868 0.923694 0.0307953 -0.381892 
0.0144261 -0.0794049 -0.06005 0.235561 -0.0409831 -0.970995 
0.131313 0.00846929 -0.0636807 0.526429 -0.81104 -0.255121 
-0.0114702 0.00846929 0.145579 -0.0349163 -0.873134 0.486229 
-0.124855 0.0476673 0.00491581 -0.933655 0.356263 0.0369359 
0 -0.121527 0.0624276 3.90956e-05 0.06026 0.998183 
-0.0917618 0.0476673 0.0848219 -0.686564 0.35564 0.634153 
-0.0602749 -0.0376687 0.0437925 -0.654373 -0.587567 0.475984 
0.0587006 0.315017 -0.0299126 0.595849 0.743409 -0.303821 
-0.0602749 -0.0376687 -0.0437925 -0.654828 -0.586787 -0.47632 
-0.153001 0.0165338 -9.03275e-19 -0.914244 -0.405163 0.000203715 
0.064259 -0.321693 -0.155121 0.267473 0.712223 -0.648997 
-0.144229 0.00846929 -0.0228441 -0.583183 -0.807028 -0.0927586 
0.0203701 0.315017 -0.0626525 0.225914 0.682087 -0.695499 
-0.10018 0.103251 -0.0199203 -0.906491 -0.381504 -0.180913 
-0.163282 -0.321693 -0.039198 -0.649805 0.743784 -0.156646 
0.101883 0.0641818 -0.057062 0.597804 0.728195 -0.335204 
0.0884204 0.0476673 0.0884204 0.661344 0.35405 0.661266 
-0.00899626 0.0313455 -0.152647 -0.0399192 0.301969 -0.952481 
-0.0762433 -0.321693 0.149627 -0.31435 0.720637 0.617953 
-0.0983162 0.103251 0.0277278 -0.889886 -0.380997 0.250886 
0.127683 -0.321693 0.109047 0.511431 0.739355 0.437942 
0.0209163 -0.296632 -0.132084 0.0713527 0.888276 -0.453734 
0 0.0395064 -0.14484 -0.00372979 0.98041 -0.196935 
-0.0650622 0.315017 -0.0103136 -0.655786 0.747849 -0.103275 
0 0.0723427 0.102236 0.0570888 0.429691 0.90117 
-0.0972238 0.103251 -0.0315833 -0.879833 -0.381064 -0.28405 
-0.0246433 0.334423 0.0339287 -0.36803 0.780366 0.505552 
0.00285952 0.00846929 -0.1459 -0.0184718 -0.889118 -0.457306 
0 0.163141 -0.112614 0.00135566 -0.111598 -0.993752 
-0.10018 0.0723427 -0.0199203 -0.512167 0.852793 -0.102122 
0 -0.28468 0.112807 -0.000112719 0.784306 0.620374 
0.0208199 0.0395064 0.13157 0.0339481 0.990022 0.136759 
0.0464271 0.0723427 -0.0910871 0.245254 0.841185 -0.481931 
0.00899626 0.0313455 0.152647 0.0533347 0.334391 0.940924 
0 0.237777 0.106349 -0.000140166 0.274191 0.961675 
0.039198 -0.321693 -0.163282 0.170679 0.685278 -0.707999 
0.0981235 0.0476673 0.0773357 0.734261 0.355952 0.578065 
-0.0129482 0.334423 0.0399048 -0.172791 0.82561 0.537132 
0.149691 -0.440508 -0.138382 0.72769 -0.128241 -0.673811 
-0.163282 -0.321693 0.039198 -0.649818 0.743772 0.156649 
-0.0514714 -0.440508 -0.197307 -0.242256 -0.0931491 -0.965731 
0.129064 0.0395064 -0.0657691 0.191465 0.976677 -0.0971774 
-0.0743155 -0.440508 -0.189885 -0.371871 -0.102947 -0.922558 
0.11014 0.0395064 0.0940752 0.162565 0.976851 0.139051 
0.0983162 0.103251 -0.0277278 0.889863 -0.381056 -0.25088 
-0.124502 0.00846929 -0.0763075 -0.503981 -0.806907 -0.308064 
-0.137611 0.0313455 0.066733 -0.844592 0.345522 0.408998 
-0.0205629 0.126224 -0.103425 -0.188033 -0.156889 -0.969551 
0 -0.291427 -0.122831 6.87028e-05 0.873931 -0.486051 
0.012402 0.126224 -0.104742 0.113389 -0.195433 -0.97414 
-0.0799382 0.0165338 -0.130478 -0.476774 -0.404423 -0.780467 
0.0479051 0.126224 -0.094043 0.452861 -0.0243595 -0.891248 
-0.179829 -0.440508 -0.0961314 -0.878048 -0.137691 -0.458337 
-0.135426 -0.440508 -0.152422 -0.651693 -0.126396 -0.747878 
0.086846 -0.296632 -0.10169 0.364605 0.828533 -0.424966 
-0.0239365 0.0165338 0.151137 -0.144712 -0.3831 0.912301 
0.0827013 0.103251 -0.0600822 0.748733 -0.378122 -0.544448 
0 0.344929 0.0293342 -0.000411188 0.636964 0.770893 
0 0.261521 0.0982199 -6.25507e-05 0.373595 0.927592 
0.0238722 0.0723427 -0.0994086 0.133824 0.796732 -0.58933 
0.128711 0.00846929 0.0687892 0.515907 -0.811223 0.275238 
0.142526 0.00846929 -0.031262 0.568925 -0.81289 -0.124634 
0.116502 0.0641818 0.00915691 0.684269 0.727239 0.0538501 
-0.0587006 0.315017 0.0299126 -0.597764 0.741473 0.304788 
0 0.126224 0.105545 -0.00158265 -0.245455 0.969407 
-0.0190849 -0.0794049 -0.0587327 -0.310386 -0.0478637 -0.949405 
0.157627 -0.440508 -0.129353 0.760377 -0.130692 -0.636197 
0.0476159 -0.440508 -0.1984 0.231922 -0.0884733 -0.968702 
-0.0612709 0.0313455 0.140117 -0.375541 0.345257 0.860097 
0.140856 0.0395064 0.0338002 0.207813 0.976881 0.0501616 
0 0.175671 0.113642 -0.000315764 -0.0399034 0.999203 
-0.142398 0.0313455 0.0557447 -0.873961 0.346107 0.341178 
0 0.249762 -0.102622 0.000278705 0.323654 -0.946175 
0.153033 0.0165338 -9.03275e-19 0.913247 -0.407407 -8.36759e-05 
0.0432463 0.0476673 -0.117208 0.324159 0.351464 -0.878291 
0 0.294775 -0.0806772 9.9123e-05 0.546275 -0.837606 
0.0993765 0.0165338 -0.116341 0.591714 -0.408285 -0.69511 
0.0199203 0.0723427 0.10018 0.0947389 0.578862 0.809903 
-0.135843 -0.321693 0.0987018 -0.543909 0.740352 0.395023 
-0.0227798 0.0641818 -0.114542 0.0389811 0.897727 -0.438825 
0.0874565 0.0313455 0.125466 0.535503 0.346358 0.770242 
-0.0786209 -0.296632 0.108212 -0.326372 0.831904 0.448795 
0.062781 -0.245546 -0.058058 0.65313 0.454542 -0.60565 
0.179829 -0.440508 0.0961314 0.878042 -0.137742 0.458333 
-0.0874565 0.0313455 -0.125466 -0.535686 0.345626 -0.770444 
0.203701 -0.440508 -0.00800024 0.989115 -0.141975 -0.0386635 
0.0774321 0.126224 -0.0715845 0.734507 0.0190182 -0.678334 
-0.0447564 0.0395064 0.137771 -0.0668843 0.976582 0.204484 
0.0587327 -0.0794049 0.0190849 0.948754 -0.0706401 0.308018 
-0.0413185 -0.296632 0.127201 -0.158585 0.859001 0.486794 
-0.0567728 0.0476673 0.111393 -0.425122 0.352711 0.833586 
0.173949 -0.440508 0.106606 0.844053 -0.13652 0.518591 
0.124662 0.0476673 0.0097995 0.931816 0.35542 0.0734482 
0.144422 0.0395064 -0.0113738 0.216012 0.976249 -0.0166064 
-0.0386518 0.0476673 -0.118911 -0.280319 0.326304 -0.902744 
0.0338324 -0.0376687 -0.0664117 0.375298 -0.565986 -0.734037 
-0.0131731 -0.321693 0.167395 -0.0596639 0.645313 0.761585 
-0.0972238 0.0723427 -0.0315833 -0.494208 0.854559 -0.159647 
0.0585721 0.0165338 0.14137 0.349998 -0.404742 0.844799 
0.101144 0.00846929 0.105192 0.403303 -0.812764 0.42043 
-0.0526602 -0.0794049 -0.032258 -0.85058 -0.0674617 -0.5215 
-0.0551342 0.126224 -0.0899947 -0.522392 -0.0141905 -0.852587 
-0.133755 -0.296632 -9.03275e-19 -0.574856 0.818255 1.1354e-05 
-0.138864 0.00846929 0.0451098 -0.561446 -0.807305 0.181762 
0.0311013 0.0395064 -0.129514 0.0401764 0.98524 -0.166395 
-0.160101 -0.440508 -0.126205 -0.778256 -0.133247 -0.613647 
0.133819 0.0395064 0.0554234 0.198125 0.976727 0.082165 
0.10169 -0.296632 0.086846 0.43014 0.82386 0.369099 
0.152197 0.0313455 0.0150045 0.933523 0.346263 0.0929321 
-0.12357 -0.296632 -0.0511823 -0.529396 0.819711 -0.218665 
0.0756971 0.0395064 0.123506 0.112028 0.976627 0.183436 
0 -0.377631 -0.197404 0.00118075 0.290413 -0.956901 
0 -0.306914 -0.152487 -0.000100474 0.805318 -0.592843 
0 -0.301163 -0.143458 -6.24196e-05 0.881586 -0.472023 
0.055584 -0.245546 -0.0650622 0.583387 0.442005 -0.681389 
0.102075 0.0723427 -0.00401619 0.521931 0.85275 -0.0201283 
0.0103136 0.315017 -0.0650622 0.117219 0.65781 -0.744007 
0 -0.0205758 0.0881955 0.00323195 -0.705568 0.708635 
-0.0465878 0.315017 -0.0465878 -0.482376 0.731186 -0.482369 
0.0478087 0.00846929 -0.137868 0.188287 -0.819428 -0.541373 
0.0227798 0.0641818 0.114542 -0.030741 0.900333 0.434115 
-0.159684 -0.321693 -0.0518891 -0.635808 0.743449 -0.207443 
-0.0105063 -0.296632 0.133337 -0.0343084 0.90631 0.42122 
0 -0.152981 0.0655763 6.48996e-05 0.0907823 0.995871 
0.10169 -0.296632 -0.086846 0.429892 0.824083 -0.36889 
0.0272779 0.0641818 -0.113642 0.146605 0.751662 -0.643048 
0.0695925 0.0395064 -0.113578 0.0881308 0.985532 -0.144773 
0 0.331306 0.0472946 -0.00121232 0.850905 0.525318 
0.167395 -0.321693 0.0131731 0.66597 0.744163 0.0520124 
-0.069464 0.0165338 0.136325 -0.41553 -0.40509 0.814394 
-0.152647 0.0313455 0.00899626 -0.936816 0.345648 0.053887 
-0.0851432 0.0395064 -0.117176 -0.125353 0.976958 -0.172743 
0.0945571 0.0641818 -0.0686929 0.555726 0.726913 -0.403443 
-0.143073 0.0395064 -0.0226513 -0.21123 0.976856 -0.0336792 
-0.11104 0.00846929 -0.0948463 -0.450421 -0.806189 -0.383641 
0.0746368 0.126224 0.0746368 0.707048 0.0140794 0.707026 
0.0264426 -0.245546 0.081384 0.286841 0.36979 0.883729 
0.0413185 -0.296632 -0.127201 0.158583 0.859005 -0.486788 
0.147988 0.0313455 0.0386196 0.907309 0.346236 0.238561 
0.0423788 0.00846929 0.139635 0.164147 -0.821715 0.545747 
-0.0437925 -0.0376687 0.0602749 -0.48007 -0.577936 0.659941 
0 -0.306914 0.152487 9.97787e-05 0.805318 0.592843 
0 0.305089 0.0735444 7.74042e-05 0.585646 0.810567 
0.18513 -0.440508 0.0853681 0.899263 -0.138785 0.414807 
-0.103425 0.126224 -0.0205629 -0.980178 0.0313592 -0.195623 
0.152422 -0.440508 0.135426 0.747367 -0.131351 0.651299 
0 -0.267137 0.09626 -0.000355175 0.570086 0.821585 
0 0.0395064 0.133209 -0.000972572 0.990115 0.140255 
0.0447564 0.0395064 -0.137771 0.0667313 0.976601 -0.204445 
0.101497 0.126224 -0.0286274 0.962243 0.0314905 -0.270366 
-0 -0.389936 -0.200617 0.00124739 0.21751 -0.976057 
-0.0499614 -0.0794049 0.0363063 -0.80762 -0.0664491 0.585947 
0.116598 -0.440508 0.167266 0.575233 -0.120166 0.809115 
0.129514 0.0395064 -0.0311013 0.167445 0.98508 -0.0397487 
-0.0916976 0.0641818 -0.0722914 -0.536898 0.729212 -0.424252 
0.133819 0.0395064 -0.0554234 0.197498 0.976927 -0.0812865 
-0.0511823 -0.296632 -0.12357 -0.201796 0.848908 -0.488501 
0.113578 0.0395064 0.0695925 0.148596 0.984708 0.0909371 
-0.125466 0.0313455 0.0874565 -0.770475 0.34572 0.535581 
-0.108212 -0.296632 0.0786209 -0.459754 0.8227 0.334351 
-0.165852 -0.321693 0.0262819 -0.65997 0.744034 0.104184 
0.0437925 -0.0376687 0.0602749 0.481515 -0.574403 0.661971 
0.112807 0.00846929 -0.0925651 0.451779 -0.811739 -0.370101 
0.0604677 0.0395064 -0.118686 0.0786253 0.984834 -0.154659 
0.107987 0.0641818 -0.0447243 0.635187 0.726139 -0.263172 
-0.189885 -0.440508 -0.0743155 -0.918789 -0.139643 -0.369224 
0.0500899 0.0313455 -0.144486 0.308829 0.34465 -0.886477 
-0.0993765 0.0165338 0.116341 -0.592537 -0.405363 0.696118 
-0.12357 -0.296632 0.0511823 -0.529361 0.819734 0.218663 
0.0397763 -0.440508 0.199942 0.193669 -0.0886348 0.977055 
0.0208199 0.0395064 -0.13157 0.0265782 0.986284 -0.162902 
0.133691 0.00846929 0.0584757 0.534476 -0.812284 0.233517 
0.0940752 0.0395064 0.11014 0.139135 0.976749 0.163103 
0 -0.194557 0.072452 0.00016748 0.171879 0.985118 
-0.0105063 -0.296632 -0.133337 -0.0343176 0.906257 -0.421331 
0.106059 0.0641818 0.0489011 0.623339 0.727422 0.286889 
0.1459 0.00846929 0.00285952 0.582088 -0.813044 0.0115541 
0.0427644 0.103251 0.09279 0.395065 -0.325405 0.85909 
-0.092308 0.0313455 0.121931 -0.566737 0.345565 0.747926 
0.0708777 -0.0376687 -0.0230368 0.769413 -0.587932 -0.249679 
-0.133819 0.0395064 0.0554234 -0.197229 0.976998 0.0810883 
-0.0404189 0.0641818 0.109562 -0.233307 0.742508 0.627892 
0.139635 0.00846929 -0.0423788 0.558747 -0.811983 -0.168775 
0 -0.342674 0.182238 -0.000481137 0.499587 0.866264 
0 -0.0576532 -0.0652871 0.000328803 -0.293225 -0.956043 
-0.0388446 -0.245546 0.0762433 -0.414357 0.404246 0.81541 
-0.0464271 0.103251 0.0910871 -0.426256 -0.347554 0.835172 
-0.0729661 -0.245546 -0.0447243 -0.751876 0.471286 -0.461056 
-0.0567407 0.0723427 0.0849504 -0.297868 0.843687 0.446618 
0 0.273024 -0.0931755 0.000198094 0.437827 -0.899059 
-0.101272 0.0395064 0.0864926 -0.13187 0.984933 0.111884 
-0.0558732 0.00846929 -0.134912 -0.223113 -0.812003 -0.539325 
0.114028 -0.296632 -0.0698816 0.486589 0.821429 -0.297466 
0.13157 0.0395064 0.020852 0.168592 0.98533 0.0264811 
0 -0.0576532 0.0652871 -0.000999112 -0.293212 0.956047 
0.126687 0.0395064 -0.0411579 0.162372 0.985299 -0.0531236 
-0.0920189 0.126224 0.0515357 -0.871765 0.0278375 0.489132 
-0.152551 0.0165338 0.0120164 -0.911802 -0.404558 0.0703572 
0.177869 -0.440508 -0.0996014 0.864241 -0.136232 -0.484281 
-0.0750224 0.103251 0.0693354 -0.682257 -0.374746 0.627767 
0 -0.00139447 -0.114767 -0.000877087 -0.89616 -0.44373 
0.0509574 0.0395064 0.123056 0.0637161 0.98593 0.154537 
0.0664117 0.0723427 -0.0777534 0.341492 0.850537 -0.399963 
-0.011663 -0.0376687 0.0736087 -0.131043 -0.54174 0.830268 
-0.0268924 0.0313455 0.150559 -0.164749 0.339396 0.926104 
-0.13157 0.0395064 -0.020852 -0.168787 0.985294 -0.0265645 
-0.0782996 0.0395064 -0.107762 -0.0997644 0.985476 -0.137422 
-0.134912 0.00846929 -0.0558732 -0.545037 -0.80739 -0.225956 
-0.101883 0.0641818 0.057062 -0.597709 0.728291 0.335165 
0.0658655 0.315017 -9.03275e-19 0.663732 0.74797 -1.83315e-06 
0 -0.291427 0.122831 -6.62565e-05 0.873929 0.486053 
0.119714 0.00846929 -0.0834403 0.478439 -0.811844 -0.334671 
-0.199171 -0.440508 0.0436961 -0.964942 -0.14108 0.221324 
0.0758899 0.0641818 -0.0888702 0.445104 0.727903 -0.521574 
0.0853038 -0.245546 0.00671506 0.870854 0.486471 0.0704196 
-0.0338002 0.0395064 0.140856 -0.0496666 0.97715 0.206665 
-0.0338002 0.0395064 -0.140856 -0.0515288 0.974064 -0.220329 
0.159684 -0.321693 -0.0518891 0.635849 0.74341 -0.207456 
0.0209484 0.0313455 0.151491 0.128095 0.341136 0.931246 
0.13006 -0.296632 0.0312299 0.558339 0.818806 0.133471 
0.0526602 -0.0794049 0.032258 0.8505 -0.0688297 0.521452 
-0.130478 0.0165338 0.0799382 -0.780142 -0.405241 0.476611 
-0.0762433 -0.321693 -0.149627 -0.314045 0.721283 -0.617354 
0.0591825 -0.440508 -0.195122 0.298941 -0.0922995 -0.949797 
0 0.284076 0.0872316 4.37445e-05 0.50065 0.86565 
-0.0326114 0.126224 -0.100373 -0.308163 -0.0898641 -0.94708 
0 0.00846929 0.146029 0.0118565 -0.902665 0.430181 
-0.14937 0.0313455 0.0327721 -0.916667 0.346004 0.200007 
0.149627 -0.321693 0.0762433 0.597134 0.742398 0.30377 
-0.143169 -0.321693 0.0877456 -0.571713 0.741424 0.351333 
-0.123795 0.0165338 -0.0899304 -0.738678 -0.405764 -0.538248 
-0.126687 0.0395064 -0.0411579 -0.166241 0.984604 -0.0540259 
0 0.0916525 -0.102236 0.0315398 -0.142337 -0.989316 
-0.0132374 0.36742 -0.0155185 -0.557597 0.512435 -0.653066 
0.0657691 0.0395064 0.129064 0.0978577 0.97655 0.191766 
-0.0312299 -0.296632 0.13006 -0.113902 0.871992 0.476085 
0 0.103251 0.102236 -0.00109045 0.00527764 0.999985 
0.152551 0.0165338 0.0120164 0.910111 -0.407956 0.0726006 
-0.118686 0.0395064 0.0604677 -0.152518 0.985303 0.0769228 
-0.0413185 -0.296632 -0.127201 -0.158687 0.858804 -0.487108 
0.0626525 0.315017 0.0203701 0.634395 0.745059 0.205988 
-0.132084 -0.296632 0.0209163 -0.567649 0.818392 0.0894981 
-0.0871673 0.0723427 -0.0534313 -0.443595 0.853633 -0.273009 
0 0.249762 0.102622 -0.000114087 0.323657 0.946174 
-0.0786209 -0.296632 -0.108212 -0.326622 0.83162 -0.449139 
-0.167395 -0.321693 -0.0131731 -0.665978 0.744156 -0.052013 
0 -0.0899433 -0.0619135 -0.000332058 0.0250353 -0.999687 
0 -0.215056 0.077175 0.000148418 0.275195 0.961388 
-0.115441 0.0641818 0.0182817 -0.678294 0.726818 0.107951 
0.0607247 -0.296632 0.119168 0.246011 0.841461 0.481063 
-0.0149723 0.0313455 0.152197 -0.0924839 0.334098 0.93799 
-0.0397763 -0.440508 -0.199942 -0.19367 -0.0885852 -0.977059 
0.160101 -0.440508 0.126205 0.778249 -0.133311 0.613642 
0.0120164 0.0723427 -0.101465 0.110394 0.722241 -0.682774 
0 -0.321693 -0.167909 9.5845e-07 0.633739 -0.773547 
0.143651 0.00846929 0.0256393 0.574083 -0.812415 0.102033 
-0 -0.427817 -0.204633 0.00148526 -0.00942948 -0.999954 
-0.152904 0.0313455 -0.00298804 -0.938387 0.345161 -0.0171379 
0.14137 0.0165338 -0.0585721 0.843799 -0.407258 -0.349493 
-0.0280169 -0.0794049 0.0550057 -0.454255 -0.0561472 0.889101 
0 0.0395064 0.14484 0.00119855 0.976237 0.216704 
-0.106059 0.0641818 -0.0489011 -0.62337 0.727391 -0.2869 
0 -0.235394 -0.0827656 0.00191901 0.257301 -0.966329 
-0.165049 -0.440508 0.119907 -0.802381 -0.132906 0.581825 
0 -0.276519 0.103875 -0.000153653 0.686857 0.726793 
0.199942 -0.440508 0.0397763 0.970849 -0.141435 0.193516 
0.133337 -0.296632 -0.0105063 0.572945 0.818286 -0.0462837 
-0.129514 0.0395064 -0.0311013 -0.167065 0.985111 -0.0405698 
0.0246433 0.126224 -0.102622 0.233913 -0.1177 -0.965107 
-0.0851432 0.0395064 0.117176 -0.126135 0.976856 0.172749 
0.144872 0.0395064 -9.03275e-19 0.216268 0.976334 3.19537e-05 
-0.159684 -0.321693 0.0518891 -0.635849 0.74341 0.207456 
0 0.11485 -0.103071 -0.0024421 -0.155457 -0.98784 
-0.032258 -0.0794049 -0.0526602 -0.521307 -0.0598017 -0.851271 
0 0.188234 -0.11361 -5.64556e-05 0.0334341 -0.999441 
-0.144261 -0.440508 -0.144261 -0.701177 -0.12903 -0.701214 
-0.101272 0.0395064 -0.0864926 -0.130914 0.984982 -0.112567 
-0.141306 -0.440508 0.146992 -0.694542 -0.125544 0.708414 
0.118686 0.0395064 0.0604677 0.151385 0.985441 0.0773869 
0.0404189 0.0641818 -0.109562 0.234852 0.739023 -0.631419 
-0.143073 0.0395064 0.0226513 -0.210988 0.976899 0.0339546 
0.132084 -0.296632 -0.0209163 0.56766 0.818384 -0.0895003 
-0.0899304 0.0165338 -0.123795 -0.538276 -0.405561 -0.738769 
0.0514714 -0.440508 0.197307 0.242254 -0.093207 0.965725 
-0.0479051 0.126224 0.094043 -0.452848 -0.0258322 0.891214 
0.129514 0.0395064 0.0311013 0.16682 0.98515 0.0406294 
-0.0585721 0.0165338 0.14137 -0.35067 -0.402452 0.845614 
0 -0.0287688 0.0809663 0.00132134 -0.625096 0.780547 
-0.062781 -0.245546 0.058058 -0.653135 0.454528 0.605656 
-0.0758899 0.0641818 0.0888702 -0.444878 0.728238 0.521299 
0.0447243 -0.245546 0.0729661 0.474421 0.41937 0.773985 
-0.165852 -0.321693 -0.0262819 -0.659971 0.744032 -0.104184 
0.0834403 0.00846929 0.119714 0.334052 -0.812631 0.477536 
0.0993765 0.0165338 0.116341 0.591831 -0.407893 0.695241 
0.0299126 0.315017 -0.0587006 0.322725 0.703708 -0.632964 
0.118686 0.0395064 -0.0604677 0.152421 0.985325 -0.0768302 
0 -0.28468 -0.112807 0.000118894 0.784309 -0.62037 
-0.0209484 0.0313455 -0.151491 -0.133969 0.339366 -0.931066 
-0.0970311 0.0313455 -0.118204 -0.595622 0.345367 -0.725229 
-0.0853681 0.126224 0.062042 -0.808162 0.0245107 0.58845 
-0.144486 0.0313455 -0.0500899 -0.886075 0.345648 -0.308866 
0.100983 0.103251 -0.0160005 0.913034 -0.381231 -0.145024 
0.0131731 -0.321693 0.167395 0.0596488 0.645547 0.761387 
0.011663 -0.0376687 -0.0736087 0.131081 -0.541003 -0.830742 
0.0745083 -0.0376687 -9.03275e-19 0.809044 -0.587748 -5.01891e-08 
-0.077657 -0.245546 -0.0357923 -0.79853 0.476897 -0.367314 
-0.0653193 0.0476673 -0.106606 -0.488687 0.352113 -0.798249 
0.0238722 0.103251 -0.0994086 0.225065 -0.256306 -0.940028 
-0.0940752 0.0395064 0.11014 -0.138269 0.977078 0.161867 
-0.0720986 0.0313455 0.13488 -0.442974 0.34478 0.827588 
0.106606 0.0476673 0.0653193 0.797381 0.354813 0.488152 
