1.140193307785226512e-01 8.667557057697716782e-02 -2.623077583210106645e-01 6.764242053031921387e-01 5.571888685226440430e-01 -4.816542863845825195e-01
-1.646670179260544820e-01 -1.153297117664618399e-01 1.832859218357876241e-01 -9.486622214317321777e-01 -4.109461605548858643e-02 -3.136101365089416504e-01
-1.680623689343756499e-01 -1.252402512635719667e-01 2.658760286918441379e-02 -9.329317212104797363e-01 3.568168282508850098e-01 -4.816881939768791199e-02
1.592618310542901761e-01 -1.066739950997351860e-01 -7.527645960516637924e-02 9.453235864639282227e-01 3.257586956024169922e-01 1.563685946166515350e-02
1.699627058316206807e-01 -1.246424222303773033e-01 9.370958609246127224e-02 9.354818463325500488e-01 3.436426818370819092e-01 -8.236122131347656250e-02
-1.491676158719444922e-01 -9.727032984938097093e-02 4.172295800619209571e-01 -4.668188989162445068e-01 -5.754354968667030334e-02 8.824788331985473633e-01
1.772055326119197916e-01 -1.078996770762110646e-01 2.110774659018171406e-01 9.707837104797363281e-01 -4.145699553191661835e-03 -2.399203479290008545e-01
1.782201641616105725e-01 -2.746032361717573589e-02 2.610019300387338981e-01 8.281018733978271484e-01 4.733195304870605469e-01 -3.003598153591156006e-01
-1.257339540493649099e-01 2.721233359431655258e-02 2.287403555945193012e-01 -4.226266145706176758e-01 8.839681148529052734e-01 1.999677866697311401e-01
7.815312101155978686e-02 6.233147783383084090e-02 1.662394053560394824e-01 8.924269676208496094e-02 6.360892653465270996e-01 7.664372920989990234e-01
0.000000000000000000e+00 5.187079433719301441e-02 3.115118604223390819e-01 -8.886044379323720932e-04 9.584262967109680176e-01 2.853388786315917969e-01
-6.889604308692242468e-03 -9.886248014014897834e-02 -4.337442849154110602e-01 -2.967914566397666931e-02 2.768749594688415527e-01 -9.604474902153015137e-01
1.602826439972340755e-01 -1.841959445639757345e-02 -3.091353444381140791e-01 5.449572205543518066e-01 7.587886452674865723e-01 -3.567372560501098633e-01
1.533003187897450104e-01 1.038393199078565393e-02 -2.276221946653937955e-01 9.051608443260192871e-01 4.247713088989257812e-01 1.591180264949798584e-02
1.495137738941192396e-01 9.053805830399844212e-02 -6.993661889064932413e-02 9.837443828582763672e-01 1.707551181316375732e-01 5.558503791689872742e-02
-1.286171324738560606e-01 8.676984396745395650e-03 2.589770822202474565e-01 -3.236106336116790771e-01 9.458332061767578125e-01 2.599390596151351929e-02
-9.065984567498047708e-02 6.754680762710646436e-02 -3.008460960856795818e-01 -4.550462365150451660e-01 6.273329854011535645e-01 -6.319701075553894043e-01
1.435001613150120592e-01 -8.129231134624362309e-02 1.615759856746496193e-01 7.733342647552490234e-01 -2.152698189020156860e-01 -5.963329672813415527e-01
-1.651394529818286938e-01 -2.998233206444887028e-02 -1.840477875117897677e-01 -9.067956209182739258e-01 2.864595949649810791e-01 3.092936873435974121e-01
9.831064440998556198e-02 5.224785932563336122e-02 -3.094929821906160505e-01 5.877695083618164062e-01 5.615975260734558105e-01 -5.823531746864318848e-01
1.211394127499383633e-01 8.228148303018756327e-02 1.497748228982636876e-01 4.158445894718170166e-01 4.576156437397003174e-01 7.859142422676086426e-01
-4.364151942320934618e-02 6.523584960661843457e-02 -3.166722289260259227e-01 -2.051264494657516479e-01 7.244235873222351074e-01 -6.581288576126098633e-01
0.000000000000000000e+00 6.125768152014592072e-02 2.331900756805870001e-01 -2.275529783219099045e-03 9.482808709144592285e-01 3.174242079257965088e-01
1.359871193439336767e-01 1.282613352154344522e-01 6.531259476280880383e-04 8.362603783607482910e-01 5.437448620796203613e-01 7.078173011541366577e-02
-1.555123745181831441e-01 -1.067596515490998599e-01 4.174349606965672976e-02 -8.449581265449523926e-01 5.278214812278747559e-01 8.631506562232971191e-02
0.000000000000000000e+00 6.221932969909565320e-02 1.767813300211469041e-01 4.697199445217847824e-03 8.391807079315185547e-01 5.438323616981506348e-01
1.496276881412124671e-01 3.953538257250166499e-02 8.665749944682986372e-02 9.887806177139282227e-01 3.011798718944191933e-03 1.493445336818695068e-01
-2.676366667365348562e-02 -9.370013371761440335e-02 4.425035309615724666e-01 -9.086514264345169067e-02 8.637373149394989014e-02 9.921104311943054199e-01
-1.140193307785226512e-01 8.667557057697716782e-02 -2.623077583210106645e-01 -6.741234660148620605e-01 5.578704476356506348e-01 -4.840848445892333984e-01
-1.589951480882269563e-01 -1.063931832348077311e-01 -4.599519976513483793e-02 -9.384617209434509277e-01 3.432786762714385986e-01 3.807001188397407532e-02
-1.561146188322728445e-01 4.330868162544218580e-02 -2.637634063590957312e-02 -9.911462664604187012e-01 1.081679984927177429e-01 7.699778676033020020e-02
0.000000000000000000e+00 1.597926221996018303e-01 -1.793534608641342842e-01 1.211233786307275295e-03 9.304009079933166504e-01 -3.665416538715362549e-01
-3.554830954251664982e-02 6.137512799195520702e-02 1.658535098058089852e-01 5.808632075786590576e-02 7.267745137214660645e-01 6.844156980514526367e-01
3.554830954251664982e-02 6.137512799195520702e-02 1.658535098058089852e-01 -7.896915823221206665e-02 7.284190058708190918e-01 6.805655956268310547e-01
-1.141076363964243640e-01 1.277297353956660941e-01 1.153824338940805522e-01 -5.578195452690124512e-01 6.478342413902282715e-01 5.187949538230895996e-01
-6.231992372178128681e-02 6.381059693368465457e-02 -3.133907921647979822e-01 -1.005703061819076538e-01 6.941811442375183105e-01 -7.127398848533630371e-01
1.688244464168675019e-01 -1.249850480278359710e-01 6.014903600891235991e-02 9.192261695861816406e-01 3.929369151592254639e-01 -2.497629262506961823e-02
1.654723651613181912e-01 -6.125311747580617500e-02 -1.673862835260931103e-01 8.709094524383544922e-01 9.987644106149673462e-02 4.811874926090240479e-01
-1.295063700461264178e-01 -3.972332477518767530e-02 -3.665083874450409396e-01 -2.200999855995178223e-01 6.656358838081359863e-01 -7.130811214447021484e-01
-1.117560577917015435e-01 -1.045484788768407669e-01 4.314017486789680778e-01 -1.387218683958053589e-01 1.102873235940933228e-01 9.841712117195129395e-01
-1.916850047792649503e-02 1.749405678944629949e-01 -5.609383022837561433e-02 2.593432087451219559e-03 9.997405409812927246e-01 2.263107523322105408e-02
-1.106416408937818119e-01 1.470362919785975480e-03 3.486169980084630748e-01 2.609833329916000366e-02 9.762735366821289062e-01 2.149626314640045166e-01
-1.740954087494211988e-01 -1.235138764335933226e-01 1.720702253060900910e-01 -9.934366345405578613e-01 2.499972237274050713e-03 -1.143565326929092407e-01
-1.567477701126281930e-01 -7.910321507845999300e-02 -3.730465353944844020e-01 -7.627429962158203125e-01 2.718322873115539551e-01 -5.867966413497924805e-01
-1.169395975625325268e-01 5.421354238012566357e-02 1.817290937921803018e-01 -2.516725063323974609e-01 6.910774111747741699e-01 6.775492429733276367e-01
1.242724960730914180e-01 1.023734466506879756e-02 2.804591898871989786e-01 2.151033729314804077e-01 9.708602428436279297e-01 -1.056449338793754578e-01
1.454110948864053010e-01 -2.467957970945054702e-02 3.988973337855237222e-01 5.019080638885498047e-01 5.392178297042846680e-01 6.762635707855224609e-01
-8.455881053415059689e-02 -6.188891792469856240e-02 -3.951167584766613894e-01 -3.453741967678070068e-01 6.091805100440979004e-01 -7.138737440109252930e-01
-1.422462215408076269e-01 -4.213583425626267476e-02 -3.632825832230911489e-01 -3.856725990772247314e-01 6.173686385154724121e-01 -6.856476068496704102e-01
7.645853620402577600e-02 1.040761925845112290e-01 -2.670895075303888477e-01 2.423793822526931763e-01 7.779297232627868652e-01 -5.797219872474670410e-01
1.451735527742496479e-01 4.104805780715813784e-02 1.243993205380252431e-01 9.934625625610351562e-01 -2.107653208076953888e-02 1.121958941221237183e-01
6.463088174226931659e-02 1.137712663739411378e-01 -2.594095679414761824e-01 2.467768043279647827e-01 7.708282470703125000e-01 -5.873031616210937500e-01
-1.495137738941192396e-01 9.053805830399844212e-02 -6.993661889064932413e-02 -9.831818938255310059e-01 1.728568673133850098e-01 5.894002690911293030e-02
-1.762438844329700660e-01 -8.799470774498421854e-02 -1.716691059943265540e-01 -8.519149422645568848e-01 -1.850529387593269348e-02 5.233529806137084961e-01
1.432484903039921709e-01 -7.168995845561054736e-02 1.593330229799459208e-01 8.508617877960205078e-01 -3.235069513320922852e-01 -4.139777123928070068e-01
1.172627961240528260e-01 -6.211498030652696373e-02 -3.865820205064601223e-01 5.364577099680900574e-02 6.174079775810241699e-01 -7.848117351531982422e-01
1.511023919601711674e-01 4.067010976253877114e-02 -1.761603297208080843e-01 9.955730438232421875e-01 9.395266324281692505e-02 2.687657717615365982e-03
-1.267079650148208725e-01 2.283590717110728016e-02 2.353288377461666692e-01 -3.780589401721954346e-01 9.112418889999389648e-01 1.634308844804763794e-01
1.425844320573712298e-01 -3.768258194547891016e-02 1.510322948971841994e-01 9.847482442855834961e-01 1.149442717432975769e-01 -1.306088417768478394e-01
-1.371130159721806185e-01 1.290675655068771743e-01 -1.660444095890517210e-02 -8.624898195266723633e-01 4.990202784538269043e-01 8.420221507549285889e-02
1.472637467499833819e-01 3.968638517911360353e-02 1.090553363714222707e-01 9.910833239555358887e-01 -4.936415236443281174e-03 1.331519484519958496e-01
1.365734686468010883e-01 1.286913835746158474e-01 -8.179201954902006952e-03 8.478301167488098145e-01 5.258231163024902344e-01 6.851419806480407715e-02
1.471507155590691951e-01 9.222292949356328262e-02 -4.153311689256089512e-02 9.865705966949462891e-01 1.585263162851333618e-01 3.934399783611297607e-02
-1.495685233772182932e-01 1.366360263965555634e-02 -2.404265092611432841e-01 -9.139734506607055664e-01 3.875511288642883301e-01 -1.202356293797492981e-01
-1.463541988855956710e-01 -1.093505383783363316e-01 1.487531268991408029e-01 -2.844090163707733154e-01 9.174741506576538086e-01 2.781233787536621094e-01
0.000000000000000000e+00 4.359125960272769440e-02 3.383647157700732655e-01 -1.672160928137600422e-03 9.266089797019958496e-01 3.760225772857666016e-01
-1.649893334313957682e-01 -1.163937944621775689e-01 -1.478142263743557616e-01 -9.661910533905029297e-01 9.831812232732772827e-02 2.383449822664260864e-01
-1.100703035459576901e-01 1.343040886484491991e-01 1.096469840113638017e-01 -5.167848467826843262e-01 7.265113592147827148e-01 4.528958797454833984e-01
1.177670212022716711e-01 8.303451633021116315e-03 3.150555648687350940e-01 8.469474315643310547e-02 9.921051263809204102e-01 9.248884022235870361e-02
-1.746181780073993994e-01 -1.518760884119459836e-02 2.908863172490341320e-01 -7.477707862854003906e-01 6.539197564125061035e-01 -1.150122061371803284e-01
1.216533514461263787e-01 9.339916032401418544e-02 -2.423683497988021185e-01 7.081991434097290039e-01 5.314031839370727539e-01 -4.648275673389434814e-01
1.591823559981786207e-01 -1.071058095712746072e-01 -1.045656669508090719e-01 9.394767880439758301e-01 3.416908085346221924e-01 -2.511479519307613373e-02
-7.357624083571361745e-03 6.203035567678597678e-02 1.655188315139614341e-01 6.483186036348342896e-02 7.176051735877990723e-01 6.934260725975036621e-01
1.056082206733837542e-01 1.362476952984660594e-01 1.115367242344606213e-01 4.420841038227081299e-01 7.604252696037292480e-01 4.757257997989654541e-01
-1.340205532332623406e-01 -3.910871767459169618e-02 -3.644579309973630110e-01 -2.676588594913482666e-01 6.720433235168457031e-01 -6.904466152191162109e-01
1.088419724009447587e-01 8.075997723374089832e-02 -2.750228842426793996e-01 6.395381689071655273e-01 5.284747481346130371e-01 -5.583059191703796387e-01
-1.485009084567865123e-01 3.940292414564908197e-02 9.805422249322591488e-02 -9.934556484222412109e-01 1.477040932513773441e-04 1.142184138298034668e-01
0.000000000000000000e+00 -6.257593563197394460e-02 4.389386331668799213e-01 -2.892159158363938332e-03 3.241434097290039062e-01 9.460034966468811035e-01
0.000000000000000000e+00 1.730976296488540844e-01 -9.711304425496860432e-03 -6.627577240578830242e-04 9.979165196418762207e-01 6.451438367366790771e-02
-1.384411324654225006e-01 1.281262276200448302e-01 -5.556311346478626928e-02 -8.722137212753295898e-01 4.891247451305389404e-01 5.097112152725458145e-04
-1.128386846671766419e-01 -6.210261752002072672e-02 4.167500805567146416e-01 -2.788590826094150543e-02 2.753228545188903809e-01 9.609473347663879395e-01
1.366114400624988401e-01 9.077471735997505453e-02 1.242624468302775953e-01 8.499549031257629395e-01 3.550791740417480469e-01 3.892242610454559326e-01
-1.615895671421795354e-01 -9.253538261749069682e-02 -1.515972390452654806e-01 -8.816097378730773926e-01 1.059179604053497314e-01 4.599409103393554688e-01
-1.357725366924324994e-01 -7.473473616086184768e-02 -3.876319743033115883e-01 -4.342226386070251465e-01 4.552094042301177979e-01 -7.773256301879882812e-01
1.545348313280110741e-01 4.255984998563559080e-02 -1.408725217511015149e-01 9.942479729652404785e-01 8.586341887712478638e-02 -6.401888281106948853e-02
-1.252394425891152629e-01 -4.167222976227864806e-02 -3.693429977796862107e-01 -1.586220413446426392e-01 6.291049718856811523e-01 -7.609637975692749023e-01
8.018856550419445339e-02 6.479873679800490782e-02 -3.073868932036600277e-01 2.982399165630340576e-01 6.864721179008483887e-01 -6.631810069084167480e-01
0.000000000000000000e+00 -5.719988961411719836e-02 4.372793706065066233e-01 -4.351041279733181000e-03 3.979757130146026611e-01 9.173856377601623535e-01
8.064245638020929585e-02 -4.874197753149039913e-02 4.090047948105546838e-01 -1.593444123864173889e-02 4.281713068485260010e-01 9.035570621490478516e-01
0.000000000000000000e+00 -7.340926883615703225e-02 -4.280176655944844533e-01 3.241433296352624893e-04 3.025560081005096436e-01 -9.531315565109252930e-01
1.429614970458115697e-01 2.168860357388585625e-03 1.407349767936645624e-01 9.836620092391967773e-01 -1.546071618795394897e-01 9.222645312547683716e-02
-1.720617303691445721e-01 -7.696180384434325727e-02 3.968230348210123326e-01 -7.689975500106811523e-01 1.471858769655227661e-01 6.220765113830566406e-01
0.000000000000000000e+00 1.349010346254648218e-01 -2.408468440023554813e-01 1.175756333395838737e-03 8.698650598526000977e-01 -4.932882487773895264e-01
0.000000000000000000e+00 -1.261261702318042938e-02 4.143578813677569750e-01 -2.981345402076840401e-03 5.923600196838378906e-01 8.056678175926208496e-01
8.860409089022842910e-02 -1.046306031014893889e-01 4.359097504728509653e-01 1.663525998592376709e-01 1.666531413793563843e-01 9.718814492225646973e-01
-1.288281829006411860e-01 5.787381024215198372e-02 1.590221872049318863e-01 -6.474744081497192383e-01 4.227839410305023193e-01 6.340588331222534180e-01
-1.165254442145734620e-01 8.928500158597302283e-02 -2.557342881244065724e-01 -6.877158284187316895e-01 5.551167726516723633e-01 -4.678593873977661133e-01
1.383899152070394989e-01 -3.992731075254064843e-02 -3.633558768859495580e-01 3.378586769104003906e-01 6.641958951950073242e-01 -6.668547391891479492e-01
1.065318974366357418e-01 -1.846639643388548607e-02 4.017248796707368341e-01 -2.751278877258300781e-01 6.242764592170715332e-01 7.311522364616394043e-01
1.359147087372542528e-01 9.546551178291445838e-02 -2.070840740538116287e-01 8.340634703636169434e-01 5.109122991561889648e-01 -2.081025242805480957e-01
-1.194192193132128516e-01 9.061996890796897297e-03 3.064201584941258494e-01 -1.274184882640838623e-01 9.909095764160156250e-01 -4.315910488367080688e-02
0.000000000000000000e+00 5.771927541082397251e-02 2.781976830127359523e-01 -6.830155034549534321e-04 9.873142242431640625e-01 1.587769240140914917e-01
0.000000000000000000e+00 1.508198883646079957e-01 -2.027288409788987611e-01 1.177603146061301231e-03 9.384204149246215820e-01 -3.454934358596801758e-01
1.358113911643092364e-01 -8.360701521212579937e-03 2.286891383361362995e-01 7.707161903381347656e-01 4.001444578170776367e-01 -4.958639442920684814e-01
1.456415725491287949e-01 1.506766196429291590e-02 -2.538719226428592934e-01 8.875735998153686523e-01 4.287177324295043945e-01 -1.685655713081359863e-01
1.749687513104692393e-01 -9.053349425965870334e-02 -3.497894848077082175e-01 8.529478907585144043e-01 1.855024397373199463e-01 -4.879229366779327393e-01
1.439672980337121655e-01 -9.606760733355951265e-02 1.743926630569053449e-01 4.193362593650817871e-01 5.139731764793395996e-01 -7.483238577842712402e-01
-1.788656782284721580e-01 -3.500250644216169188e-02 -2.938902625635610444e-01 -8.680816292762756348e-01 4.432652890682220459e-01 -2.234951555728912354e-01
1.522821550153381776e-01 -7.656972690085961375e-02 -3.764745594814291607e-01 7.037946581840515137e-01 3.144368827342987061e-01 -6.370263099670410156e-01
-1.784197348580684739e-01 -2.116678222932010314e-02 -2.524599158126107357e-01 -7.860847115516662598e-01 6.170765161514282227e-01 3.587979823350906372e-02
-1.709517287521199747e-01 -1.243607273092708354e-01 1.160879957811152968e-01 -9.693096280097961426e-01 2.451184988021850586e-01 -1.886253803968429565e-02
-9.926169591478709031e-02 7.200182605024826876e-02 -2.919537203629762878e-01 -5.305919647216796875e-01 5.646083950996398926e-01 -6.322100162506103516e-01
-1.621723842203308952e-01 -8.961776500201784623e-02 4.084210946762243388e-01 -6.388202905654907227e-01 1.777714933268725872e-04 7.693559527397155762e-01
0.000000000000000000e+00 1.578640275046282460e-01 8.538501549286606207e-02 4.226464661769568920e-04 9.674258828163146973e-01 2.531540095806121826e-01
1.609087308281572648e-01 -1.074440200878381824e-01 -3.837527085088889844e-01 7.943087816238403320e-01 2.610377073287963867e-01 -5.485734939575195312e-01
-1.435787533149445738e-01 2.612264226940931924e-02 1.354560669554996932e-01 -9.861121177673339844e-01 -1.045069023966789246e-01 1.290785968303680420e-01
1.542081005417747230e-01 -1.070784348297250665e-01 6.121576787316514168e-02 7.288177609443664551e-01 6.836302876472473145e-01 3.839755430817604065e-02
1.535802475984934523e-01 5.960283424066766672e-02 -4.151015743190645396e-02 9.758875370025634766e-01 1.954660564661026001e-01 9.714207053184509277e-02
0.000000000000000000e+00 1.727629513570065611e-01 -1.312578060739621744e-01 1.052025239914655685e-03 9.875829219818115234e-01 -1.570948958396911621e-01
-1.012256128569213459e-01 -2.259733323932797827e-02 4.031218745459420605e-01 2.650916576385498047e-01 5.865773558616638184e-01 7.652798891067504883e-01
-2.639719835936134296e-02 -9.599784589541715540e-02 -4.316373128722760244e-01 -8.822903037071228027e-02 3.177078664302825928e-01 -9.440748691558837891e-01
-1.353786936365908300e-01 1.277959646090923995e-01 9.699153445480349078e-03 -8.289577364921569824e-01 5.516646504402160645e-01 9.216909110546112061e-02
-1.996766631993706492e-02 -9.731271654597378751e-02 -4.326228035680592110e-01 -6.097986549139022827e-02 2.880662977695465088e-01 -9.556669592857360840e-01
0.000000000000000000e+00 -7.939462361753565900e-02 4.422474446696574302e-01 -3.972625359892845154e-03 1.512127965688705444e-01 9.884932637214660645e-01
1.482916241423594128e-01 1.443627679629561240e-02 -2.448197137517538757e-01 9.073578715324401855e-01 4.003302454948425293e-01 -1.282085478305816650e-01
-2.502492905716860450e-02 6.720418182964776888e-02 -3.187774348568029326e-01 -1.874258369207382202e-01 7.573179602622985840e-01 -6.255726814270019531e-01
1.659271390935120605e-01 -4.548173411855887388e-02 -1.754353405978349434e-01 8.801856637001037598e-01 2.429403364658355713e-01 4.077416062355041504e-01
0.000000000000000000e+00 1.650909592737050957e-01 -1.635017193945964287e-01 1.446038368158042431e-03 9.509608745574951172e-01 -3.093078434467315674e-01
1.372384099496010423e-01 8.873485758644530930e-02 -2.118508113081464805e-01 8.670678138732910156e-01 4.359336793422698975e-01 -2.411538511514663696e-01
-1.400067910708199803e-01 1.389143113384199747e-02 -2.723887276606711261e-01 -8.349376320838928223e-01 4.693714082241058350e-01 -2.873492240905761719e-01
1.028292428780165912e-01 7.474018326138062718e-02 -2.867101327719721038e-01 5.639596581459045410e-01 5.345304012298583984e-01 -6.294653415679931641e-01
1.771410695108515537e-02 1.305934865842189041e-01 -2.488367363101031682e-01 7.712204009294509888e-02 8.518340587615966797e-01 -5.181032419204711914e-01
1.582736911899699228e-01 4.331839524341137004e-02 -8.744850597673954617e-02 9.953057169914245605e-01 9.091513603925704956e-02 -3.318243846297264099e-02
-1.575902057074106133e-01 -1.236889351777167856e-02 3.540124712622582104e-01 -5.344876646995544434e-01 7.949169874191284180e-01 2.871062755584716797e-01
1.546637575301475775e-01 4.285743991796438918e-02 1.056719766945426325e-02 9.968231916427612305e-01 7.261797040700912476e-02 3.271275758743286133e-02
1.460062747510628978e-01 9.764312832037086443e-02 -4.136268705001057422e-02 9.895197749137878418e-01 1.360480338335037231e-01 4.839035496115684509e-02
6.705575400985057388e-02 -6.590152520215275533e-02 4.205074845984327903e-01 2.995132505893707275e-01 5.820461511611938477e-01 7.559855580329895020e-01
1.197300550882269138e-01 4.741754202640924287e-02 1.950164401178522133e-01 3.373284339904785156e-01 7.760912775993347168e-01 5.328149795532226562e-01
1.635720282640731604e-01 -1.065892217065495529e-01 -3.790884057713201361e-01 8.103470802307128906e-01 2.524790763854980469e-01 -5.287644863128662109e-01
-4.658209649933663793e-02 1.512101991957336133e-01 1.119994456722656351e-01 -1.068126037716865540e-02 9.021629095077514648e-01 4.312633275985717773e-01
0.000000000000000000e+00 1.920389710680951018e-02 3.825528469680942734e-01 -1.790051464922726154e-03 7.984124422073364258e-01 6.021082401275634766e-01
1.561146188322728445e-01 4.330868162544218580e-02 -2.637634063590957312e-02 9.906303286552429199e-01 1.066063567996025085e-01 8.536170423030853271e-02
-1.067570767622851302e-01 -5.817125141103612201e-02 4.157584084676782532e-01 4.755317792296409607e-02 2.971694171428680420e-01 9.536399245262145996e-01
1.519669039594290227e-01 7.993696887489687430e-02 -7.011941151970589592e-02 9.742556810379028320e-01 2.154338955879211426e-01 6.643863767385482788e-02
-1.495482130851009117e-01 -4.450948926546093032e-02 4.045259338705794461e-01 -4.831767082214355469e-01 2.801289856433868408e-01 8.294986486434936523e-01
-2.408359117033626040e-02 -1.046871186969464684e-01 4.415772050297833151e-01 -6.536874175071716309e-02 -5.027756839990615845e-02 9.965937137603759766e-01
9.084617052875311460e-02 -5.280050373025347438e-02 -3.853589876985212825e-01 3.046204149723052979e-01 5.511212348937988281e-01 -7.768345475196838379e-01
-1.659271390935120605e-01 -4.548173411855887388e-02 -1.754353405978349434e-01 -8.807461857795715332e-01 2.421444207429885864e-01 4.070039391517639160e-01
1.501645862980549306e-01 3.968991740382966926e-02 8.088761037313142721e-02 9.918866157531738281e-01 2.889259485527873039e-03 1.270934343338012695e-01
-1.516428223417297105e-01 -2.309184469957761138e-02 3.850986979322009174e-01 -5.843704342842102051e-01 6.813661456108093262e-01 4.407395422458648682e-01
1.423018540800857212e-01 -5.334005105563299071e-02 1.953776100950702366e-01 7.579691410064697266e-01 4.279771745204925537e-01 -4.922583401203155518e-01
-7.087497198409997701e-02 1.091228586475945506e-01 -2.629912438035699740e-01 -2.476543635129928589e-01 7.623208165168762207e-01 -5.979416966438293457e-01
-1.574692270108852543e-01 -2.018040847735788623e-02 -3.170766686560158032e-01 -5.182804465293884277e-01 7.550761699676513672e-01 -4.015537202358245850e-01
1.391670046445746267e-01 7.700257319202269413e-02 1.306866805326277747e-01 9.190017580986022949e-01 2.657904922962188721e-01 2.911893427371978760e-01
1.718886513580571984e-01 -8.840444581204820462e-02 -3.552423567131394733e-01 8.260821104049682617e-01 1.964128911495208740e-01 -5.282143354415893555e-01
1.685224412036436248e-01 -8.619592230832617830e-02 -3.602960872256549818e-01 8.139616250991821289e-01 1.884077489376068115e-01 -5.495169758796691895e-01
-1.772055326119197916e-01 -1.078996770762110646e-01 2.110774659018171406e-01 -9.672756195068359375e-01 -1.527970284223556519e-02 -2.532675862312316895e-01
1.330076877959296133e-01 1.108421690281410632e-01 1.053111781723893164e-01 8.544494509696960449e-01 3.854589462280273438e-01 3.483353853225708008e-01
-1.347093370528957557e-01 1.049627809882444918e-01 -1.944537215253284990e-01 -8.190034031867980957e-01 5.457270741462707520e-01 -1.772439330816268921e-01
1.273393501828181673e-01 -1.395486241528658133e-02 3.984893618308177898e-01 1.624053902924060822e-02 7.995363473892211914e-01 6.003981232643127441e-01
-5.046047923758020803e-02 1.216189866368670436e-01 -2.539098940585570174e-01 -2.350153177976608276e-01 7.879715561866760254e-01 -5.690945386886596680e-01
0.000000000000000000e+00 3.926781655025944617e-02 3.487344444802723542e-01 -1.555271097458899021e-03 9.027923941612243652e-01 4.300739467144012451e-01
1.295778975966268010e-01 7.639393386400177011e-03 2.545918252352479816e-01 3.644399940967559814e-01 9.291443228721618652e-01 -6.224420294165611267e-02
-1.548977674175871511e-01 4.297488638977367548e-02 4.871485314793282638e-03 -9.959436058998107910e-01 8.762430399656295776e-02 2.045301534235477448e-02
1.753007804337796960e-01 -1.783412820970916787e-02 -2.602016693340546416e-01 7.445090413093566895e-01 6.671122908592224121e-01 -2.583524025976657867e-02
-1.593183466497472833e-01 -1.088977441791785794e-02 3.460967556735479178e-01 -5.253985524177551270e-01 8.021646738052368164e-01 2.837043106555938721e-01
-1.439858422134715210e-01 -1.004466829253058413e-01 1.660000971315258311e-01 -4.965202212333679199e-01 6.153184175491333008e-01 -6.122506856918334961e-01
-1.041211540679187753e-01 -1.118029990081451791e-02 3.803990729474713284e-01 5.039319023489952087e-02 9.294806718826293945e-01 3.654125332832336426e-01
1.575451698422807301e-01 -1.063764051674064015e-01 2.769811608732331530e-03 8.920835852622985840e-01 4.516345262527465820e-01 -1.459789182990789413e-02
0.000000000000000000e+00 1.840031598390385464e-02 -3.807291241519340508e-01 1.173605094663798809e-03 6.238790154457092285e-01 -7.815200686454772949e-01
-1.436193738991793922e-01 3.047346006342709079e-02 1.347867103718046466e-01 -9.810742735862731934e-01 -1.015046685934066772e-01 1.648941189050674438e-01
6.519956992155639952e-02 1.682858565293893216e-01 -5.624483283498755287e-02 3.210908472537994385e-01 9.470253586769104004e-01 -6.609593052417039871e-03
-1.460062747510628978e-01 9.764312832037086443e-02 -4.136268705001057422e-02 -9.891067147254943848e-01 1.395110189914703369e-01 4.695394262671470642e-02
-9.930143344284285412e-02 6.441725652866947538e-02 1.651223392895827258e-01 -1.590557247400283813e-01 5.960766077041625977e-01 7.870158553123474121e-01
1.353786936365908300e-01 1.277959646090923995e-01 9.699153445480349078e-03 8.284393548965454102e-01 5.537030696868896484e-01 8.426792174577713013e-02
-1.383722540834591563e-01 1.292494750797547054e-01 -4.808715985322660480e-02 -8.704967498779296875e-01 4.911395609378814697e-01 3.189646825194358826e-02
-1.190633476730689200e-01 9.153856095482493238e-02 -2.490778106469748454e-01 -6.990011930465698242e-01 5.459430813789367676e-01 -4.618913233280181885e-01
-1.448273947520749005e-01 1.030491982483142110e-01 -4.113485855582414003e-02 -9.914237856864929199e-01 1.184644177556037903e-01 5.518151074647903442e-02
1.686699115855395115e-01 -1.253347382747267980e-01 -8.533976782124645666e-02 9.593752026557922363e-01 2.819249927997589111e-01 1.083692163228988647e-02
-1.688244464168675019e-01 -1.249850480278359710e-01 6.014903600891235991e-02 -9.160593152046203613e-01 3.999883830547332764e-01 -2.906222268939018250e-02
1.004917931721580615e-01 -4.912367142150389498e-03 3.459130799883123886e-01 -9.286789596080780029e-02 9.563351273536682129e-01 2.771258950233459473e-01
-1.685056631362422674e-01 -1.250857164322439485e-01 4.896248033312238651e-02 -9.261588454246520996e-01 3.750337362289428711e-01 -3.974415734410285950e-02
-8.772633304828532375e-02 -5.747540314197056854e-02 -3.902776106156471414e-01 -3.300092518329620361e-01 5.862639546394348145e-01 -7.398570775985717773e-01
-6.500176533745654316e-03 6.838482794099379203e-02 -3.199006823165128077e-01 -4.198196157813072205e-02 7.482327222824096680e-01 -6.621066927909851074e-01
-1.060153095719106736e-01 -1.047648276406999979e-01 4.327466432396113172e-01 -1.478778272867202759e-01 1.473780125379562378e-01 9.779630899429321289e-01
-1.375130404212754065e-01 -1.036415801809900950e-01 -4.054705921756381892e-01 -4.928787350654602051e-01 3.603742420673370361e-01 -7.919601798057556152e-01
-1.473714796038234909e-01 -4.978133465419364717e-02 -3.660544965690261665e-01 -4.921454191207885742e-01 5.267048478126525879e-01 -6.930908560752868652e-01
-1.609087308281572648e-01 -1.074440200878381824e-01 -3.837527085088889844e-01 -7.960518002510070801e-01 2.612981498241424561e-01 -5.459163784980773926e-01
0.000000000000000000e+00 8.356435003762149177e-03 -3.889680383021645871e-01 8.691806579008698463e-04 5.956696867942810059e-01 -8.032289743423461914e-01
-1.584741449426068371e-01 -1.079402976604458553e-01 -1.436338384228882936e-01 -9.528550505638122559e-01 1.697568893432617188e-01 2.514955401420593262e-01
1.040814165398629976e-01 -1.167867544618402253e-01 -4.256961108998482679e-01 1.810612678527832031e-01 2.495160549879074097e-01 -9.512930512428283691e-01
-1.309978519324864754e-01 1.339755917498547944e-01 -5.563640712764469226e-02 -7.471101880073547363e-01 6.644763350486755371e-01 -1.725423522293567657e-02
-1.454110948864053010e-01 -2.467957970945054702e-02 3.988973337855237222e-01 -5.028392672538757324e-01 5.363256335258483887e-01 6.778697967529296875e-01
0.000000000000000000e+00 1.739365330189204251e-01 -1.231672453618065100e-01 1.122615882195532322e-03 9.941827058792114258e-01 -1.077005565166473389e-01
1.349910319740022790e-01 1.186130634034924802e-01 -1.485224374299275729e-01 8.148984313011169434e-01 5.634568929672241211e-01 -1.358558684587478638e-01
1.158746318106377848e-01 -7.337239409731638115e-03 -3.351846186629426350e-01 4.339246451854705811e-01 6.940461993217468262e-01 -5.744643807411193848e-01
1.492214822988645329e-01 4.050409520088354282e-02 -1.935053191890640234e-01 9.897498488426208496e-01 9.913630038499832153e-02 -1.027965918183326721e-01
1.525426565881482510e-01 6.504157724723463874e-02 -4.183865433050085181e-02 9.712346792221069336e-01 2.260878533124923706e-01 7.474885880947113037e-02
1.423424746643205119e-01 1.137906936098795063e-01 -4.027564489364039713e-02 9.516549706459045410e-01 2.946687340736389160e-01 8.673597872257232666e-02
1.239784383654786853e-01 6.065278803751913278e-02 1.610832403267580260e-01 5.115015506744384766e-01 4.392769336700439453e-01 7.385132908821105957e-01
9.360925331289796092e-02 7.548371656411312358e-02 -2.918336247226299696e-01 4.553280770778656006e-01 6.007552146911621094e-01 -6.570917367935180664e-01
-3.288147988188468845e-02 -9.174416428109127830e-02 4.414420974343937210e-01 -1.092805340886116028e-01 9.490550309419631958e-02 9.894698858261108398e-01
0.000000000000000000e+00 1.538284607665196257e-01 1.009621264907295812e-01 6.848328048363327980e-04 9.145990610122680664e-01 4.043613672256469727e-01
-1.683979302824021862e-01 -1.170242965739958507e-01 1.882310364382840107e-01 -9.875403642654418945e-01 -9.767083823680877686e-02 -1.233875453472137451e-01
8.430890563548873451e-02 1.459577810429392719e-01 1.101768177187741338e-01 2.136449515819549561e-01 8.723300099372863770e-01 4.397683441638946533e-01
-1.479922680976725746e-01 -1.090423517718593360e-01 -4.009043086739401685e-01 -6.588959097862243652e-01 2.343669682741165161e-01 -7.147925496101379395e-01
1.132025038129317179e-01 -6.572932924724439463e-02 -3.893424541220679158e-01 1.045024693012237549e-01 6.256150007247924805e-01 -7.731009125709533691e-01
-1.790175638912631095e-01 -5.275458480894458513e-02 3.749091126825213061e-01 -8.388021588325500488e-01 3.491023778915405273e-01 4.177780747413635254e-01
1.549392710580009547e-01 -1.084409905139486208e-01 -3.927201440068087135e-01 7.436391115188598633e-01 2.304434180259704590e-01 -6.276118159294128418e-01
0.000000000000000000e+00 4.125910823394324939e-02 -3.574782549584110680e-01 1.583760371431708336e-03 7.726386785507202148e-01 -6.348440051078796387e-01
-1.526486233296303063e-01 2.584271346066086342e-02 -2.148081664516751366e-01 -9.355863332748413086e-01 3.530471324920654297e-01 -5.990008357912302017e-03
-1.619966560407064618e-02 -1.199454464141847809e-01 -4.386152227988699415e-01 -4.451849684119224548e-02 1.402978301048278809e-01 -9.891080260276794434e-01
1.258752430380076504e-01 1.041660506940928974e-02 2.719606572203374650e-01 2.574432492256164551e-01 9.631344079971313477e-01 -7.807126641273498535e-02
0.000000000000000000e+00 1.676641849793612249e-01 3.848943404997832302e-02 -4.725159669760614634e-04 9.760420918464660645e-01 2.175811082124710083e-01
-7.109132074795919409e-02 -5.476353761620872396e-02 4.134871879752460289e-01 -2.158979624509811401e-01 5.782230496406555176e-01 7.867949604988098145e-01
6.889604308692242468e-03 -9.886248014014897834e-02 -4.337442849154110602e-01 2.942016161978244781e-02 2.780535817146301270e-01 -9.601148962974548340e-01
-5.601755177213549319e-02 -8.546916707299501148e-02 -4.222177526106994372e-01 -2.142891287803649902e-01 4.310883879661560059e-01 -8.764947056770324707e-01
1.176451594495672992e-01 -5.227618198059532165e-03 -3.311172619023893815e-01 4.317339956760406494e-01 6.946421861648559570e-01 -5.753938555717468262e-01
1.391449282400991916e-01 1.272325747668794083e-01 -6.857494626260479675e-02 8.663185834884643555e-01 4.970454871654510498e-01 -4.937442019581794739e-02
-1.560077690346117762e-01 -1.436989881942466601e-02 3.618831509858385642e-01 -5.458466410636901855e-01 7.903075814247131348e-01 2.783262133598327637e-01
-1.025069273726753188e-01 2.395738851845912940e-02 -3.270710984901325502e-01 -6.021246314048767090e-01 3.701979815959930420e-01 -7.073891162872314453e-01
0.000000000000000000e+00 1.758589463206408909e-01 -7.411347461740071252e-02 1.381637761369347572e-03 9.990755915641784668e-01 4.296546429395675659e-02
1.777662732855957162e-01 -2.348833692395634054e-02 2.680063316506983706e-01 8.013750910758972168e-01 5.291448831558227539e-01 -2.789330482482910156e-01
-1.680076194512765964e-01 -1.046060911491549471e-02 3.143853252288610900e-01 -6.616714596748352051e-01 7.497333288192749023e-01 -9.531213901937007904e-03
8.834447237359736860e-02 -1.180504078540138557e-01 -4.290843974587372767e-01 1.884299814701080322e-01 2.205249816179275513e-01 -9.570072293281555176e-01
0.000000000000000000e+00 -6.085927441996450554e-02 -4.242894024066738434e-01 5.544935120269656181e-04 3.371314704418182373e-01 -9.414573907852172852e-01
1.353610325130104874e-01 1.116985199011096691e-02 -2.863789867048406879e-01 7.945098280906677246e-01 4.990548193454742432e-01 -3.459745943546295166e-01
-1.168142035851121030e-01 1.231705163434002603e-01 1.180934163636633977e-01 -5.983675718307495117e-01 5.792632102966308594e-01 5.535434484481811523e-01
-1.545224685415048371e-01 -1.685216973864203313e-02 3.696920167768876775e-01 -5.590036511421203613e-01 7.830272316932678223e-01 2.727329432964324951e-01
-1.456415725491287949e-01 1.506766196429291590e-02 -2.538719226428592934e-01 -8.869363069534301758e-01 4.294953048229217529e-01 -1.699348837137222290e-01
5.611380489564836427e-02 6.411436825926658534e-02 -3.146835864108791792e-01 1.310250908136367798e-01 6.988894939422607422e-01 -7.031257748603820801e-01
1.559309431470372598e-01 4.330161717601004739e-02 -2.185332688698344433e-02 9.908633232116699219e-01 1.178961396217346191e-01 6.550107151269912720e-02
1.319497864934670028e-01 1.190166200773033478e-01 8.715024479472145702e-02 8.555550575256347656e-01 5.130755305290222168e-01 6.913109123706817627e-02
-1.320495718416959674e-01 8.729967767486426777e-03 -2.956722699328177550e-01 -7.438333034515380859e-01 5.326621532440185547e-01 -4.037115275859832764e-01
-1.393038783523223023e-01 4.803214912700522199e-02 1.472713586307499156e-01 -9.440561532974243164e-01 6.486641615629196167e-02 3.233424425125122070e-01
-1.239784383654786853e-01 6.065278803751913278e-02 1.610832403267580260e-01 -5.167965888977050781e-01 4.339779317378997803e-01 7.379596829414367676e-01
0.000000000000000000e+00 -8.613940671286907103e-02 -4.312116797939897217e-01 4.359544254839420319e-04 3.254122734069824219e-01 -9.455721974372863770e-01
1.278833127890927901e-01 1.530873630116461222e-02 2.488802178693647338e-01 3.340191543102264404e-01 9.213207364082336426e-01 1.989957988262176514e-01
1.578136189207019757e-01 2.494708087445934603e-03 -2.123462058245751405e-01 9.065275788307189941e-01 4.212850630283355713e-01 2.695706859230995178e-02
1.340682382669292905e-01 -1.077778153235066927e-01 -4.101322457446699987e-01 4.449344575405120850e-01 3.264644443988800049e-01 -8.339390754699707031e-01
-1.789610482958060300e-01 -4.051719228012414659e-02 -3.012628986021756994e-01 -8.888905644416809082e-01 3.263047635555267334e-01 -3.215568959712982178e-01
-1.414479387549760769e-01 1.437357980758539183e-02 -2.677385538219664851e-01 -8.462595939636230469e-01 4.596194922924041748e-01 -2.694339156150817871e-01
1.492930098493649160e-01 -1.084648330307820818e-01 1.195848982500234414e-01 2.208914309740066528e-01 9.578235745429992676e-01 1.837963014841079712e-01
0.000000000000000000e+00 4.553839847746062736e-02 -3.525110639514392741e-01 3.242254490032792091e-03 7.957049608230590820e-01 -6.056756973266601562e-01
0.000000000000000000e+00 1.756646739612570951e-01 -6.529174338901883035e-02 1.463826280087232590e-03 9.995251297950744629e-01 3.078028187155723572e-02
-1.603868446263581049e-01 -1.137781820599286231e-01 1.787999964463802549e-01 -8.659391403198242188e-01 -4.434730391949415207e-03 -5.001297593116760254e-01
4.172705362710004556e-02 -1.041007693940790568e-01 4.405899482216421026e-01 6.499806791543960571e-02 -3.012070618569850922e-02 9.974307417869567871e-01
-4.792699105997984960e-02 -1.195674983695654003e-01 -4.351501103524064717e-01 -1.377580463886260986e-01 1.450433284044265747e-01 -9.797883629798889160e-01
-8.018856550419445339e-02 6.479873679800490782e-02 -3.073868932036600277e-01 -3.003427386283874512e-01 6.844294667243957520e-01 -6.643421649932861328e-01
1.059905839988981996e-01 7.769842146108826841e-02 -2.810373798779656207e-01 6.025121212005615234e-01 5.175851583480834961e-01 -6.075234413146972656e-01
2.741359602141014637e-02 1.514689346561856331e-01 1.121451499418034820e-01 -2.347277477383613586e-02 9.158642888069152832e-01 4.008012115955352783e-01
-1.274691594411337114e-01 1.876766735437501027e-02 2.419959118977465795e-01 -3.280484080314636230e-01 9.283652305603027344e-01 1.747064888477325439e-01
-1.453987320998990640e-01 1.063059094365296775e-01 -7.005759758717468311e-02 -9.705017805099487305e-01 2.410282194614410400e-01 -5.638280417770147324e-03
-3.584943169956152087e-02 -1.042862111916726675e-01 4.409625979291874054e-01 -4.997217655181884766e-02 -3.903586789965629578e-02 9.979874491691589355e-01
1.384676241507930006e-01 -6.149065958796180037e-02 4.125423178636976052e-01 3.608413934707641602e-01 3.027521073818206787e-01 8.821194171905517578e-01
-1.789115971497810542e-01 -2.566683651759178383e-02 3.369756684004792113e-01 -7.856283783912658691e-01 5.974874496459960938e-01 1.606135666370391846e-01
-1.430904232479480731e-01 7.133402195823318123e-03 1.395004642553984986e-01 -9.811500310897827148e-01 -1.613746285438537598e-01 1.063149496912956238e-01
-1.788285898689534192e-01 -4.334208899680017796e-02 2.432533838966670914e-01 -8.673760294914245605e-01 2.701168060302734375e-01 -4.179662764072418213e-01
-8.656423111669868387e-02 -2.430516388954725646e-02 3.826694103837245398e-01 4.399166107177734375e-01 8.142844438552856445e-01 3.787008225917816162e-01
1.704572172918703277e-01 -1.245020162979135758e-01 1.048987909367882915e-01 9.545627832412719727e-01 2.886940240859985352e-01 -7.393068075180053711e-02
-4.484954027610488225e-02 -9.034275412499098712e-02 -4.269323895504723576e-01 -1.402184963226318359e-01 3.706669211387634277e-01 -9.181202650070190430e-01
1.142480423288880914e-01 -9.611109070700944723e-03 -3.389172971316483651e-01 4.363042712211608887e-01 6.883051395416259766e-01 -5.795468688011169434e-01
7.517545557591377714e-02 -5.598833653650558961e-02 4.126897882455934918e-01 1.819631606340408325e-01 5.558553934097290039e-01 8.111190795898437500e-01
-1.071235450765772729e-01 -4.326900895461982186e-03 3.647177613204837798e-01 9.290703386068344116e-02 9.770153164863586426e-01 1.918577104806900024e-01
1.612301632773195104e-01 -9.959916261412741362e-03 3.381536653432881678e-01 5.523196458816528320e-01 8.003395795822143555e-01 2.332372218370437622e-01
1.215818238956259956e-01 -4.474349915290048996e-02 -3.727401149003654046e-01 1.594987213611602783e-01 5.645341277122497559e-01 -8.098527193069458008e-01
-1.788489001610708284e-01 -4.970009348572407282e-02 2.384230665974429453e-01 -8.812015652656555176e-01 2.003903239965438843e-01 -4.281677305698394775e-01
-9.695338706283611330e-02 -4.283786391858136061e-02 -3.754431498643370779e-01 -2.170958667993545532e-01 5.200887322425842285e-01 -8.260610699653625488e-01
0.000000000000000000e+00 1.757803543207083485e-01 -9.897415522527212850e-02 4.395486903376877308e-04 9.987441897392272949e-01 -5.009974539279937744e-02
-1.573138091233782232e-01 4.351266760279515894e-02 -1.043042823218199855e-01 -9.892745614051818848e-01 9.742076694965362549e-02 -1.088348701596260071e-01
-9.784439074746446863e-02 -4.706770301607377666e-02 4.118579493249592827e-01 2.614167332649230957e-01 3.085622489452362061e-01 9.145767688751220703e-01
1.141076363964243640e-01 1.277297353956660941e-01 1.153824338940805522e-01 5.591574907302856445e-01 6.476412415504455566e-01 5.175942778587341309e-01
1.704024678087712463e-01 -1.162889243975526177e-02 3.065225930108918528e-01 6.876411437988281250e-01 7.241375446319580078e-01 -5.267376080155372620e-02
1.432952922814800800e-01 -7.249442263469521586e-02 1.854511755867378209e-01 7.325294613838195801e-01 2.238719314336776733e-01 -6.428701281547546387e-01
1.383722540834591563e-01 1.292494750797547054e-01 -4.808715985322660480e-02 8.667895793914794922e-01 4.978089928627014160e-01 2.936109900474548340e-02
-1.351208412323177954e-01 -1.107228076805290840e-01 -4.115380711816653547e-01 -4.524850547313690186e-01 2.699229121208190918e-01 -8.499404788017272949e-01
-1.482872088614643202e-01 -5.936072808417230257e-02 -3.717422614180759810e-01 -5.231521725654602051e-01 4.597691595554351807e-01 -7.175821065902709961e-01
1.767330975561456075e-01 -1.663228875006675031e-02 3.008780979146138401e-01 7.712361216545104980e-01 6.309485435485839844e-01 -8.425410091876983643e-02
-1.530663089023054368e-01 -7.271695279180753757e-02 4.075398046095651816e-01 -5.457248687744140625e-01 2.162935733795166016e-01 8.095687031745910645e-01
1.049812507862815381e-01 -6.987881023244624235e-02 -3.934221736691273508e-01 1.771275252103805542e-01 6.119033694267272949e-01 -7.708437442779541016e-01
-3.203904428710227514e-02 -1.198209354929433423e-01 -4.371643614967447022e-01 -9.292415529489517212e-02 1.486475318670272827e-01 -9.845146536827087402e-01
1.556324701585294623e-01 6.907339813994913327e-03 -2.196985315710723863e-01 8.960447311401367188e-01 4.438611567020416260e-01 9.542461484670639038e-03
-1.748062689735300490e-01 -1.233275515798206989e-01 1.832753251616394408e-01 -9.973120093345642090e-01 -5.087647587060928345e-03 -7.309472560882568359e-02
1.091068892546499247e-01 -6.831844996412284043e-02 -3.916225051762903253e-01 1.431683599948883057e-01 6.125505566596984863e-01 -7.773573994636535645e-01
-1.516295764990444606e-01 -2.500807660804495181e-02 -3.327226580358426666e-01 -4.805986285209655762e-01 7.573013901710510254e-01 -4.421760141849517822e-01
-1.342995989858317973e-01 1.035498911018169765e-01 1.142141505692407938e-01 -8.342423439025878906e-01 3.609708547592163086e-01 4.168209135532379150e-01
8.562730851076141847e-02 6.594759288690629773e-02 -3.044092277680139902e-01 3.900031149387359619e-01 6.915706396102905273e-01 -6.079700589179992676e-01
-1.391873149366920359e-01 1.274347946318743485e-01 -6.522374806323451291e-02 -8.721552491188049316e-01 4.882901012897491455e-01 -3.029893524944782257e-02
1.428996831132803569e-01 -5.721048628826540250e-02 1.558776241514515937e-01 9.455522298812866211e-01 -1.293952167034149170e-01 -2.986432611942291260e-01
-1.468319322784439884e-01 1.010720354634946916e-01 -6.991277637381586307e-02 -9.855245351791381836e-01 1.690265685319900513e-01 1.309066638350486755e-02
1.379483871175308796e-01 1.295603108547687676e-01 -3.129319744067737830e-02 8.419348001480102539e-01 5.302078127861022949e-01 1.001268997788429260e-01
0.000000000000000000e+00 1.734844082552636224e-01 -1.509971322985985062e-02 -1.123221707530319691e-03 9.986312389373779297e-01 5.229166150093078613e-02
-1.562020413939955443e-01 5.872331028636653544e-02 -7.115965169858816386e-02 -9.796104431152343750e-01 1.910584568977355957e-01 6.212959811091423035e-02
4.411130531044649833e-02 -8.625420401614131150e-02 4.378842640891333349e-01 1.899855285882949829e-01 1.860136389732360840e-01 9.640043973922729492e-01
1.784038398468461295e-01 -6.663181266219997401e-02 -1.850544715558693765e-01 8.834233283996582031e-01 1.524326354265213013e-01 4.430887997150421143e-01
1.680076194512765964e-01 -1.046060911491549471e-02 3.143853252288610900e-01 6.608037948608398438e-01 7.505260109901428223e-01 -6.994905415922403336e-03
-1.587840976614418587e-01 -1.063543287629309386e-01 -3.623919509935275007e-02 -9.351198673248291016e-01 3.530025482177734375e-01 3.065991029143333435e-02
1.587470093019231476e-01 4.303228504140979571e-02 -7.381765079742995395e-02 9.919559955596923828e-01 1.168843880295753479e-01 4.859397560358047485e-02
1.502264002305861157e-01 -1.081875533905706788e-01 1.098615666628649790e-01 3.007893264293670654e-01 9.508104324340820312e-01 7.406235486268997192e-02
-1.004917931721580615e-01 -4.912367142150389498e-03 3.459130799883123886e-01 9.913458675146102905e-02 9.569240808486938477e-01 2.728896141052246094e-01
-6.519956992155639952e-02 1.682858565293893216e-01 -5.624483283498755287e-02 -3.119237422943115234e-01 9.500978589057922363e-01 -4.197009839117527008e-03
-1.098592531191725785e-01 2.855878064663972156e-03 3.220361239638661055e-01 1.763694221153855324e-03 9.965475201606750488e-01 8.300595730543136597e-02
-1.531687434190714403e-01 4.176686553687813941e-02 3.984492528476973189e-02 -9.979199767112731934e-01 4.461518675088882446e-02 4.653285816311836243e-02
-1.450640538080515407e-01 5.215425537065753597e-02 -2.148346581370456365e-01 -9.713616371154785156e-01 1.102642863988876343e-01 -2.104716002941131592e-01
1.244438089718207519e-01 1.251414977349666890e-01 1.013974731869850682e-01 7.560228705406188965e-01 5.691983699798583984e-01 3.231760561466217041e-01
1.374794842864727473e-01 1.249622373306261969e-01 -9.975389383134432297e-02 8.258053064346313477e-01 5.534937977790832520e-01 -1.081212535500526428e-01
-1.749687513104692393e-01 -9.053349425965870334e-02 -3.497894848077082175e-01 -8.531934618949890137e-01 1.841060668230056763e-01 -4.880224764347076416e-01
9.196411965138889810e-02 -1.529710780739273676e-02 3.685731845980728671e-01 -2.896059751510620117e-01 8.884325027465820312e-01 3.561123907566070557e-01
8.276444037838764922e-02 -1.044389799106426320e-01 4.367274604946208560e-01 1.709207743406295776e-01 1.512149572372436523e-01 9.736118912696838379e-01
-1.325105271671429275e-01 1.139637726209668800e-01 9.996338995226113078e-02 -8.745424747467041016e-01 4.263636469841003418e-01 2.310616672039031982e-01
7.405044200384584829e-02 1.655563298800471483e-01 -5.619538168896259095e-02 3.807207345962524414e-01 9.245534539222717285e-01 -1.589378528296947479e-02
1.560280793267291577e-01 4.329720189511496176e-02 -1.225676502162538484e-01 9.925662279129028320e-01 8.731387555599212646e-02 -8.478544652462005615e-02
1.736273889745420795e-01 -9.493376319970142641e-02 -3.549262226010513332e-01 8.457767963409423828e-01 1.875645816326141357e-01 -4.994808137416839600e-01
-1.409666731374117077e-01 6.728718911047540385e-02 1.325481629579960408e-01 -9.455797672271728516e-01 1.943329274654388428e-01 2.609860897064208984e-01
