1.221139409787453389e-01 1.014163718274697645e-01 -1.006068479417687594e-01 -5.141666159033775330e-02 -2.985295839607715607e-02 -9.982309937477111816e-01
1.427600729739407492e-01 2.766921717126544222e-03 -3.742932731747021791e-01 8.708443045616149902e-01 -4.833972547203302383e-03 4.915350675582885742e-01
-1.810876479707647924e-01 3.995471316371954074e-02 2.141281841646960893e-01 -1.800184100866317749e-01 -8.094687946140766144e-03 9.836299419403076172e-01
-1.321171281688054422e-01 5.507867827926865578e-02 -2.197067571774758421e-01 -1.088329553604125977e-01 -2.076827362179756165e-02 9.938430786132812500e-01
1.856719629848412323e-01 -2.258457756346429757e-02 -1.501279978949103255e-01 7.318655848503112793e-01 6.711529493331909180e-01 -1.180107071995735168e-01
6.185256774191350698e-02 1.047522230958222722e-01 -1.504471004153372649e-01 -9.939450025558471680e-01 1.084846109151840210e-01 -1.744511537253856659e-02
8.721522614972013199e-02 1.025748833042455788e-01 -1.503716550117696893e-01 -9.881952404975891113e-01 1.526404619216918945e-01 -1.307664439082145691e-02
1.336446671308127165e-01 5.465613550134587606e-02 -2.046126791156872571e-01 1.003208085894584656e-01 -1.201505586504936218e-02 9.948826432228088379e-01
1.238856222370561672e-01 1.024999715980665915e-01 -7.274226469423943076e-02 -5.208532884716987610e-02 1.886328123509883881e-02 -9.984644651412963867e-01
-9.415494181138160668e-02 -2.151669760685839816e-02 4.683191289722145045e-01 -2.254016697406768799e-01 -4.477823078632354736e-01 8.652658462524414062e-01
-1.859388601970760890e-01 3.917080873578304701e-02 2.978561345415399741e-01 -4.027377441525459290e-02 2.374343387782573700e-02 9.989065527915954590e-01
1.604246802488568935e-01 -6.158805604395382188e-02 -3.177087353195816033e-01 -5.062883719801902771e-02 -8.073852062225341797e-01 5.878484249114990234e-01
3.958719786976374472e-02 -2.731202051356923510e-02 -3.922546647156137101e-01 -9.622074961662292480e-01 3.693253546953201294e-02 -2.698011994361877441e-01
-1.400361785385128011e-01 5.433252081208816975e-02 -1.214222590450331069e-01 -6.092979013919830322e-02 2.829899452626705170e-02 9.977408051490783691e-01
1.062992258885393226e-01 -9.146860839993077585e-02 -3.136007694837857906e-01 9.611744880676269531e-01 -1.227421909570693970e-01 2.471391111612319946e-01
1.101950227534020110e-01 4.081318967222408167e-02 3.783117436392724464e-01 -1.482657790184020996e-01 -2.316156923770904541e-01 9.614424109458923340e-01
-3.599041709633959280e-02 5.866066107964579279e-02 8.182232119211067800e-02 -9.963520169258117676e-01 1.704251859337091446e-03 -8.532210439443588257e-02
1.901843744052924834e-01 1.590902583915282387e-02 -1.503512289571704019e-01 4.907088875770568848e-01 8.712801933288574219e-01 -8.691925555467605591e-03
2.286665275730273561e-02 -9.127002445343426751e-02 -3.299649988124524480e-01 -9.851663708686828613e-01 -1.475664675235748291e-01 -8.758583664894104004e-02
-1.642389184491555576e-01 -9.024275401630492410e-02 4.038395086119282440e-01 -1.401464641094207764e-01 -2.390775829553604126e-02 -9.898421764373779297e-01
-4.379511067105740924e-02 2.914076642541632567e-03 4.815145543151544416e-01 -9.951090812683105469e-01 6.898614764213562012e-02 -7.070218771696090698e-02
1.183932453752816055e-01 9.588833427654910868e-02 -1.703319373446942619e-01 -1.285625249147415161e-02 -7.086610794067382812e-02 -9.974029660224914551e-01
1.677638441468989328e-01 -9.013834339992074507e-02 3.596453863659900274e-01 9.433378279209136963e-02 -1.973886601626873016e-02 -9.953448772430419922e-01
-1.218555344067833723e-01 -9.153012915345082323e-02 -3.082388088566026529e-01 -9.443030953407287598e-01 -5.996010452508926392e-02 3.235682845115661621e-01
0.000000000000000000e+00 6.668193875823860695e-02 6.210821890915514676e-02 9.754362516105175018e-03 3.819240629673004150e-01 -9.241423010826110840e-01
0.000000000000000000e+00 5.913924208336956978e-02 1.000787988709630205e-01 3.969228360801935196e-03 -3.424356505274772644e-02 -9.994056820869445801e-01
1.429361931121724272e-01 5.724767298440575081e-02 -2.286581783413622893e-02 2.475783042609691620e-02 2.893240563571453094e-02 9.992747902870178223e-01
-9.984192414821052575e-02 5.189755073566018617e-02 3.001080949316291546e-01 -3.657371550798416138e-02 6.147618964314460754e-02 -9.974381923675537109e-01
1.779358252655838246e-01 -8.856796309299373726e-02 6.656260286808435289e-02 -2.979988232254981995e-02 -1.432403549551963806e-02 9.994533061981201172e-01
0.000000000000000000e+00 9.881294744802782137e-02 -2.272462031500689372e-01 -2.348127309232950211e-04 -1.023548617959022522e-01 -9.947478771209716797e-01
-1.273690650923235135e-01 9.544109586491833497e-02 -4.403997061841578853e-02 1.276262700557708740e-01 4.077779948711395264e-01 -9.041175842285156250e-01
1.304463642348808183e-01 2.921014708593183684e-03 -3.813731086598383113e-01 8.943649530410766602e-01 7.766084163449704647e-04 4.473373293876647949e-01
-1.544601752699659158e-01 4.140253714305058841e-02 -2.229503758334926977e-01 1.034707725048065186e-01 -1.017980091273784637e-02 -9.945804476737976074e-01
6.079919465068811535e-02 -2.836117254363039464e-02 -3.861673123014603415e-01 -9.499980211257934570e-01 2.565914019942283630e-02 -3.112001121044158936e-01
-6.151483433083064500e-02 1.027667232564682120e-01 -4.429711572382293017e-02 9.800993800163269043e-01 3.741128370165824890e-02 1.949501782655715942e-01
-1.861752396222729755e-01 1.333459049342761160e-03 -1.610783038779238230e-01 -2.572602629661560059e-01 -4.751497507095336914e-02 9.651733040809631348e-01
-1.791428546867760985e-01 -6.084311152538375567e-02 -1.492477853473072602e-01 -9.421350061893463135e-02 -9.955462813377380371e-01 3.378831082955002785e-03
-1.611760291360899433e-01 4.198329693771543636e-02 -1.746407189524297188e-01 -1.176869347691535950e-01 9.439507871866226196e-02 -9.885541796684265137e-01
-0.000000000000000000e+00 8.524170210763815092e-02 -3.162519355205334892e-01 -3.000938158947974443e-04 -1.502441465854644775e-01 -9.886488914489746094e-01
-1.124905522575771616e-01 9.944518478171854303e-02 -1.503554985362790530e-01 9.608594179153442383e-01 2.770321369171142578e-01 -1.516481861472129822e-03
-3.466233540382830658e-02 2.740450359653423540e-05 -4.132596839456575410e-01 -9.900941252708435059e-01 1.021811813116073608e-01 9.629514068365097046e-02
-1.187612054657359029e-01 -9.151722338023604575e-02 -3.093666569925072607e-01 -9.471077919006347656e-01 -5.652851611375808716e-02 3.158978223800659180e-01
-1.018024372461901611e-01 2.891224690721477808e-03 -3.948883157744270123e-01 -9.399712085723876953e-01 2.448724582791328430e-02 3.403742611408233643e-01
-0.000000000000000000e+00 7.277336667972300610e-02 -3.785513535305223831e-01 -2.559787826612591743e-04 -1.523436754941940308e-01 -9.883275628089904785e-01
-1.734570852985575784e-01 -8.834958382517532627e-02 1.665953480916847473e-01 -3.224688395857810974e-02 -5.053987354040145874e-02 9.982013106346130371e-01
-1.341415879175259229e-01 -9.158471184091931949e-02 -3.034527562296426284e-01 -9.312421679496765137e-01 -7.798890769481658936e-02 3.559575974941253662e-01
1.426739051046571338e-01 5.620099536950981522e-02 -4.941435183936955522e-02 3.481346368789672852e-02 3.157433122396469116e-02 9.988949298858642578e-01
-1.724685321810725536e-01 -9.142746518306563153e-02 -1.560818289260296754e-01 -1.172051131725311279e-01 -4.612206667661666870e-02 9.920361638069152832e-01
-1.267822890725510410e-01 6.060283439463601263e-02 2.749830288976298220e-01 8.044735342264175415e-02 -1.022078841924667358e-01 9.915048480033874512e-01
1.406563834219881903e-01 6.631247461150741040e-02 1.172396443290032453e-01 2.071131393313407898e-02 9.812823683023452759e-02 9.949582219123840332e-01
1.836748188388271918e-01 1.548296507218757667e-03 -2.001236048265003231e-01 1.109336763620376587e-01 -1.306836772710084915e-02 9.937419295310974121e-01
4.851794441644278247e-08 4.194695699734748984e-02 3.647817870695811426e-01 -1.618391950614750385e-03 2.866986393928527832e-01 -9.580194950103759766e-01
0.000000000000000000e+00 9.458426896652394333e-02 -1.376457923077782641e-02 -3.022756136488169432e-04 4.325485527515411377e-01 -9.016105532646179199e-01
1.483809738704744696e-01 4.134790593763768007e-02 -2.590841149376384434e-01 -1.298078000545501709e-01 -1.059859496308490634e-04 -9.915391802787780762e-01
-1.893011537451355641e-01 4.052356136495779970e-03 3.188532393737577436e-02 -7.530459016561508179e-02 8.296544663608074188e-03 9.971260428428649902e-01
0.000000000000000000e+00 1.054766930418485904e-01 -4.425039294334988382e-02 2.045092172920703888e-03 4.946815073490142822e-01 -8.690719604492187500e-01
-1.267666177765045532e-01 6.107146921975442622e-02 1.476728160718834837e-01 -1.159080490469932556e-01 1.493890769779682159e-02 -9.931475520133972168e-01
-1.777567940506871724e-01 -6.776434185022256473e-02 -1.489831684784599375e-01 -7.027889043092727661e-02 -9.974009990692138672e-01 1.587749831378459930e-02
-1.167179692725262424e-01 9.005710809097006164e-02 -2.151367549570022408e-01 2.441589906811714172e-02 -1.170745119452476501e-01 -9.928229451179504395e-01
0.000000000000000000e+00 5.980995414698248025e-02 1.398599714825037033e-01 -4.199128015898168087e-04 -1.437747036106884480e-03 -9.999989271163940430e-01
-2.394438185662517773e-02 3.192569643492002007e-03 4.841305448422001390e-01 -9.973766803741455078e-01 7.236268371343612671e-02 -1.844495069235563278e-03
7.680060679100861321e-02 4.097451183740874470e-02 3.920874435974330829e-01 6.647741794586181641e-01 6.978468298912048340e-01 -2.666178941726684570e-01
4.887241651834931672e-02 -9.130937250635601243e-02 -3.270349031132546158e-01 -6.203590631484985352e-01 -7.052590847015380859e-01 -3.431680202484130859e-01
-1.301504047739405201e-01 -8.980711139338969085e-02 4.411016295493672135e-01 -9.629428386688232422e-01 -1.380753070116043091e-01 -2.316814064979553223e-01
1.627796442349421779e-01 -6.612567297460167359e-03 -3.558451981333492498e-01 9.286320954561233521e-02 -8.705624938011169434e-01 4.832156896591186523e-01
0.000000000000000000e+00 5.949415084677586729e-02 2.371239431720909563e-01 -1.316065201535820961e-03 3.216150030493736267e-02 -9.994818568229675293e-01
1.161243522225910707e-01 6.358566909941448797e-02 -3.399695930229005847e-01 7.237514108419418335e-02 1.852160692214965820e-01 -9.800289869308471680e-01
-1.398216321883033186e-01 5.428240177550600065e-02 -1.252089390529032564e-01 -6.244390457868576050e-02 2.733027189970016479e-02 9.976741671562194824e-01
1.391336477364781554e-01 5.416557056535120651e-02 -1.365662620716262543e-01 6.700953096151351929e-02 2.251840010285377502e-02 9.974982142448425293e-01
-7.927536158185810589e-02 2.347860145522856490e-02 4.470382367102187504e-01 7.132949829101562500e-01 -1.625386029481887817e-01 6.817561388015747070e-01
1.842426243423328225e-01 1.496188234915499238e-03 -1.923398710037703685e-01 1.134142056107521057e-01 -1.316637173295021057e-02 9.934605360031127930e-01
-1.417693365489569868e-01 5.511511525552539870e-02 -8.353595475267662496e-02 -4.797724634408950806e-02 3.274891898036003113e-02 9.983114004135131836e-01
1.249409360460582291e-01 -9.154332603433210092e-02 -3.070834025282694890e-01 9.446800947189331055e-01 -1.208580061793327332e-01 3.049144744873046875e-01
1.344109110269816054e-01 4.305403945304189794e-02 -3.310638817355405217e-01 -1.563290059566497803e-01 6.746622920036315918e-02 -9.853981137275695801e-01
0.000000000000000000e+00 5.775148331922608236e-02 3.034062477571701222e-01 -9.083117246627807617e-01 1.058171913027763367e-01 -4.046882688999176025e-01
0.000000000000000000e+00 1.009092137544846945e-01 -2.085202658410431065e-01 -2.755626628641039133e-04 -8.860899507999420166e-02 -9.960665106773376465e-01
-1.679678621031701069e-01 -9.012927054431486840e-02 3.566954953454702926e-01 -9.513229131698608398e-02 -2.082152105867862701e-02 -9.952468276023864746e-01
1.847214479357787154e-01 3.288302869324533084e-02 3.644012123135785819e-01 4.400613531470298767e-02 -1.934509128332138062e-01 9.801225662231445312e-01
1.734305945009061989e-01 -8.829441892237382961e-02 1.635998502034135549e-01 3.238792344927787781e-02 -5.030284821987152100e-02 9.982087612152099609e-01
1.613019817197950123e-01 -5.314161561843971232e-02 -3.240816158366257582e-01 -4.240735620260238647e-02 -8.163175582885742188e-01 5.760444998741149902e-01
1.857980611223795653e-01 3.916712137200742405e-02 3.061737113066840266e-01 4.042176157236099243e-02 1.428823452442884445e-03 9.991816878318786621e-01
2.186204020021587091e-02 1.060066545487093892e-01 -1.507965266510244984e-01 -9.989291429519653320e-01 3.878361359238624573e-02 -2.522803470492362976e-02
-8.815759018412069881e-02 -8.950523274323057832e-02 4.561230277304200165e-01 8.532544970512390137e-01 -2.208957076072692871e-01 4.723999798297882080e-01
-1.354946078334672704e-02 5.864343720937795212e-02 8.470909036694461436e-02 -9.230026006698608398e-01 -2.401430904865264893e-01 3.006617128849029541e-01
1.181497338122554641e-01 9.526138539879983047e-02 -1.759218352747458636e-01 -1.966612413525581360e-02 -7.573383301496505737e-02 -9.969341158866882324e-01
1.110747016036165435e-01 5.921939372754553288e-02 5.392154355804667371e-02 8.876874446868896484e-01 3.247426450252532959e-02 -4.592998623847961426e-01
4.851794441644278247e-08 3.530448608408107147e-03 4.855995226452967661e-01 -5.199536215513944626e-03 -1.120685189962387085e-01 9.936868548393249512e-01
-1.678401143555215969e-01 2.383969581847569796e-03 -3.309029962318555396e-01 -2.269046753644943237e-01 2.381161786615848541e-02 9.736258983612060547e-01
0.000000000000000000e+00 8.324877902278834951e-02 1.657398252049034626e-02 -1.098467153497040272e-03 3.957599103450775146e-01 -9.183533191680908203e-01
1.735169079240230505e-01 -8.850862564697242751e-02 1.755763592287792330e-01 3.153373673558235168e-02 -5.266898497939109802e-02 9.981140494346618652e-01
1.722598079841930196e-01 -8.967718033824245705e-02 2.709090256229255700e-01 8.277626335620880127e-02 -4.962479695677757263e-02 -9.953318834304809570e-01
-0.000000000000000000e+00 -3.949109195687354468e-02 -3.916828322227214887e-01 -1.954937120899558067e-03 -8.053681850433349609e-01 5.927716493606567383e-01
1.210244220189296976e-01 1.027648795745803867e-01 -6.031924502640927110e-02 -8.583201169967651367e-01 6.994898617267608643e-02 5.083244442939758301e-01
-6.420622174349956135e-02 5.372070953299684648e-02 3.053959201397440371e-01 -9.922258257865905762e-01 -1.244385540485382080e-01 1.733613549731671810e-03
1.661334471427287907e-01 4.246740898710268941e-02 -1.072449335158792705e-02 -2.925255708396434784e-02 -3.157185018062591553e-02 9.990733265876770020e-01
1.274364565171179353e-01 6.120353506445599945e-02 2.699834002793486953e-01 -9.184921532869338989e-02 -9.845733642578125000e-02 9.908934235572814941e-01
1.601710284354477265e-01 -9.178970015607879063e-02 -2.675784910922360260e-01 1.461540609598159790e-01 -2.229349501430988312e-02 9.890105724334716797e-01
-1.371892425960447859e-01 -9.159907315246658410e-02 -3.021880389725392635e-01 -9.272355437278747559e-01 -7.515084743499755859e-02 3.668604493141174316e-01
-1.331759352698054788e-01 4.334228456081998249e-02 -3.370433302413117227e-01 1.598318368196487427e-01 8.787286281585693359e-02 -9.832253456115722656e-01
-9.164205191622078195e-02 2.748230222847342086e-02 4.318600285328120791e-01 4.875358641147613525e-01 -1.930077522993087769e-01 8.515026569366455078e-01
-7.666407729542074057e-02 1.027664321488017118e-01 -4.746689006843797520e-02 9.721462130546569824e-01 3.875254094600677490e-02 2.311491221189498901e-01
1.655113015414767519e-01 -9.021330362404414438e-02 3.891188731683130619e-01 1.110947653651237488e-01 -1.948097534477710724e-02 -9.936187863349914551e-01
1.740416780108313133e-01 -8.501067592632458036e-02 -1.481465250449428006e-01 9.745933413505554199e-01 1.693587601184844971e-01 -1.465787589550018311e-01
5.210773860587097212e-02 -9.131567983913013720e-02 -3.265348771780987591e-01 -1.231051608920097351e-01 -9.248123764991760254e-01 -3.599544465541839600e-01
1.187558199739056769e-01 5.198648412777551187e-02 3.295177321191001263e-01 -8.855903148651123047e-02 -1.654661744832992554e-01 9.822312593460083008e-01
1.726113690094345787e-01 -8.957689374713366515e-02 2.590350835320562872e-01 1.145728453993797302e-01 -9.236687421798706055e-02 -9.891113638877868652e-01
-1.483809738704744696e-01 4.134790593763768007e-02 -2.590841149376384434e-01 1.304120421409606934e-01 -3.261724777985364199e-04 -9.914597868919372559e-01
1.421848442249394051e-01 6.048178212331697945e-02 3.925811077089842727e-02 -2.418774925172328949e-02 -1.542710661888122559e-01 -9.877324700355529785e-01
1.895217163204527266e-01 2.720829669930924233e-03 -9.205687619575603220e-03 5.488920956850051880e-02 7.471472956240177155e-03 9.984644651412963867e-01
1.019853013786957419e-01 4.915968313224031161e-02 3.047722704822150575e-01 -9.933391213417053223e-01 -1.137160584330558777e-01 -1.860401034355163574e-02
-1.796461313242078695e-01 -8.947296831019364849e-02 6.706888164518379214e-03 -1.165435276925563812e-02 -1.053711120039224625e-02 9.998765587806701660e-01
8.682315264089085494e-02 5.027326699248649278e-02 3.053400274677762760e-01 -9.936721324920654297e-01 1.121732369065284729e-01 -5.730409175157546997e-03
-1.408378405341056960e-01 6.270783393108778081e-02 2.829402569167068643e-02 2.368713915348052979e-01 6.279572248458862305e-01 -7.413242459297180176e-01
-6.963489454425534318e-03 -2.601588832552834130e-03 -4.162369390868281283e-01 -9.760636687278747559e-01 1.969919353723526001e-01 -9.216314554214477539e-02
1.802834630420622475e-01 1.843867824603731553e-03 -2.388698896836382590e-01 1.293210685253143311e-01 -1.342616230249404907e-02 9.915118813514709473e-01
7.462729398881846887e-02 -9.136812773704432178e-02 -3.222153731046472624e-01 9.515833258628845215e-01 -2.954380810260772705e-01 8.488529175519943237e-02
3.751004763340699821e-02 -1.008625804589981245e-02 4.808205536382216816e-01 9.972192049026489258e-01 -6.990064680576324463e-02 -2.584299072623252869e-02
0.000000000000000000e+00 6.804359486828609471e-02 5.831067088173575580e-02 4.729910753667354584e-03 3.859287202358245850e-01 -9.225164055824279785e-01
1.052789905533503545e-01 1.004306812687053019e-01 -1.503567600028338780e-01 -9.800353646278381348e-01 1.987347751855850220e-01 -5.920839961618185043e-03
1.734735813996591824e-01 4.270708763251990225e-02 1.598120057648774739e-01 1.505140960216522217e-01 -1.234253868460655212e-02 9.885308742523193359e-01
0.000000000000000000e+00 1.064787341478813931e-01 -6.755773418978718026e-02 -7.679767441004514694e-04 6.059362739324569702e-02 -9.981622099876403809e-01
1.325092016776347192e-01 5.496126485378086124e-02 -2.159343414452641885e-01 1.065649762749671936e-01 -1.846694760024547577e-02 9.941342473030090332e-01
-1.332266365217206483e-01 6.147780700424212985e-02 1.023308077789966269e-01 -6.652767211198806763e-02 -9.362217038869857788e-03 -9.977406263351440430e-01
-1.408697168235872876e-01 6.608390657536153401e-02 1.120688444028208608e-01 -3.293244913220405579e-02 1.152052506804466248e-01 9.927957057952880859e-01
1.348043915561989436e-01 1.255206926497914877e-02 4.275884116704996019e-01 2.475513666868209839e-01 3.267643749713897705e-01 -9.121093153953552246e-01
1.669487911986471396e-01 4.275080230043915019e-02 -2.290254591805948592e-02 -1.944346912205219269e-02 -2.802873775362968445e-02 9.994180202484130859e-01
1.584401022504467182e-01 -7.818788851070672397e-02 -3.045943349438171022e-01 -4.157652333378791809e-02 -7.901898026466369629e-01 6.114503145217895508e-01
6.535017783695043492e-02 1.889911353854939469e-03 -4.069514778485204820e-01 9.748038649559020996e-01 5.926503241062164307e-02 2.150466293096542358e-01
1.092009385902535101e-01 3.954129175934703588e-02 3.832388379306511106e-01 -1.625552773475646973e-01 -2.268527448177337646e-01 9.602674245834350586e-01
-4.521629829890384811e-03 5.864251536843403945e-02 8.513915342625195948e-02 -4.879451394081115723e-01 -6.180610060691833496e-01 6.163685321807861328e-01
1.179154891766128893e-01 9.460581093384484719e-02 -1.815144016917404346e-01 -2.456975914537906647e-02 -8.442388474941253662e-02 -9.961270093917846680e-01
1.234068471615547141e-01 5.893711632693068858e-02 -2.912299216004747282e-01 1.542491763830184937e-01 -7.518591731786727905e-02 9.851671457290649414e-01
1.165553856407867545e-01 8.919402237774598508e-02 -2.207534347923717499e-01 -2.345323935151100159e-02 -1.197531074285507202e-01 -9.925266504287719727e-01
0.000000000000000000e+00 1.067040514817513275e-01 -1.176027809067375224e-01 -9.579848265275359154e-04 3.953616134822368622e-03 -9.999917149543762207e-01
-2.084976180791120459e-02 -1.162449565272324903e-03 -4.150544112275661446e-01 -9.912950992584228516e-01 1.254854053258895874e-01 3.984479978680610657e-02
1.120066827979119689e-01 -6.197163891251022266e-02 -3.415562268412071223e-01 1.292841732501983643e-01 5.288813710212707520e-01 -8.387908339500427246e-01
1.699775238788435450e-01 4.303768890577355788e-02 1.294662148398912360e-01 1.341321468353271484e-01 1.574671245180070400e-03 9.909622073173522949e-01
4.851794441644278247e-08 2.549791830184092167e-02 4.200151486906482101e-01 1.005729567259550095e-02 2.828244566917419434e-01 -9.591190218925476074e-01
1.815109670357982832e-02 -2.598248328272545482e-02 -3.974667048945500492e-01 -9.705019593238830566e-01 5.111848935484886169e-02 -2.356116026639938354e-01
1.866490658674439806e-01 -1.559964317760668961e-02 -1.502047047650327261e-01 7.122614383697509766e-01 6.899067163467407227e-01 -1.292761564254760742e-01
1.196711595132662759e-01 5.428919428772430167e-02 3.032449741099298435e-01 -7.922627329826354980e-01 -6.065833568572998047e-01 -6.615434587001800537e-02
4.240594488652581900e-02 1.027670143641346845e-01 -4.122461985776286475e-02 -9.880363345146179199e-01 4.695788398385047913e-02 1.468982249498367310e-01
1.851583520252487458e-01 -2.607423071561694450e-02 -1.500816632579926035e-01 1.377733498811721802e-01 -9.900324344635009766e-01 -2.922724559903144836e-02
-1.879426027835307544e-01 2.005959043014624021e-02 1.564974538741237542e-01 -4.549057036638259888e-02 -1.942815333604812622e-01 -9.798904657363891602e-01
-1.544922941491696025e-02 1.027672084359123605e-01 -3.873472746825541713e-02 9.832870960235595703e-01 1.579180359840393066e-01 9.060002863407135010e-02
-1.111077908417085480e-01 4.207751878577214999e-02 3.734610651103497658e-01 1.426141262054443359e-01 -2.306696027517318726e-01 9.625241756439208984e-01
3.998897496747630398e-03 3.474895562051272258e-03 4.854887076602496521e-01 9.170726537704467773e-01 3.986641764640808105e-01 -6.678217090666294098e-03
8.419808925823922541e-02 -9.139510371413986367e-02 -3.199298868149663688e-01 9.691877365112304688e-01 -1.888476610183715820e-01 1.581509113311767578e-01
1.016966196094178931e-01 5.274428590161595043e-02 2.912329014313069231e-01 1.564362198114395142e-01 9.964314103126525879e-02 -9.826489686965942383e-01
1.219201117908016579e-01 6.013575214373892419e-02 1.792959389195213915e-01 1.272389739751815796e-01 3.247318416833877563e-02 -9.913403391838073730e-01
1.681681441777211627e-01 -9.011995509898690360e-02 3.537451191455064370e-01 9.169729799032211304e-02 -2.003792114555835724e-02 -9.955853223800659180e-01
-1.316475715027431159e-01 6.458999054883485247e-02 2.348041061777631500e-01 7.346276193857192993e-02 -5.256884917616844177e-02 9.959115386009216309e-01
0.000000000000000000e+00 5.642272237549295077e-02 3.090128843780454160e-01 2.309060422703623772e-03 3.191644251346588135e-01 -9.476965069770812988e-01
-1.317185532554243643e-01 8.408978907130296165e-02 -1.785784412941543442e-02 1.522648930549621582e-01 4.246643781661987305e-01 -8.924548029899597168e-01
1.885181226401985988e-01 1.117265558727527364e-02 1.066299343157932067e-01 5.515329167246818542e-02 -1.863818019628524780e-01 -9.809280633926391602e-01
1.618166600741646477e-01 -4.745885434277502535e-02 -3.282598356559365826e-01 -3.387861326336860657e-02 -8.223351836204528809e-01 5.679938793182373047e-01
6.693826719358945965e-02 5.876225765525383560e-02 7.370056285063140977e-02 9.555256962776184082e-01 1.239444687962532043e-02 -2.946474552154541016e-01
-2.889340625888000766e-02 -2.668541126143086917e-02 -3.949665752187707657e-01 9.674099683761596680e-01 4.445547983050346375e-02 -2.492823898792266846e-01
1.344631648531181278e-01 6.142322431677363359e-02 9.324194125146439971e-02 3.962404280900955200e-02 -4.355154931545257568e-03 -9.992051124572753906e-01
0.000000000000000000e+00 7.767028280967458453e-02 3.174520411390108904e-02 -7.474172161892056465e-04 3.968034386634826660e-01 -9.179033637046813965e-01
-1.007741964501724791e-01 5.232538196952435383e-02 2.956721477915782437e-01 -1.561492085456848145e-01 1.300719939172267914e-02 -9.876478314399719238e-01
-7.161219485100304982e-02 2.176310397655198403e-02 4.528118235778310074e-01 8.302918076515197754e-01 -1.374683380126953125e-01 5.401092171669006348e-01
-1.399237624612999220e-01 6.685412894297257380e-02 1.327255533098990470e-01 -2.778634661808609962e-03 7.363028824329376221e-02 9.972817301750183105e-01
8.359695192691950216e-02 1.029465307584755129e-01 -1.503777197548217814e-01 -9.888669252395629883e-01 1.481447815895080566e-01 -1.397686917334794998e-02
-1.062130580192557211e-02 1.587879915978136769e-02 4.635673785319568974e-01 9.984050989151000977e-01 -1.411449909210205078e-02 5.466329678893089294e-02
1.840817873565923080e-01 -3.304722968714811360e-02 -1.499713819703340500e-01 2.473529875278472900e-01 -9.683045148849487305e-01 -3.468033671379089355e-02
-1.630958356787041430e-01 -2.042446164215543092e-02 -3.469830074421306754e-01 -3.951896354556083679e-02 -8.515433669090270996e-01 5.227926969528198242e-01
4.997110536965966576e-02 -9.448974845989832616e-03 4.792907343328267622e-01 9.971565008163452148e-01 -5.318495631217956543e-02 -5.338723585009574890e-02
1.259267721586559141e-01 5.760447394764425799e-02 -2.724385335844310974e-01 1.399768292903900146e-01 -5.666744709014892578e-02 9.885318875312805176e-01
-1.156062776121122987e-01 7.242224231598121120e-02 -3.056155406378944228e-01 -4.690404981374740601e-03 -1.781664639711380005e-01 -9.839891195297241211e-01
1.887874942675986933e-01 1.415696965128609985e-03 -8.990315867022406759e-02 8.353179693222045898e-02 -2.642777748405933380e-03 9.965015649795532227e-01
0.000000000000000000e+00 5.833365013427899148e-02 2.857365460980902383e-01 -3.895269008353352547e-03 5.832539126276969910e-02 -9.982900619506835938e-01
-1.846281964466102987e-01 -2.956174907821527975e-02 -1.500295549856893729e-01 -8.443954586982727051e-01 5.208364129066467285e-01 -1.254023909568786621e-01
1.830714496820643189e-01 1.603606963853504430e-03 -2.078954032349037973e-01 1.120413020253181458e-01 -1.333404053002595901e-02 9.936140775680541992e-01
1.650961820090496579e-01 2.391635417065371416e-03 -3.461414151782830628e-01 3.069803714752197266e-01 7.349067181348800659e-02 9.488741755485534668e-01
0.000000000000000000e+00 9.212994023027376578e-02 -2.756275210350350169e-01 -2.430697059025987983e-04 -1.324923187494277954e-01 -9.911839962005615234e-01
1.866001112615277846e-01 3.660222024043216504e-02 2.562716469719289458e-01 2.798118293285369873e-01 2.420562952756881714e-01 9.290393590927124023e-01
5.129229751406381987e-02 -8.935317750542945414e-02 4.641499334905651586e-01 9.916241765022277832e-01 -6.033339351415634155e-02 -1.141986697912216187e-01
-1.110282699308100113e-01 -8.963967596720853748e-02 4.487938100109833406e-01 -2.795365452766418457e-01 -6.558842062950134277e-01 7.011955976486206055e-01
1.353991245188557180e-01 5.429787899977484011e-02 -1.857298832923630072e-01 9.004890173673629761e-02 -1.140005420893430710e-03 9.959366917610168457e-01
1.735614959149417713e-01 -9.132179310012661366e-02 -1.432191396458977195e-01 9.458253532648086548e-02 -4.100367426872253418e-02 9.946722984313964844e-01
-4.668580979938907055e-02 -2.769046048001748417e-02 -3.903255912456158883e-01 9.590322375297546387e-01 3.307481855154037476e-02 -2.813596129417419434e-01
1.796556408413134964e-01 -8.972370904693782734e-02 -1.040951485643638874e-02 2.254522033035755157e-02 -9.946953505277633667e-03 9.996962547302246094e-01
-9.038407865339126782e-03 5.864275795815612757e-02 8.497724904573428217e-02 7.643316388130187988e-01 -4.708220362663269043e-01 4.405949115753173828e-01
1.871966879060723565e-01 3.080257923666826492e-02 2.146935152530364821e-01 1.393751800060272217e-01 -1.658831238746643066e-01 -9.762465953826904297e-01
-1.895268107046164385e-01 2.514870995883114468e-03 -1.736136000420197834e-02 -4.832595959305763245e-02 8.010650053620338440e-03 9.987995028495788574e-01
-1.055096448611061305e-01 5.913303178648429692e-02 5.695182881246443896e-02 -8.926498293876647949e-01 2.490763738751411438e-02 -4.500621259212493896e-01
4.851794441644278247e-08 1.109745277342977232e-02 4.638216125606990925e-01 -1.440076623111963272e-03 -6.340540051460266113e-01 7.732874751091003418e-01
1.487917753058484727e-01 2.668064023288052589e-02 3.775423945946609350e-01 3.482712209224700928e-01 2.054983675479888916e-01 -9.145914316177368164e-01
1.178968582859569736e-01 6.235384700862542373e-02 -3.287382225878826558e-01 3.836053609848022461e-01 -4.031988382339477539e-01 8.308295011520385742e-01
-8.302211132147348238e-02 5.085790822270463973e-02 3.053923298118572105e-01 -9.850513935089111328e-01 -1.700633019208908081e-01 -2.742713317275047302e-02
4.851794441644278247e-08 3.666999980878193899e-02 3.832520348115323605e-01 -1.732991426251828671e-03 2.985849678516387939e-01 -9.543814659118652344e-01
1.156581918126378811e-01 -9.150465723263219442e-02 -3.104668499000945436e-01 9.538430571556091309e-01 -1.256113499402999878e-01 2.727733850479125977e-01
4.563311595938551041e-02 -9.130340479919278607e-02 -3.275054301382053223e-01 -7.261977791786193848e-01 -6.141538023948669434e-01 -3.089529871940612793e-01
-2.743971160827454736e-02 -8.924566174060261092e-02 4.670955549319762423e-01 9.889780282974243164e-01 -6.117374822497367859e-02 1.348340809345245361e-01
1.891395889902288130e-01 4.754216720424045417e-03 4.847171693352532451e-02 7.711651921272277832e-02 1.213689800351858139e-02 9.969482421875000000e-01
-1.347181751689709439e-01 5.441922237876037349e-02 -1.932849520430582335e-01 -9.418955445289611816e-02 -5.285335704684257507e-03 9.955403208732604980e-01
-1.093223304871834556e-01 5.004067196695408115e-02 3.042712741881708483e-01 -9.533687233924865723e-01 -3.017086386680603027e-01 -7.748580072075128555e-03
-1.416310604073701129e-01 4.183410425863487436e-02 -2.951246025526158001e-01 1.447774171829223633e-01 1.925740763545036316e-02 -9.892768263816833496e-01
6.480435096226545844e-02 -8.940611058278778722e-02 4.617173407934134777e-01 9.865368008613586426e-01 -5.916825681924819946e-02 -1.524603217840194702e-01
-1.344109595449260175e-01 4.305408797098631002e-02 -3.310638817355405217e-01 1.343245059251785278e-01 7.364152371883392334e-02 -9.881972670555114746e-01
9.708358197224693786e-02 5.902032460160488991e-02 6.124227063721048026e-02 9.067872762680053711e-01 2.346516586840152740e-02 -4.209349453449249268e-01
-1.753484603257437768e-01 -8.798730033421775509e-02 1.049921625840717632e-01 5.863762274384498596e-02 -1.848433911800384521e-02 9.981082081794738770e-01
-1.881570035799070006e-01 1.299302416473566146e-03 -1.137673888826732788e-01 -1.458074450492858887e-01 -3.368533682078123093e-03 9.893072247505187988e-01
1.739084477354637670e-01 -9.128409465731504580e-02 -1.389318514875387267e-01 9.159699827432632446e-02 -3.671909868717193604e-02 9.951189160346984863e-01
-1.625573350136260697e-01 4.217154656205121532e-02 -1.625417991533013584e-01 -8.439492583274841309e-01 5.139755606651306152e-01 -1.535533964633941650e-01
-1.842070121711311403e-01 2.618895938416429536e-02 3.893578240445640382e-01 -5.822765454649925232e-02 -3.831975460052490234e-01 9.218292832374572754e-01
-0.000000000000000000e+00 -6.668641867912246390e-02 -3.657093814126562425e-01 -2.230360871180891991e-03 -7.040100693702697754e-01 7.101864218711853027e-01
-2.653684118062896516e-02 1.668385741148342705e-02 4.627171500740031584e-01 9.957138299942016602e-01 -2.329240739345550537e-02 8.950600028038024902e-02
-1.212027739826045392e-01 5.995972904139607040e-02 1.838047600120858438e-01 -1.341641992330551147e-01 3.651060909032821655e-02 -9.902862310409545898e-01
5.806127852932382177e-02 -8.937986237485849583e-02 4.630024841051162410e-01 9.892476201057434082e-01 -5.926140397787094116e-02 -1.337058246135711670e-01
0.000000000000000000e+00 -6.967774402417381552e-02 4.722314704561231813e-01 -3.865647912025451660e-01 2.522116899490356445e-01 8.871058821678161621e-01
0.000000000000000000e+00 1.005124340050470022e-01 -2.122709455341562634e-01 -2.674080897122621536e-04 -9.147010743618011475e-02 -9.958078265190124512e-01
1.822023477437325484e-02 1.059781745153369481e-01 -1.508473734567729041e-01 -9.991635680198669434e-01 3.587177768349647522e-02 -1.963340863585472107e-02
1.647958559331119122e-01 4.225989773883356837e-02 5.025431472932985477e-02 7.140031456947326660e-02 1.571656088344752789e-03 9.974465370178222656e-01
-7.462734250676288095e-02 -9.136807921909989583e-02 -3.222153731046472624e-01 -9.780892729759216309e-01 -4.324294999241828918e-02 2.036455422639846802e-01
1.673723528534026561e-01 -9.172885865378056780e-02 -2.075403974356086478e-01 1.212427169084548950e-01 -1.582682877779006958e-02 9.924966692924499512e-01
-1.875278228767145727e-01 2.638468077194022765e-02 1.897502944747099796e-01 -5.400828644633293152e-02 -1.816385537385940552e-01 -9.818810820579528809e-01
-1.607238418941286662e-01 -9.179707488363009205e-02 -2.632903296108775604e-01 -1.420126408338546753e-01 -1.930971257388591766e-02 9.896764755249023438e-01
-1.220701292749373085e-01 5.942142244809561769e-02 4.746744400204937209e-02 -8.612181544303894043e-01 3.520376607775688171e-02 -5.070148110389709473e-01
-1.064627798791671631e-01 2.232108415824107794e-03 4.660062785618826475e-01 -9.650756120681762695e-01 1.247581280767917633e-02 -2.616743147373199463e-01
-1.784571505783385248e-01 -6.430525500305228626e-02 -1.491201346355475743e-01 -1.814637184143066406e-01 -9.833905100822448730e-01 3.748890710994601250e-03
1.283047821683390155e-01 9.295760784407386401e-02 -3.820694926889335596e-02 -1.330427825450897217e-01 4.133503735065460205e-01 -9.008002281188964844e-01
-1.300582691974936922e-01 6.141439405088985892e-02 1.250242514747326728e-01 -9.910780936479568481e-02 -1.882073411252349615e-04 -9.950766563415527344e-01
-5.310628641990577416e-03 1.575279805813188660e-02 4.636872663726099297e-01 8.906571865081787109e-01 4.345168173313140869e-01 1.338839232921600342e-01
0.000000000000000000e+00 1.062698158792242109e-01 -1.328827312135855143e-01 2.400442725047469139e-03 -6.010427605360746384e-03 -9.999790191650390625e-01
-0.000000000000000000e+00 6.794068830817881488e-02 -4.004186336687353132e-01 -1.262159639736637473e-04 -6.040613353252410889e-02 -9.981738924980163574e-01
-1.794662267863116889e-01 -8.996789986118577942e-02 -2.753159447688788286e-02 -3.299270197749137878e-02 -9.417272172868251801e-03 9.994112253189086914e-01
1.423679024292226203e-01 5.953655553019585045e-02 2.644486127612680204e-02 2.226550132036209106e-02 3.696105778217315674e-01 9.289198517799377441e-01
-1.649406334792505591e-01 -9.178974867402320270e-02 -2.289830970422331857e-01 -1.288080066442489624e-01 -1.545794308185577393e-02 9.915490746498107910e-01
8.458016807051871311e-02 4.444558261684988798e-02 3.662246137006373581e-01 2.473794221878051758e-01 1.668707281351089478e-01 -9.544410109519958496e-01
-1.588692434688101784e-01 4.172202780703287983e-02 -1.927734273550756883e-01 5.766130238771438599e-02 -3.737219376489520073e-03 -9.983292222023010254e-01
-6.693826719358945965e-02 5.876225765525383560e-02 7.370056285063140977e-02 -9.580284357070922852e-01 1.435067225247621536e-02 -2.863139510154724121e-01
-0.000000000000000000e+00 -6.435843067013270746e-02 -3.682136836316554085e-01 -2.507008379325270653e-03 -7.140928506851196289e-01 7.000465393066406250e-01
-1.669487911986471396e-01 4.275085081838353451e-02 -2.290249740011505997e-02 1.922968588769435883e-02 -2.804205194115638733e-02 9.994217753410339355e-01
1.018024372461901611e-01 2.891176172777051856e-03 -3.948883157744270123e-01 9.389395713806152344e-01 2.350481040775775909e-02 3.432782292366027832e-01
1.321957272387600524e-01 6.495911506995516449e-02 2.297533396460670341e-01 -7.289489358663558960e-02 -4.766118153929710388e-02 9.962001442909240723e-01
-1.287056859430520950e-01 6.231629411964709209e-02 2.599643477214644283e-01 8.232948929071426392e-02 -8.337354660034179688e-02 9.931116104125976562e-01
0.000000000000000000e+00 5.963912246469221801e-02 1.265981250736576413e-01 -2.518799738027155399e-04 -7.172119338065385818e-03 -9.999742507934570312e-01
-3.427593849449574875e-02 -8.927967281963854196e-02 4.664225625249757146e-01 9.855626821517944336e-01 -6.357624381780624390e-02 1.569211930036544800e-01
-1.161245948123131450e-01 6.358581465324772419e-02 -3.399698841305671126e-01 -7.648240774869918823e-02 1.627053171396255493e-01 -9.837059974670410156e-01
1.787017295361418290e-01 -8.882855297245445536e-02 4.946982808606038839e-02 -1.739898324012756348e-02 -1.299961097538471222e-02 9.997640848159790039e-01
1.789611064669921203e-01 -9.026157897873850200e-02 -4.894149595308693035e-02 4.556671902537345886e-02 -9.272421710193157196e-03 9.989182353019714355e-01
1.777567940506871724e-01 -6.776434185022256473e-02 -1.489831684784599375e-01 2.274339050054550171e-01 -9.737732410430908203e-01 -6.295517086982727051e-03
-1.894910044616371081e-01 2.157875960866931231e-03 -3.361293066593364076e-02 -4.904901608824729919e-02 5.074040032923221588e-03 9.987834692001342773e-01
-1.103269430442703342e-01 2.207946479504716009e-03 4.647321488235624520e-01 -9.616082906723022461e-01 -4.113106057047843933e-03 -2.743947207927703857e-01
-1.675558962371300753e-01 -9.014702811197128351e-02 3.625948407250100258e-01 -9.820455312728881836e-02 -2.083450742065906525e-02 -9.949481487274169922e-01
-1.415207306017671196e-01 2.069439921489099610e-02 4.016654195226274648e-01 -3.011404275894165039e-01 2.636178433895111084e-01 -9.164169430732727051e-01
5.822318290984149908e-02 1.049796267013021478e-01 -1.504653916803822544e-01 -9.946413040161132812e-01 1.017871126532554626e-01 -1.811503060162067413e-02
0.000000000000000000e+00 1.003451926506435110e-01 -2.893861486496471236e-02 2.089091576635837555e-02 7.049025893211364746e-01 -7.089963555335998535e-01
6.531524491697060508e-02 1.027666747385237722e-01 -4.503230813556528822e-02 -9.778235554695129395e-01 4.084442928433418274e-02 2.054089903831481934e-01
1.380805657529192709e-01 6.097952771508527436e-02 6.594021467711021212e-02 -2.370480895042419434e-01 4.080360531806945801e-01 -8.816546201705932617e-01
-1.727250465532022827e-01 2.276647888798402630e-03 -3.003511981148771492e-01 -1.795194596052169800e-01 -3.593953442759811878e-04 9.837543368339538574e-01
1.624533610587416133e-01 -3.885958239234911515e-02 -3.344191401816595244e-01 -1.624796912074089050e-02 -8.316225409507751465e-01 5.551035404205322266e-01
1.120403057333925756e-01 5.705141789924123019e-02 2.377192583500807310e-01 1.554761230945587158e-01 6.520818918943405151e-02 -9.856851100921630859e-01
1.241881801384371042e-01 2.963516427901977113e-03 -3.846640808296056258e-01 9.053815007209777832e-01 5.004852078855037689e-03 4.245694875717163086e-01
1.160932522202201417e-01 9.892628536618466861e-02 -1.503553044645013492e-01 -9.627849459648132324e-01 2.683411538600921631e-01 -3.222140297293663025e-02
4.668576128144465154e-02 -2.769046048001748417e-02 -3.903255912456158883e-01 -9.585764408111572266e-01 3.298933804035186768e-02 -2.829185426235198975e-01
-1.628133642063116227e-01 -3.211097891374400937e-02 -3.391182001342809005e-01 -3.256754484027624130e-03 -8.398846983909606934e-01 5.427551269531250000e-01
-1.864733338727676271e-01 3.742159128573704918e-02 2.645881078243513818e-01 -1.307581216096878052e-01 1.327014863491058350e-01 9.824931025505065918e-01
-1.637023585018541061e-01 -9.025352499996537603e-02 4.097251234131981112e-01 -1.649250090122222900e-01 -2.635222487151622772e-02 -9.859540462493896484e-01
1.328732803325357037e-01 5.966585585206565789e-02 4.051026188039797554e-02 8.107774257659912109e-01 2.035862579941749573e-02 -5.850003361701965332e-01
-1.223545414651064922e-01 5.953849624797249995e-02 -2.987397716269737935e-01 -1.621751338243484497e-01 -8.504015952348709106e-02 9.830906987190246582e-01
7.782351061314046747e-02 -9.137681244909486022e-02 -3.214822669645148179e-01 9.645590186119079590e-01 -2.345414906740188599e-01 1.208973005414009094e-01
-2.283302982182213586e-02 -1.066692080467579462e-02 4.821310233169097126e-01 -9.666787981986999512e-01 -2.112456411123275757e-01 1.445934623479843140e-01
6.143623526087601400e-02 -8.939301073779534756e-02 4.623771848374771398e-01 9.879000186920166016e-01 -5.846243351697921753e-02 -1.436512321233749390e-01
6.534978969339511751e-03 -9.125527499833167855e-02 -3.308174105779049246e-01 -9.920439124107360840e-01 -1.256930828094482422e-01 7.077455520629882812e-03
1.869651602753170938e-01 3.341590127677110389e-02 2.313239140247717596e-01 5.906874537467956543e-01 -5.110283493995666504e-01 -6.244505643844604492e-01
1.214444903816872673e-01 1.008088301274870369e-01 -1.117520990254475127e-01 -4.946058243513107300e-02 -3.993938118219375610e-02 -9.979771971702575684e-01
5.170474855954799304e-02 2.807240128936613899e-03 4.801413024163914134e-01 9.925127029418945312e-01 8.638407289981842041e-02 -8.635073900222778320e-02
1.745756179891342630e-01 -9.120525299763831972e-02 -1.303576633143761487e-01 8.705390244722366333e-02 -2.531144581735134125e-02 9.958820343017578125e-01
-1.362881673323425857e-01 6.125438187020440517e-02 7.959738529706145149e-02 8.783369511365890503e-02 8.144969493150711060e-02 -9.927996993064880371e-01
-1.596129265208253989e-01 -9.178028767486200168e-02 -2.718665555377056120e-01 -1.468266397714614868e-01 -2.262578532099723816e-02 9.889034032821655273e-01
-1.395654574417845017e-01 6.547083382971535803e-02 2.255071402137426989e-02 1.839669197797775269e-01 4.766654372215270996e-01 -8.596197962760925293e-01
1.779810439897799579e-01 -9.059266543143632000e-02 -7.464290664880914028e-02 5.966819822788238525e-02 -9.838934056460857391e-03 9.981697797775268555e-01
-9.098410007198941274e-02 4.765383169138717734e-02 3.398766528776215878e-01 2.152540683746337891e-01 -8.244190365076065063e-02 9.730719923973083496e-01
1.332674886309193063e-01 8.020228877493545960e-02 -9.167358443486622877e-03 -1.603527963161468506e-01 4.316554665565490723e-01 -8.876714110374450684e-01
8.347163007649183175e-02 4.388248335395264488e-02 3.706024363432773860e-01 2.562081813812255859e-01 1.778696924448013306e-01 -9.501156210899353027e-01
1.738258701940669781e-01 2.234582830989345625e-03 -2.926956487012954411e-01 1.720106154680252075e-01 -2.121273195371031761e-03 9.850928187370300293e-01
4.369244670067221753e-02 1.056684359581823995e-01 -1.505628642307149101e-01 -9.967890977859497070e-01 7.715231180191040039e-02 -2.142667211592197418e-02
1.475641257582792631e-01 2.581852487854477407e-02 3.814061210982643280e-01 3.324722945690155029e-01 2.142059952020645142e-01 -9.184649586677551270e-01
1.850459844659802788e-01 3.591394468094052939e-02 3.477640695475694432e-01 4.573418945074081421e-02 -1.317311376333236694e-01 9.902299046516418457e-01
1.377369616705620137e-01 6.956540871285221694e-02 1.392242834018733721e-02 -1.836852133274078369e-01 4.611627459526062012e-01 -8.680948615074157715e-01
1.424425230277351351e-01 5.580358488679473816e-02 -6.079016019491524647e-02 3.934524208307266235e-02 3.189579769968986511e-02 9.987164735794067383e-01
1.337578109771918600e-01 6.589881061741281743e-02 2.145651367721105318e-01 -6.492477655410766602e-02 -2.965793572366237640e-02 9.974492788314819336e-01
1.365674366204036594e-01 7.226252124296228541e-02 8.161262066345667532e-03 -1.778374910354614258e-01 4.509617388248443604e-01 -8.746469616889953613e-01
8.567672213227472966e-02 4.500062790097400511e-02 3.618429096224439756e-01 2.426028549671173096e-01 1.586642563343048096e-01 -9.570630192756652832e-01
-9.200084211518037847e-02 2.737374288976940351e-03 -3.986597611477503689e-01 -9.514614939689636230e-01 3.336975723505020142e-02 3.059533834457397461e-01
-1.654182441240860113e-01 4.224388681717614058e-02 1.460885424490507289e-03 9.462175890803337097e-03 -2.204897440969944000e-02 9.997121095657348633e-01
-1.703806594789997741e-01 2.343845241815176172e-03 -3.156405609029419024e-01 -1.969924420118331909e-01 8.199376054108142853e-03 9.803707003593444824e-01
8.428047272785833821e-02 5.888588137762693075e-02 6.708247264250652431e-02 9.282349944114685059e-01 1.765561290085315704e-02 -3.715751469135284424e-01
1.155642125543032417e-01 7.761875675270432651e-02 -2.828566462351405630e-01 -5.156331695616245270e-03 -1.710751950740814209e-01 -9.852445125579833984e-01
5.037482318514888840e-02 3.541668426861641072e-02 4.224440055060797450e-01 -8.122626543045043945e-01 -6.173037737607955933e-02 5.800161361694335938e-01
8.889574219047247094e-02 4.661719729098545706e-02 3.486745087745439786e-01 2.318756878376007080e-01 1.406800448894500732e-01 -9.625189304351806641e-01
9.943170492816951617e-03 -1.109717793576080191e-02 4.828742211894808123e-01 3.094487488269805908e-01 -6.449139714241027832e-01 6.988042593002319336e-01
-0.000000000000000000e+00 -2.118556263621616809e-02 -4.055363549637260867e-01 1.240815734490752220e-03 7.911381125450134277e-01 -6.116362810134887695e-01
-1.364265890277626958e-01 1.483755555466009790e-02 4.208863854185342368e-01 -2.646142542362213135e-01 3.115922808647155762e-01 -9.126278162002563477e-01
1.023080427449539059e-01 -2.981593458901302118e-02 -3.711403345567996781e-01 -9.115424752235412598e-01 1.513101742602884769e-03 -4.112031161785125732e-01
1.158792880853436180e-02 1.027672084359123605e-01 -3.856326505268772853e-02 -9.449389576911926270e-01 2.911764085292816162e-01 1.493537724018096924e-01
1.880421130875288560e-01 1.847926394461388289e-02 1.481851655649211175e-01 4.653396457433700562e-02 -1.941151916980743408e-01 -9.798744320869445801e-01
-4.913538377708643462e-02 5.560252652513297811e-02 3.052989327688555576e-01 -9.957785606384277344e-01 -9.091229736804962158e-02 1.264446880668401718e-02
0.000000000000000000e+00 9.542532753298299530e-02 -2.533505068562253437e-01 -2.596738631837069988e-04 -1.194790825247764587e-01 -9.928367137908935547e-01
1.137688060211727720e-01 1.027652192001912990e-01 -5.786040412132835431e-02 -9.524739384651184082e-01 8.864376693964004517e-02 2.914372384548187256e-01
1.888782228236574323e-01 6.748498307717523681e-03 7.339373537014182158e-02 9.229777008295059204e-02 -1.500729620456695557e-01 -9.843572974205017090e-01
-0.000000000000000000e+00 -3.415159513795518187e-02 -3.960010263116737761e-01 -1.018879935145378113e-03 -8.343788981437683105e-01 5.511903166770935059e-01
-1.214444418637428552e-01 1.008088301274870369e-01 -1.117520990254475127e-01 4.930685088038444519e-02 -3.950509056448936462e-02 -9.980021119117736816e-01
-1.152144952109495080e-01 5.818130378881133935e-02 2.197889182935957031e-01 -1.499975174665451050e-01 5.570384860038757324e-02 -9.871159195899963379e-01
-1.219201117908016579e-01 6.013580066168330851e-02 1.792959389195213915e-01 -1.305024176836013794e-01 3.313940763473510742e-02 -9.908940792083740234e-01
1.155892963315665323e-01 7.883350052705878630e-02 -2.771831518868594357e-01 -7.075964473187923431e-03 -1.677882224321365356e-01 -9.857977032661437988e-01
9.038456383283542325e-03 5.864275795815612757e-02 8.497724904573428217e-02 9.956462383270263672e-01 -8.896795660257339478e-02 2.780685201287269592e-02
-1.691928916817408701e-01 -9.165147253243634273e-02 -1.903865870795087845e-01 -1.144153997302055359e-01 -1.761791482567787170e-02 9.932767748832702637e-01
1.393703182693415699e-01 5.419880535727647497e-02 -1.327808920482553834e-01 6.559640914201736450e-02 2.394399978220462799e-02 9.975588917732238770e-01
-1.401960936833094029e-01 6.409273013651073381e-02 2.542321892054975885e-02 1.694944947957992554e-01 4.930450320243835449e-01 -8.533335328102111816e-01
0.000000000000000000e+00 9.693962109616457989e-02 -2.421785223851731783e-01 -2.471491170581430197e-04 -1.124493628740310669e-01 -9.936573505401611328e-01
