0.16773236 0.21466291 0.55964345 -0.00143007 -0.00053838 0.00005655
0.20273075 0.75168997 0.60301942 -0.00030494 0.00047956 0.00117753
0.13432215 0.31345844 0.59018201 -0.00083792 0.00046920 0.00155267
0.85891390 0.77216768 0.46821576 0.00084061 0.00082357 -0.00063924
0.10311449 0.29806411 0.54578394 -0.00149805 -0.00074221 -0.00008777
0.15375313 0.30992913 0.60041827 -0.00065798 0.00041076 0.00151315
0.92292506 0.35122508 0.53788280 0.00121159 -0.00040672 0.00086690
0.90450209 0.32260898 0.55367470 0.00111980 -0.00020496 0.00107515
0.50848967 0.84958732 0.38654706 -0.00024988 0.00012329 -0.00104031
0.49505150 0.73049730 0.47471100 -0.00002846 -0.00024692 -0.00009347
0.52619582 0.87341809 0.60896033 0.00000595 0.00038988 0.00105857
0.40101045 0.92769581 0.44200486 -0.00008525 0.00129504 -0.00043450
0.91212815 0.68914217 0.48200047 0.00118777 0.00049181 -0.00090359
0.35580856 0.31308952 0.54357368 0.00001893 0.00039322 0.00006571
0.55451727 0.18272381 0.61210567 0.00004423 0.00041539 0.00124308
0.72687763 0.52418703 0.50907308 -0.00013687 0.00027055 0.00026826
0.25295538 0.37498695 0.40616935 0.00045849 -0.00013222 -0.00095165
0.24646974 0.87511188 0.47615841 -0.00062625 0.00155474 -0.00009925
0.92671132 0.34631938 0.48304987 0.00145525 -0.00107462 -0.00054998
0.86856729 0.31133145 0.58757448 0.00077770 0.00047181 0.00164553
0.85623491 0.37731341 0.39193875 0.00051938 -0.00018422 -0.00151547
0.91082335 0.36332282 0.43279013 0.00129376 -0.00047467 -0.00115125
0.51518530 0.04545525 0.49783251 0.00040116 -0.00189636 -0.00040278
0.47602448 0.87301499 0.60908699 0.00029219 0.00027621 0.00105240
0.68212748 0.35292345 0.53734076 -0.00007650 0.00042466 0.00030262
0.26717234 0.58644390 0.43436101 0.00038192 0.00032190 -0.00054285
0.36063269 0.91736513 0.44366908 -0.00035309 0.00130525 -0.00035149
0.28865790 0.88079548 0.56391239 -0.00077392 0.00103748 0.00074962
0.88951761 0.70527291 0.55647343 0.00117204 0.00020764 0.00103023
0.38154939 0.29407573 0.54674494 -0.00011384 0.00031839 0.00017187
0.06830148 0.64238983 0.49124256 -0.00126312 0.00053800 -0.00011925
0.07977845 0.67032421 0.51978123 -0.00141851 0.00017747 0.00110441
0.28438985 0.41830695 0.52609974 0.00009261 0.00024948 0.00036655
0.90409398 0.31152779 0.54442585 0.00130720 -0.00070184 0.00025272
0.91893673 0.35823676 0.44778183 0.00141970 -0.00065300 -0.00087994
0.33457032 0.65660053 0.50608397 0.00020861 -0.00004103 0.00029624
0.46675423 0.17135796 0.38668507 -0.00026207 0.00022614 -0.00157573
0.92027903 0.33236977 0.52452070 0.00145092 -0.00099296 -0.00028046
0.58226031 0.08683816 0.58122683 -0.00012143 -0.00130669 0.00067223
0.20498206 0.38110596 0.38859615 0.00023169 -0.00013206 -0.00129939
0.48753655 0.06970312 0.42960560 -0.00008951 -0.00143346 -0.00133257
0.26677930 0.87030321 0.43968755 -0.00040571 0.00089604 -0.00109309
0.27249795 0.59137183 0.43939924 0.00038956 0.00034831 -0.00049605
0.69427532 0.37124315 0.53432518 -0.00014445 0.00025996 0.00038788
0.67328537 0.11222422 0.57712823 0.00033560 -0.00117936 0.00032848
0.31831655 0.88046938 0.58051366 -0.00052671 0.00094065 0.00084978
0.57408947 0.08580611 0.58138853 -0.00007667 -0.00121660 0.00076063
0.87037450 0.75772339 0.47061643 0.00095856 0.00072084 -0.00063961
0.66439903 0.32336730 0.55434012 -0.00010535 0.00041257 0.00031307
0.86751521 0.25453693 0.55380905 0.00178544 -0.00025361 -0.00010120
0.27925828 0.43539691 0.52326864 0.00008183 0.00021783 0.00034780
0.40366575 0.87711543 0.60307455 0.00003924 0.00061459 0.00094479
0.30341369 0.62205577 0.47077036 0.00022505 0.00014255 -0.00034513
0.71965641 0.56012863 0.50312304 -0.00024019 0.00028933 0.00029345
0.60326719 0.09128977 0.58051366 -0.00032117 -0.00136242 0.00051335
0.29011762 0.40311486 0.52861798 0.00012649 0.00022787 0.00038745
0.46695918 0.18248788 0.38832471 -0.00023364 0.00037983 -0.00149832
0.76965374 0.30299714 0.61350667 -0.00000309 0.00025322 0.00126779
0.48277798 0.72828293 0.48345748 0.00004720 -0.00024853 0.00002020
0.77236962 0.75681561 0.60896033 0.00003448 0.00021979 0.00122779
0.44780964 0.78302246 0.39958170 -0.00007641 -0.00036244 -0.00079951
0.58806235 0.71246547 0.47779348 -0.00016499 -0.00014355 -0.00028411
0.07359748 0.35445058 0.46928608 -0.00146967 -0.00089247 -0.00061075
0.09406009 0.32592645 0.55367470 -0.00113925 -0.00023701 0.00109314
0.14156611 0.77230287 0.46741596 -0.00090670 0.00075154 -0.00060504
0.27632469 0.54365087 0.50536704 0.00019479 0.00030085 0.00027051
0.06678480 0.63597757 0.48469222 -0.00124183 0.00054562 -0.00051125
0.45497662 0.93086201 0.43271545 -0.00006966 0.00096894 -0.00103671
0.38036522 0.92299086 0.44276047 -0.00019473 0.00131049 -0.00039323
0.32173428 0.86348826 0.40563920 -0.00040155 0.00016110 -0.00141159
0.88330162 0.27738655 0.55004793 0.00163864 -0.00045975 -0.00015680
0.07433349 0.35722610 0.53597075 -0.00126540 -0.00033328 0.00089183
0.27164492 0.49747792 0.51299590 0.00009608 0.00025806 0.00026896
0.92973512 0.64789450 0.48883960 0.00122043 0.00056749 -0.00025555
0.48619065 0.25885007 0.44512519 0.00017205 0.00069041 -0.00049103
0.83801407 0.22062708 0.55938381 0.00149192 -0.00052924 0.00003376
0.52327138 0.93745065 0.44052464 -0.00025370 0.00119654 -0.00063739
0.63286120 0.68667495 0.48210615 -0.00016116 -0.00008501 -0.00034211
0.29297468 0.89130181 0.44790527 -0.00039994 0.00152537 -0.00026224
0.82746041 0.74114448 0.59302628 0.00048628 0.00040156 0.00118975
0.67387968 0.34266847 0.53902727 -0.00010092 0.00044736 0.00020548
0.92222643 0.35531002 0.45642632 0.00145257 -0.00076101 -0.00074115
0.12458865 0.54556054 0.39243609 -0.00046061 -0.00016910 -0.00144113
0.47271746 0.11345530 0.39612070 -0.00028068 -0.00071357 -0.00169373
0.04860858 0.45559442 0.51967925 -0.00128124 -0.00017464 0.00040778
0.09097984 0.56558460 0.41284174 -0.00096899 0.00014428 -0.00127674
0.75325197 0.56972003 0.41788635 -0.00042765 0.00026700 -0.00063954
0.77942961 0.16966550 0.56774592 0.00095164 -0.00091937 0.00018550
0.48681414 0.73007733 0.47477153 0.00002663 -0.00025013 -0.00008290
0.54430878 0.72623199 0.47546974 -0.00018606 -0.00018467 -0.00022325
0.44029739 0.84448767 0.38654435 -0.00006604 -0.00007449 -0.00112808
0.34253436 0.32514903 0.54156512 0.00009682 0.00043746 0.00006167
0.64963955 0.86116225 0.60250384 0.00019547 0.00074325 0.00091262
0.44584936 0.79159361 0.39543068 -0.00010168 -0.00036319 -0.00086121
0.33663306 0.32700270 0.54753566 0.00010828 0.00043941 0.00020347
0.53309596 0.93701702 0.44060662 -0.00023586 0.00122897 -0.00058519
0.50888455 0.87095809 0.60978967 0.00009131 0.00018235 0.00110687
0.63873100 0.30829635 0.54467267 0.00001750 0.00034798 0.00005736
0.79167038 0.54807144 0.39582828 -0.00043392 0.00008736 -0.00095887
0.39264423 0.92578924 0.44231096 -0.00010933 0.00129778 -0.00041619
0.68734699 0.90013170 0.44687274 0.00060485 0.00125462 -0.00027199
0.74533165 0.14701991 0.57145327 0.00083291 -0.00098157 0.00022742
0.64680487 0.91517806 0.44434091 0.00048157 0.00124684 -0.00031118
0.26239738 0.37302259 0.41188395 0.00049003 -0.00013667 -0.00085841
0.46709806 0.85229141 0.38684860 -0.00010585 0.00017514 -0.00108946
0.07208265 0.34903479 0.48537314 -0.00146654 -0.00106937 -0.00058019
0.06323045 0.38947174 0.53062737 -0.00112487 -0.00060738 0.00085456
0.77228767 0.55739641 0.40532586 -0.00048500 0.00019671 -0.00077832
0.87496358 0.26530293 0.55203688 0.00171559 -0.00030129 -0.00013166
0.44436550 0.79942781 0.39242426 -0.00011820 -0.00038613 -0.00090944
0.48993221 0.26356402 0.45516017 0.00020481 0.00065044 -0.00040648
0.31521946 0.35735637 0.53621036 0.00013315 0.00038278 0.00031486
0.75333893 0.15217973 0.57060891 0.00087227 -0.00092902 0.00021162
0.55119658 0.93548542 0.44087991 -0.00010908 0.00126301 -0.00050685
0.48389697 0.26026288 0.55244637 0.00016186 0.00027946 0.00040682
0.10896160 0.70439345 0.55460703 -0.00115633 0.00026527 0.00109304
0.68233520 0.85844046 0.59614885 0.00029000 0.00085074 0.00089869
0.06020078 0.39980555 0.52891582 -0.00112105 -0.00065095 0.00077245
0.15548202 0.22743382 0.55751872 -0.00146143 -0.00053770 0.00002586
0.54977232 0.09372691 0.59106016 -0.00015931 -0.00040098 0.00156293
0.68150169 0.63839191 0.48792094 -0.00020896 0.00003926 -0.00003143
0.92553991 0.33939788 0.50360173 0.00146205 -0.00123513 -0.00072492
0.92579854 0.34977081 0.47282034 0.00146076 -0.00096096 -0.00056682
0.87723911 0.54521668 0.39301905 0.00053168 -0.00015911 -0.00140932
0.71944916 0.76168126 0.61386329 -0.00021282 -0.00005544 0.00111998
0.95310444 0.54299361 0.50620919 0.00127849 0.00073782 0.00029564
0.65688086 0.10610019 0.57812297 0.00023824 -0.00123162 0.00035870
0.67714757 0.35119364 0.47161752 -0.00051316 -0.00008313 -0.00035088
0.45730945 0.75582510 0.42113283 0.00004249 -0.00039265 -0.00054374
0.49506742 0.72864312 0.51489925 -0.00004738 -0.00026345 0.00019423
0.74711108 0.86978900 0.45195428 0.00080843 0.00135920 -0.00015671
0.16024971 0.73658991 0.58754718 -0.00068491 0.00046166 0.00113833
0.36723495 0.69885379 0.54927045 0.00021206 -0.00038834 0.00020655
0.94232374 0.40881076 0.52838248 0.00115279 -0.00060557 0.00066255
0.70833659 0.76134604 0.61350667 -0.00022831 -0.00010855 0.00107499
0.15103361 0.38096297 0.38967511 -0.00038094 -0.00015190 -0.00153245
0.28706425 0.58000511 0.49936786 0.00027110 0.00021559 0.00033809
0.52212226 0.76833135 0.58801723 -0.00010776 -0.00047260 0.00047706
0.76374793 0.85855341 0.45382980 0.00058846 0.00145507 -0.00024406
0.10750005 0.29022852 0.54708427 -0.00162325 -0.00065609 -0.00018551
0.04649347 0.48430896 0.51492929 -0.00125654 0.00009156 0.00031790
0.27213407 0.47760966 0.51628155 0.00007148 0.00022066 0.00029104
0.33749932 0.10758861 0.57753086 -0.00028874 -0.00121259 0.00041033
0.16127314 0.22086845 0.55861044 -0.00141093 -0.00061901 0.00005592
0.31396744 0.63346988 0.48243907 0.00018179 0.00003535 -0.00016268
0.72669816 0.46650165 0.51861072 -0.00007686 0.00017777 0.00030743
0.72292703 0.44468498 0.52221334 -0.00008051 0.00019160 0.00033301
0.54375219 0.84731013 0.38656574 -0.00011814 0.00006558 -0.00104838
0.48896345 0.72728133 0.49916467 -0.00000945 -0.00025333 0.00014910
0.65792155 0.91158593 0.44494665 0.00052476 0.00125474 -0.00030205
0.37079844 0.70404226 0.55457330 0.00027050 -0.00041150 0.00019987
0.93403041 0.38051024 0.53305268 0.00110505 -0.00064985 0.00089291
0.32957855 0.65064859 0.50000000 0.00022588 -0.00000153 0.00020016
0.12750857 0.71819007 0.56871784 -0.00098405 0.00035511 0.00109935
0.78902739 0.84549695 0.53305268 0.00110726 0.00108335 0.00029391
0.57672203 0.27329797 0.55039179 -0.00017064 0.00025345 0.00011503
0.70996803 0.58842093 0.49843457 -0.00024960 0.00016520 0.00036772
0.59043068 0.86552960 0.60814238 -0.00033621 0.00059888 0.00092503
0.66056907 0.84025651 0.39174470 0.00017665 0.00002890 -0.00124973
0.80409563 0.37914523 0.38713643 -0.00012061 -0.00014615 -0.00135489
0.05087583 0.57199275 0.50043678 -0.00125762 0.00076793 0.00036550
0.08719775 0.68723971 0.48142117 -0.00118936 0.00050973 -0.00108466
0.61254519 0.84299558 0.38794121 0.00000635 0.00002463 -0.00114292
0.51429486 0.74831510 0.56600791 -0.00011749 -0.00041950 0.00026081
0.72274572 0.88316065 0.44971660 0.00090032 0.00117951 -0.00020130
0.70595407 0.39332125 0.53068757 -0.00013828 0.00019969 0.00039694
0.32753947 0.34928849 0.48151770 0.00049290 -0.00002286 -0.00030886
0.40231261 0.85677487 0.38993290 -0.00003302 0.00012385 -0.00119786
0.80144715 0.75007498 0.60211301 0.00029453 0.00033649 0.00121741
0.77040714 0.83693719 0.43118876 0.00066870 0.00047073 -0.00136631
0.89741385 0.69781125 0.54886371 0.00125116 0.00011236 0.00098933
0.91564876 0.67704123 0.52767742 0.00136954 0.00011351 0.00118907
0.26979122 0.37132740 0.41682515 0.00049213 -0.00013482 -0.00079795
0.30582166 0.61908251 0.49292725 0.00017060 -0.00003668 0.00022927
0.61241907 0.28986004 0.54769236 0.00009391 0.00028434 0.00010641
0.16202508 0.79541075 0.46361747 -0.00078986 0.00084043 -0.00058525
0.35575253 0.86039573 0.39631519 -0.00012421 0.00011095 -0.00133458
0.89854610 0.36849400 0.41759443 0.00111003 -0.00034214 -0.00134219
0.46643764 0.87360340 0.60876220 0.00033259 0.00033048 0.00103160
0.65229350 0.67201030 0.52221334 -0.00016641 -0.00015999 0.00042086
0.62902212 0.86274266 0.60508853 0.00008242 0.00068317 0.00090611
0.65075767 0.67205131 0.48454329 -0.00020198 -0.00000655 -0.00031845
0.04545457 0.49841705 0.51259553 -0.00131960 0.00021783 0.00029052
0.90846586 0.56374955 0.41198233 0.00097914 0.00008353 -0.00130175
0.91975200 0.67389905 0.48452917 0.00120003 0.00062677 -0.00081615
0.50510520 0.27232513 0.49481240 0.00026185 0.00053957 -0.00023520
0.30698898 0.89741039 0.44691056 -0.00046926 0.00146008 -0.00021621
0.31743842 0.35496616 0.46479350 0.00049936 -0.00006266 -0.00042907
0.92604268 0.65751278 0.48724547 0.00116761 0.00064510 -0.00048398
0.35222778 0.75044388 0.60193264 0.00055014 -0.00011460 0.00078793
0.29900488 0.60752815 0.49483016 0.00020660 0.00002541 0.00033986
0.52671415 0.26269409 0.54907054 -0.00007910 0.00045725 0.00009095
0.86786222 0.37574530 0.39645046 0.00070474 -0.00021296 -0.00149068
0.88803196 0.28424156 0.54891974 0.00155537 -0.00065868 -0.00016076
0.09662429 0.56086057 0.40802532 -0.00087764 0.00003950 -0.00133662
0.94520676 0.59466976 0.49765623 0.00136074 0.00055274 0.00060415
0.14976519 0.23403834 0.55642021 -0.00151739 -0.00045764 -0.00000545
0.46012691 0.75017285 0.42776603 0.00006212 -0.00036014 -0.00050760
0.32016388 0.35025722 0.53738952 0.00013076 0.00041675 0.00025079
0.37383947 0.69157153 0.48101535 0.00016460 -0.00006613 -0.00036633
0.05222216 0.58087277 0.49897021 -0.00129199 0.00073415 0.00041112
0.47020245 0.12688343 0.39103967 -0.00030172 -0.00051689 -0.00172673
0.72471333 0.45261306 0.52090484 -0.00007056 0.00018555 0.00032344
0.90696973 0.69945586 0.48028982 0.00122976 0.00038478 -0.00082566
0.19633573 0.30581185 0.61211842 -0.00021747 0.00029618 0.00142796
0.10503787 0.37322390 0.41319838 -0.00112908 -0.00031667 -0.00132193
0.95306468 0.47850648 0.51687092 0.00123626 -0.00005510 0.00034971
0.07048082 0.36638299 0.53445321 -0.00125343 -0.00037057 0.00097432
0.66901779 0.83982062 0.39289746 0.00019162 0.00003284 -0.00127225
0.43792540 0.93393314 0.44101381 -0.00012285 0.00120735 -0.00062659
0.07091258 0.65096289 0.50000000 -0.00130556 0.00048569 0.00037923
0.68156320 0.11559093 0.57658035 0.00034576 -0.00116452 0.00031642
0.79973966 0.54516703 0.39287239 -0.00043277 0.00005161 -0.00102219
0.92651546 0.34235421 0.49481833 0.00145680 -0.00117879 -0.00066430
0.94598699 0.42640218 0.52547807 0.00118960 -0.00035957 0.00052944
0.50171661 0.94216645 0.55329394 0.00013781 0.00143270 0.00062845
0.89333838 0.31828487 0.56664097 0.00090359 0.00020420 0.00157758
0.95425481 0.49467096 0.51419967 0.00128163 0.00000301 0.00033459
0.66726065 0.65460652 0.50446069 -0.00020547 -0.00003500 0.00025299
0.55185562 0.10348407 0.59736174 -0.00027351 -0.00002833 0.00180743
0.51950568 0.76018012 0.58051366 -0.00011554 -0.00046775 0.00038598
0.11650207 0.27719799 0.54924864 -0.00169462 -0.00037918 -0.00017983
0.50006557 0.73141050 0.52794981 -0.00007220 -0.00028725 0.00015912
0.55535531 0.12997459 0.60896033 -0.00014343 -0.00001167 0.00159984
0.29526561 0.59947067 0.49615824 0.00021774 0.00003438 0.00039210
0.48823562 0.95308089 0.51993746 -0.00013795 0.00155959 0.00018446
0.05008107 0.44708842 0.52108699 -0.00125292 -0.00017650 0.00043374
0.50255603 0.25952324 0.55258894 0.00000993 0.00035840 0.00033541
0.33891490 0.66175032 0.51134807 0.00018231 -0.00009150 0.00035487
0.61929822 0.92324239 0.44297773 0.00033370 0.00127262 -0.00034733
0.68167841 0.35351965 0.46466091 -0.00050483 -0.00009289 -0.00041667
0.52269936 0.89126134 0.60181379 0.00020644 0.00090899 0.00095158
0.84774709 0.73237234 0.58409399 0.00071665 0.00040788 0.00115644
0.91981947 0.67103696 0.52155161 0.00139221 0.00017627 0.00125377
0.62438428 0.72370696 0.57496852 -0.00039472 -0.00039556 0.00037140
0.69877845 0.83842880 0.39844489 0.00030574 0.00005344 -0.00135784
0.71637619 0.41993427 0.52629876 -0.00009258 0.00021816 0.00036426
0.94436568 0.41787291 0.52688628 0.00119033 -0.00042684 0.00058142
0.72287780 0.13465255 0.57347327 0.00064948 -0.00103748 0.00025574
0.36031345 0.68794340 0.53812146 0.00016238 -0.00030897 0.00027039
0.51698434 0.75389349 0.57343996 -0.00011709 -0.00044412 0.00032136
0.83991742 0.37872350 0.38795307 0.00030276 -0.00016077 -0.00150450
0.13890262 0.24658790 0.55433375 -0.00169456 -0.00030179 -0.00006842
0.52409989 0.04777166 0.52084696 0.00058666 -0.00188474 -0.00008077
0.28466085 0.60278004 0.45106384 0.00034737 0.00032132 -0.00046419
0.79916936 0.84240717 0.50765389 0.00111210 0.00120006 0.00004517
0.82038629 0.20366098 0.56216937 0.00133962 -0.00060821 0.00008049
0.72526622 0.36856553 0.41948634 -0.00049579 -0.00014223 -0.00079954
0.21375088 0.38040048 0.39058283 0.00027562 -0.00013253 -0.00124059
0.38008919 0.85844272 0.39235136 0.00000797 0.00010858 -0.00126092
0.47174779 0.73479229 0.45592126 0.00010382 -0.00025689 -0.00031448
0.51241475 0.92317224 0.57873011 0.00029207 0.00120220 0.00084982
0.67650360 0.90481609 0.44608665 0.00056416 0.00127312 -0.00028764
0.45884892 0.08157906 0.58196241 0.00046100 -0.00112277 0.00081363
0.79307723 0.84448129 0.52518928 0.00114230 0.00109683 0.00014954
0.36766902 0.74084061 0.59214592 0.00058813 -0.00023124 0.00059549
0.92124361 0.57808489 0.42663696 0.00107855 0.00037936 -0.00116778
0.55603665 0.15970020 0.61368066 0.00001179 0.00008017 0.00138517
0.59158617 0.84428412 0.38725257 0.00002759 0.00002565 -0.00110110
0.35622346 0.68250120 0.53255850 0.00015783 -0.00025817 0.00032255
0.13809283 0.72489476 0.57557791 -0.00090284 0.00038666 0.00109868
0.63976854 0.68138939 0.48298743 -0.00018762 -0.00004638 -0.00035002
0.89266300 0.37040922 0.41198233 0.00103062 -0.00030154 -0.00139961
0.88395792 0.37268829 0.40532631 0.00093619 -0.00026355 -0.00144047
0.37545907 0.71554977 0.56632948 0.00040998 -0.00041737 0.00024264
0.11959551 0.71285349 0.56325883 -0.00108729 0.00030719 0.00108030
0.91549033 0.36063656 0.44070411 0.00136604 -0.00056582 -0.00100819
0.67351949 0.85918790 0.59800529 0.00024444 0.00082170 0.00089570
0.25298908 0.57500881 0.42266631 0.00036990 0.00026576 -0.00064495
0.64857519 0.67715144 0.52745885 -0.00014555 -0.00020517 0.00038187
0.22800931 0.55805779 0.40532586 0.00045736 0.00019786 -0.00080203
0.53305137 0.72797823 0.47516868 -0.00018703 -0.00019986 -0.00020053
0.72053540 0.43318024 0.52411306 -0.00006941 0.00021831 0.00034558
0.69263393 0.62645036 0.47574073 -0.00019861 0.00009767 -0.00026225
0.16232248 0.30881238 0.60362738 -0.00053403 0.00038232 0.00150387
0.75200677 0.75975382 0.61193538 -0.00009851 0.00010997 0.00119991
0.27192047 0.48629245 0.51484597 0.00008671 0.00024187 0.00027900
0.35273150 0.10289973 0.57832241 -0.00010897 -0.00119136 0.00043642
0.47207892 0.22342585 0.40551171 -0.00005428 0.00064075 -0.00105887
0.71428436 0.88780439 0.44893959 0.00085513 0.00119543 -0.00022349
0.84354788 0.22680257 0.55836862 0.00149241 -0.00049841 0.00001412
0.95176762 0.46089274 0.51978165 0.00126473 -0.00012390 0.00038298
0.61967897 0.29464278 0.54690939 0.00008732 0.00030594 0.00009447
0.64786196 0.10330781 0.57857478 0.00012399 -0.00124164 0.00037390
0.77703935 0.83703417 0.43667105 0.00062442 0.00064556 -0.00129592
0.20488186 0.83510846 0.45710042 -0.00027389 0.00120290 -0.00074019
0.40937665 0.92960232 0.44169834 -0.00009235 0.00129898 -0.00045533
0.21972553 0.16990462 0.56709963 -0.00142819 -0.00057883 0.00014748
0.32476076 0.11274572 0.57666421 -0.00046797 -0.00109850 0.00036941
0.66470414 0.85993570 0.59986126 0.00024654 0.00079061 0.00089875
0.51100188 0.04593619 0.48719037 0.00027903 -0.00188500 -0.00065237
0.20599270 0.30536869 0.61331493 -0.00014565 0.00027892 0.00139830
0.05404441 0.42564157 0.52463728 -0.00116459 -0.00054693 0.00058503
0.83101654 0.37918717 0.38668507 0.00018997 -0.00015084 -0.00148936
0.11399799 0.31864971 0.57502496 -0.00085177 0.00040436 0.00172283
0.89272046 0.29118270 0.54777747 0.00147731 -0.00077399 -0.00008078
0.09142344 0.31925002 0.54226834 -0.00130648 -0.00074907 0.00029813
0.27753755 0.36938807 0.42248553 0.00053155 -0.00013540 -0.00072408
0.69651526 0.89614516 0.44754136 0.00071735 0.00121973 -0.00025500
0.28152961 0.42742193 0.52458948 0.00008682 0.00023304 0.00035678
0.66881967 0.65364820 0.48760575 -0.00024007 0.00005999 -0.00014810
0.50879073 0.27255189 0.50425345 0.00025012 0.00053754 -0.00024790
0.46812424 0.14385906 0.38742930 -0.00030421 -0.00019382 -0.00170654
0.78833830 0.30292925 0.61347979 0.00010206 0.00027703 0.00135509
0.22258578 0.84891331 0.45483726 -0.00034614 0.00113369 -0.00085505
0.46877277 0.20457418 0.39517289 -0.00014848 0.00058139 -0.00128470
0.60203427 0.28449070 0.54856861 0.00001954 0.00026109 0.00011876
0.44492844 0.85378939 0.38752675 -0.00006861 0.00017959 -0.00111921
0.25967604 0.57999462 0.42776603 0.00039451 0.00029971 -0.00059031
0.33813426 0.33913735 0.51151067 0.00036396 0.00019752 -0.00025256
0.48436841 0.07629444 0.42217034 -0.00012831 -0.00132678 -0.00140423
0.72872037 0.83734983 0.40737769 0.00056088 0.00010957 -0.00139420
0.07708216 0.66493529 0.48509803 -0.00118259 0.00062879 -0.00082454
0.07883383 0.33562765 0.52507406 -0.00142179 -0.00096068 -0.00012293
0.69994664 0.31023338 0.59288150 -0.00039515 0.00025934 0.00074935
0.77920461 0.37751746 0.39226985 -0.00028519 -0.00014758 -0.00119442
0.47474787 0.26094288 0.55232430 0.00022264 0.00024278 0.00041043
0.35353991 0.87939584 0.59306687 -0.00020175 0.00081030 0.00093127
0.27035323 0.88041657 0.54761398 -0.00083063 0.00109547 0.00067595
0.28503430 0.88712305 0.44858754 -0.00039793 0.00144905 -0.00036842
0.84906799 0.30777347 0.59836876 0.00069716 0.00044057 0.00150051
0.47390938 0.23053183 0.41090196 -0.00000888 0.00067992 -0.00094590
0.83927161 0.53852242 0.38613671 -0.00011565 -0.00019444 -0.00137713
0.61049974 0.86411226 0.60688806 -0.00011523 0.00064159 0.00091566
0.62892240 0.73648059 0.58801723 -0.00046248 -0.00033439 0.00054073
0.66121584 0.32650262 0.54507530 -0.00010362 0.00041602 0.00015015
0.31523266 0.90100348 0.44632530 -0.00054944 0.00138106 -0.00024474
0.48531982 0.85109359 0.38663632 -0.00015650 0.00015770 -0.00105978
0.70920241 0.40092230 0.52943408 -0.00012996 0.00019714 0.00039093
0.57111311 0.71881402 0.47672498 -0.00017531 -0.00015953 -0.00026085
0.49867326 0.05334141 0.45642632 0.00008167 -0.00174581 -0.00100455
0.95433223 0.51305306 0.51116037 0.00126982 0.00030570 0.00029838
0.81242216 0.37934202 0.38645190 -0.00002596 -0.00014655 -0.00140179
0.94843787 0.43929511 0.52334881 0.00121270 -0.00027670 0.00046491
0.28419358 0.36758083 0.42776603 0.00054631 -0.00012899 -0.00067729
0.78434396 0.84645295 0.53987128 0.00104877 0.00107837 0.00043698
0.23025835 0.37861833 0.39567164 0.00033520 -0.00012780 -0.00113947
0.12453537 0.37773287 0.39958170 -0.00080908 -0.00021003 -0.00149440
0.55146849 0.26560444 0.55163652 -0.00013200 0.00041068 0.00007493
0.65824217 0.66523725 0.51530504 -0.00016742 -0.00012057 0.00037596
0.79966855 0.83951229 0.47778615 0.00078591 0.00144383 -0.00005215
0.93891019 0.61899418 0.49362776 0.00133600 0.00043831 0.00036383
0.08726016 0.68109429 0.53078866 -0.00140591 0.00006240 0.00104156
0.49133816 0.95151871 0.52770883 -0.00007169 0.00154377 0.00028756
0.73874217 0.58106679 0.42945576 -0.00041838 0.00032566 -0.00053333
0.56103897 0.84619969 0.38663632 -0.00006399 0.00004669 -0.00106524
0.10047924 0.71364236 0.47707024 -0.00131453 0.00029712 -0.00080049
0.53981662 0.24234036 0.58051366 -0.00014375 0.00046328 0.00069047
0.34507719 0.87971878 0.59072441 -0.00028786 0.00084427 0.00092250
0.52625507 0.78668749 0.60041827 -0.00008752 -0.00041539 0.00067909
0.32706672 0.88024712 0.58409119 -0.00043190 0.00090882 0.00087353
0.68704504 0.36028084 0.53612971 -0.00010083 0.00036281 0.00035859
0.75265712 0.37407699 0.40280083 -0.00044794 -0.00015598 -0.00098063
0.04828203 0.55348861 0.50349337 -0.00126186 0.00067359 0.00030827
0.30938557 0.62859011 0.47745007 0.00018455 0.00006707 -0.00025326
0.67554528 0.31729156 0.57223397 -0.00025542 0.00032740 0.00055242
0.47624448 0.09910168 0.40369487 -0.00024847 -0.00092240 -0.00163930
0.84744793 0.78630036 0.46586651 0.00068073 0.00104405 -0.00068068
0.07552952 0.58450454 0.43214250 -0.00112100 0.00053556 -0.00114587
0.06958402 0.59840089 0.44632530 -0.00105168 0.00061701 -0.00135368
0.44544035 0.90074158 0.40532631 0.00001854 0.00067303 -0.00126125
0.70184636 0.60592586 0.49553153 -0.00020803 0.00004435 0.00035196
0.07365579 0.34227633 0.50540942 -0.00146981 -0.00121187 -0.00061308
0.76122063 0.37541464 0.39872679 -0.00040476 -0.00015144 -0.00105792
0.83048368 0.80349505 0.46300536 0.00054845 0.00109457 -0.00074183
0.93325162 0.60724348 0.45642632 0.00105869 0.00066095 -0.00139882
0.54542100 0.22754768 0.59335285 -0.00007754 0.00060159 0.00077198
0.34200740 0.66521579 0.48533899 0.00022512 0.00004912 -0.00028917
0.28031856 0.13265768 0.57332385 -0.00056868 -0.00109325 0.00030550
0.06574184 0.62688351 0.47540510 -0.00116559 0.00061033 -0.00099548
0.56591821 0.08477452 0.58155024 -0.00001430 -0.00112588 0.00086319
0.70600009 0.36303908 0.43612042 -0.00046005 -0.00011705 -0.00068538
0.68403363 0.31434840 0.58086389 -0.00035510 0.00029319 0.00060130
0.05871553 0.60912812 0.49430546 -0.00132607 0.00051956 0.00040019
0.07246248 0.35182443 0.47709206 -0.00147668 -0.00098289 -0.00056834
0.75307935 0.85110998 0.56737792 0.00073340 0.00104091 0.00077031
0.09192445 0.69669271 0.47986352 -0.00126660 0.00032276 -0.00094813
0.65327728 0.32071790 0.54263449 -0.00007277 0.00039145 0.00005979
0.41266733 0.87665313 0.60432243 0.00004590 0.00058064 0.00095100
0.91677558 0.32936561 0.53347760 0.00141698 -0.00077608 0.00009610
0.34897810 0.31879863 0.54262221 0.00005410 0.00041573 0.00005182
0.17955548 0.30694455 0.60896033 -0.00035032 0.00033037 0.00147826
0.49689519 0.26923168 0.47352129 0.00025456 0.00058915 -0.00027273
0.17047372 0.30786505 0.60633922 -0.00042820 0.00035573 0.00149526
0.69199765 0.35811380 0.45090351 -0.00048535 -0.00010490 -0.00054988
0.44107166 0.86959356 0.39103967 0.00000305 0.00058199 -0.00110577
0.80747736 0.82513595 0.45940229 0.00066945 0.00106512 -0.00072864
0.64406163 0.84115285 0.38996616 0.00011989 0.00002473 -0.00121030
0.30561030 0.37203610 0.53377318 0.00016425 0.00027512 0.00038251
0.65903646 0.33278334 0.52646595 -0.00021346 0.00032560 -0.00014744
0.06298086 0.62560827 0.49158505 -0.00132587 0.00047363 0.00009862
0.73811543 0.14244899 0.57220072 0.00078296 -0.00105202 0.00024534
0.68978274 0.11893396 0.57603651 0.00036012 -0.00117256 0.00030898
0.72540379 0.53360122 0.50751495 -0.00016415 0.00027702 0.00027123
0.42949632 0.85483420 0.38801637 -0.00001772 0.00015888 -0.00114979
0.62738842 0.70887148 0.55982286 -0.00026881 -0.00040708 0.00026831
0.33247343 0.75668770 0.60828394 0.00046788 -0.00003420 0.00090655
0.37232649 0.92115867 0.44305471 -0.00027811 0.00132248 -0.00038021
0.24702539 0.30575353 0.61167526 0.00006959 0.00023531 0.00121959
0.42887598 0.93270761 0.44120649 -0.00015431 0.00123622 -0.00055443
0.75865960 0.30336469 0.61254930 -0.00007256 0.00024045 0.00121765
0.39065209 0.28847548 0.54768091 -0.00012241 0.00029097 0.00020589
0.42528930 0.87598544 0.60586596 0.00004679 0.00053248 0.00096268
0.36266494 0.87903243 0.59542519 -0.00016703 0.00077610 0.00093191
0.54534495 0.07846420 0.57821500 0.00019778 -0.00117697 0.00091753
0.08406106 0.36445734 0.43946570 -0.00138327 -0.00052263 -0.00106665
0.76251775 0.75836509 0.61053026 -0.00002922 0.00016365 0.00121272
0.33285826 0.86243522 0.40215361 -0.00029495 0.00013397 -0.00138469
0.22986346 0.85383672 0.45403114 -0.00037691 0.00110213 -0.00086936
0.18066676 0.54103470 0.38788474 0.00027316 -0.00005445 -0.00121490
0.82689422 0.30506536 0.60667306 0.00046222 0.00036586 0.00146844
0.39340484 0.85741758 0.39063203 0.00001581 0.00011631 -0.00122781
0.29655045 0.88080871 0.56937510 -0.00072034 0.00101446 0.00079286
0.94136602 0.60950619 0.49519908 0.00133959 0.00047793 0.00050971
0.85285866 0.77979964 0.46694729 0.00074556 0.00095635 -0.00066062
0.54331404 0.07290404 0.57246852 0.00034336 -0.00149206 0.00062664
0.36707100 0.68657750 0.48183379 0.00017687 -0.00004726 -0.00037408
0.47025165 0.21435821 0.39993238 -0.00010255 0.00060861 -0.00117571
0.08378824 0.33166200 0.53678149 -0.00135461 -0.00068741 0.00032207
0.53328907 0.08132263 0.58208585 0.00014770 -0.00085975 0.00123712
0.32911396 0.65121615 0.48763949 0.00024500 0.00007590 -0.00013838
0.30114731 0.38029939 0.53240180 0.00017217 0.00023908 0.00039559
0.85179472 0.23634568 0.55679953 0.00152354 -0.00043389 -0.00002122
0.94721949 0.58558440 0.49916062 0.00131694 0.00073813 0.00050811
0.33666992 0.88000256 0.58801723 -0.00039158 0.00087739 0.00090160
0.66644537 0.33367965 0.54050571 -0.00010973 0.00042747 0.00012499
0.61853582 0.69630963 0.48049751 -0.00013598 -0.00013190 -0.00032382
0.83091724 0.53892779 0.38654023 -0.00021858 -0.00014681 -0.00131048
0.87941802 0.71305799 0.56441063 0.00099758 0.00032298 0.00110427
0.26372686 0.88012320 0.54008490 -0.00094879 0.00111791 0.00051882
0.09145442 0.36837018 0.42776603 -0.00128379 -0.00041185 -0.00121985
0.49399391 0.85052836 0.38658762 -0.00022418 0.00014717 -0.00104940
0.39496887 0.87756175 0.60186851 0.00001420 0.00064913 0.00094947
0.47603953 0.95378363 0.48883960 -0.00033759 0.00157770 -0.00001946
0.37270495 0.29991326 0.54577035 -0.00006955 0.00032816 0.00013591
0.04550650 0.50709707 0.51116037 -0.00130248 0.00019143 0.00029779
0.12693240 0.31514862 0.58525676 -0.00086656 0.00047420 0.00159346
0.56566316 0.93354332 0.44121650 0.00002961 0.00125906 -0.00045491
0.51278090 0.27192977 0.51438826 0.00021628 0.00055165 -0.00030622
0.24611449 0.56968457 0.41722092 0.00039534 0.00024258 -0.00069237
0.22768457 0.30520016 0.61355221 0.00000259 0.00025650 0.00129709
0.89905578 0.32039317 0.56031615 0.00100651 0.00001061 0.00135485
0.31160682 0.35781002 0.45642632 0.00052003 -0.00007732 -0.00048765
0.26514786 0.14041904 0.57202399 -0.00068501 -0.00109725 0.00028775
0.82254827 0.81153840 0.46166724 0.00061938 0.00105044 -0.00077178
0.69874287 0.85696024 0.59177518 0.00034870 0.00090531 0.00089375
0.77237558 0.16444647 0.56860125 0.00097518 -0.00092619 0.00019390
0.49452546 0.05832269 0.44632530 0.00002243 -0.00165196 -0.00111367
0.55452138 0.12141708 0.60597169 -0.00021596 0.00006916 0.00172177
0.32320175 0.90440577 0.44577149 -0.00057875 0.00134116 -0.00026790
0.80586863 0.30346578 0.61167526 0.00025748 0.00030702 0.00142604
0.48199093 0.08195980 0.41666207 -0.00017565 -0.00119265 -0.00150077
0.30341047 0.12138931 0.57521212 -0.00057168 -0.00109568 0.00033646
0.70554012 0.59796411 0.49685192 -0.00022792 0.00007643 0.00039247
0.69074792 0.85772043 0.59431159 0.00031101 0.00088182 0.00091969
0.37361038 0.70991766 0.56057620 0.00034030 -0.00041820 0.00021572
0.12800501 0.26054755 0.55201370 -0.00174451 -0.00026136 -0.00012369
0.33401510 0.34429991 0.49624160 0.00046025 0.00005192 -0.00026050
0.50522226 0.93824679 0.44037342 -0.00023648 0.00116147 -0.00077242
0.22754110 0.75730485 0.60878408 -0.00016654 0.00040758 0.00115536
0.11242669 0.73209637 0.47403231 -0.00118291 0.00040344 -0.00070228
0.49207646 0.72774500 0.50716609 -0.00003371 -0.00025699 0.00018323
0.44130304 0.82306594 0.38696700 -0.00012848 -0.00043180 -0.00106026
0.29148215 0.59131724 0.49750230 0.00023962 0.00010124 0.00038807
0.61288589 0.09338532 0.58017749 -0.00027633 -0.00136623 0.00047593
0.53254485 0.84803104 0.38652840 -0.00015446 0.00008099 -0.00104253
0.91876638 0.34133217 0.53951371 0.00124738 -0.00043763 0.00073439
0.49377760 0.25973091 0.55254513 0.00007499 0.00031917 0.00038006
0.30258062 0.86547583 0.41346207 -0.00045952 0.00023182 -0.00148939
0.25565302 0.87237322 0.45378107 -0.00040711 0.00129523 -0.00067179
0.86254025 0.72402984 0.57559341 0.00084436 0.00036742 0.00111524
0.64393461 0.68263507 0.53305268 -0.00014037 -0.00025741 0.00033479
0.04728687 0.47354111 0.51671058 -0.00124472 0.00001001 0.00034322
0.78730714 0.17580001 0.56674027 0.00096648 -0.00087474 0.00016943
0.27868938 0.76213628 0.61378086 0.00027555 0.00021070 0.00109546
0.65938443 0.32983744 0.53520244 -0.00014269 0.00038815 -0.00001703
0.55239582 0.84675491 0.38660127 -0.00008024 0.00005472 -0.00105557
0.62871605 0.92102379 0.44335485 0.00040055 0.00128460 -0.00033834
0.39857742 0.28436774 0.54836869 -0.00009136 0.00026635 0.00023335
0.27678880 0.44685522 0.52137125 0.00008994 0.00018519 0.00033603
0.89153671 0.72655946 0.47579178 0.00117451 0.00042554 -0.00069430
0.54215312 0.93661767 0.44068271 -0.00017971 0.00126583 -0.00054665
0.16314504 0.53944653 0.38624102 0.00010394 -0.00014550 -0.00134860
0.10755014 0.72456461 0.47527206 -0.00126730 0.00029005 -0.00072715
0.53647268 0.05983937 0.55367470 0.00066924 -0.00194450 0.00009024
0.25722024 0.14503916 0.57125151 -0.00082231 -0.00100103 0.00026238
0.68219537 0.83914387 0.39472428 0.00021956 0.00004172 -0.00132842
0.10194988 0.32266408 0.56325883 -0.00100576 0.00006624 0.00144157
0.50711828 0.73753178 0.54658741 -0.00010371 -0.00034668 0.00016472
0.77118176 0.84862685 0.55367470 0.00088413 0.00106918 0.00067244
0.37659633 0.72133040 0.57223397 0.00047860 -0.00039601 0.00029563
0.68666333 0.63284087 0.48225877 -0.00019311 0.00005361 -0.00014827
0.61074758 0.92518026 0.44264799 0.00026653 0.00126800 -0.00035819
0.44252184 0.81156796 0.38892910 -0.00013724 -0.00042724 -0.00099062
0.46783543 0.73879474 0.44632530 0.00009747 -0.00027532 -0.00041062
0.72849673 0.49493602 0.51391089 -0.00009074 0.00022421 0.00027705
0.18380484 0.74584609 0.59702837 -0.00041545 0.00050507 0.00118234
0.52773118 0.79671609 0.60519600 -0.00008472 -0.00039121 0.00077128
0.20849085 0.54874825 0.39579549 0.00046992 0.00012177 -0.00094929
0.52968460 0.25933239 0.55632454 -0.00013669 0.00043026 0.00025079
0.34380236 0.66731822 0.51703942 0.00017241 -0.00013398 0.00041095
0.55613554 0.14932908 0.61289364 -0.00003095 -0.00001660 0.00143280
0.27798390 0.30852500 0.60307497 0.00028755 0.00023529 0.00099662
0.66292930 0.66039485 0.48648399 -0.00022616 0.00004576 -0.00021922
0.15266052 0.73305374 0.58392727 -0.00076512 0.00044612 0.00112993
0.71553868 0.60243434 0.45124555 -0.00034384 0.00031873 -0.00044989
0.86138749 0.54063851 0.38832471 0.00021400 -0.00021428 -0.00143633
0.74802798 0.83697814 0.41652092 0.00065316 0.00018818 -0.00141362
0.83676660 0.79712647 0.46406519 0.00057407 0.00108021 -0.00071440
0.43272868 0.27001321 0.55077893 0.00013956 0.00017530 0.00034192
0.73669219 0.83716166 0.41079131 0.00059357 0.00013678 -0.00140738
0.34293061 0.86149842 0.39917088 -0.00022660 0.00012233 -0.00136684
0.53635657 0.26267585 0.55210477 -0.00012509 0.00045014 0.00012070
0.27323943 0.46866322 0.51776177 0.00007584 0.00022509 0.00029985
0.11730278 0.73962826 0.47279212 -0.00112606 0.00049828 -0.00067918
0.51906163 0.26039407 0.55246317 -0.00006944 0.00042611 0.00022330
0.22223645 0.37954971 0.39300492 0.00029503 -0.00013150 -0.00118530
0.49519134 0.94885385 0.53728843 0.00000374 0.00152388 0.00040487
0.36430913 0.85968518 0.39467508 -0.00007191 0.00010832 -0.00131001
0.70348555 0.61478353 0.46384111 -0.00025075 0.00020987 -0.00042013
0.79653782 0.30311236 0.61283720 0.00016885 0.00028967 0.00139082
0.45376742 0.85319138 0.38724619 -0.00009733 0.00018280 -0.00110576
0.49496311 0.87184125 0.60961390 0.00012868 0.00018202 0.00110320
0.16989531 0.80339617 0.46230578 -0.00071172 0.00089160 -0.00059302
0.24058345 0.15573090 0.56946576 -0.00096935 -0.00085273 0.00021818
0.69100475 0.76009947 0.61221272 -0.00029062 -0.00016693 0.00100888
0.47271013 0.95233625 0.48018596 -0.00036515 0.00158421 0.00000108
0.60002887 0.86485183 0.60754251 -0.00026139 0.00062104 0.00091655
0.70932990 0.60876834 0.45770615 -0.00029256 0.00027035 -0.00045371
0.51588261 0.27092138 0.52221334 0.00017021 0.00055465 -0.00030393
0.82258105 0.37935433 0.38629156 0.00010752 -0.00015065 -0.00144572
0.73069525 0.13864961 0.57282102 0.00073154 -0.00102421 0.00024693
0.48037681 0.95454472 0.50000000 -0.00027889 0.00157481 0.00001378
0.46692774 0.16278997 0.38626882 -0.00027437 0.00007343 -0.00161555
0.41689393 0.27593502 0.54978281 0.00003511 0.00019962 0.00029561
0.16231702 0.38164616 0.38751262 -0.00020766 -0.00013782 -0.00151971
0.05240616 0.43425465 0.52321130 -0.00119599 -0.00039051 0.00051829
0.42012808 0.85548913 0.38853467 -0.00000602 0.00014595 -0.00116605
0.63001412 0.70340151 0.55424041 -0.00021984 -0.00039193 0.00025800
0.04661734 0.53418970 0.50668246 -0.00127337 0.00035475 0.00030778
0.51080877 0.25995865 0.55252606 -0.00003574 0.00039935 0.00028276
0.75694710 0.86314666 0.45306280 0.00064560 0.00147064 -0.00015344
0.28556812 0.30952743 0.60000843 0.00037654 0.00024603 0.00091396
0.92666399 0.58687603 0.43562078 0.00111324 0.00054658 -0.00113088
0.89152479 0.55162585 0.39958170 0.00075122 -0.00009390 -0.00138423
0.23786849 0.85925251 0.45314434 -0.00042623 0.00108971 -0.00085922
0.21934658 0.75558913 0.60702193 -0.00022277 0.00042383 0.00115257
0.09937978 0.69500977 0.54501289 -0.00125700 0.00014833 0.00104357
0.13212869 0.54322499 0.39006087 -0.00034903 -0.00018948 -0.00144755
0.58911490 0.27812621 0.54960704 -0.00008318 0.00023358 0.00012538
0.53271431 0.05487720 0.54357368 0.00067925 -0.00193278 0.00002477
0.63113725 0.09812930 0.57941282 -0.00009630 -0.00132317 0.00041898
0.81388152 0.81976342 0.46029770 0.00070796 0.00101146 -0.00075548
0.19329238 0.74915409 0.60041827 -0.00035457 0.00051306 0.00119852
0.74536306 0.37279624 0.40668997 -0.00047997 -0.00015895 -0.00091556
0.77281320 0.85243171 0.45485184 0.00059721 0.00137792 -0.00038149
0.72050399 0.83759665 0.40441543 0.00050405 0.00008768 -0.00138356
0.80811858 0.19200639 0.56408316 0.00122687 -0.00077947 0.00012903
0.69966018 0.38129818 0.53266871 -0.00016371 0.00020780 0.00040082
0.31029600 0.36472926 0.53498608 0.00015702 0.00031658 0.00036156
0.89703357 0.29889807 0.54650635 0.00138661 -0.00077709 0.00003752
0.05391370 0.59057754 0.49736750 -0.00134092 0.00067330 0.00047186
0.57953393 0.71565998 0.47725558 -0.00017034 -0.00015491 -0.00027149
0.33008227 0.32205054 0.56230783 0.00019293 0.00039672 0.00044135
0.31137729 0.31496873 0.58354968 0.00041537 0.00028904 0.00065383
0.25157490 0.87910116 0.52122909 -0.00103871 0.00118848 0.00019404
0.45969966 0.93969190 0.44567081 -0.00020633 0.00127903 -0.00061114
0.06584839 0.61860067 0.46694729 -0.00107700 0.00065554 -0.00135113
0.76415646 0.84962285 0.55932915 0.00080088 0.00106116 0.00073049
0.76280290 0.15827826 0.56961101 0.00090367 -0.00091980 0.00020159
0.08050216 0.67384756 0.48362827 -0.00121631 0.00059751 -0.00099813
0.33484176 0.33272913 0.54030347 0.00013874 0.00042947 0.00009958
0.21745646 0.30516875 0.61376947 -0.00007100 0.00026604 0.00134640
0.74672312 0.57488167 0.42314956 -0.00042130 0.00030166 -0.00058163
0.47701371 0.93743014 0.44047773 -0.00018573 0.00111385 -0.00085593
0.52964044 0.82903552 0.61331493 -0.00014779 -0.00054012 0.00102109
0.06752309 0.37483212 0.53305268 -0.00122742 -0.00039362 0.00096476
0.46704566 0.93697882 0.44054195 -0.00017917 0.00113140 -0.00082308
0.93434012 0.63179469 0.48149815 0.00125252 0.00053279 -0.00057883
0.86967450 0.54271626 0.39045715 0.00038428 -0.00019186 -0.00142756
0.44136542 0.08375110 0.58158445 0.00015810 -0.00110290 0.00071020
0.08153739 0.34010336 0.53881007 -0.00128909 -0.00046226 0.00064597
0.14494739 0.72897655 0.57975441 -0.00086291 0.00040566 0.00110138
0.33117035 0.90780795 0.44521764 -0.00057880 0.00132706 -0.00029105
0.10874752 0.55257684 0.39958170 -0.00071939 -0.00008010 -0.00139488
0.57517391 0.86660355 0.60905647 -0.00035217 0.00055377 0.00095352
0.31362176 0.86431217 0.40876773 -0.00041563 0.00018230 -0.00144608
0.56693065 0.86715698 0.60927504 -0.00026879 0.00051559 0.00096153
0.15286684 0.78611815 0.46514419 -0.00086122 0.00084838 -0.00059426
0.32239559 0.75869030 0.61031622 0.00040915 0.00000299 0.00094783
0.55974865 0.26785529 0.55127352 -0.00010330 0.00038110 0.00007440
0.94910556 0.57271826 0.50128984 0.00123450 0.00093515 0.00040077
0.80091017 0.84083313 0.49241081 0.00096302 0.00138796 0.00017940
0.71659714 0.36627185 0.42639786 -0.00048003 -0.00013082 -0.00075332
0.25565848 0.87953705 0.52852869 -0.00103249 0.00115450 0.00028837
0.48586363 0.93783104 0.44042125 -0.00017050 0.00111630 -0.00086336
0.29864734 0.61694145 0.46554178 0.00026626 0.00020854 -0.00039773
0.34811547 0.67093992 0.48439893 0.00021162 0.00002113 -0.00033707
0.24844229 0.87856150 0.51348412 -0.00103616 0.00123121 0.00008711
0.73937112 0.76088196 0.61307126 -0.00015233 0.00004221 0.00117353
0.50461918 0.73051822 0.47471827 -0.00009061 -0.00023705 -0.00011674
0.50293493 0.04964997 0.46694729 0.00015982 -0.00182070 -0.00085297
0.87525833 0.37450421 0.40004396 0.00081311 -0.00023347 -0.00147216
0.33964816 0.33227092 0.53186715 0.00017748 0.00039361 -0.00006191
0.35910466 0.68048537 0.48283258 0.00021020 -0.00000177 -0.00038218
0.26076093 0.87132841 0.44632530 -0.00040466 0.00109913 -0.00090211
0.88452405 0.54818898 0.39606377 0.00067104 -0.00011144 -0.00137898
0.56064588 0.72202998 0.47618210 -0.00017915 -0.00017120 -0.00024669
0.62600565 0.69169909 0.48126766 -0.00014848 -0.00010668 -0.00033501
0.24890184 0.15038480 0.57035887 -0.00095434 -0.00087301 0.00023130
0.32182261 0.31833726 0.57342768 0.00029566 0.00032475 0.00059226
0.79590195 0.37879866 0.38826460 -0.00017937 -0.00014450 -0.00131080
0.92405605 0.33663735 0.51181126 0.00147288 -0.00119269 -0.00062277
0.33125371 0.34680581 0.48883960 0.00049121 0.00000676 -0.00026760
0.93161434 0.60061300 0.44965377 0.00107376 0.00066827 -0.00125247
0.50006557 0.07990845 0.58228356 0.00055126 -0.00091730 0.00115665
0.74368703 0.85229319 0.57339126 0.00071845 0.00101756 0.00077852
0.54820609 0.21800913 0.59951383 -0.00003738 0.00060973 0.00086965
0.05742298 0.40927804 0.52734679 -0.00114645 -0.00070749 0.00070922
0.24525732 0.87602323 0.48485255 -0.00074803 0.00151639 0.00003149
0.37187192 0.87863708 0.59750980 -0.00010513 0.00073960 0.00093537
0.49884906 0.94549572 0.54629999 0.00007486 0.00148778 0.00051956
0.04586493 0.51583678 0.50971574 -0.00127238 0.00018976 0.00030581
0.36423534 0.69327813 0.54357368 0.00018252 -0.00035422 0.00023072
0.77930075 0.55380154 0.40166357 -0.00046639 0.00016125 -0.00083893
0.47833046 0.09221888 0.40833688 -0.00022712 -0.00101019 -0.00159982
0.36165294 0.74547857 0.59687394 0.00057770 -0.00017526 0.00068840
0.88667291 0.73406708 0.47454518 0.00110683 0.00051500 -0.00067738
0.78783411 0.37823936 0.39002174 -0.00022749 -0.00014618 -0.00125493
0.51874918 0.90598387 0.59319484 0.00029923 0.00116311 0.00086643
0.23627806 0.75870538 0.61022466 -0.00007597 0.00038004 0.00114989
0.51165730 0.74373776 0.55880809 -0.00011423 -0.00039197 0.00021621
0.04704729 0.54467744 0.50494897 -0.00130551 0.00056243 0.00029779
0.10411739 0.69971323 0.54982156 -0.00118800 0.00021070 0.00107259
0.51478678 0.91736239 0.58420825 0.00030151 0.00118508 0.00085310
0.38109577 0.69604772 0.48028344 0.00015866 -0.00008919 -0.00035248
0.47574851 0.23655656 0.41620481 0.00003316 0.00071221 -0.00084025
0.21572572 0.84410101 0.45562565 -0.00027119 0.00122312 -0.00081685
0.73518330 0.87633473 0.45085886 0.00089757 0.00122422 -0.00017601
0.46900824 0.13562585 0.38886443 -0.00030862 -0.00032946 -0.00172782
0.27466226 0.53303009 0.50712144 0.00016815 0.00026904 0.00026721
0.46996790 0.72844321 0.47502384 0.00014114 -0.00023792 -0.00007922
0.25671425 0.30640438 0.60962665 0.00013608 0.00023252 0.00115707
0.52353740 0.72945386 0.47491455 -0.00017210 -0.00021018 -0.00017483
0.63153166 0.84187156 0.38901564 0.00006700 0.00002376 -0.00118080
0.12970157 0.75733900 0.46987721 -0.00100573 0.00066769 -0.00063434
0.51467657 0.93782961 0.44045267 -0.00026236 0.00117649 -0.00069424
0.08340522 0.67599368 0.52557552 -0.00143249 0.00009776 0.00109772
0.66371673 0.34188372 0.49940658 -0.00045166 0.00005005 -0.00024529
0.66228664 0.75472921 0.60669309 -0.00036125 -0.00022424 0.00087318
0.73043382 0.76132554 0.61351347 -0.00018886 -0.00000692 0.00114707
0.24660181 0.86516023 0.45217699 -0.00044120 0.00113363 -0.00082841
0.17232834 0.53987008 0.38668507 0.00018993 -0.00010777 -0.00129064
0.67912424 0.75840336 0.61046606 -0.00032153 -0.00019933 0.00095329
0.42487937 0.27281472 0.55030751 0.00009978 0.00018289 0.00032000
0.46669179 0.94804996 0.46437716 -0.00034621 0.00154127 -0.00010913
0.49361956 0.26702410 0.46492967 0.00023540 0.00062166 -0.00032491
0.47873718 0.24472053 0.42466170 0.00009004 0.00074268 -0.00069645
0.37316084 0.73403662 0.58520484 0.00057989 -0.00030952 0.00046531
0.45276266 0.92570537 0.42653996 -0.00001253 0.00081067 -0.00121861
0.44985506 0.26533800 0.55157053 0.00020239 0.00019295 0.00038014
0.66818291 0.90827018 0.44550639 0.00053989 0.00128780 -0.00029917
0.79686576 0.84333628 0.51579422 0.00113984 0.00113893 0.00006487
0.93117476 0.37133604 0.53456658 0.00117356 -0.00050274 0.00096661
0.45608154 0.87421054 0.60811365 0.00029798 0.00038414 0.00100247
0.66500795 0.10885749 0.57767570 0.00033268 -0.00121480 0.00034486
0.92702830 0.65615737 0.50636679 0.00129405 0.00041448 0.00083445
0.73154831 0.58726865 0.43577883 -0.00042354 0.00035561 -0.00048026
0.45042211 0.77373254 0.40532586 -0.00003954 -0.00038281 -0.00071652
0.62541950 0.72976768 0.58115810 -0.00043221 -0.00036876 0.00044585
0.75546145 0.83689755 0.42069650 0.00067359 0.00023287 -0.00144171
0.31597370 0.63445455 0.49039677 0.00017782 -0.00001518 0.00005666
0.70598823 0.89202601 0.44823274 0.00081768 0.00120569 -0.00024044
0.57439870 0.93237054 0.44142008 0.00007828 0.00127199 -0.00043212
0.20754078 0.17937030 0.56552148 -0.00142936 -0.00055048 0.00012667
0.47481343 0.73244303 0.46352002 0.00009854 -0.00024894 -0.00022222
0.90848184 0.68594718 0.53676331 0.00132490 0.00006952 0.00105028
0.64001262 0.68796206 0.53848720 -0.00014287 -0.00029961 0.00030135
0.48521507 0.95406282 0.51231587 -0.00019984 0.00156939 0.00009533
0.07380244 0.65799367 0.50718248 -0.00133836 0.00037286 0.00071675
0.39946601 0.09054646 0.58041573 0.00019698 -0.00121881 0.00056099
0.33634293 0.34172431 0.50385493 0.00041834 0.00011686 -0.00026711
0.19824453 0.54515380 0.39211226 0.00037494 0.00004740 -0.00105951
0.77856785 0.30283999 0.61386329 0.00004309 0.00026186 0.00131607
0.69964153 0.76093477 0.61307627 -0.00026692 -0.00013737 0.00104670
0.83613992 0.30605233 0.60363287 0.00056515 0.00039656 0.00148067
0.50406903 0.73443514 0.53848439 -0.00009186 -0.00031874 0.00015200
0.24481052 0.37643850 0.40196142 0.00040259 -0.00012731 -0.00103106
0.84803951 0.37811273 0.38966602 0.00039987 -0.00017042 -0.00151580
0.07240738 0.34564075 0.49544048 -0.00146629 -0.00116526 -0.00068479
0.81088686 0.74718332 0.59917176 0.00039210 0.00035763 0.00120068
0.85703880 0.30899864 0.59463727 0.00077562 0.00045737 0.00154040
0.48104310 0.24987216 0.43107080 0.00011853 0.00072899 -0.00062631
0.52037334 0.04615163 0.51116037 0.00053187 -0.00189958 -0.00015417
0.70881027 0.30852044 0.59785634 -0.00034743 0.00024268 0.00084991
0.72382289 0.54369909 0.50584388 -0.00018587 0.00028575 0.00027780
0.35149178 0.67687267 0.52680522 0.00016030 -0.00020213 0.00038828
0.40857691 0.27918515 0.54923630 -0.00003438 0.00021490 0.00027035
0.14069483 0.54124653 0.38805145 -0.00022441 -0.00020031 -0.00144438
0.93595928 0.63039422 0.49173990 0.00133875 0.00044216 0.00013439
0.73602355 0.85319549 0.57763380 0.00072329 0.00099570 0.00078480
0.26573676 0.30719826 0.60716134 0.00019209 0.00023129 0.00109493
0.05653302 0.60069591 0.49569735 -0.00133501 0.00057343 0.00048862
0.93465436 0.62585652 0.47543469 0.00118522 0.00059741 -0.00088405
0.46767786 0.19414292 0.39132935 -0.00019377 0.00050976 -0.00139588
0.12150341 0.26995856 0.55045056 -0.00169289 -0.00032753 -0.00015287
0.51372600 0.73004866 0.47480568 -0.00013937 -0.00022572 -0.00014226
0.04794774 0.46456778 0.51819491 -0.00125813 -0.00005915 0.00036934
0.71028137 0.83797383 0.40145588 0.00039584 0.00006785 -0.00137195
0.29378128 0.36451700 0.43674076 0.00055932 -0.00012339 -0.00058875
0.24893329 0.87406939 0.46694729 -0.00051944 0.00151898 -0.00029590
0.77872139 0.84742391 0.54621214 0.00096159 0.00107570 0.00056563
