0.43668553 0.43706602 0.37893289 -0.00049927 -0.00010075 -0.00021223
0.49997959 0.69146073 0.47167030 -0.00000316 -0.00006629 0.00031744
0.56578189 0.87241805 0.62817061 -0.00017059 -0.00037275 0.00058008
0.54943746 0.74954474 0.38271761 0.00015476 0.00022283 -0.00062004
0.41665506 0.27616233 0.56607914 -0.00038429 0.00054946 -0.00002057
0.43708280 0.37013295 0.38288486 -0.00050492 -0.00042436 -0.00016283
0.49998060 0.51106399 0.35336402 0.00000189 0.00011428 -0.00079515
0.57992887 0.12189937 0.44829059 0.00066706 -0.00048227 -0.00023668
0.41369221 0.74216348 0.51779181 -0.00028213 -0.00016227 0.00015848
0.49998060 0.04617728 0.55112982 -0.00000956 -0.00087064 0.00002711
0.58809423 0.84722376 0.45005113 0.00070421 0.00003079 0.00000525
0.49998060 0.04545457 0.56312716 -0.00000856 -0.00088805 0.00009047
0.49998060 0.19574229 0.39196482 0.00000238 -0.00020861 -0.00063213
0.62046301 0.14641640 0.52244020 0.00075830 -0.00012869 0.00003885
0.54060000 0.94781107 0.55555636 0.00020373 0.00069637 0.00003618
0.56417227 0.22178347 0.40739283 0.00051158 -0.00001866 -0.00020389
0.58678693 0.92262989 0.54291242 0.00047057 0.00052395 0.00010236
0.46636876 0.63931704 0.36348853 0.00011712 0.00019171 -0.00071930
0.56342536 0.46901289 0.37812242 0.00049539 -0.00003192 -0.00021037
0.57885927 0.79296672 0.60500318 -0.00029820 0.00008972 0.00051119
0.43252262 0.74194670 0.42064068 -0.00051453 0.00003834 0.00035206
0.52624029 0.63403130 0.44628051 -0.00018801 0.00012192 0.00058497
0.43251172 0.24893788 0.42532182 -0.00054866 0.00005205 0.00029938
0.46998379 0.74495047 0.38094163 0.00013643 0.00024741 -0.00059561
0.49997959 0.88381499 0.62405086 0.00000490 -0.00047334 0.00028574
0.58796966 0.11995520 0.63491362 0.00049099 -0.00001494 0.00066360
0.43694597 0.37957838 0.38208804 -0.00050011 -0.00044520 -0.00018133
0.57929659 0.72741240 0.53672850 0.00021605 -0.00023417 0.00000207
0.56145895 0.90636367 0.45115891 0.00025815 0.00061974 -0.00034531
0.49997959 0.92129844 0.45859921 -0.00000176 0.00072285 -0.00016913
0.51684380 0.74994701 0.38071251 -0.00015323 0.00022890 -0.00053905
0.44578549 0.33640912 0.44127163 -0.00019378 0.00004490 0.00049332
0.58434182 0.27315673 0.54200453 0.00035555 0.00043190 -0.00019232
0.49998060 0.29361445 0.49486363 -0.00000154 0.00024095 0.00016057
0.61934155 0.12348718 0.56896746 0.00076947 -0.00039827 0.00004448
0.55865425 0.94129944 0.55344766 0.00017799 0.00072471 0.00009454
0.52997738 0.75134939 0.38078481 -0.00011850 0.00023397 -0.00061938
0.53398514 0.89270449 0.63408542 -0.00015030 -0.00031033 0.00054990
0.49998060 0.27066934 0.37467542 0.00000664 -0.00013286 -0.00060241
0.62976480 0.82978201 0.57083392 0.00066467 0.00005479 -0.00004969
0.54564911 0.85298675 0.41013795 0.00001156 0.00028605 -0.00061002
0.56358081 0.60831016 0.38244352 0.00050864 0.00044156 -0.00013501
0.42685735 0.74234122 0.45761284 -0.00036912 -0.00002624 0.00018454
0.43625778 0.25804102 0.40026703 -0.00054375 -0.00008000 -0.00013186
0.40309355 0.13149935 0.63106573 -0.00046412 0.00013379 0.00058152
0.49997959 0.63356405 0.36189121 -0.00000648 0.00014387 -0.00057622
0.49998060 0.25989977 0.37672007 0.00001037 -0.00012680 -0.00061238
0.62749922 0.82592362 0.59680825 0.00062493 0.00000176 0.00026674
0.59691876 0.91292852 0.54796898 0.00058000 0.00040505 0.00010568
0.61770922 0.87950248 0.54374260 0.00062970 0.00027606 0.00001420
0.49998060 0.11947609 0.63301355 0.00000012 0.00084588 0.00025946
0.56636506 0.71800834 0.57720786 0.00012482 -0.00036245 0.00016506
0.56451315 0.78990203 0.40795374 0.00043134 0.00021048 -0.00021209
0.55381542 0.11304944 0.42152572 0.00033400 -0.00059083 -0.00071346
0.39151895 0.76238167 0.53599626 -0.00041227 -0.00015143 -0.00003855
0.50786006 0.70010662 0.57395631 0.00002595 -0.00028477 0.00013050
0.53189576 0.05272758 0.59271169 0.00028419 -0.00085991 0.00022094
0.56372219 0.75213355 0.40194941 0.00046949 0.00009964 -0.00011775
0.43794331 0.90809196 0.45436633 -0.00025690 0.00063785 -0.00030368
0.50561589 0.08281852 0.64729333 -0.00004674 -0.00005687 0.00062755
0.62539047 0.20761418 0.54724646 0.00071348 0.00014532 -0.00019759
0.49998060 0.57715148 0.44712827 -0.00000317 0.00022511 0.00062480
0.49998060 0.05036388 0.52994215 -0.00000600 -0.00080085 -0.00004737
0.49998060 0.13955383 0.62851202 -0.00000120 0.00018439 0.00047360
0.43589097 0.72774738 0.39838877 -0.00048872 0.00023860 -0.00006610
0.49998060 0.30295351 0.36896926 -0.00000657 -0.00016761 -0.00058657
0.61209035 0.16730282 0.61913067 0.00019624 0.00019112 0.00053628
0.42437679 0.82417405 0.60961747 0.00034803 -0.00009498 0.00043099
0.37030205 0.16841604 0.55664510 -0.00079101 0.00000328 0.00003763
0.39868382 0.25443587 0.53913039 -0.00054134 0.00028096 -0.00019442
0.43617505 0.69065529 0.39269853 -0.00047392 0.00021104 -0.00011618
0.39118439 0.10380491 0.57493544 -0.00071984 -0.00052837 -0.00006182
0.59472817 0.25294670 0.59058070 0.00028001 0.00042302 0.00047762
0.49998060 0.24914062 0.37888196 0.00001111 -0.00013224 -0.00062049
0.39556733 0.13359672 0.48366824 -0.00065927 -0.00030796 -0.00014012
0.56687826 0.63340217 0.41673461 0.00055128 0.00007155 0.00056723
0.43171805 0.28387493 0.53707641 -0.00018919 0.00044574 -0.00016027
0.43633869 0.63530004 0.38487864 -0.00050998 0.00020135 -0.00017764
0.41200441 0.92212808 0.55296993 -0.00048628 0.00050834 0.00015078
0.43629462 0.26743874 0.39856106 -0.00054876 -0.00004267 -0.00012291
0.49998060 0.38673964 0.35788238 0.00000402 -0.00019792 -0.00071515
0.49998060 0.09292307 0.42799419 -0.00000449 -0.00067522 -0.00066331
0.57183534 0.74197894 0.44747144 0.00040461 -0.00001137 0.00023639
0.50000322 0.69823605 0.55164212 0.00000105 -0.00022859 -0.00006320
0.40507227 0.74234486 0.56120348 -0.00033489 -0.00026905 -0.00010490
0.42144212 0.91809016 0.61354852 -0.00036621 0.00059156 0.00034993
0.43627462 0.58322722 0.38081342 -0.00047829 0.00052354 -0.00015088
0.49998060 0.07289216 0.45793465 -0.00000275 -0.00088692 -0.00023606
0.56300628 0.38076434 0.38200712 0.00050092 -0.00043576 -0.00017918
0.57951748 0.26446313 0.50813550 0.00030735 0.00025662 0.00005436
0.49997959 0.90323806 0.43130800 -0.00000014 0.00059528 -0.00043916
0.56860203 0.16550545 0.42056978 0.00051162 -0.00003843 -0.00047586
0.49997959 0.89538366 0.42493087 0.00000191 0.00050352 -0.00050893
0.42491680 0.25906789 0.47662881 -0.00036199 0.00012724 -0.00001770
0.47418720 0.32454449 0.36600503 0.00011838 -0.00016362 -0.00069891
0.49385715 0.32448360 0.36570182 0.00004217 -0.00014174 -0.00060455
0.43612778 0.54147005 0.37891653 -0.00048803 0.00026925 -0.00018693
0.44966656 0.09319534 0.64383495 -0.00001786 -0.00032290 0.00074314
0.43626234 0.49019155 0.37783420 -0.00050103 0.00006274 -0.00021636
0.40398496 0.08799148 0.57998747 -0.00063419 -0.00066827 -0.00008692
0.49998060 0.28035566 0.37289760 0.00000312 -0.00014815 -0.00059376
0.49998060 0.16531727 0.40123117 -0.00000083 -0.00027532 -0.00062492
0.50497258 0.82689279 0.59084028 -0.00001378 0.00002510 0.00039252
0.41666552 0.92254716 0.52112162 -0.00047427 0.00055105 0.00003363
0.56599867 0.33398175 0.41782010 0.00053343 -0.00000201 0.00056486
0.60035664 0.89752507 0.60981339 0.00061453 0.00035513 0.00030336
0.44067481 0.63404042 0.43635005 -0.00030505 0.00007911 0.00058494
0.46274891 0.29106617 0.57787377 0.00001737 0.00031746 0.00037888
0.54508334 0.75503731 0.59394491 -0.00020593 0.00017475 0.00045034
0.45728612 0.70661414 0.54195559 -0.00009182 -0.00019409 -0.00003805
0.37286806 0.16968973 0.59282804 -0.00078402 -0.00009915 0.00012108
0.49997959 0.70400584 0.58549047 -0.00000008 -0.00022946 0.00035242
0.49998060 0.04794556 0.54045516 -0.00000727 -0.00083556 -0.00001623
0.56482178 0.79948473 0.40967202 0.00042046 0.00021877 -0.00024735
0.60718787 0.82308221 0.61723053 0.00004720 -0.00011027 0.00070211
0.41633326 0.83846885 0.61827058 0.00028382 -0.00014595 0.00056348
0.58535141 0.74872291 0.59775287 0.00011697 -0.00014430 0.00056359
0.46401975 0.82635283 0.59458178 0.00013357 -0.00002479 0.00036178
0.40163440 0.24809013 0.59219986 -0.00034300 0.00035725 0.00047347
0.56296039 0.35761374 0.38407904 0.00053328 -0.00030389 -0.00013414
0.44668871 0.17718144 0.61548501 0.00001840 0.00023509 0.00043249
0.49998060 0.05310490 0.52055454 -0.00000520 -0.00076717 -0.00008201
0.58923066 0.17689098 0.61460680 -0.00066332 0.00027363 0.00047298
0.52665704 0.85310537 0.40932021 -0.00020272 0.00026043 -0.00058939
0.49997959 0.94636053 0.52019912 0.00000038 0.00065138 -0.00017319
0.51524216 0.94266129 0.61801058 0.00016629 0.00068462 0.00035271
0.49998060 0.13288306 0.41217396 -0.00000437 -0.00005147 -0.00074430
0.53627765 0.08849785 0.64540052 -0.00007068 -0.00018086 0.00071153
0.49998060 0.21124662 0.60864061 -0.00000146 0.00022282 0.00043476
0.62973249 0.17917064 0.55393630 0.00078729 0.00006315 -0.00002470
0.43634233 0.27793694 0.39664960 -0.00054788 -0.00000913 -0.00011980
0.49998060 0.49052650 0.35282624 -0.00000214 0.00007489 -0.00081500
0.51979244 0.33653051 0.44916835 -0.00013698 0.00002441 0.00043774
0.56421816 0.77105439 0.40472361 0.00047580 0.00015731 -0.00013238
0.44352219 0.88034981 0.63048345 0.00021424 -0.00030886 0.00059829
0.49998060 0.34006929 0.36356267 -0.00001284 -0.00014128 -0.00061422
0.62897247 0.16199483 0.56955516 0.00082225 -0.00011490 0.00001559
0.49997959 0.95016479 0.60077977 -0.00001036 0.00077724 0.00015980
0.55928612 0.63404042 0.43635005 0.00029856 0.00007507 0.00058590
0.47755513 0.29439223 0.57676464 0.00004557 0.00022842 0.00038192
0.56281763 0.11508861 0.42769146 0.00049894 -0.00059052 -0.00057101
0.49998060 0.58607095 0.44728738 -0.00000337 0.00024325 0.00060693
0.56721556 0.88220668 0.63228756 -0.00007318 -0.00024353 0.00071136
0.49998060 0.17040296 0.62165707 0.00000654 -0.00001141 0.00051678
0.49998060 0.43576276 0.35401130 0.00000499 -0.00004840 -0.00080586
0.53176045 0.32460406 0.36623096 -0.00010693 -0.00017798 -0.00074677
0.56302989 0.33926019 0.38627458 0.00053019 -0.00023039 -0.00016692
0.42397720 0.74245310 0.47624087 -0.00032718 -0.00004975 0.00016609
0.49997959 0.90961748 0.64093888 -0.00000086 -0.00018447 0.00070140
0.49998060 0.31539774 0.45860013 -0.00000375 0.00018700 0.00029048
0.49998060 0.53039408 0.35408628 0.00000071 0.00014665 -0.00077104
0.55768418 0.71325678 0.57634461 0.00012171 -0.00031890 0.00017898
0.43259171 0.88237536 0.63237262 0.00006281 -0.00023570 0.00072445
0.37193668 0.15778330 0.55681688 -0.00077662 -0.00007915 0.00008789
0.61717784 0.82367587 0.61312354 0.00031663 -0.00008008 0.00062263
0.49997959 0.69604093 0.48011568 -0.00000269 -0.00007610 0.00029824
0.57016069 0.12626821 0.43246442 0.00060187 -0.00034430 -0.00047639
0.57059342 0.91638380 0.47776473 0.00039903 0.00065191 0.00000177
0.55038118 0.05837787 0.59034246 0.00032575 -0.00087769 0.00007192
0.59488910 0.73775423 0.56138980 0.00036571 -0.00029243 -0.00007878
0.40825969 0.17702870 0.61502361 0.00056835 0.00025968 0.00046230
0.38724056 0.76522458 0.58578271 -0.00053033 -0.00017101 0.00023967
0.49998060 0.05610504 0.51116526 -0.00000456 -0.00073733 -0.00012804
0.62527776 0.15257031 0.54105294 0.00075484 -0.00010037 0.00003833
0.45225853 0.28751963 0.57905561 0.00004645 0.00039232 0.00037545
0.43656144 0.45574138 0.37838832 -0.00049929 -0.00005770 -0.00021142
0.51583362 0.63953251 0.36267853 -0.00012434 0.00015504 -0.00061020
0.42401040 0.12018748 0.44311306 -0.00066293 -0.00049627 -0.00028361
0.43665054 0.44596505 0.37864923 -0.00049822 -0.00006593 -0.00021246
0.39431858 0.14789285 0.62560093 -0.00030119 0.00028422 0.00051324
0.58076888 0.26726237 0.58580863 0.00016327 0.00044438 0.00044390
0.60595185 0.75822109 0.53641731 0.00042012 -0.00012953 -0.00005862
0.41041663 0.91786873 0.58522183 -0.00051095 0.00055055 0.00008607
0.49997959 0.91483313 0.44747508 -0.00000177 0.00070018 -0.00025898
0.44266808 0.82532454 0.60170031 0.00025894 -0.00007039 0.00034261
0.61416453 0.21310581 0.60386217 0.00035859 0.00018976 0.00056102
0.58795649 0.92213035 0.55280989 0.00047521 0.00051706 0.00014088
0.56383085 0.57117349 0.38017339 0.00047923 0.00048676 -0.00016840
0.44372585 0.76349539 0.59641051 0.00023752 0.00018407 0.00046326
0.47520459 0.08565092 0.64634913 0.00013624 -0.00011663 0.00066161
0.56374490 0.24041568 0.40359583 0.00051641 -0.00001877 -0.00017585
0.61511731 0.23359901 0.54205632 0.00062605 0.00022109 -0.00023227
0.56367403 0.67657685 0.39041752 0.00048405 0.00020566 -0.00013600
0.41986886 0.26524228 0.51100969 -0.00031916 0.00026649 0.00006369
0.58814514 0.91124940 0.60997063 0.00047545 0.00051903 0.00029675
0.57067662 0.92343855 0.61452001 0.00026851 0.00067073 0.00035007
0.56312901 0.31785330 0.38950974 0.00052955 -0.00015408 -0.00016553
0.49966344 0.30248761 0.53650546 -0.00000190 0.00032989 -0.00018436
0.42200121 0.26252306 0.49838555 -0.00033043 0.00020459 0.00005228
0.53652388 0.29127207 0.57780510 -0.00000243 0.00030418 0.00038313
0.58640003 0.90678966 0.62198305 0.00042873 0.00041152 0.00054914
0.37023798 0.83136803 0.55985200 -0.00064072 0.00005499 -0.00009128
0.49997959 0.67784286 0.45747238 -0.00000439 -0.00003215 0.00039635
0.37227851 0.83078206 0.53948849 -0.00060052 0.00001464 0.00000784
0.62343538 0.13443948 0.56579864 0.00078798 -0.00029988 0.00008924
0.62640870 0.83531457 0.53259754 0.00060246 0.00002819 0.00001198
0.41469043 0.92288673 0.53196150 -0.00048180 0.00053509 0.00008482
0.49997959 0.87498677 0.61646098 0.00000414 -0.00041360 0.00024069
0.49997959 0.86071116 0.60521591 0.00000235 -0.00022261 0.00031626
0.45573178 0.63906109 0.36487046 -0.00003671 0.00020642 -0.00072854
0.49998060 0.26182076 0.58552408 -0.00000956 -0.00033319 0.00055690
0.51440793 0.89886200 0.63588047 0.00001818 -0.00039713 0.00053390
0.56092072 0.76686466 0.59739327 -0.00022979 0.00018640 0.00049207
0.53617013 0.82634372 0.59464407 -0.00012366 -0.00002367 0.00036833
0.61889243 0.83905655 0.50660747 0.00056932 0.00004775 -0.00011056
0.57731330 0.89386404 0.63383991 0.00018239 0.00004799 0.00081730
0.61326450 0.77078527 0.53661609 0.00045783 -0.00011740 -0.00007774
0.54984069 0.93400460 0.61643869 0.00020378 0.00068106 0.00037971
0.43852606 0.85206306 0.41653824 -0.00034476 0.00025383 -0.00047012
0.49997959 0.95167261 0.54283935 -0.00000020 0.00068004 -0.00009440
0.49998060 0.08376264 0.43613505 -0.00000029 -0.00084618 -0.00052461
0.51633304 0.82681102 0.59140933 -0.00005568 0.00001644 0.00038867
0.37177575 0.16689461 0.58437270 -0.00086066 -0.00015482 -0.00005150
0.58800197 0.73872107 0.52468824 0.00029460 -0.00017829 0.00011370
0.62098122 0.87063253 0.54282832 0.00061831 0.00027503 0.00002456
0.50693816 0.63959795 0.36257625 -0.00007883 0.00014917 -0.00057835
0.56370771 0.33561954 0.42889741 0.00041028 0.00002488 0.00056359
0.49998039 0.92555225 0.46661320 -0.00000144 0.00071717 -0.00013432
0.39933157 0.74726599 0.58252126 -0.00039977 -0.00027633 0.00020322
0.43308264 0.63340217 0.41673461 -0.00056281 0.00007264 0.00058982
0.54434592 0.88817292 0.63276398 -0.00024942 -0.00028335 0.00058670
0.43509093 0.33043796 0.39822695 -0.00057019 -0.00011503 0.00011484
0.43665552 0.32876471 0.38895971 -0.00053131 -0.00015991 -0.00015727
0.49998060 0.20755464 0.38874424 0.00000497 -0.00018655 -0.00063149
0.49998060 0.35467359 0.36164892 -0.00000356 -0.00017633 -0.00063624
0.49998060 0.54127872 0.35452089 -0.00000156 0.00016986 -0.00075602
0.41949794 0.26752692 0.58572048 -0.00016640 0.00044608 0.00041254
0.49998060 0.41512725 0.35534501 0.00000683 -0.00010782 -0.00077860
0.49997959 0.80965018 0.58650053 0.00000150 0.00008009 0.00038072
0.54127538 0.05517772 0.59163076 0.00033157 -0.00086674 0.00013854
0.49997959 0.77975750 0.58316177 -0.00000385 0.00016600 0.00034555
0.56394356 0.73495543 0.39944974 0.00048493 0.00020828 -0.00007456
0.55547142 0.29088345 0.53674436 0.00008258 0.00045046 -0.00013336
0.43632689 0.50034279 0.37786782 -0.00049335 0.00009101 -0.00021379
0.41828606 0.74871653 0.59969884 -0.00007169 -0.00011775 0.00056467
0.42993706 0.11771193 0.43562639 -0.00061038 -0.00054117 -0.00040670
0.49998060 0.22048205 0.60468590 -0.00000141 0.00019866 0.00043187
0.41916975 0.84753782 0.62091523 0.00022386 -0.00021770 0.00055224
0.42818969 0.91699004 0.48069799 -0.00040918 0.00063824 -0.00000109
0.51945317 0.23851651 0.38132983 -0.00013347 -0.00017488 -0.00068115
0.37643459 0.85212171 0.60156530 -0.00061916 0.00024110 0.00030944
0.56984156 0.14788511 0.42537546 0.00060835 0.00008640 -0.00053121
0.62734556 0.81557637 0.59492821 0.00061205 -0.00006957 0.00025014
0.47874743 0.70068705 0.54227096 -0.00006033 -0.00018320 -0.00003278
0.37683055 0.13341764 0.56608599 -0.00078241 -0.00029341 0.00009781
0.42044982 0.27452180 0.57735693 -0.00026144 0.00051781 0.00022959
0.54529625 0.82597232 0.59722143 -0.00017462 -0.00004282 0.00035526
0.51491404 0.11228669 0.41921654 -0.00013348 -0.00028501 -0.00077293
0.57939065 0.91749603 0.61344039 0.00036289 0.00059688 0.00035104
0.57800013 0.84923834 0.43610004 0.00067156 0.00007462 -0.00008508
0.47228026 0.89507544 0.63477677 0.00005684 -0.00034221 0.00053102
0.40892655 0.12343854 0.63375217 -0.00049774 0.00003233 0.00062237
0.49998060 0.36759874 0.36007521 0.00000017 -0.00020477 -0.00066376
0.38791558 0.22219986 0.60083026 -0.00040781 0.00022918 0.00051111
0.40571684 0.12833875 0.46776700 -0.00062003 -0.00039905 -0.00022420
0.60601866 0.88987023 0.60842288 0.00067750 0.00026621 0.00027443
0.37947565 0.83839697 0.51117527 -0.00058399 0.00004227 -0.00006724
0.51990497 0.32449406 0.36581045 -0.00016253 -0.00015633 -0.00066849
0.62755603 0.19811420 0.54939890 0.00074214 0.00012655 -0.00014710
0.37271446 0.84059203 0.54025733 -0.00061110 0.00007992 0.00001945
0.58392179 0.92269135 0.52436507 0.00046642 0.00055455 0.00003684
0.58372128 0.90204585 0.62971294 0.00035437 0.00028094 0.00072836
0.39077526 0.82320082 0.61640918 -0.00011735 -0.00010744 0.00069955
0.50812376 0.33678055 0.44955111 -0.00007702 0.00001444 0.00041297
0.48949638 0.94316220 0.61810195 -0.00013302 0.00068813 0.00035733
0.43544820 0.78990203 0.40795374 -0.00041999 0.00019529 -0.00023151
0.55029434 0.09319534 0.64383495 0.00003612 -0.00029382 0.00074619
0.42928475 0.92343855 0.61452001 -0.00026505 0.00067416 0.00035259
0.62354678 0.86191392 0.54198897 0.00061674 0.00023160 0.00003152
0.42192033 0.79124892 0.60450268 0.00026446 0.00012766 0.00051737
0.49998060 0.23841195 0.38117343 0.00000879 -0.00015497 -0.00062363
0.49998060 0.56250554 0.44650006 -0.00000280 0.00020239 0.00065123
0.49997959 0.94382310 0.51162851 0.00000082 0.00065646 -0.00013226
0.58476454 0.83107394 0.61611462 -0.00034148 -0.00012406 0.00055086
0.43674007 0.30721465 0.39133254 -0.00052835 -0.00009397 -0.00016674
0.62618148 0.14363809 0.56321168 0.00079906 -0.00022522 0.00009667
0.49997959 0.58616006 0.35719237 -0.00000526 0.00026697 -0.00066060
0.61480004 0.76960069 0.58657777 0.00054858 -0.00013896 0.00026512
0.40007433 0.89807469 0.60991293 -0.00062995 0.00034140 0.00030024
0.57445586 0.82425952 0.60908151 -0.00037722 -0.00008574 0.00041560
0.48362809 0.82681102 0.59140933 0.00006346 0.00001573 0.00038562
0.45275626 0.82587230 0.59790969 0.00019975 -0.00004954 0.00034327
0.45052388 0.74303770 0.38296306 -0.00014943 0.00026055 -0.00058133
0.55697739 0.87994474 0.63036525 -0.00021571 -0.00032832 0.00059344
0.37540820 0.17295852 0.60271353 -0.00063996 -0.00004122 0.00026928
0.43437317 0.83567595 0.41611052 -0.00043995 0.00027512 -0.00032924
0.37949839 0.14641640 0.52244020 -0.00076272 -0.00011473 0.00008000
0.37087572 0.18849604 0.55165851 -0.00075931 0.00009381 -0.00006462
0.58218896 0.26832968 0.52205515 0.00030876 0.00032897 -0.00001092
0.49998060 0.30002704 0.52576357 0.00000329 0.00027591 -0.00006959
0.51632279 0.85309172 0.40941426 -0.00014475 0.00023837 -0.00054539
0.41356131 0.90678966 0.62198305 -0.00043161 0.00040841 0.00054643
0.46756938 0.95005167 0.55639458 -0.00019683 0.00069660 0.00002209
0.43050981 0.15455177 0.42348582 -0.00056593 0.00010147 -0.00053708
0.54727328 0.28768876 0.57899928 -0.00003354 0.00038988 0.00038511
0.52882999 0.95073670 0.55683911 0.00018590 0.00069383 0.00001196
0.51289475 0.17845559 0.61933929 0.00010236 0.00007047 0.00049088
0.43653688 0.29663005 0.39321762 -0.00053610 -0.00011634 -0.00013424
0.55831516 0.71312171 0.53766423 0.00012463 -0.00021993 -0.00001135
0.51951319 0.95234489 0.55780602 0.00013335 0.00069775 0.00000836
0.50885457 0.63343626 0.44679964 -0.00011013 0.00014253 0.00054031
0.37633049 0.79852337 0.53741932 -0.00053029 -0.00012889 -0.00004928
0.43615189 0.52954751 0.37848923 -0.00049056 0.00021312 -0.00019680
0.47047403 0.70321542 0.57452041 -0.00014483 -0.00028133 0.00013591
0.53418577 0.17798784 0.61792332 0.00021862 0.00015791 0.00044666
0.61736238 0.86975253 0.60476911 0.00062156 0.00027790 0.00032199
0.62176490 0.83785152 0.51495337 0.00058376 0.00003707 -0.00006550
0.38579640 0.21310581 0.60386217 -0.00035592 0.00016230 0.00053673
0.43714330 0.11508861 0.42769146 -0.00050294 -0.00057967 -0.00057860
0.56305403 0.34873518 0.38506001 0.00053558 -0.00028790 -0.00014779
0.43673187 0.42721736 0.37931699 -0.00049976 -0.00013509 -0.00021146
0.60062981 0.74726599 0.58252126 0.00039724 -0.00027378 0.00023319
0.41317445 0.92262900 0.54296571 -0.00048262 0.00051574 0.00012267
0.49998060 0.24239895 0.59431452 -0.00000235 -0.00002101 0.00049149
0.49998060 0.25168347 0.58975202 -0.00000487 -0.00018789 0.00053020
0.61038387 0.24169528 0.54076183 0.00059696 0.00024690 -0.00021818
0.56360042 0.66416091 0.38853559 0.00050778 0.00013259 -0.00015574
0.55860245 0.33632553 0.43761966 0.00027633 0.00004006 0.00050438
0.45027798 0.29327673 0.53663188 -0.00008270 0.00042337 -0.00013527
0.46997952 0.70239621 0.54238433 -0.00007038 -0.00018819 -0.00003237
0.42976657 0.12840742 0.43167347 -0.00061022 -0.00028830 -0.00048283
0.53675830 0.85309267 0.40940565 -0.00013036 0.00027333 -0.00062053
0.38838607 0.16523725 0.61981928 -0.00020379 0.00022168 0.00049139
0.41389495 0.91213542 0.61246717 -0.00044976 0.00051980 0.00034225
0.54494178 0.11249079 0.41983566 0.00017311 -0.00053787 -0.00075520
0.59334582 0.84613413 0.45759782 0.00062832 0.00004990 -0.00006894
0.49997959 0.65602642 0.44859743 -0.00000150 0.00008142 0.00049489
0.49998060 0.04559090 0.57416773 -0.00000937 -0.00088619 0.00020662
0.46689835 0.63424450 0.44578227 0.00012574 0.00011237 0.00058843
0.49907240 0.69951206 0.57529497 -0.00000688 -0.00028949 0.00015327
0.49998060 0.35454407 0.44828194 -0.00000252 -0.00012001 0.00047175
0.57021755 0.25295579 0.44530773 0.00044312 0.00008541 0.00013798
0.57973611 0.27466634 0.57697737 0.00025281 0.00053029 0.00025535
0.51709008 0.29494134 0.57658184 -0.00004149 0.00020231 0.00037888
0.60439360 0.13359672 0.48366824 0.00067157 -0.00030156 -0.00011710
0.46367565 0.75059664 0.59264988 0.00014510 0.00020420 0.00042940
0.60920566 0.84226531 0.48438975 0.00054389 0.00007014 -0.00014336
0.41683507 0.90099162 0.63143075 -0.00034933 0.00025120 0.00076247
0.56317449 0.41436270 0.37992385 0.00049999 -0.00026017 -0.00020425
0.60871929 0.75879157 0.58461452 0.00048785 -0.00019350 0.00025196
0.48829588 0.69948971 0.54216248 -0.00003665 -0.00018173 -0.00003148
0.49997959 0.95454550 0.56754375 -0.00000262 0.00072501 0.00006237
0.49997959 0.95440048 0.57988745 -0.00000377 0.00075983 0.00010942
0.37957248 0.86217397 0.60339171 -0.00061967 0.00031915 0.00031932
0.43501228 0.63336718 0.42608640 -0.00046075 0.00007258 0.00061556
0.49998060 0.14907743 0.62666506 -0.00000001 -0.00001256 0.00052204
0.52531260 0.70167530 0.53990060 0.00006673 -0.00017470 -0.00001432
0.58828151 0.73575187 0.53661770 0.00028253 -0.00021199 -0.00001277
0.43679145 0.41302988 0.37999022 -0.00049948 -0.00026302 -0.00020446
0.59964019 0.13103525 0.47592166 0.00063854 -0.00034937 -0.00017166
0.38471499 0.18301488 0.61389267 -0.00019939 0.00004405 0.00054211
0.58044893 0.07476952 0.58441901 0.00047402 -0.00081148 -0.00005012
0.49997959 0.76188940 0.38400674 -0.00001749 0.00024758 -0.00048202
0.49997959 0.82215255 0.39968476 0.00001056 0.00032562 -0.00046642
0.49998060 0.06897379 0.64031708 -0.00000578 -0.00061372 0.00054581
0.46255654 0.23889107 0.38220984 -0.00001593 -0.00021496 -0.00073768
0.62273628 0.79012847 0.59030610 0.00055083 -0.00022943 0.00022381
0.60861838 0.13621275 0.49158058 0.00070918 -0.00025277 -0.00005067
0.54245383 0.32483679 0.36716282 0.00005075 -0.00019761 -0.00076468
0.49998060 0.29400265 0.50462949 0.00000110 0.00024265 0.00013549
0.49998060 0.50142509 0.44524229 -0.00000084 0.00009715 0.00071083
0.44367176 0.06091888 0.58937335 -0.00035190 -0.00086697 0.00003419
0.42347085 0.26075205 0.48723406 -0.00034679 0.00016153 0.00001455
0.61212444 0.22186303 0.60094249 0.00040399 0.00022685 0.00054349
0.43425906 0.74187124 0.41178849 -0.00050414 0.00009701 0.00018844
0.40542185 0.74509090 0.53569305 -0.00031381 -0.00019523 -0.00000202
0.39715099 0.17766693 0.61695236 0.00025291 0.00019070 0.00053103
0.46264422 0.08878968 0.64530319 0.00002385 -0.00018299 0.00070308
0.44264218 0.71293491 0.54005080 -0.00015153 -0.00019520 -0.00003588
0.49998060 0.31480497 0.36712191 -0.00001719 -0.00015459 -0.00059125
0.42119709 0.72708917 0.53698057 -0.00023068 -0.00022498 0.00001459
0.42817014 0.27463588 0.58335084 -0.00010125 0.00044598 0.00039647
0.38501728 0.84052479 0.49643883 -0.00056477 0.00006268 -0.00011228
0.60953838 0.15854424 0.62205034 0.00020652 0.00022005 0.00053888
0.42196125 0.84923834 0.43610004 -0.00067377 0.00007277 -0.00008928
0.37703827 0.14924471 0.53099412 -0.00076828 -0.00009205 0.00009464
0.41660917 0.81060660 0.61014658 0.00032782 -0.00007103 0.00051788
0.56621009 0.18940473 0.41478088 0.00047714 -0.00013276 -0.00036281
0.43965703 0.33609003 0.43471226 -0.00031622 0.00003193 0.00052226
0.39521274 0.84346718 0.47606316 -0.00055113 0.00007185 -0.00013441
0.45616263 0.17760919 0.61677915 -0.00015223 0.00019607 0.00043403
0.54862469 0.70913112 0.57559502 0.00014181 -0.00028689 0.00017687
0.43593276 0.71813834 0.39700553 -0.00049695 0.00022578 -0.00005416
0.43396768 0.33381855 0.41690326 -0.00053565 -0.00000963 0.00053942
0.57493639 0.17645186 0.61327767 -0.00073517 0.00031960 0.00041018
0.49997959 0.90882838 0.43836376 -0.00000120 0.00065169 -0.00035748
0.49998060 0.39069936 0.44764876 -0.00000005 -0.00012194 0.00057819
0.41744646 0.72908795 0.57921976 -0.00026594 -0.00033058 0.00015966
0.49998060 0.18900380 0.61647552 0.00000531 0.00012020 0.00048345
0.49997959 0.71202892 0.59194762 0.00000005 -0.00010231 0.00048374
0.39479816 0.90257806 0.54673761 -0.00066388 0.00029140 0.00007783
0.49998060 0.27231577 0.58389449 -0.00001206 -0.00024713 0.00055812
0.61588144 0.18992294 0.61159027 0.00025112 0.00003255 0.00058485
0.49998060 0.13011885 0.63012934 -0.00000094 0.00047442 0.00038412
0.45130938 0.75747699 0.59465587 0.00023105 0.00018123 0.00044575
0.49997959 0.81062257 0.39635366 0.00000758 0.00032492 -0.00046618
0.43732283 0.92797059 0.61534274 -0.00017414 0.00072461 0.00035739
0.50469989 0.11235350 0.41941974 -0.00006790 -0.00025630 -0.00075544
0.49998060 0.15683416 0.40400949 -0.00000162 -0.00024006 -0.00064193
0.42641461 0.78329271 0.60218304 0.00024480 0.00019835 0.00051612
0.43215850 0.91520226 0.47244450 -0.00034459 0.00066820 -0.00005760
0.55963117 0.63782740 0.37399176 0.00040009 0.00019422 -0.00052203
0.41400632 0.84765744 0.44704735 -0.00072048 0.00002679 0.00001189
0.56450772 0.21232986 0.40947744 0.00050903 -0.00009116 -0.00021575
0.49997959 0.93986428 0.62657005 -0.00000566 0.00060748 0.00051986
0.41662416 0.27036387 0.52947056 -0.00033600 0.00035176 -0.00007202
0.43639642 0.48037341 0.37793285 -0.00049851 0.00003010 -0.00021466
0.57678008 0.26109982 0.48947197 0.00033547 0.00017433 0.00001780
0.49997959 0.64934790 0.36377811 -0.00000876 0.00016986 -0.00055862
0.37091252 0.83277124 0.55013263 -0.00061832 0.00004585 -0.00002612
0.57013756 0.13862878 0.42822239 0.00061449 -0.00006454 -0.00052390
0.42816105 0.17647550 0.61334902 0.00061231 0.00030648 0.00040043
0.56354445 0.47913200 0.37794739 0.00049759 0.00006957 -0.00021381
0.61262035 0.89041251 0.54496622 0.00066283 0.00025731 0.00002136
0.49998060 0.40178484 0.44746602 0.00000076 -0.00007818 0.00060767
0.45425951 0.33641005 0.44575503 -0.00006176 0.00004891 0.00047704
0.62011755 0.17543681 0.61020571 0.00047661 0.00002801 0.00043896
0.43557775 0.21583138 0.40870515 -0.00051985 -0.00002933 -0.00021612
0.56163353 0.92853695 0.61544549 0.00018799 0.00071838 0.00034977
0.43626505 0.67983294 0.39092708 -0.00048353 0.00022998 -0.00011592
0.43638325 0.74978387 0.40171438 -0.00045961 0.00010952 -0.00012140
0.39119300 0.23084708 0.59794742 -0.00041248 0.00027932 0.00049363
0.49997959 0.72767377 0.37673685 0.00000535 0.00023069 -0.00049549
0.49998060 0.05952336 0.50065243 -0.00000399 -0.00072635 -0.00015006
0.62282532 0.21593413 0.54545528 0.00068774 0.00016420 -0.00022286
0.52549863 0.89575684 0.63497543 -0.00003836 -0.00036619 0.00053103
0.57066166 0.06815104 0.58671057 0.00039474 -0.00086305 -0.00002004
0.43693146 0.33926019 0.38627458 -0.00052575 -0.00027285 -0.00017792
0.49997959 0.93413407 0.63661641 -0.00000786 0.00045774 0.00072601
0.56369859 0.25980702 0.39994612 0.00053282 -0.00005426 -0.00012954
0.43616006 0.57336563 0.38028887 -0.00047989 0.00049949 -0.00016114
0.37118801 0.16410948 0.57595003 -0.00083572 -0.00014341 -0.00005479
0.62670964 0.81595099 0.53851277 0.00056968 -0.00008331 -0.00001201
0.62466002 0.84798336 0.60081345 0.00063537 0.00019952 0.00028775
0.49998060 0.30485135 0.55593002 -0.00000974 0.00038891 -0.00000666
0.44952840 0.94459683 0.55447179 -0.00017298 0.00071521 0.00007583
0.46577540 0.17798784 0.61792332 -0.00022270 0.00015981 0.00044263
0.37019205 0.82992297 0.56985706 -0.00066062 0.00005209 -0.00006239
0.48818707 0.29549047 0.57639867 0.00002807 0.00019391 0.00038202
0.62840652 0.15887105 0.56010610 0.00078961 -0.00009579 0.00006119
0.47733051 0.11224303 0.41908473 0.00008925 -0.00031911 -0.00079534
0.49998060 0.14327717 0.40855560 -0.00000084 -0.00010798 -0.00070298
0.37656689 0.86249352 0.54221499 -0.00061461 0.00024413 0.00003513
0.56322128 0.30721465 0.39133254 0.00053446 -0.00013703 -0.00014227
0.58374178 0.27604228 0.56290811 0.00037349 0.00055151 -0.00004227
0.54802197 0.63889652 0.36591592 0.00012951 0.00021009 -0.00071722
0.56527275 0.24586366 0.41138712 0.00054395 0.00001432 0.00005032
0.49997959 0.93384492 0.48457107 -0.00000018 0.00068329 -0.00010628
0.49998060 0.06991477 0.46635765 -0.00000291 -0.00085153 -0.00018755
0.46603709 0.29861560 0.53640044 -0.00009079 0.00036828 -0.00014023
0.56473452 0.63336354 0.42712554 0.00043959 0.00007077 0.00059947
0.61075616 0.88236403 0.60705966 0.00069508 0.00021365 0.00027136
0.49997959 0.94709200 0.61026931 -0.00000650 0.00075472 0.00023562
0.44012478 0.32673779 0.37752694 -0.00044086 -0.00019078 -0.00049872
0.46406317 0.93879831 0.61730915 -0.00032435 0.00066607 0.00035074
0.46334672 0.33634138 0.44785649 0.00004975 0.00004075 0.00046796
0.56370586 0.48906362 0.37783012 0.00050141 0.00010796 -0.00021700
0.43594369 0.91186577 0.46256012 -0.00027515 0.00066236 -0.00019440
0.56310993 0.32855558 0.38780102 0.00052977 -0.00016740 -0.00017787
0.56368679 0.58334905 0.38082024 0.00047610 0.00054699 -0.00015856
0.37216440 0.19705872 0.54963809 -0.00073715 0.00013141 -0.00012796
0.43646553 0.62566638 0.38392356 -0.00050557 0.00027579 -0.00015973
0.43135893 0.16550545 0.42056978 -0.00051393 -0.00005528 -0.00047224
0.54071039 0.75144851 0.38124755 0.00000464 0.00023230 -0.00065297
0.58952749 0.91824019 0.58317763 0.00049561 0.00056765 0.00008278
0.44086617 0.09710827 0.64252943 -0.00009232 -0.00035453 0.00075440
0.49998060 0.44543865 0.44570139 0.00000050 0.00000285 0.00068638
0.57909930 0.92930251 0.55073935 0.00036880 0.00060942 0.00013793
0.49998060 0.29256079 0.58026475 -0.00000736 0.00010226 0.00047309
0.56662738 0.77417946 0.59952611 -0.00023137 0.00019801 0.00050763
0.46463627 0.32468179 0.36654142 0.00003737 -0.00017836 -0.00075107
0.56406265 0.72293264 0.39770967 0.00049705 0.00024876 -0.00004923
0.49997959 0.72243899 0.59480721 -0.00000229 0.00006434 0.00053787
0.41150665 0.74499089 0.59480858 -0.00021062 -0.00020664 0.00046072
0.59751236 0.13241167 0.63076162 0.00046755 0.00012576 0.00060812
0.56333268 0.44840923 0.37858376 0.00049790 -0.00013845 -0.00020992
0.51759970 0.70113027 0.57414174 0.00007271 -0.00028504 0.00013179
0.56339997 0.45905700 0.37832057 0.00049769 -0.00008409 -0.00021009
0.43637100 0.60637778 0.38229394 -0.00050974 0.00040212 -0.00010788
0.39833197 0.13957155 0.62837511 -0.00039439 0.00024588 0.00053650
0.49997959 0.62433225 0.36084116 -0.00000760 0.00016375 -0.00058618
0.43542594 0.28012887 0.58151889 -0.00004786 0.00045628 0.00037777
0.49997959 0.77997160 0.38841969 -0.00001152 0.00027845 -0.00047337
0.43678734 0.88501501 0.42981932 -0.00041226 0.00040489 -0.00052248
0.49997959 0.83889294 0.59463453 0.00000400 -0.00002973 0.00039061
0.43567777 0.77584416 0.40550137 -0.00045769 0.00016836 -0.00015987
0.37275445 0.82039976 0.53875250 -0.00058254 -0.00004625 -0.00000814
0.61545002 0.84036571 0.49754190 0.00055974 0.00005995 -0.00012755
0.41134122 0.91303766 0.60382861 -0.00048755 0.00054363 0.00019426
0.37111619 0.16129209 0.56742918 -0.00080250 -0.00010593 0.00002300
0.62695646 0.16993386 0.59356678 0.00080808 -0.00009124 0.00013769
0.56302947 0.91034436 0.45897880 0.00026772 0.00064340 -0.00024087
0.43624097 0.51072592 0.37799740 -0.00049333 0.00013816 -0.00020981
0.61995208 0.78171253 0.58877790 0.00053963 -0.00018044 0.00026001
0.56568825 0.82324719 0.41391677 0.00044371 0.00023539 -0.00029262
0.49997959 0.94963342 0.53321195 0.00000165 0.00066422 -0.00014706
0.58480316 0.73970973 0.51252294 0.00029933 -0.00014433 0.00019134
0.57521003 0.27936834 0.53729045 0.00023497 0.00044886 -0.00014702
0.49998060 0.45533183 0.35307944 -0.00000085 -0.00001161 -0.00082060
0.41866198 0.74233896 0.49948430 -0.00030354 -0.00010403 0.00020294
0.62336767 0.79752153 0.53754169 0.00051707 -0.00015116 -0.00005863
0.55983657 0.32673779 0.37752694 0.00043954 -0.00019559 -0.00048771
0.44376358 0.28396267 0.58024114 0.00001065 0.00042633 0.00037615
0.43696648 0.35481909 0.38438132 -0.00052550 -0.00034118 -0.00015042
0.58364362 0.27106982 0.53239477 0.00032432 0.00038188 -0.00009423
0.62925977 0.82849836 0.57972246 0.00067279 0.00005125 0.00000779
0.56558776 0.83567595 0.41611052 0.00043092 0.00023713 -0.00033834
0.49998060 0.12354036 0.41548729 -0.00000392 -0.00009805 -0.00075764
0.50497717 0.85306990 0.40956473 -0.00004435 0.00022832 -0.00051967
0.41544047 0.27415451 0.54731673 -0.00040744 0.00044681 -0.00026364
0.59437954 0.12840240 0.46795973 0.00064563 -0.00038557 -0.00017162
0.54956841 0.94489408 0.55453044 0.00017758 0.00071262 0.00006277
0.43956655 0.63773149 0.37474358 -0.00041357 0.00021212 -0.00047250
0.53520930 0.93899155 0.61734420 0.00031592 0.00066614 0.00034784
0.42987341 0.93539363 0.55213398 -0.00027590 0.00067392 0.00013681
0.42782193 0.86482859 0.62595779 0.00013456 -0.00038291 0.00055719
0.60265857 0.14136164 0.62777829 0.00036391 0.00020483 0.00057673
0.43220443 0.76264220 0.60025615 0.00019717 0.00013304 0.00055899
0.55149299 0.63433355 0.44192484 0.00014652 0.00008101 0.00059225
0.52408904 0.74557728 0.59118664 -0.00003324 0.00025079 0.00042861
0.56531775 0.84457773 0.41770783 0.00042176 0.00021887 -0.00038048
0.52897370 0.63939065 0.36315897 -0.00012113 0.00017931 -0.00068971
0.60261995 0.90618092 0.54697788 0.00062718 0.00034280 0.00007664
0.43613461 0.56382650 0.37984565 -0.00048164 0.00046007 -0.00016755
0.61515957 0.14140618 0.50728673 0.00075880 -0.00016403 0.00007176
0.62607914 0.80475587 0.59296262 0.00059496 -0.00015254 0.00022708
0.59370995 0.73758471 0.55208302 0.00033892 -0.00026145 -0.00012746
0.53139669 0.23870333 0.38172168 -0.00008533 -0.00020031 -0.00074844
0.52664858 0.82662195 0.59271628 -0.00008763 -0.00000415 0.00037916
0.49998060 0.41820425 0.44691461 0.00000123 -0.00003189 0.00064475
0.49998060 0.46854514 0.44542181 -0.00000065 0.00003201 0.00070734
0.56321126 0.42393765 0.37945518 0.00049982 -0.00019209 -0.00020958
0.58336812 0.81077212 0.61019474 -0.00036035 -0.00006413 0.00051341
0.59208399 0.73789877 0.58056164 0.00032527 -0.00030742 0.00021341
0.43341130 0.10188621 0.64093751 -0.00016868 -0.00031442 0.00074259
0.37752646 0.78910929 0.59012115 -0.00055006 -0.00021515 0.00024098
0.52612376 0.30023748 0.53636086 0.00008261 0.00035543 -0.00017332
0.49998060 0.06059613 0.62649596 -0.00000548 -0.00093879 0.00032822
0.53679144 0.70457458 0.53904778 0.00008080 -0.00018263 -0.00001823
0.54570323 0.23929289 0.38346675 0.00012971 -0.00019847 -0.00073733
0.51277322 0.74386817 0.59068799 -0.00000778 0.00026798 0.00042215
0.61316174 0.11112253 0.57268488 0.00074952 -0.00046279 -0.00003300
0.43653598 0.46901289 0.37812242 -0.00049597 -0.00000625 -0.00021182
0.50967389 0.23843469 0.38118437 -0.00008333 -0.00016012 -0.00063921
0.59990203 0.25621140 0.53892684 0.00051623 0.00031067 -0.00018415
0.49997959 0.92979848 0.47538200 -0.00000087 0.00069931 -0.00011872
0.39232123 0.75705552 0.58429903 -0.00047688 -0.00021529 0.00022826
0.56328261 0.43925929 0.37886104 0.00049875 -0.00015406 -0.00021102
0.60260260 0.24175665 0.59431130 0.00035427 0.00035455 0.00050143
0.58317721 0.84002250 0.61872381 -0.00031259 -0.00016037 0.00055696
0.38065299 0.87543321 0.54352450 -0.00061948 0.00029326 0.00002873
0.46186143 0.70544183 0.57492501 -0.00017278 -0.00027435 0.00014954
0.44297945 0.74225897 0.38807559 -0.00030800 0.00024360 -0.00045039
0.51018637 0.32446951 0.36568183 -0.00011763 -0.00014547 -0.00061880
0.43351084 0.06590547 0.58752692 -0.00038808 -0.00085869 -0.00001144
0.38207757 0.82379860 0.61227214 -0.00034886 -0.00007128 0.00061491
0.49998060 0.23120299 0.59979564 -0.00000141 0.00012750 0.00044872
0.49997959 0.79175258 0.39136162 -0.00000267 0.00029630 -0.00047114
0.56977749 0.74198717 0.43396312 0.00047224 -0.00001156 0.00039287
0.54021084 0.63443089 0.44504637 -0.00005009 0.00009680 0.00060196
0.56352407 0.65489227 0.38725963 0.00051030 0.00010395 -0.00018788
0.49997959 0.66631728 0.36602733 -0.00001040 0.00022350 -0.00053988
0.49998060 0.05588683 0.61628598 -0.00000861 -0.00100440 0.00021756
0.49015307 0.70029706 0.57399088 -0.00003602 -0.00028449 0.00012998
0.57724059 0.10958382 0.63837147 0.00034896 -0.00018695 0.00072219
0.62438905 0.83656240 0.52387792 0.00059640 0.00002888 -0.00001705
0.48130062 0.63375175 0.44658461 0.00018088 0.00013325 0.00056122
0.49998146 0.73845971 0.37887061 0.00000186 0.00021340 -0.00049520
0.49475893 0.82689190 0.59084749 0.00002351 0.00002480 0.00039124
0.57452089 0.91840470 0.48754227 0.00044376 0.00062134 0.00003853
0.49998060 0.06602366 0.47925100 -0.00000319 -0.00078009 -0.00017191
0.56432813 0.82490772 0.60459083 -0.00032088 -0.00007252 0.00035898
0.42822242 0.85047209 0.42755374 -0.00056795 0.00015119 -0.00024118
0.37155986 0.82714874 0.58875835 -0.00064130 0.00003343 0.00014706
0.49998060 0.05188663 0.60582185 -0.00000750 -0.00093107 0.00026577
0.62759697 0.82491726 0.53905308 0.00059238 -0.00003212 0.00000410
0.49998060 0.48037070 0.35270670 -0.00000391 0.00004797 -0.00082111
0.49998060 0.10321444 0.64206755 0.00000190 0.00067890 0.00043475
0.58761287 0.12526590 0.45847335 0.00064609 -0.00043694 -0.00020368
0.61761379 0.77960473 0.53682864 0.00047809 -0.00012607 -0.00008571
0.49997959 0.73304218 0.59379309 -0.00000416 0.00020476 0.00050238
0.56891292 0.25114071 0.43594366 0.00049317 0.00008852 0.00027261
0.49997959 0.70180345 0.51140487 -0.00000189 -0.00010732 0.00026552
0.49997959 0.60036659 0.44732282 -0.00000358 0.00024737 0.00057890
0.41142482 0.74211711 0.52662808 -0.00027865 -0.00018339 0.00010328
0.59850335 0.84498727 0.46554130 0.00057496 0.00006320 -0.00012171
0.41234806 0.12526590 0.45847335 -0.00064216 -0.00043128 -0.00021573
0.56342453 0.29663005 0.39321762 0.00054086 -0.00014034 -0.00011510
0.43624461 0.87272215 0.42483407 -0.00042476 0.00026155 -0.00051018
0.47947329 0.95223945 0.55755734 -0.00014461 0.00069758 0.00001114
0.49997959 0.70010662 0.53269750 -0.00000120 -0.00014295 0.00006390
0.48607793 0.17843877 0.61928886 -0.00010021 0.00007438 0.00048882
0.62345219 0.82476819 0.60555637 0.00050182 -0.00003662 0.00045303
0.56372947 0.51187962 0.37801149 0.00049243 0.00016638 -0.00021101
0.41308129 0.26160300 0.58769512 -0.00022250 0.00043910 0.00042736
0.43338722 0.87164217 0.62794423 0.00014961 -0.00036420 0.00058090
0.62577182 0.85183442 0.54108548 0.00061683 0.00016329 0.00003301
0.41569820 0.27558002 0.55724514 -0.00040901 0.00051421 -0.00017270
0.47507864 0.23859651 0.38149619 0.00012067 -0.00018768 -0.00070283
0.55427814 0.82550323 0.60046160 -0.00023999 -0.00005899 0.00034779
0.52411181 0.11223894 0.41907287 -0.00010906 -0.00033609 -0.00079738
0.62469864 0.17283988 0.60235393 0.00068325 -0.00004314 0.00028190
0.57786018 0.85480547 0.62303400 -0.00021353 -0.00031809 0.00054387
0.49196467 0.33678234 0.44955611 0.00006722 0.00001404 0.00041296
0.41522822 0.82950836 0.61565822 0.00031430 -0.00012275 0.00055381
0.49998060 0.46512952 0.35279307 -0.00000333 0.00000987 -0.00082379
0.43851879 0.74191535 0.39665097 -0.00041357 0.00019524 -0.00020424
0.55266351 0.32539183 0.36996564 0.00026018 -0.00020215 -0.00070793
0.56382859 0.54902053 0.37921560 0.00048377 0.00027666 -0.00018395
0.43396586 0.24681415 0.41563320 -0.00056258 0.00000918 0.00016052
0.46387464 0.89191401 0.63385451 0.00016481 -0.00028537 0.00055454
0.57154262 0.86558366 0.62617779 -0.00016540 -0.00039649 0.00055992
0.49998060 0.40536454 0.35609320 0.00000627 -0.00014193 -0.00076070
0.41813332 0.26774195 0.52002478 -0.00032180 0.00030950 0.00001520
0.42478862 0.91876513 0.48959950 -0.00044599 0.00061343 0.00003519
0.56645232 0.63427317 0.40495768 0.00059308 0.00009899 0.00033295
0.55880338 0.28276488 0.58064026 0.00001256 0.00043471 0.00039782
0.52277970 0.17828831 0.61883426 0.00018038 0.00010855 0.00046982
0.46844360 0.11221895 0.41901383 0.00001024 -0.00039993 -0.00080260
0.55631232 0.17703916 0.61505407 -0.00014209 0.00024378 0.00044377
0.50761533 0.29560730 0.57635957 -0.00003903 0.00018216 0.00037993
0.49997959 0.57729107 0.35653824 -0.00000520 0.00026142 -0.00068311
0.37879288 0.78952754 0.53695494 -0.00050570 -0.00012329 -0.00006884
0.49998060 0.29563320 0.48532769 -0.00000319 0.00024923 0.00016244
0.44846836 0.63433355 0.44192484 -0.00015708 0.00008448 0.00058553
0.56356722 0.63108528 0.38446087 0.00051227 0.00024061 -0.00019967
0.57812697 0.26272807 0.49946609 0.00031904 0.00021478 0.00004775
0.38064709 0.78005254 0.58847648 -0.00054084 -0.00016315 0.00026749
0.39100480 0.15663187 0.62268811 -0.00024868 0.00027537 0.00049252
0.47874743 0.94203442 0.61789697 -0.00025516 0.00068409 0.00034485
0.60870695 0.10370857 0.57496589 0.00072787 -0.00051987 -0.00005712
0.49997959 0.74767739 0.58944565 -0.00000536 0.00027886 0.00039278
0.62074167 0.78833330 0.53714579 0.00049490 -0.00013756 -0.00007990
0.40846926 0.82327038 0.61572462 0.00026508 -0.00012455 0.00062374
0.54708779 0.17747101 0.61636144 0.00006510 0.00020706 0.00044429
0.52667630 0.29355583 0.57704371 -0.00003845 0.00024661 0.00037908
0.37457091 0.20761418 0.54724646 -0.00070714 0.00015299 -0.00019035
0.39683279 0.09599822 0.57739377 -0.00068006 -0.00060088 -0.00007862
0.49997959 0.61353362 0.44716191 -0.00000017 0.00019676 0.00055774
0.41498137 0.11655731 0.63604641 -0.00045709 -0.00008051 0.00066397
0.58884197 0.92130387 0.56281310 0.00048207 0.00051995 0.00015232
0.56594592 0.33235079 0.40865058 0.00058752 -0.00004142 0.00041676
0.44729784 0.32539183 0.36996564 -0.00026932 -0.00019601 -0.00071042
0.49998060 0.30779737 0.46474609 -0.00000513 0.00026047 0.00022428
0.52733403 0.70265901 0.57441950 0.00013251 -0.00028591 0.00013106
0.49998060 0.22771148 0.38367310 0.00000981 -0.00017052 -0.00062529
0.62537867 0.80706829 0.53801894 0.00054494 -0.00012433 -0.00003117
0.49998060 0.30413949 0.54615557 -0.00000373 0.00038036 -0.00015689
0.38394403 0.19184393 0.61094981 -0.00023165 -0.00000828 0.00055956
0.47616741 0.30072206 0.53634906 -0.00008491 0.00034578 -0.00015976
0.49997959 0.93721414 0.49283001 0.00000037 0.00067226 -0.00010287
0.37296626 0.83159846 0.59783876 -0.00061078 0.00006095 0.00029571
0.49998060 0.28243670 0.58335441 -0.00000794 -0.00009055 0.00054939
0.52543443 0.94120437 0.61774606 0.00027186 0.00068260 0.00033928
0.43623552 0.59306353 0.38136345 -0.00049034 0.00049384 -0.00013336
0.53269076 0.33633867 0.44836605 -0.00008998 0.00003772 0.00046249
0.57654917 0.74206758 0.47939265 0.00031831 -0.00004531 0.00015254
0.42546093 0.74241894 0.46736729 -0.00034333 -0.00003671 0.00016298
0.42828470 0.74221897 0.44635642 -0.00041659 -0.00001927 0.00028027
0.49998060 0.20228668 0.61209667 0.00000043 0.00018981 0.00045583
0.49998060 0.29218712 0.37077025 -0.00000059 -0.00016707 -0.00058721
0.40533683 0.26204440 0.53841209 -0.00047435 0.00032633 -0.00017926
0.58123124 0.92184347 0.51150590 0.00045722 0.00057209 0.00000550
0.37408087 0.84084350 0.59951705 -0.00061809 0.00013177 0.00030205
0.57002431 0.11771193 0.43562639 0.00060232 -0.00055663 -0.00041272
0.56543136 0.19841422 0.41266990 0.00048111 -0.00012222 -0.00031633
0.45844918 0.94756013 0.55544227 -0.00019265 0.00070087 0.00004767
0.56497771 0.33062932 0.39926925 0.00058451 -0.00010763 0.00016871
0.57098120 0.85060704 0.42661870 0.00054928 0.00014731 -0.00025913
0.49998060 0.17464270 0.39824376 0.00000025 -0.00027739 -0.00062075
0.49997959 0.88714689 0.42133346 0.00000472 0.00040137 -0.00053658
0.51155907 0.30218259 0.53638947 0.00004453 0.00033729 -0.00019101
0.49998060 0.10176165 0.42355627 -0.00000318 -0.00047809 -0.00071842
0.43927521 0.94046068 0.55330223 -0.00019242 0.00071852 0.00011219
0.49997959 0.78928840 0.58342767 -0.00000219 0.00013018 0.00035684
0.62968248 0.16913199 0.55646282 0.00079756 -0.00000695 0.00002174
0.38480136 0.14140618 0.50728673 -0.00074603 -0.00016388 0.00007078
0.56563044 0.28556499 0.53699607 0.00014196 0.00046408 -0.00013784
0.56365860 0.26860559 0.39835015 0.00054131 -0.00003257 -0.00011488
0.43683234 0.31785330 0.38950974 -0.00052556 -0.00010434 -0.00018970
0.42035568 0.07410587 0.58464408 -0.00048515 -0.00080676 -0.00005666
0.40601003 0.90470451 0.61111712 -0.00055802 0.00041649 0.00032158
0.43712056 0.17676188 0.61421585 0.00029402 0.00027318 0.00042391
0.57304716 0.78240895 0.60192579 -0.00024549 0.00018520 0.00051931
0.43372813 0.18917380 0.41483545 -0.00048220 -0.00013070 -0.00036103
0.50319791 0.17852195 0.61953932 0.00003080 0.00005024 0.00050210
0.56606597 0.17662825 0.61381090 -0.00043419 0.00028250 0.00043269
0.56695372 0.93708694 0.55239397 0.00023622 0.00069618 0.00011613
0.56293494 0.39024931 0.38136071 0.00049417 -0.00039641 -0.00018859
0.42636096 0.88948524 0.63396358 -0.00010018 -0.00006836 0.00080591
0.48502988 0.74655235 0.38079527 0.00014438 0.00023526 -0.00052091
0.49998060 0.51241285 0.44532272 -0.00000086 0.00011632 0.00070626
0.56369770 0.25028068 0.40170938 0.00052370 -0.00005464 -0.00015091
0.49997959 0.94062531 0.50208032 0.00000077 0.00066282 -0.00010970
0.62818563 0.16689461 0.58437270 0.00087392 -0.00014417 -0.00002811
0.45723775 0.11235076 0.41941339 -0.00013477 -0.00051762 -0.00078532
0.49997959 0.92430681 0.64195484 -0.00000743 0.00019085 0.00081249
0.56382537 0.56125504 0.37973067 0.00048029 0.00039935 -0.00017430
0.47275549 0.33639503 0.44881651 0.00010673 0.00002995 0.00045321
0.43650189 0.64515638 0.38604230 -0.00050550 0.00013750 -0.00017701
0.48319170 0.89848292 0.63577002 -0.00002021 -0.00039044 0.00053241
0.44614598 0.11304944 0.42152572 -0.00033239 -0.00058459 -0.00072801
0.57755423 0.72523499 0.57851970 0.00020912 -0.00035392 0.00018268
0.54607552 0.70770651 0.53841269 0.00009787 -0.00019408 -0.00002178
0.49998060 0.52060586 0.35370809 0.00000200 0.00013226 -0.00078353
0.40032116 0.13103525 0.47592166 -0.00062655 -0.00035648 -0.00020027
0.43618959 0.52060348 0.37823242 -0.00049198 0.00018686 -0.00020278
0.49997959 0.76868200 0.58418036 -0.00000606 0.00021882 0.00033767
0.49998060 0.39562002 0.35696554 0.00000526 -0.00017416 -0.00073865
0.49997959 0.62471545 0.44702873 0.00000023 0.00016633 0.00054291
0.49998060 0.47839472 0.44532093 -0.00000088 0.00005520 0.00071132
