ply
format ascii 1.0
element vertex 830
property float x
property float y
property float z
property float nx
property float ny
property float nz
end_header
-0.096339 0.399687 -0.198254 0.5195 0.000228059 -0.854471 
0.164526 0.055178 -0.386009 0.550493 0.759249 -0.347129 
-0.10079 0.319386 -0.157624 0.214209 0.496941 0.840931 
0.151453 0.30893 -0.168649 -0.480098 -0.69388 0.536691 
0.046966 -0.012769 0.05261 -0.955566 0.294565 -0.0111671 
-0.122549 -0.118792 0.004232 0.847806 -0.237479 0.474162 
0.105533 0.341384 -0.16713 -0.470972 -0.699133 0.537957 
-0.058779 0.050937 -0.091838 0.516914 0.118654 0.847774 
-0.148598 -0.188662 0.119352 0.195154 0.694246 0.692775 
-0.080116 0.396583 -0.166158 0.430601 0.553411 -0.712965 
0.165412 0.342231 -0.113368 -0.474071 -0.695816 0.539534 
-0.115466 0.276356 -0.075805 0.379077 0.828013 0.413153 
-0.194426 -0.13025 0.084779 0.463614 0.150578 0.873149 
0.02202 0.14478 0.048658 0.144603 -0.366898 -0.918954 
0.176977 0.137202 -0.026484 0.533588 0.815423 -0.224428 
0.226664 0.112445 -0.295551 -0.716873 0.467859 -0.516916 
0.315249 0.220987 0.035389 -0.777147 -0.0712199 -0.625277 
0.045611 0.210935 0.0064 -0.36399 -0.375027 -0.852564 
0.21989 0.0457 -0.335383 0.0478812 0.62935 -0.775646 
0.348624 0.242537 0.016477 0.617858 0.639596 -0.45735 
-0.160986 -0.029586 0.192028 0.683277 0.652996 -0.326694 
-0.146972 -0.256197 0.125027 -0.753359 0.345922 -0.559275 
0.423561 0.243383 -0.012017 -0.474473 0.168618 0.86397 
-0.100721 0.320188 -0.147851 0.43063 -0.704288 -0.56439 
-0.295835 -0.183048 0.252071 0.883062 -0.269837 0.383914 
0.061141 0.269475 -0.299032 -0.472439 -0.696512 0.540068 
-0.323858 -0.331498 0.216777 0.738568 -0.0402954 0.672974 
-0.060489 0.410321 -0.140548 0.665976 0.73955 0.0976809 
-0.197394 -0.341638 0.17211 -0.409665 0.788833 0.458168 
0.224778 0.062169 -0.421736 -0.886006 -0.182417 0.426283 
0.121897 0.275017 -0.238709 -0.516406 -0.698221 0.495795 
-0.157718 -0.231588 0.320865 -0.791581 -0.0936241 -0.60385 
0.129026 0.067688 -0.14086 0.730449 0.211583 -0.649367 
-0.254154 -0.317342 0.358396 -0.289161 -0.612189 -0.735942 
0.090323 -0.024193 -0.255596 0.460629 0.696307 -0.550434 
-0.157059 0.014746 0.042254 -0.410372 0.322643 0.852934 
-0.100332 -0.204287 0.249598 -0.787848 -0.343093 -0.511451 
-0.008212 0.428836 -0.154266 -0.465736 -0.700046 0.541318 
-0.081027 0.076143 -0.042511 0.747569 0.261128 0.610699 
-0.07515 0.363232 -0.059682 0.735773 -0.670706 0.0937655 
-0.192792 -0.047258 0.150144 0.494123 0.525616 -0.692511 
-0.13664 0.066097 0.008662 0.214194 0.908048 0.359957 
-0.232047 -0.019389 0.093352 0.959749 -0.280831 -0.00394741 
-0.260228 -0.341712 0.17019 0.553984 0.122136 0.82352 
0.329017 0.301073 -0.022597 -0.475365 -0.695285 0.539079 
-0.215504 -0.361672 0.216491 -0.243671 0.671922 -0.699389 
0.215888 0.251507 -0.186983 -0.0369939 -0.883283 0.467378 
-0.244553 -0.329836 0.159672 0.521505 0.286274 0.803791 
0.091516 0.043305 -0.158312 -0.588053 0.551447 -0.591692 
0.261614 0.160432 -0.263492 -0.461111 -0.691318 0.556287 
-0.155588 -0.080641 0.015833 -0.000658023 0.454693 0.890648 
-0.292281 -0.161011 0.193346 0.613781 -0.123791 0.779711 
0.042002 0.190486 0.011589 0.285028 -0.794061 -0.536867 
-0.207953 -0.249879 0.139883 0.472985 -0.850851 -0.228773 
0.02499 0.166439 0.044181 -0.0260563 -0.67504 -0.737321 
-0.202653 0.018444 0.067322 0.767622 -0.352981 0.534941 
-0.056231 0.041582 -0.067885 0.504979 0.619638 -0.60087 
-0.022411 0.325725 -0.045573 -0.112879 -0.976871 0.181607 
0.251839 0.231603 -0.18019 -0.479855 -0.692463 0.538735 
0.148111 0.22826 -0.275752 -0.473059 -0.696651 0.539345 
0.092024 0.012632 -0.060158 0.421612 0.723954 0.546017 
-0.070081 0.431813 -0.117951 0.629222 0.530337 -0.568175 
0.018679 0.4241 -0.136762 -0.442895 -0.631401 0.636535 
0.134029 0.052833 -0.034006 -0.744149 0.668013 -0.00112161 
-0.186213 -0.245733 0.118401 -0.776885 0.404172 0.482799 
0.245972 0.171743 -0.262646 -0.470077 -0.686514 0.554732 
-0.309438 -0.288516 0.244501 0.0487643 -0.958181 -0.281976 
-0.283475 -0.147567 0.189738 0.586347 -0.228284 0.777228 
0.124246 0.273735 -0.023812 -0.133636 -0.700405 -0.701124 
-0.072087 0.391931 -0.220837 0.35542 0.502999 0.787825 
0.090797 0.265944 -0.017844 -0.256535 -0.661431 -0.704769 
0.139646 0.391617 -0.027113 -0.46104 0.329075 -0.824107 
-0.219931 -0.002751 0.140062 0.945121 -0.203979 -0.255225 
0.015338 0.084167 -0.132611 -0.169787 0.376989 0.910523 
-0.086647 0.230716 -0.10616 0.87535 -0.0831098 -0.476294 
-0.048109 -0.162773 0.04146 -0.831437 0.520422 -0.194611 
-0.070719 -0.076968 0.21519 0.72934 0.325255 -0.601891 
0.306727 0.301928 0.045478 -0.219783 -0.1918 -0.956508 
0.227475 0.046351 -0.412929 0.0796332 0.524417 0.84773 
-0.108735 -0.139951 0.211572 -0.964528 0.226495 -0.135592 
0.124781 0.406339 -0.066329 -0.483679 -0.69424 0.532996 
0.233988 0.161394 -0.28137 -0.607172 -7.43571e-17 0.79457 
0.152143 0.301487 -0.007569 0.296481 -0.0413061 -0.954145 
-0.201681 -0.320533 0.295046 -0.0968848 0.893575 0.438335 
0.154647 0.388081 -0.063631 -0.470036 -0.697909 0.540361 
-0.365406 -0.301669 0.328577 0.825253 -0.0225107 -0.564314 
0.050695 0.325928 -0.049958 0.930815 -0.0900395 -0.354227 
0.051788 0.020804 -0.105719 -0.127292 0.832949 0.53851 
0.09046 0.104879 -0.289332 0.950266 0.0731224 0.302734 
0.076329 0.280918 -0.270897 -0.480634 -0.720545 0.499805 
-0.191584 -0.092176 0.073755 0.314993 0.940822 -0.125031 
-0.363737 -0.32485 0.30221 0.679579 0.172493 0.713035 
-0.272385 -0.165603 0.262443 -0.132823 -0.655387 -0.743523 
-0.056861 0.122669 -0.083621 0.872803 -0.325028 0.364104 
0.150585 0.338801 -0.130839 -0.468799 -0.691196 0.549978 
0.237554 0.126095 -0.328993 -0.451679 -0.683098 0.573901 
-0.283773 -0.17856 0.274787 0.0958377 -0.628135 -0.77218 
-0.120098 0.291661 -0.087231 0.577768 0.233327 -0.78214 
0.018427 0.27138 -0.023209 0.298042 0.620294 -0.725539 
-0.22327 -0.133617 0.153421 0.395542 0.0262538 0.918073 
0.294596 0.188859 -0.108367 -0.424132 -0.172092 -0.889099 
0.02601 0.244427 -0.339366 0.925819 -0.170324 0.337415 
-0.008189 -0.109168 0.214868 -0.277695 0.477737 -0.833458 
-0.178245 0.038409 0.035256 0.918635 -0.378513 -0.113301 
0.076989 0.092556 -0.277992 0.28289 0.0370218 0.958438 
0.332338 0.253 -0.082638 -0.379096 -0.615731 0.690769 
0.186542 0.0985 -0.183579 -0.826616 1.01231e-16 -0.562766 
-0.266564 -0.327266 0.362809 0.42429 0.0594805 -0.903571 
0.001995 0.236874 -0.241591 0.613176 0.617904 0.492148 
-0.050241 -0.163419 0.115285 -0.104805 0.993839 -0.0360564 
-0.189465 -0.108918 0.186194 -0.566642 -6.93937e-17 -0.823964 
0.146161 0.274901 -0.217241 -0.34446 -0.76737 0.540824 
0.251529 0.251333 -0.155884 -0.528047 -0.616668 0.583856 
0.123467 0.270546 -0.242828 -0.398755 -0.735681 0.547511 
0.319134 0.136178 -0.244213 -0.470391 -0.69836 0.539468 
-0.170692 -0.290133 0.346366 -0.0359125 -0.0332256 -0.998802 
0.132026 0.080711 -0.328164 -0.52533 0.63377 0.567771 
0.179582 0.35532 -0.084002 -0.480367 -0.696788 0.532667 
0.026394 0.380402 -0.186336 -0.472608 -0.69332 0.544012 
0.258196 0.313613 -0.068703 -0.463721 -0.733286 0.497247 
0.09642 0.027705 -0.010966 -0.77447 0.618018 0.135091 
-0.074424 0.078542 -0.074091 0.753971 -0.433238 0.493795 
0.29674 0.298968 -0.05371 -0.535965 -0.68434 0.494389 
0.080565 0.283019 -0.264461 -0.570037 -0.782243 0.251304 
-0.094708 -0.195847 0.088672 -0.117237 0.982007 0.148047 
-0.30866 -0.194151 0.20411 0.567598 0.00485997 0.823292 
0.018821 0.064671 -0.140183 0.871348 0.104721 0.47936 
-0.158519 -0.249688 0.308311 -0.915592 0.185464 -0.356783 
0.04889 0.26635 -0.016685 0.228864 0.632495 -0.73998 
-0.264376 -0.372002 0.190309 0.192292 0.679079 0.708432 
-0.397791 -0.321387 0.361194 0.867195 -0.495169 -0.0527223 
0.246479 0.314674 -0.07764 -0.469293 -0.698371 0.540409 
-0.102176 0.000447 0.006205 0.147869 0.546938 0.824011 
-0.018778 -0.076078 0.2293 -0.417909 0.375065 -0.827453 
-0.192961 0.032449 0.062816 0.737102 -0.352839 0.576356 
0.222073 0.02832 -0.359695 0.237053 0.765012 -0.598802 
-0.225084 -0.353803 0.173127 -0.533294 0.544174 0.647667 
0.144873 0.082894 -0.32585 -0.157315 0.559867 0.813512 
0.050657 0.20039 -0.329389 0.959156 0.159568 0.233575 
0.01297 0.209291 -0.195633 0.778412 -0.145555 0.610647 
0.133303 0.13116 -0.005922 -0.331154 0.148347 -0.931843 
-0.04987 -0.105106 -0.054609 0.238397 -0.146122 0.960112 
-0.160828 0.019707 0.036495 -0.547255 0.404999 0.732453 
0.323599 0.124559 -0.202851 -0.156777 0.968119 0.195365 
0.193676 0.085032 -0.274746 -0.741481 0.473377 0.475521 
-0.065962 -0.182499 0.020366 -0.34551 0.917897 0.195163 
0.015266 -0.0836 0.094427 -0.818084 0.557798 -0.140001 
0.055893 0.015681 0.14156 -0.937325 -0.175078 -0.30128 
-0.255003 -0.365108 0.178993 0.241123 0.753396 0.611764 
-0.220568 -0.213958 0.148373 -0.141578 0.231937 0.962373 
0.087906 0.353473 -0.167031 -0.473273 -0.697393 0.538197 
-0.020351 -0.099298 -0.055181 0.494958 0.355893 0.79269 
0.228413 0.035958 -0.350781 0.0288051 0.963724 -0.265343 
-0.047948 0.145771 0.041293 0.655698 -0.657561 -0.371044 
0.348669 0.323166 0.067672 -0.326509 0.669418 -0.667286 
0.344687 0.21328 -0.00261 -0.442475 -0.335359 -0.831715 
0.271957 0.255487 0.082441 -0.480603 -0.382607 -0.789071 
0.005467 0.059445 0.105732 0.0541952 -0.967356 -0.247559 
0.141 0.164057 -0.351827 0.873345 -0.293022 0.389109 
-0.188463 -0.104523 0.10414 -0.00919759 -0.597722 -0.801651 
0.096269 0.276223 -0.259422 -0.47857 -0.689662 0.543449 
0.220742 0.384079 0.00228 -0.424619 -0.122408 -0.897059 
0.314459 0.150837 0.045743 -0.519566 0.692337 -0.50072 
-0.043945 -0.046814 -0.00343 -0.715958 0.695992 0.0547766 
0.145375 0.312748 -0.169345 -0.477293 -0.690654 0.543312 
-0.264704 -0.169407 0.262681 -0.346514 -0.461297 -0.816782 
0.073527 0.294941 -0.030079 -0.299469 -0.829725 -0.471036 
0.097571 0.005691 -0.235012 -0.514698 0.467383 -0.718777 
-0.363369 -0.432258 0.369509 0.522337 0.65449 -0.546631 
0.016129 -0.016866 0.185883 -0.344008 -0.5726 -0.744169 
0.274979 0.196891 0.086486 -0.862231 0.0550109 -0.503519 
-0.195413 -0.369473 0.369168 -0.371028 0.910184 -0.184127 
0.308066 0.253277 -0.102743 -0.632161 0.197879 0.749144 
-0.008325 0.135351 -0.143274 0.681389 0.0177143 0.731707 
0.14427 0.239186 0.014678 0.0364727 -0.620948 -0.783003 
0.402143 0.257569 0.038005 -0.101534 0.400929 -0.910465 
0.100072 0.366796 -0.043555 0.635977 0.352028 -0.686738 
0.081968 0.325135 -0.208844 -0.507927 -0.581493 0.635512 
0.268197 0.29186 -0.088009 -0.484248 -0.691788 0.535662 
-0.068643 0.133124 0.029734 0.885927 0.0884485 -0.455313 
0.006272 0.28633 -0.310509 0.88768 -0.455187 0.0694916 
-0.322852 -0.415737 0.428256 -0.217427 0.158129 -0.963183 
-0.059387 0.062808 -0.084703 -0.384584 -0.554298 0.738139 
0.313268 0.1117 -0.266567 0.0774369 0.653794 0.7527 
0.237748 0.236948 -0.185685 -0.415648 -0.714661 0.562581 
0.216576 0.370599 -0.031733 -0.40401 -0.717258 0.56773 
0.141679 0.289482 -0.202355 -0.453678 -0.710437 0.538011 
-0.149727 -0.04416 0.031411 0.820236 -0.52418 0.229018 
0.196239 0.107235 -0.169055 0.1425 0.943155 -0.300255 
0.015064 0.320671 -0.273461 -0.472707 -0.698341 0.537464 
-0.002388 0.369782 -0.109838 0.114539 -0.686951 -0.717621 
-0.3536 -0.435772 0.292819 0.787589 -0.606982 -0.106192 
-0.388603 -0.336198 0.346429 0.017147 -0.0988136 0.994958 
-0.329253 -0.467336 0.331172 0.12968 -0.180729 0.974946 
0.010135 -0.082606 -0.024172 -0.422051 0.882923 -0.20572 
-0.111444 0.315652 -0.109323 0.0389319 -0.864042 0.501911 
-0.102542 -0.114103 0.197139 -0.067667 -0.263985 -0.96215 
-0.014482 0.416438 -0.105964 -0.178475 0.3269 -0.928053 
-0.326019 -0.466067 0.266937 -0.503311 0.475826 0.721296 
-0.376046 -0.432024 0.359465 0.296519 0.581899 -0.757278 
-0.057532 0.152321 -0.055242 0.631179 -0.698211 -0.337807 
0.006527 0.407803 -0.16846 -0.473277 -0.697393 0.538194 
0.295491 0.232979 -0.088235 -0.561905 0.697566 0.444596 
0.025195 -0.047865 0.073371 -0.650003 0.741843 0.164815 
-0.265684 -0.361041 0.182798 0.565938 0.456809 0.686324 
0.190131 0.083382 -0.210842 -0.78803 0.525278 -0.321079 
0.356478 0.293737 0.065396 -0.44719 0.052929 -0.892872 
-0.048469 0.088407 -0.000213 0.339163 0.183511 -0.922655 
-0.388023 -0.346608 0.323925 0.565981 -0.754285 -0.332746 
-0.094355 0.033146 0.124704 0.548965 -0.655867 -0.518147 
-0.213625 -0.053349 0.117376 0.460436 0.635487 -0.619802 
0.319201 0.287522 0.047103 0.248283 0.122084 -0.960964 
0.247678 0.123717 -0.010988 -0.930273 0.274495 0.243404 
0.266624 0.151564 0.013058 0.0736631 0.79842 -0.597578 
0.031418 0.345867 -0.226539 -0.659236 0.620345 0.424947 
-0.071267 0.378877 -0.184268 0.726579 0.629548 -0.275233 
0.191732 0.342916 -0.089331 -0.473915 -0.697735 0.537187 
-0.017921 0.36259 -0.09345 -0.679203 -0.71297 -0.174229 
-0.224564 -0.395971 0.41262 -0.999446 0.0267437 0.019805 
-0.195366 -0.242151 0.329457 0.594213 -0.667463 -0.448781 
-0.191039 -0.320954 0.124289 0.12355 0.794631 0.594388 
-0.249009 -0.43866 0.438413 -0.0600064 0.695907 -0.715621 
0.25283 0.118685 -0.163233 -0.622415 0.490208 -0.610161 
0.376645 0.308689 0.064266 -0.323855 0.209995 -0.922508 
-0.377097 -0.301874 0.308106 0.926427 0.256849 -0.275248 
-0.021473 0.319156 -0.038056 -0.382039 -0.529106 -0.757689 
-0.166861 -0.3086 0.339431 -0.783979 0.425891 -0.451658 
-0.034979 0.115135 0.0447 -0.110717 -0.719383 -0.685734 
-0.104791 -0.059854 0.195969 -0.175324 0.200146 -0.963952 
0.183736 0.255398 -0.209372 -0.477638 -0.694677 0.537853 
-0.23646 -0.300417 0.341286 -0.606888 -0.0635478 -0.792243 
-0.120197 -0.157509 0.254066 -0.225838 -0.800563 -0.555065 
0.200563 0.089238 -0.227623 -0.845322 0.409765 -0.342816 
-0.18306 -0.087505 0.026828 0.778715 -0.404108 0.479895 
0.123527 0.029764 -0.16501 0.307929 0.476194 -0.823662 
0.12608 0.095374 -0.366796 0.455638 0.217694 0.863136 
-0.333112 -0.40012 0.422151 0.030845 0.635537 -0.771454 
0.141903 0.068284 -0.090987 -0.0874124 0.967763 0.236208 
-0.297041 -0.274881 0.346067 -0.220015 -0.696811 -0.682677 
-0.110562 0.313577 -0.146444 0.770711 -0.632378 0.0781208 
-0.21909 -0.004068 0.073121 0.930036 -0.0484458 0.36426 
-0.062602 -0.166775 0.157928 -0.649342 -0.328681 -0.685802 
0.17704 0.392892 -0.038018 -0.487334 -0.683312 0.543682 
-0.193279 -0.349954 0.237281 -0.772176 0.363876 -0.520901 
0.00616 0.129104 -0.14787 0.251042 0.67069 0.697963 
0.309552 0.106037 -0.24284 -0.308386 0.906439 0.288559 
0.246382 0.150361 -0.054518 -0.677537 0.662453 0.31953 
-0.405028 -0.323171 0.375091 0.80786 -0.552865 -0.204209 
0.044062 -0.009238 -0.08033 -0.529244 -0.379102 0.759067 
0.26692 0.267942 0.029397 0.418838 -0.905235 -0.071591 
0.0112 0.286134 -0.030877 0.330073 -0.449558 -0.83003 
0.124662 0.226243 -0.298982 -0.483282 -0.690568 0.538103 
0.22689 0.1937 0.051947 0.712303 0.186378 -0.676673 
0.046407 0.055837 0.053562 -0.838047 0.457607 -0.297109 
0.081951 0.249456 -0.306579 -0.474236 -0.695324 0.540023 
-0.265368 -0.278835 0.324723 0.495083 -0.679019 -0.542057 
0.154374 0.006715 -0.236668 -0.517134 0.765445 -0.382969 
0.085477 0.030433 -0.171745 -0.116555 0.911249 -0.395019 
0.196601 0.041876 -0.357556 0.427462 0.840292 0.333444 
-0.014696 0.389727 -0.111466 0.0444582 0.270878 -0.961586 
0.035262 0.329644 -0.078019 -0.388787 -0.746563 -0.539896 
0.109761 0.057983 -0.329042 -0.0382864 0.673897 0.737833 
-0.279179 -0.30126 0.207521 0.819042 -0.0481728 0.571708 
-0.10231 0.267402 -0.062678 0.277028 0.742975 -0.609298 
0.044815 0.24089 -0.349401 0.397151 -0.884191 0.245921 
0.025974 -0.018815 0.182977 -0.376085 -0.540882 -0.752334 
-0.213393 -0.355271 0.250075 -0.410648 -0.222852 -0.884141 
-0.067193 0.463463 -0.101638 0.156448 -0.649254 -0.744307 
0.106242 0.398338 -0.09297 -0.468442 -0.704641 0.532957 
0.221771 0.191753 -0.258097 -0.474543 -0.696685 0.537995 
-0.060346 -0.086844 0.219528 0.708051 0.535014 -0.460895 
-0.19061 -0.174854 0.257196 0.538154 -0.636161 -0.552892 
-0.131894 -0.068722 0.201109 -0.293532 -0.650681 -0.700324 
-0.065259 0.233719 -0.050983 0.780636 0.159011 -0.60442 
-0.048727 0.154489 -0.070204 0.338515 0.494346 0.800644 
0.071311 0.036536 -0.268384 0.865666 0.381086 -0.324648 
-0.178987 0.02836 0.132306 -0.212972 -0.68411 -0.697593 
-0.275606 -0.408181 0.220168 0.744696 0.164094 0.646917 
-0.020784 0.449468 -0.138684 -0.47704 -0.694319 0.538845 
-0.378132 -0.290594 0.306797 0.859336 -0.270889 -0.433775 
-0.053558 0.401015 -0.228036 -0.210868 0.228829 0.950354 
-0.260744 -0.372185 0.396489 -0.642567 0.256634 -0.721974 
0.09872 0.302486 -0.223354 -0.408528 -0.529205 0.743672 
-0.020256 -0.113336 0.217573 0.0362465 0.476228 -0.878575 
-0.062505 -0.019138 0.169914 -0.289034 -0.617546 -0.731503 
0.055397 0.086423 0.085236 0.420812 0.665902 -0.616029 
0.178146 0.349699 7.5e-05 0.536096 0.128536 -0.834314 
0.223277 0.108577 -0.364174 -0.502463 -0.647872 0.572532 
0.039448 -0.043105 0.160404 -0.894388 0.439732 0.0818898 
0.072155 0.368461 -0.131948 -0.0653653 -0.46181 -0.884567 
-0.043684 0.24123 -0.143752 0.65531 0.406207 0.636839 
-0.197214 -0.304441 0.365766 -0.338278 -0.535642 -0.773728 
0.078302 0.267004 -0.287131 -0.482135 -0.698865 0.528331 
0.14736 0.36934 -0.094253 -0.477634 -0.68532 0.54973 
0.213194 0.391337 -0.006273 -0.352141 -0.919565 -0.174347 
0.425925 0.258119 0.027331 -0.106075 -0.31973 -0.941552 
0.299115 0.324304 0.032351 0.613282 -0.409969 -0.675138 
-0.023887 -0.006705 0.130481 -0.39869 -0.0591201 -0.915178 
0.10151 -0.028659 -0.263634 -0.222042 0.952459 0.208612 
-0.249074 -0.372126 0.236522 -0.990913 -0.0797273 -0.108327 
0.152369 0.086927 -0.447135 0.559993 0.267067 0.784273 
-0.254929 -0.126876 0.224634 0.483208 -0.866892 -0.122506 
0.049405 0.106336 0.087093 -0.302146 -0.82065 -0.485017 
0.062489 0.323927 -0.228451 -0.483747 -0.738544 0.469618 
-0.110304 -0.212208 0.200229 0.291149 0.274709 -0.916388 
0.302985 0.337197 0.019209 0.6343 -0.706624 -0.313601 
-0.281491 -0.236095 0.16286 0.57487 -0.102901 0.811748 
-0.053636 0.302337 -0.042877 0.73168 -0.116375 -0.67164 
-0.302724 -0.305487 0.244875 0.313692 0.111558 0.942949 
-0.121706 -0.182614 0.099664 0.767719 0.0637727 0.637605 
0.0348 0.220081 -0.342378 0.813937 0.287048 0.505084 
0.099688 0.246591 -0.294677 -0.474065 -0.695437 0.540028 
0.135239 0.169832 -0.334765 0.929884 -0.176327 0.322838 
0.23374 0.111754 -0.350867 -0.511273 -0.661311 0.548878 
-0.183193 -0.120808 0.072046 0.710142 0.383876 0.590201 
-0.125767 0.076598 -0.012693 0.433304 -0.605041 0.667961 
-0.222168 -0.206318 0.148798 -0.452294 -0.0635337 0.889603 
-0.137513 -0.282606 0.297581 -0.662109 0.0636902 -0.746696 
0.302568 0.337865 0.01676 0.641665 -0.698409 -0.317003 
0.267167 0.154477 0.017589 0.185391 0.829894 -0.526219 
0.045496 0.072504 0.068026 -0.382223 0.3781 -0.843176 
0.169467 0.199509 -0.29409 -0.472802 -0.701335 0.533467 
-0.242143 -0.133555 0.18979 -0.175399 -0.679006 -0.712871 
0.050508 0.36058 -0.113613 -0.494648 -0.559928 -0.664684 
0.198153 0.090526 -0.103677 -0.357046 0.932159 -0.0599825 
0.327009 0.263927 -0.072331 -0.476598 -0.685784 0.550049 
0.084705 0.023995 -0.197191 -0.0807606 0.996676 0.0106971 
-0.28111 -0.353304 0.201313 0.710902 -0.588654 0.384844 
0.376503 0.225645 0.011124 -0.256482 0.6482 -0.716975 
-0.225556 -0.041873 0.117896 0.662768 0.513481 -0.545046 
-0.226519 -0.194353 0.306835 0.739122 0.639505 -0.211497 
0.027626 0.396815 -0.164091 -0.477225 -0.695626 0.536993 
0.042048 0.237503 -0.350466 0.789459 -0.610722 0.0614237 
-0.159242 -0.298529 0.32912 -0.939046 0.24163 -0.244555 
-0.317227 -0.271747 0.324636 -0.639311 -0.644484 -0.41943 
-0.19775 -0.100877 0.037952 0.76106 0.17573 0.624425 
-0.253026 -0.39943 0.22059 -0.796691 -0.157151 0.583599 
-0.266383 -0.449362 0.365238 -0.172842 -0.705369 -0.687445 
-0.223782 3.9e-05 0.120002 0.792692 -0.594402 -0.135371 
0.106467 -0.026402 -0.265912 -0.181796 0.910081 0.372428 
-0.357817 -0.427798 0.315982 0.52762 -0.126378 0.840027 
0.350196 0.321164 0.065791 -0.0896266 0.176803 -0.980157 
0.122887 0.307032 -0.026743 0.836525 -0.153795 -0.525902 
-0.192389 -0.053856 0.139533 0.749698 0.661573 -0.0165616 
0.198751 0.306155 -0.130625 -0.471549 -0.696345 0.54106 
-0.213361 -0.355521 0.250123 -0.410865 -0.219174 -0.884959 
0.30506 0.114768 -0.270111 0.0844433 0.584577 0.806932 
0.202102 0.156895 -0.320409 -0.482341 -0.690847 0.538589 
0.016878 0.100886 -0.20536 0.713067 0.205341 0.670351 
0.005781 0.424275 -0.147849 -0.550373 -0.635751 0.541212 
-0.045987 -0.113657 -0.056842 0.512646 0.316524 0.798127 
-0.001232 -0.020377 0.116921 0.506545 -0.547213 0.666311 
-0.087417 0.330595 -0.080743 0.860174 -0.509783 0.0149275 
-0.058762 0.108045 -0.083849 0.861691 0.143883 0.486607 
-0.156538 0.062819 0.082969 0.300285 -0.778164 -0.551625 
-0.277587 -0.328577 0.381904 -0.00677686 -0.98766 0.156464 
-0.147893 -0.197755 0.116934 0.594407 -0.30206 0.745278 
-0.297411 -0.331129 0.359283 -0.224889 0.439332 -0.86972 
-0.204978 -0.149698 0.135617 0.661946 -0.748944 -0.0301699 
0.159 0.204322 0.059929 0.743462 -0.2492 -0.620616 
-0.148643 0.065043 0.090308 0.110847 -0.869194 -0.481886 
-0.255473 -0.215797 0.155989 0.59668 0.00873872 0.802431 
0.007825 -0.101397 0.089286 -0.950134 0.3084 -0.0462143 
0.126357 0.102664 -0.358919 0.809574 -0.479763 -0.338256 
0.039967 0.382787 -0.171346 -0.457446 -0.68574 0.566131 
-0.12733 0.078638 -0.005285 0.586861 -0.753982 0.295138 
0.111834 0.308423 -0.204152 -0.469246 -0.836895 0.281806 
0.18171 0.098851 -0.066955 0.846068 0.488751 -0.212818 
-0.242799 -0.420463 0.444354 -0.0300672 -0.155458 -0.987385 
0.047475 0.204507 -0.327005 0.271159 0.591561 0.759295 
0.235147 0.342845 -0.051231 -0.511363 -0.628478 0.586109 
-0.095499 -0.12701 -0.02614 0.50807 -0.0439019 0.860196 
0.001445 0.17849 0.025023 0.278767 -0.824832 -0.491876 
0.339239 0.265401 0.016349 0.413681 0.518031 -0.748673 
0.049373 0.055231 -0.204108 0.0553336 0.620211 -0.782481 
-0.097098 0.447281 -0.208637 -0.292823 -0.687564 0.664462 
0.003057 -0.00822 -0.076902 0.503329 0.647494 -0.572199 
-0.361319 -0.266865 0.342989 0.831598 -0.501938 -0.237702 
0.26963 0.132927 -0.131204 -0.499577 0.862643 -0.0791779 
-0.086819 0.331642 -0.172482 0.575576 0.569611 0.586733 
-0.14469 -0.060721 0.004231 0.179701 0.348632 0.919871 
0.15811 0.166947 0.033431 0.605305 -0.438184 -0.664531 
-0.124926 -0.000204 0.152931 0.386977 -0.808937 -0.442572 
-0.133754 -0.164344 0.049373 0.560456 0.823285 -0.0899557 
0.063782 0.045781 -0.295757 0.896591 -0.360275 0.257539 
-0.34658 -0.24285 0.273137 0.919817 -0.360472 0.154908 
0.011929 0.339005 -0.252543 -0.470566 -0.694743 0.543966 
-0.190531 0.01802 0.048998 0.850587 -0.0653872 0.521753 
-0.063451 -0.043591 0.20955 0.475694 -0.809775 -0.343482 
0.177126 0.07794 -0.099486 0.617122 0.293311 -0.730157 
-0.032235 0.360679 -0.071018 0.053012 -0.0669451 -0.996347 
-0.040072 -0.069545 0.237414 -0.0262904 -3.21964e-18 -0.999654 
0.16312 0.151764 0.039535 0.510456 0.231623 -0.828122 
0.153773 0.048064 -0.165681 -0.467666 0.874119 -0.131164 
0.169189 0.147463 -0.361572 -0.394598 -0.728194 0.560381 
-0.20457 -0.26271 0.33662 0.620284 -0.240275 -0.74667 
-0.071865 -0.077257 0.213774 0.66405 0.353058 -0.659081 
-0.23764 -0.370582 0.19255 -0.223561 0.922768 0.313877 
0.371092 0.276398 -0.017462 -0.447846 -0.724359 0.524155 
-0.308187 -0.284407 0.356318 -0.232851 -0.654 -0.719767 
0.237364 0.028934 -0.375245 -0.107652 0.883369 -0.456146 
0.330459 0.167893 -0.127639 -0.174527 0.865082 -0.47029 
-0.360402 -0.380334 0.409468 -0.343391 -0.60398 -0.719229 
0.264746 0.196087 0.095445 0.508768 -0.0160315 -0.860755 
0.182151 0.380604 -0.049094 -0.413107 -0.845698 0.337843 
0.121463 0.130295 0.003233 -0.735722 -0.121121 -0.666366 
0.243255 0.103633 -0.17903 -0.480957 0.783796 -0.392866 
-0.399447 -0.417952 0.3548 0.949634 -0.0338982 0.311522 
0.169405 0.229182 0.040407 0.316818 -0.910381 -0.266144 
0.002831 -0.111987 0.156142 -0.770804 0.588946 0.242906 
-0.13684 -0.015525 0.050003 0.694308 -0.498564 0.519009 
-0.000706 0.329403 -0.067323 -0.634913 -0.505235 -0.584486 
0.184502 0.268132 -0.011109 -0.0230084 -0.312817 -0.949535 
-0.043622 -0.027306 0.185541 0.401854 -0.850016 -0.340567 
-0.001071 -0.122934 0.182725 -0.75771 0.646427 -0.0894871 
0.012127 0.06911 0.079676 -0.0613193 -0.178757 -0.981981 
0.038971 0.248908 -0.006332 0.209182 -0.0983272 -0.972921 
0.168771 0.369298 -0.075462 -0.48197 -0.693896 0.534989 
-0.062078 0.387581 -0.068957 -0.277801 -0.338155 -0.899154 
0.189422 0.046317 -0.363184 0.614737 0.78473 -0.0793481 
0.175497 0.009478 -0.275006 -0.897152 1.09869e-16 -0.441722 
0.141352 -0.006052 -0.259313 0.661818 0.588984 0.463783 
-0.016146 0.319648 -0.299178 0.768698 -0.448652 0.455867 
0.036014 0.130679 0.070149 0.336441 -0.506681 -0.793777 
0.036851 0.104144 -0.230083 0.631645 -0.0103709 0.775188 
-0.056015 0.292315 -0.045634 0.959063 0.0136193 0.282866 
-0.039515 -0.137204 0.042649 -0.902654 0.124484 -0.411971 
-0.17543 -0.295017 0.101964 -0.150796 0.531028 0.833828 
-0.072097 0.441925 -0.193562 -0.295726 -0.728034 0.618476 
-0.335745 -0.469733 0.348506 0.414455 0.674555 -0.610903 
-0.037267 -0.152503 0.121575 -0.724714 0.680615 -0.107482 
-0.037964 0.41942 -0.102637 -0.0247784 -0.149904 -0.98839 
-0.256448 -0.246572 0.154202 0.0029771 0.496741 0.867894 
-0.055515 0.124347 -0.085118 0.838616 -0.366595 0.402903 
-0.373525 -0.488365 0.287073 -0.0384165 0.546756 0.83641 
-0.004936 0.359693 -0.202609 0.195836 0.285756 0.938079 
0.024746 0.097669 0.071135 0.484916 0.41671 -0.768901 
-0.199782 -0.327267 0.282423 -0.801557 0.19015 -0.566876 
0.194255 0.090038 -0.41364 -0.471882 -0.695878 0.54137 
-0.129781 -0.247817 0.288874 -0.113328 -0.554843 -0.8242 
0.048741 0.135503 0.071173 0.450876 -0.783396 -0.427788 
0.121388 0.311013 -0.192403 -0.511764 -0.720019 0.46869 
-0.117101 0.312772 -0.080808 0.491672 -0.825762 -0.276362 
-0.112727 0.301903 -0.083329 0.980216 0.0709251 -0.184787 
0.310472 0.188697 -0.114183 -0.04026 -0.247996 -0.967924 
0.375582 0.237478 -0.047452 -0.486819 0.6013 0.633597 
-0.06954 0.230498 -0.073802 0.948744 0.169687 0.266629 
-0.342261 -0.364694 0.288687 0.75156 0.386931 0.534267 
-0.001918 -0.0747 -0.047037 -0.474978 -0.127167 0.870761 
0.121827 0.020594 -0.236275 0.263961 0.687403 -0.67661 
-0.018756 -0.140274 0.148981 -0.988438 0.145537 0.0425287 
-0.050755 -0.042389 -0.02333 -0.214632 0.759538 0.614032 
-0.184662 0.021411 0.038372 0.771151 0.056398 0.634149 
0.154457 0.012801 -0.287111 -0.0933695 0.0199612 0.995431 
0.01505 -0.015652 0.185515 -0.372946 -0.542151 -0.752983 
-0.167743 -0.253454 0.104368 0.542327 -0.268501 0.796108 
-0.046823 0.173368 -0.059709 0.865298 -0.453783 -0.212932 
0.016841 0.100127 -0.205046 0.727528 0.311783 0.611142 
-0.084525 0.229074 -0.103135 0.771304 -0.0200162 -0.636152 
-0.197962 -0.12419 0.088206 0.668564 -0.107314 0.735871 
-0.247704 -0.45247 0.35322 -0.918327 0.226181 -0.324835 
0.241707 0.122528 -0.329946 -0.452397 -0.701653 0.550472 
0.079138 0.015242 -0.270168 0.938984 0.323337 -0.117312 
0.009861 -0.071585 0.013617 -0.62387 -0.286445 -0.727142 
-0.226849 -0.241894 0.304365 -0.646945 -0.588964 -0.484339 
-0.42578 -0.355209 0.37207 0.642731 -0.100479 0.759474 
0.14582 0.302627 -0.181709 -0.508902 -0.667888 0.543088 
-0.272973 -0.363089 0.392512 0.81703 -0.469656 -0.334492 
0.242938 0.230138 -0.189912 -0.473671 -0.696651 0.538808 
-0.068 -0.114004 -0.047228 0.369405 0.367452 0.853533 
0.025142 -0.03577 0.084416 -0.589187 -0.138932 -0.795963 
0.243239 0.121873 -0.155095 -0.219434 0.287883 -0.932187 
0.07594 0.292986 -0.028899 -0.183494 -0.662884 -0.725889 
0.047941 0.0533 -0.205738 0.0168889 0.629341 -0.776946 
-0.069673 -0.143071 -0.03841 0.286611 0.583011 0.760231 
-0.141206 -0.208773 0.305294 -0.683602 -0.189122 -0.704926 
0.031416 0.380697 -0.181566 -0.45718 -0.696495 0.553066 
-0.059355 0.28739 -0.140782 -0.245497 -0.585346 0.772724 
0.149063 -0.010314 -0.250381 0.274662 0.694174 -0.665344 
-0.108803 -0.190838 0.100993 0.11547 0.891455 -0.438149 
-0.059796 0.497419 -0.111084 -0.394662 -0.818224 0.418032 
-0.079009 0.250588 -0.137842 0.330965 0.787274 0.520252 
0.165019 0.199577 -0.297915 -0.473598 -0.695408 0.540475 
-0.095117 0.029284 0.108038 0.411926 -0.906407 -0.0935102 
-0.050436 0.320386 -0.037372 0.446204 -0.233598 -0.863906 
-0.2756 -0.440699 0.374784 -0.85152 -0.199769 -0.484775 
0.063888 0.354761 -0.049043 0.559911 -0.621603 -0.547822 
-0.346707 -0.290233 0.284767 0.221378 0.255097 0.941232 
0.186075 0.069437 -0.435394 -0.597391 0.777364 0.197054 
0.239513 0.131453 0.021988 -0.716364 -8.77293e-17 -0.697727 
-0.213556 -0.335821 0.264163 -0.606706 0.570132 -0.553948 
-0.019802 -0.049803 0.226043 -0.219203 2.68446e-17 -0.975679 
0.309569 0.139451 -0.173336 0.131666 0.93392 0.33235 
-0.092103 -0.185024 0.061682 0.41395 0.771965 -0.482406 
-0.000613 0.416219 -0.163874 -0.48312 -0.690036 0.53893 
0.071893 0.348273 -0.041555 0.451164 -0.478584 -0.753265 
-0.070324 0.265084 -0.05377 0.762622 0.147496 -0.629804 
0.017393 0.417183 -0.122331 -0.605329 0.126552 -0.785851 
0.175252 0.008979 -0.274355 -0.881855 -0.132451 -0.452536 
0.002709 0.076217 -0.123817 0.307012 0.344635 0.887113 
0.206271 0.125493 -0.357289 -0.478046 -0.699703 0.53093 
0.108857 0.356434 -0.039573 -0.334774 -0.42113 -0.842956 
-0.31813 -0.469645 0.290567 -0.624424 0.774661 0.0999768 
-0.197544 0.006243 0.158762 0.0598282 -0.717897 -0.693574 
-0.168865 0.013118 0.14452 -0.308586 -0.612291 -0.727925 
-0.114425 -0.168451 0.24569 -0.945054 0.23692 0.225259 
-0.336044 -0.292736 0.359446 0.531447 -0.415635 -0.738114 
-0.044256 0.096774 0.052292 0.292948 -0.12974 -0.947285 
0.243263 0.078842 -0.384987 -0.395938 -0.717692 0.572845 
-0.320233 -0.422835 0.421481 0.43853 0.700131 -0.563478 
0.018628 0.320313 -0.05587 -0.166203 -0.9342 -0.315669 
-0.18889 -0.342513 0.364233 -0.820808 -0.571105 -0.0106349 
-0.035486 -0.033052 -0.025949 -0.572322 0.739112 0.355192 
-0.057994 0.299029 -0.157805 0.34513 0.567759 0.747352 
0.265732 0.202444 0.095573 0.153963 -0.0792811 -0.984891 
0.128092 0.227836 0.020771 0.378666 -0.227235 -0.897205 
0.262291 0.304049 -0.077451 -0.468102 -0.745377 0.474652 
-0.364221 -0.499659 0.296684 -0.240568 0.934084 0.263846 
0.125383 0.299128 -0.204236 -0.458675 -0.708048 0.536922 
-0.17182 -0.031259 0.057835 -0.0516532 0.206173 0.977151 
0.185039 0.261407 -0.200467 -0.46605 -0.699771 0.541404 
-0.367595 -0.42616 0.372676 0.509277 0.712456 -0.482746 
-0.042701 0.442948 -0.166382 -0.474783 -0.699915 0.533573 
0.353738 0.227114 -0.052171 -0.548501 0.554021 0.626265 
-0.028244 -0.075391 0.234886 -0.475101 0.239518 -0.846705 
-0.031156 -0.065004 0.236094 -0.305747 0.23631 -0.922321 
-0.048485 -0.142889 0.173228 0.475554 -0.210266 -0.854188 
0.177221 0.075028 -0.147927 -0.808927 0.514027 0.285329 
0.248566 0.099812 -0.21429 -0.464065 0.860601 0.209787 
0.026211 0.3264 -0.256257 -0.472057 -0.698835 0.537393 
0.385325 0.221192 0.004024 0.133953 0.915 -0.380568 
0.097171 0.048727 -0.160059 -0.740954 0.453029 -0.495734 
0.102539 0.227717 -0.31654 -0.489282 -0.698429 0.522303 
-0.214975 -0.269611 0.117819 0.509434 0.391163 0.766465 
-0.042914 -0.158126 0.061614 -0.774047 0.192791 0.603061 
-0.093516 -0.173812 0.127752 0.00163621 0.748601 0.663019 
-0.39508 -0.316478 0.369151 0.566264 -0.786372 0.24691 
0.04658 0.228282 -0.357955 0.0792761 0.55614 0.827299 
0.168342 0.248675 0.012483 0.437185 -0.66283 -0.607887 
0.093188 0.046764 -0.326745 -0.309046 0.698631 0.645295 
-0.243404 -0.375726 0.205591 -0.543578 0.83505 0.0849319 
-0.058399 0.308577 -0.043535 0.521201 0.403629 -0.751953 
-0.136916 -0.283902 0.264642 -0.598351 0.587752 0.54454 
0.08064 0.019973 -0.295753 0.218421 0.973626 -0.0659191 
-0.258627 -0.36456 0.390924 -0.938883 -0.343903 -0.0151754 
0.017434 0.214517 -0.254941 0.936052 0.226774 0.269037 
-0.120155 0.299975 -0.124528 0.656725 -0.737286 0.158501 
-0.034308 -0.128926 -0.047273 -0.447953 0.705538 0.549139 
-0.208489 -0.201717 0.309093 0.489609 -0.844023 -0.218881 
-0.162042 -0.159115 0.090288 -0.186675 0.323483 0.927637 
-0.103118 0.273268 -0.081922 0.389682 0.882365 0.263779 
-0.035975 -0.083246 0.233549 -0.352373 0.399417 -0.846345 
-0.054259 0.344707 -0.071712 -0.633534 0.200805 -0.747203 
-0.007645 0.119602 0.070697 0.445484 0.712213 -0.542492 
0.032126 0.01863 0.146078 0.500768 -0.618194 -0.605861 
0.055282 0.368433 -0.176407 -0.499127 -0.723265 0.477242 
-0.32788 -0.267767 0.330629 -0.363669 -0.767707 -0.527608 
-0.240522 -0.278693 0.325973 -0.603927 -0.287787 -0.74327 
-0.09879 -0.148596 0.167607 -0.79878 -0.168791 -0.57746 
0.357657 0.22875 0.009742 -0.213931 0.869947 -0.444327 
0.102034 0.013305 0.035396 -0.760198 0.223938 -0.609878 
0.073567 0.081758 0.081987 -0.597456 -0.244946 -0.763576 
-0.094809 -0.180827 0.167179 -0.785293 9.61706e-17 -0.619125 
-0.249159 -0.406331 0.236079 -0.992349 0.111308 -0.0534183 
-0.322155 -0.473785 0.329601 -0.357021 0.627273 0.692145 
-0.267486 -0.205194 0.177515 0.182834 -0.980512 0.0718905 
0.352783 0.216204 -0.006751 -0.0808816 0.29187 -0.953032 
0.234747 0.259426 -0.159299 -0.390315 -0.719273 0.574717 
0.231085 0.23423 -0.195053 -0.470781 -0.671874 0.571796 
0.056977 -0.008129 -0.028982 0.468349 0.710336 -0.525426 
-0.230819 -0.141471 0.223772 -0.562916 -0.0579462 -0.82448 
-0.245374 -0.35847 0.169969 0.0104817 0.679484 0.733616 
-0.293731 -0.150016 0.204484 0.778475 -0.625948 -0.0465335 
-0.00639 0.167383 0.008084 0.457191 -0.660271 -0.595834 
-0.002253 -0.071384 0.049147 -0.879254 0.212144 -0.426506 
-0.344588 -0.374569 0.29046 0.977193 -0.160876 0.138612 
-0.256095 -0.42161 0.222419 -0.682817 0.657349 0.31883 
-0.025746 0.18849 -0.016031 0.852681 -0.23083 -0.468672 
0.046677 0.079657 -0.267024 0.946908 -0.240469 0.213402 
-0.380567 -0.329267 0.351204 -0.113771 -0.747904 0.653984 
-0.353472 -0.454307 0.269134 0.94061 -0.319959 0.113483 
0.019037 0.40073 -0.166589 -0.470874 -0.697223 0.540516 
0.021513 0.086867 -0.137294 0.442795 0.793154 0.418138 
-0.028039 0.110423 -0.111708 0.350111 -0.385083 0.853893 
-0.068353 -0.098337 0.195275 0.624897 0.621593 -0.472363 
-0.329829 -0.329454 0.224667 0.818966 -0.174362 0.546711 
-0.030692 -0.139271 -0.011734 -0.603248 0.79646 0.0417669 
0.279301 0.16169 -0.246309 -0.412947 -0.707804 0.573139 
-0.007037 -0.123948 0.163747 -0.754861 0.611825 0.236336 
-0.056685 -0.128363 -0.045988 -0.249501 -3.0555e-17 0.968375 
0.270723 0.140057 -0.02275 -0.48565 0.766148 0.420904 
0.38597 0.219669 -0.010853 -0.0741067 0.980264 0.183276 
-0.080633 0.059507 0.012463 0.464822 -0.583899 -0.665584 
-0.060722 0.330388 -0.088352 0.773727 -0.611677 -0.164916 
0.244548 0.044729 -0.409201 0.486317 0.3099 0.816981 
0.346035 0.220501 -0.00465 0.0407933 0.582648 -0.8117 
-0.074382 0.331061 -0.084037 -0.371848 -0.653462 0.65933 
0.143819 0.361627 -0.029986 0.960873 0.218482 -0.170259 
0.389949 0.22866 -0.029195 -0.61176 0.690861 0.385306 
0.247113 0.064226 -0.334469 -0.820247 0.539969 -0.188753 
0.078796 0.282841 -0.266247 -0.201836 -0.738529 0.643302 
-0.24968 -0.389691 0.297927 -0.692893 0.680591 -0.238108 
-0.124997 0.299621 -0.091919 0.910577 -0.413242 -0.00896308 
0.054205 0.050909 -0.18021 0.98481 0.136832 0.106889 
-0.065702 0.378501 -0.17273 0.324021 0.783357 -0.530436 
-0.232844 -0.263443 0.322104 -0.0166268 0.512845 -0.85832 
0.014781 -0.082185 0.001451 -0.457286 0.865842 0.202997 
-0.048945 0.030244 -0.033552 0.540117 -0.242528 0.805887 
0.056208 0.103581 -0.262369 0.745628 -0.368597 0.555136 
-0.316387 -0.344779 0.413722 0.575712 -0.369915 -0.72919 
0.036741 0.018635 0.150082 0.44128 -0.668036 -0.599166 
-0.019239 -0.01394 0.156884 0.454736 -0.864397 0.214552 
-0.096529 0.019291 -0.007214 0.331968 0.43035 0.839402 
0.007632 -0.100873 0.200215 -0.762291 0.04524 -0.645652 
-0.110621 0.311253 -0.141073 0.51676 -0.643606 -0.564563 
-0.040357 -0.042546 0.218273 0.40056 -0.602947 -0.689932 
-0.047893 0.053328 -0.046733 0.54072 0.825654 -0.160989 
-0.100103 0.015024 0.14687 0.474309 -0.792669 -0.383024 
0.048751 0.18466 -0.294552 0.64535 0.547151 0.533056 
-0.295285 -0.23697 0.189309 0.917804 -0.161156 0.362856 
-0.078472 -0.158857 0.171783 1.13519e-16 -4.5946e-17 -1 
-0.220132 -0.383455 0.249811 -0.87715 0.465431 -0.118245 
0.310213 0.179007 0.048899 -0.913157 -0.301601 -0.274193 
-0.048206 0.373769 -0.210968 0.249663 0.754405 0.607076 
-0.011342 0.12448 0.073302 0.546129 0.654916 -0.52233 
-0.011777 0.454645 -0.124075 -0.485194 -0.697504 0.527329 
-0.171956 -0.292519 0.101692 -0.411396 0.649674 0.639278 
-0.04129 0.149431 0.042495 0.244324 -0.968742 0.0429551 
0.088887 0.380864 -0.038013 0.189105 0.410066 -0.892236 
-0.21642 -0.10693 0.184493 0.756736 -0.220891 0.61527 
-0.104757 0.423833 -0.186295 0.749096 -0.0253776 -0.661975 
0.009817 -0.055041 0.002246 -0.9552 -0.26629 -0.129162 
-0.048515 0.045699 -0.056994 0.495805 0.657683 -0.567125 
-0.16042 -0.302308 0.329912 -0.93247 0.260393 -0.250391 
-0.300785 -0.333064 0.387073 0.369423 -0.828891 0.420079 
0.274856 0.212492 -0.184621 -0.474828 -0.697625 0.536524 
0.098551 0.340134 -0.03396 0.16985 -0.303452 -0.937586 
0.059533 0.020006 -0.100339 -0.327635 0.830248 0.450936 
0.127785 0.011383 -0.186533 0.418761 0.578501 -0.699983 
0.416291 0.225087 0.001552 -0.397102 0.900349 0.177994 
0.015183 -0.096777 0.168666 -0.726299 0.566198 0.389756 
-0.175368 -0.146344 0.076961 0.0331484 0.995114 0.0930029 
0.049132 0.017007 0.114325 -0.696404 0.229734 0.679885 
-0.318418 -0.35457 0.269056 0.764695 0.476456 0.433857 
0.042663 0.339695 -0.224617 -0.469803 -0.70525 0.53095 
-0.052518 0.407295 -0.221058 -0.51016 -0.722988 0.46586 
-0.106219 0.320394 -0.073036 0.482753 -0.169065 -0.859282 
0.093113 0.384401 -0.122513 -0.507493 -0.442396 0.739417 
0.314577 0.159836 -0.120411 -0.346894 -0.104945 -0.932014 
-0.281904 -0.228478 0.165353 0.374588 0.0232622 0.9269 
-0.022 0.321345 -0.064803 -0.489994 -0.871562 -0.0168827 
0.18067 0.059279 -0.216039 -0.76365 0.336804 -0.550819 
0.032725 0.266858 -0.32741 -0.477143 -0.69792 0.534081 
-0.024474 0.25778 -0.169663 0.971625 0.129527 0.19791 
-0.203361 -0.278428 0.345362 0.574013 -0.243861 -0.781691 
-0.186944 -0.220528 0.10119 0.381219 -0.126325 0.915813 
0.224553 0.03611 -0.351486 -0.165265 0.985969 -0.0235171 
0.158338 0.015223 -0.212007 0.153437 0.89386 -0.421274 
0.023569 -0.049864 0.078026 -0.694042 0.717414 -0.0601935 
0.260117 0.084733 -0.363463 -0.636766 -0.649063 0.416229 
0.326712 0.219963 -0.12936 -0.426268 -0.54927 -0.718748 
-0.181452 -0.278398 0.100761 0.607127 -0.401193 0.685886 
-0.189872 -0.104836 0.140955 0.820687 -0.402451 0.405593 
0.193493 0.101249 -0.399836 -0.464902 -0.702136 0.539325 
-0.261138 -0.429177 0.394856 0.0872416 0.664543 0.74214 
-0.010466 -0.014347 0.182885 0.156544 -0.888183 -0.432001 
-0.206319 -0.370505 0.370793 -0.105403 0.845606 -0.523299 
0.134352 0.299818 -0.015535 0.510308 0.26806 -0.817147 
0.317658 0.191963 0.020424 0.478385 0.524048 -0.704643 
-0.232613 -0.163705 0.216921 -0.766161 0.350666 -0.538546 
-0.180624 -0.037738 0.055111 0.482753 0.195583 0.853638 
-0.070168 -0.13247 0.185385 -0.530663 0.826481 -0.187952 
-0.283895 -0.216473 0.191875 0.50692 -0.798479 -0.324752 
-0.118035 -0.223946 0.163095 -0.885541 0.46003 0.0647255 
-0.078822 0.062833 -0.063762 0.424713 0.645483 -0.634799 
-0.013675 0.143162 0.068761 0.203805 -0.559141 -0.803632 
0.0115 0.239123 -0.249283 0.0804428 0.730626 0.678022 
0.001723 -0.068535 0.213275 -0.690831 0.0966851 -0.716522 
0.291002 0.191316 0.068599 -0.82373 0.0878022 -0.560143 
0.112257 0.069485 0.020989 -0.810428 0.585135 0.0287058 
-0.253363 -0.230756 0.153375 0.361819 -0.69378 0.622701 
-0.143135 -0.034813 0.186698 0.071883 0.964727 -0.253248 
0.105819 0.431349 -0.04365 0.396415 -0.653805 -0.644511 
-0.029422 0.061392 0.052 0.741384 -0.616174 -0.265856 
-0.146825 -0.17913 0.08985 0.128224 0.388931 0.9123 
-0.322733 -0.212563 0.235594 0.878328 -0.382579 -0.286659 
0.106789 0.241129 0.008426 0.677241 0.0421617 -0.734552 
-0.215219 -0.267108 0.318266 0.964852 -0.124731 -0.231306 
-0.311709 -0.363066 0.424203 0.266302 -0.365156 -0.892045 
-0.068239 -0.180572 0.161203 -0.299944 0.163055 -0.939918 
0.225221 0.074792 -0.406088 -0.47533 -0.696383 0.537692 
0.007501 0.374496 -0.210613 -0.383367 -0.722241 0.575672 
0.070231 0.025577 -0.278641 0.748085 0.604086 -0.274679 
-0.095993 0.037568 0.095441 0.688445 -0.594994 -0.414759 
-0.042143 0.406974 -0.212343 -0.47424 -0.695457 0.539848 
-0.020433 0.04732 0.063746 0.711374 -0.585309 -0.38905 
-0.03021 0.017329 -0.098768 0.711431 0.211786 0.670084 
0.113236 0.310307 -0.200485 -0.586077 -0.667986 0.458593 
0.094668 0.001362 -0.037954 -0.689711 0.708501 -0.149414 
-0.045702 0.375938 -0.071445 -0.524677 -0.416021 -0.742725 
0.163963 0.212871 0.062238 0.265013 -0.964098 0.0168386 
0.064285 0.367324 -0.06524 0.757035 -0.55281 -0.34828 
-0.11071 0.014965 0.049281 0.238928 -0.947745 -0.211405 
0.152453 -0.000897 -0.24346 0.00538206 0.513976 -0.857788 
0.015838 -0.085142 0.081004 -0.804105 0.444105 0.395203 
-0.064076 0.084085 -0.064453 0.0676548 -0.508998 0.858105 
-0.090446 0.037149 0.100988 0.262312 -0.758355 -0.596733 
-0.366663 -0.322854 0.344505 0.733286 -0.679655 0.0190042 
0.14929 0.344906 -0.124097 -0.471947 -0.696271 0.540807 
-0.000593 -0.079068 0.124389 -0.998672 1.22302e-16 0.0515176 
0.014843 0.256982 -0.311567 0.954521 -0.121623 -0.272209 
-0.223949 -0.385075 0.351203 -0.641003 0.757789 -0.121949 
0.256666 0.2748 -0.120167 -0.469599 -0.701072 0.536633 
-0.188104 -0.207774 0.109073 0.722374 -0.619877 0.306478 
-0.066762 -0.178225 0.160606 -0.524656 -6.42518e-17 -0.851315 
0.285532 0.209572 0.075505 -0.662347 -0.0903845 -0.743725 
0.290593 0.130094 -0.180998 0.188236 0.244267 -0.951263 
0.262275 0.311545 -0.067787 -0.481603 -0.700512 0.526633 
0.003082 0.36172 -0.205716 -0.149018 0.296433 0.943356 
-0.183251 -0.125654 0.127175 0.799734 -0.574002 -0.175919 
-0.059578 0.472505 -0.143063 -0.42859 -0.624644 0.652786 
0.118591 0.2872 -0.030619 0.688268 -0.0587184 -0.723076 
-0.082696 0.063315 -0.02417 0.899271 -0.182742 0.397388 
0.07465 0.224665 -0.345835 -0.483876 -0.706323 0.516693 
0.004694 0.434262 -0.116051 -0.676289 -0.215086 -0.704536 
-0.131992 -0.06126 0.003355 0.14 0.486367 0.862466 
-0.066998 0.418536 -0.219276 -0.469372 -0.687519 0.554082 
-0.297448 -0.234412 0.194506 0.820699 -0.438625 0.366143 
-0.053943 -0.173273 0.060544 -0.902062 0.364661 -0.230881 
-0.368299 -0.387637 0.425141 0.506525 0.249325 -0.825391 
-0.315246 -0.356306 0.218126 0.1194 0.510657 0.851454 
-0.15702 -0.073097 0.0112 -0.0332704 0.443076 0.895866 
-0.081848 0.068424 -0.030264 0.967406 -0.054777 0.247235 
-0.314893 -0.358617 0.265103 0.925004 0.366245 -0.101156 
0.326028 0.19909 -0.156923 -0.478186 -0.691693 0.541201 
-0.026792 0.036393 -0.108061 0.359552 0.456057 0.814085 
-0.143531 -0.030131 0.203224 -0.081106 0.790258 -0.607383 
0.101664 0.1876 0.012736 -0.36657 -0.159627 -0.916595 
-0.141876 -0.217961 0.108471 -0.160244 -0.0740471 0.984296 
-0.182754 -0.203817 0.117863 0.566094 -0.712773 -0.414117 
-0.2317 -0.191452 0.305955 0.260752 0.337736 0.904402 
0.143061 0.26249 -0.007925 0.0875012 -0.965872 -0.243793 
0.048048 0.176764 -0.288366 0.197666 0.659188 0.725534 
0.340644 0.188681 -0.007669 -0.231954 0.815592 0.530101 
-0.218228 -0.011549 0.144994 0.944446 0.186713 -0.270482 
0.135408 0.304229 -0.188829 -0.558323 -0.707847 0.432698 
0.27887 0.281051 0.020276 0.806039 -0.46545 -0.365591 
-0.091402 -0.179017 0.006442 -0.296891 0.395708 0.869063 
0.137284 0.083238 -0.400093 0.925706 0.377269 0.0271228 
0.21087 0.113835 -0.105465 -0.117572 0.879985 -0.460221 
0.239094 0.156932 0.021027 -0.0736592 0.774506 -0.628263 
-0.273584 -0.140704 0.202293 -0.229861 -0.612504 -0.756308 
-0.011842 -0.158925 0.120218 -0.897277 -1.09885e-16 -0.441468 
-0.022461 0.04725 0.092302 0.574157 -0.765376 -0.290763 
0.189683 0.081905 -0.095316 -0.872037 0.325921 0.365141 
-0.296532 -0.402782 0.230769 0.10339 0.975168 0.19585 
0.184106 0.267185 -0.193825 -0.439456 -0.779929 0.445633 
-0.325874 -0.324624 0.358071 0.463663 0.756881 -0.460595 
-0.156588 0.007249 0.043245 -0.115158 -0.0207045 0.993131 
-0.060922 0.341193 -0.054991 -0.765403 -0.606043 -0.216497 
0.165448 0.013866 -0.230506 -0.33744 0.940638 -0.0365395 
0.23602 0.048324 -0.408528 -0.505144 0.779265 0.370913 
-0.086659 -0.161601 -0.013495 0.00447695 0.790907 0.611921 
-0.016875 0.403051 -0.195151 -0.529452 -0.650511 0.544533 
-0.184249 -0.266006 0.11696 0.888525 -0.410993 0.203981 
-0.094749 -0.189719 0.01974 -0.149062 0.757276 0.635857 
-0.058865 0.028919 0.088926 -0.780499 -0.0306723 -0.624404 
-0.046397 0.423282 -0.195026 -0.547295 -0.611138 0.571821 
0.202743 0.096826 -0.245048 -0.96897 -0.172524 0.177012 
0.061796 0.362148 -0.058443 0.812901 -0.491052 -0.313146 
-0.015045 0.179725 -0.004829 -0.0366858 0.0494996 -0.9981 
-0.055467 0.226073 -0.130385 0.03782 -0.115508 0.992586 
0.222125 0.16122 0.054945 0.833599 0.0619156 -0.548889 
-0.154668 -0.036446 0.053338 0.636146 -0.53973 0.55137 
-0.14995 0.0778 0.056276 -0.0496312 -0.968083 -0.245665 
0.117648 0.396286 -0.028819 -0.475964 0.316252 -0.820636 
-0.189107 -0.122859 0.207108 0.058408 -0.851837 -0.520541 
0.199814 0.05701 -0.284579 -0.763308 -0.546684 0.344233 
0.33072 0.275898 0.041304 0.151594 0.829111 -0.53814 
-0.102308 -0.206482 0.194895 -0.958239 -0.285969 -4.48282e-05 
0.428265 0.253178 0.001933 -0.34045 -0.827657 0.446182 
-0.22459 -0.387747 0.257517 -0.871862 0.219304 -0.437907 
-0.271593 -0.407974 0.277816 0.119868 0.527784 -0.840878 
-0.073105 0.070931 0.050386 0.914078 -0.295056 0.278216 
0.193503 0.109239 -0.159283 -0.61646 0.787032 -0.0236269 
0.138896 0.076432 -0.409257 0.810344 0.458625 0.3647 
0.117826 0.089402 -0.336908 0.646096 -0.676183 0.35403 
0.084204 0.293961 -0.247131 -0.48748 -0.718459 0.496166 
-0.059944 0.449286 -0.173377 -0.470391 -0.699608 0.537848 
0.176472 0.21071 0.071607 -0.406666 4.98022e-17 -0.913577 
-0.270505 -0.4262 0.430099 0.875138 0.357154 -0.326459 
0.216395 0.124118 -0.350161 -0.563596 -0.676629 0.473848 
-0.105788 -0.040655 0.211987 -0.481852 -0.69613 -0.532186 
-0.154222 -0.014806 0.159343 -0.133155 -0.727188 -0.6734 
0.211823 0.200606 -0.255415 -0.474931 -0.696282 0.538175 
0.243662 0.313098 -0.082163 -0.468334 -0.702952 0.535277 
-0.165582 -0.019762 0.185977 0.92514 -0.282869 -0.253181 
-0.069981 -0.028912 0.182415 0.119446 -0.787517 -0.604606 
0.075564 0.267562 -0.288818 -0.45618 -0.718292 0.525315 
0.131887 0.068031 -0.007994 -0.36387 0.203429 -0.908964 
-0.045958 0.164741 -0.040952 0.79123 -0.464105 -0.398198 
-0.177325 -0.075144 0.127404 0.267674 -0.539391 -0.798378 
-0.061741 0.375195 -0.06749 -0.297571 -0.389955 -0.871428 
0.114891 0.418642 -0.05914 -0.487951 -0.681389 0.545539 
0.268511 0.268701 0.058775 0.799821 -0.349872 -0.487725 
-0.094793 -0.167213 0.117139 0.591412 0.79613 0.128094 
-0.179301 -0.24816 0.126825 0.802567 -0.424425 0.419225 
0.19407 0.387555 -0.029636 -0.477193 -0.697636 0.534407 
0.130364 0.133935 -0.004311 -0.344327 0.277534 -0.896891 
-0.099025 -0.116718 -0.024857 0.75764 0.0482285 0.650888 
0.19403 0.400365 -0.011362 -0.427143 -0.901787 0.0657891 
0.234083 0.058641 -0.327471 -0.386174 0.459989 -0.79955 
-0.072008 0.133249 0.007017 0.55996 -0.722418 -0.405657 
-0.087373 -0.1605 0.216644 -0.740798 -0.151762 -0.654359 
-0.076132 -0.170106 0.093335 -0.503903 0.572407 0.646863 
-0.062832 -0.176584 0.142365 -0.843335 0.48504 -0.23135 
0.037592 0.0067 0.003951 -0.729325 0.146689 -0.668257 
0.244079 0.270156 -0.137236 -0.471333 -0.697032 0.540362 
-0.172086 -0.289524 0.244201 -0.953827 0.153553 -0.258138 
-0.140096 0.044257 0.103137 -0.259016 -0.963808 0.063133 
-0.251755 -0.403782 0.441474 0.155937 -0.377288 -0.912873 
0.191052 0.163505 0.049121 0.0218766 -0.138831 -0.990074 
0.272117 0.1967 0.090135 -0.713231 -8.73456e-17 -0.700929 
0.001728 0.339051 -0.236198 0.727328 -0.406748 -0.552766 
-0.04736 0.052278 -0.048402 0.558761 0.74221 -0.370013 
-0.203522 -0.316384 0.28727 -0.629842 0.763041 0.145149 
-0.173622 -0.023551 0.177563 0.77603 0.349169 -0.525222 
-0.040909 0.226649 -0.04008 0.088776 0.0501023 -0.994791 
0.111514 0.050801 0.023239 -0.942324 0.294488 -0.159065 
0.185601 0.175578 0.049842 0.225348 0.845299 -0.484446 
