0.38656279 0.55979991 0.62096530 0.00007189 -0.00003815 0.00004893
0.33398464 0.52972078 0.24983156 -0.00027415 0.00005295 -0.00007449
0.50000000 0.57828629 0.32488340 0.00000005 0.00027132 -0.00002739
0.33344236 0.52363175 0.48306859 -0.00018390 0.00021995 -0.00004526
0.33316857 0.52239335 0.53735900 -0.00015292 0.00016834 -0.00016025
0.63888848 0.41699472 0.84518874 0.00003776 -0.00023462 0.00046097
0.38267520 0.55708826 0.60382384 0.00006317 -0.00005223 0.00004343
0.60224807 0.59116513 0.50113606 0.00016568 0.00024399 -0.00004228
0.33390790 0.53095287 0.41364065 -0.00020425 0.00020334 -0.00004061
0.33491337 0.52127779 0.18666898 -0.00026983 0.00020930 -0.00017438
0.65049249 0.51377308 0.15545887 0.00013393 0.00029640 -0.00006491
0.66349953 0.40655696 0.55298489 0.00020397 -0.00018304 -0.00016514
0.61921763 0.55584592 0.59522992 -0.00005651 -0.00005034 0.00003200
0.33278310 0.50806320 0.84784853 -0.00038455 -0.00037238 0.00012322
0.61539847 0.55840522 0.61240268 -0.00006919 -0.00004697 0.00005040
0.65598935 0.46451381 0.12644543 0.00045387 -0.00020914 -0.00009423
0.50000000 0.46070680 0.91701657 -0.00000087 -0.00037527 0.00023766
0.33339280 0.53566456 0.58221227 -0.00010888 0.00019397 -0.00020387
0.65426588 0.54041487 0.38109750 0.00016284 0.00015809 -0.00004758
0.64907312 0.48313907 0.86931217 0.00017107 -0.00001438 0.00039400
0.50000000 0.50715089 0.10401774 0.00000015 0.00038755 -0.00009460
0.36335859 0.54459947 0.25449371 0.00013369 0.00029333 -0.00015683
0.40120101 0.52178574 0.14834751 -0.00003013 0.00034452 -0.00010113
0.47759494 0.52722996 0.16195269 -0.00009563 0.00023785 -0.00012453
0.41581675 0.55138302 0.81360412 0.00012105 0.00004304 0.00049826
0.50000030 0.59449899 0.38732526 0.00000016 0.00030439 -0.00001669
0.58984852 0.40799853 0.85019290 0.00010552 -0.00041415 0.00009287
0.65957654 0.53792739 0.32358119 0.00026899 0.00010771 -0.00006187
0.66935462 0.40689534 0.29564226 0.00026286 -0.00022635 -0.00019120
0.63085169 0.55448681 0.28824785 -0.00010664 0.00034337 -0.00018633
0.33292070 0.51241475 0.84853226 -0.00040222 -0.00047713 0.00010771
0.33399424 0.40715417 0.72827673 -0.00022950 -0.00028936 0.00010614
0.34787580 0.49529004 0.12322202 -0.00034869 0.00017839 -0.00027159
0.50000000 0.58731252 0.65489125 -0.00000017 0.00024358 -0.00010362
0.66939008 0.40689832 0.28958699 0.00026146 -0.00021978 -0.00015271
0.50000000 0.59486169 0.39767268 0.00000014 0.00029474 0.00005190
0.60837883 0.43772122 0.87869895 0.00008825 -0.00020128 0.00031039
0.66558397 0.53661919 0.32325336 0.00033753 0.00011869 -0.00006235
0.33997956 0.40676293 0.18055485 -0.00027061 -0.00027659 -0.00015955
0.65302187 0.50560629 0.13042690 0.00033582 0.00033022 -0.00021284
0.66616386 0.55813766 0.71663749 0.00012970 0.00028082 -0.00001874
0.46764234 0.59438866 0.39009520 -0.00003026 0.00030212 -0.00003910
0.66289359 0.40653282 0.51820916 0.00020528 -0.00018548 0.00000798
0.34402800 0.40667745 0.15657121 -0.00027599 -0.00031217 -0.00024926
0.63353199 0.55003893 0.27291799 -0.00015749 0.00034543 -0.00016685
0.59180182 0.56968313 0.72042239 -0.00011147 0.00018223 0.00036365
0.66796070 0.48197240 0.84290284 0.00039717 -0.00010899 0.00013971
0.61369455 0.57950056 0.37997994 0.00015347 0.00027506 -0.00015945
0.66567177 0.53616261 0.34059465 0.00031731 0.00012551 -0.00009164
0.39822865 0.56812006 0.66307849 0.00007071 0.00009014 0.00011607
0.33334777 0.52548009 0.85033607 -0.00043543 -0.00038758 0.00009833
0.35216126 0.40647161 0.11509646 -0.00042944 -0.00036519 0.00002733
0.32967806 0.40499371 0.24839927 -0.00031766 -0.00022624 -0.00008785
0.66631883 0.55249262 0.66376895 0.00014064 0.00024245 -0.00010177
0.58534569 0.55421907 0.80097163 -0.00011586 0.00007432 0.00044643
0.37756199 0.56735772 0.33414540 -0.00011052 0.00026081 -0.00023803
0.61636579 0.55773729 0.60811520 -0.00006644 -0.00004997 0.00004704
0.37527391 0.56399560 0.32191622 -0.00007873 0.00026873 -0.00024300
0.33381942 0.52956319 0.42755660 -0.00019557 0.00021320 -0.00003462
0.33932078 0.40660799 0.43588573 -0.00018282 -0.00026825 -0.00006361
0.33686256 0.40653804 0.53124118 -0.00020322 -0.00019080 -0.00005456
0.66518360 0.52960604 0.22371742 0.00025744 0.00016469 0.00004614
0.33372030 0.55429822 0.67694896 -0.00014884 0.00025180 -0.00008202
0.50000000 0.53596121 0.18616176 -0.00000001 0.00021230 -0.00017583
0.65703219 0.40670094 0.16255081 0.00026649 -0.00030065 -0.00026556
0.66112268 0.40658352 0.44886258 0.00018898 -0.00026847 -0.00004650
0.61251962 0.58106339 0.38609159 0.00014335 0.00028314 -0.00014767
0.67712718 0.46141079 0.52768093 0.00033068 -0.00002831 -0.00004889
0.66400301 0.42062834 0.52707034 0.00020180 0.00003818 -0.00003453
0.41784415 0.54641199 0.83459967 0.00008578 0.00013755 -0.00002931
0.41280556 0.55870402 0.77986211 0.00010173 0.00015249 0.00023202
0.39548492 0.48321804 0.92148411 -0.00026400 -0.00019260 0.00026844
0.33818436 0.40677646 0.37360635 -0.00016594 -0.00025594 -0.00007973
0.66186392 0.55163997 0.85889179 0.00036639 0.00015500 0.00011087
0.65243119 0.50766474 0.13669726 0.00028583 0.00033599 -0.00016483
0.33334291 0.52218729 0.49688527 -0.00018078 0.00020744 -0.00004546
0.33331776 0.52183586 0.50033432 -0.00017876 0.00020589 -0.00005428
0.40414435 0.57893890 0.65628123 -0.00005864 0.00008831 0.00016825
0.39162117 0.43772122 0.87869895 -0.00009059 -0.00019809 0.00031260
0.65905821 0.40674362 0.17454338 0.00026562 -0.00028344 -0.00021259
0.64555889 0.55137175 0.88226449 0.00008662 0.00016547 0.00019897
0.66650307 0.54204953 0.60813242 0.00010935 0.00021052 -0.00015014
0.66573215 0.55465233 0.83294648 0.00024266 0.00021567 0.00006319
0.66152674 0.40656382 0.46184686 0.00019234 -0.00026555 -0.00003699
0.37014645 0.54979038 0.54337138 -0.00001276 0.00007059 -0.00002676
0.44695714 0.40891266 0.85864073 -0.00005654 -0.00035337 0.00014739
0.56081367 0.52676964 0.16286589 0.00008160 0.00026154 -0.00010438
0.40674850 0.57305187 0.69908863 0.00006816 0.00017543 0.00027057
0.38557711 0.55909264 0.61668622 0.00007014 -0.00004404 0.00004864
0.63623458 0.54686463 0.50854880 0.00004491 0.00017113 0.00000411
0.65851092 0.53855258 0.33686507 0.00025681 0.00010978 -0.00007702
0.40652931 0.57427013 0.68782496 0.00003069 0.00015454 0.00023526
0.33523381 0.40678898 0.64906645 -0.00020041 -0.00028495 -0.00001638
0.33424431 0.40708265 0.71503240 -0.00021971 -0.00028739 0.00003986
0.66476619 0.40678898 0.64906639 0.00020022 -0.00028489 -0.00001734
0.33264980 0.40688470 0.24104612 -0.00027007 -0.00019383 -0.00004650
0.59268367 0.57173878 0.70762825 -0.00008723 0.00018355 0.00029343
0.50000000 0.56406087 0.27531573 0.00000003 0.00022689 -0.00012538
0.42270887 0.40896380 0.85454071 -0.00008128 -0.00037218 0.00013614
0.33377424 0.52884287 0.43451092 -0.00019243 0.00021743 -0.00003888
0.59909326 0.57006967 0.67136562 -0.00006115 0.00011654 0.00014103
0.38865516 0.58261269 0.39220414 -0.00014658 0.00028510 -0.00015201
0.36235109 0.54276186 0.24834441 0.00011977 0.00027600 -0.00014657
0.50000000 0.54990017 0.95019001 -0.00000204 0.00028747 0.00051417
0.66979963 0.51280624 0.52781725 0.00023703 0.00010601 -0.00010743
0.46799278 0.52711493 0.16218102 -0.00012233 0.00024432 -0.00010833
0.66678399 0.52048051 0.51410794 0.00017001 0.00019898 -0.00009453
0.33395121 0.53161567 0.40668023 -0.00021130 0.00019670 -0.00004785
0.64009762 0.53811485 0.23295180 -0.00010707 0.00026333 -0.00007531
0.63405877 0.54914004 0.26984954 -0.00015792 0.00033952 -0.00016530
0.38395831 0.57633507 0.36775813 -0.00015395 0.00026735 -0.00017461
0.37119046 0.40650359 0.08441996 -0.00031512 -0.00028995 -0.00035613
0.50000000 0.59159291 0.37470183 0.00000011 0.00028549 -0.00007881
0.38934124 0.52932459 0.17573650 -0.00010658 0.00028886 -0.00011062
0.50000000 0.42028454 0.87522644 -0.00000143 -0.00022204 0.00030926
0.44700694 0.40696627 0.05316464 -0.00014507 -0.00016757 -0.00043449
0.66907018 0.40688661 0.30773619 0.00026335 -0.00023454 -0.00021225
0.34824762 0.54130280 0.40317485 -0.00011543 0.00019253 -0.00001126
0.33709088 0.40679041 0.36767858 -0.00018600 -0.00025416 -0.00006988
0.38571826 0.57871419 0.37692434 -0.00015552 0.00027219 -0.00016373
0.64663398 0.44761714 0.10567348 0.00032961 0.00029375 -0.00023992
0.35802108 0.53434312 0.22061588 0.00012067 0.00028909 0.00000625
0.65014595 0.51478136 0.15857886 0.00011756 0.00028715 -0.00005508
0.50000000 0.59564865 0.44914803 -0.00000020 0.00026705 -0.00002387
0.50000000 0.57914698 0.74039412 -0.00000175 0.00021467 -0.00000908
0.62458897 0.53691483 0.20985201 -0.00014175 0.00033512 -0.00006568
0.64534020 0.40639895 0.10339219 0.00043685 -0.00034341 -0.00011587
0.34987813 0.54184878 0.41640502 -0.00008630 0.00021921 0.00000041
0.62920946 0.55711806 0.29743704 -0.00003879 0.00031597 -0.00020668
0.67275620 0.44017714 0.24844661 0.00036707 0.00030089 -0.00007485
0.33515894 0.42408559 0.52714729 -0.00021658 0.00008677 -0.00003482
0.61136669 0.56128001 0.62948698 -0.00007809 -0.00001757 0.00006051
0.33609045 0.51100850 0.17420399 -0.00031274 0.00007164 -0.00009857
0.33405662 0.53315276 0.38927650 -0.00023513 0.00017664 -0.00006842
0.33854222 0.49456340 0.15512845 -0.00043469 -0.00007917 0.00007655
0.66550130 0.53666812 0.30595034 0.00033195 0.00012452 -0.00004194
0.66165304 0.40655833 0.46617669 0.00019320 -0.00026309 -0.00003457
0.50000000 0.56312424 0.86536777 -0.00000150 0.00019269 0.00014868
0.62302697 0.55085105 0.91000402 0.00034231 0.00018898 -0.00008585
0.66844094 0.40773830 0.81706369 0.00041374 -0.00030647 0.00026846
0.64780742 0.54261321 0.43402347 0.00005976 0.00024415 -0.00000443
0.33151090 0.40687409 0.31980315 -0.00026043 -0.00023958 -0.00018596
0.35542595 0.40877876 0.83382589 -0.00006694 -0.00037765 0.00033544
0.65473771 0.54023725 0.37667841 0.00017192 0.00015269 -0.00005483
0.60300094 0.59199232 0.47087610 0.00015693 0.00027863 -0.00008792
0.50000000 0.50491631 0.09796812 0.00000026 0.00038437 -0.00016053
0.36849689 0.54898614 0.53468305 -0.00003626 0.00008766 -0.00002003
0.32887325 0.49486905 0.24897040 -0.00036058 -0.00024965 0.00001360
0.65984404 0.40665933 0.41427243 0.00015861 -0.00026523 -0.00007765
0.63193274 0.55271697 0.28211823 -0.00013727 0.00035091 -0.00017559
0.62754458 0.55972099 0.30662063 0.00001951 0.00029054 -0.00022475
0.33457598 0.53625792 0.28869489 -0.00031151 0.00010931 -0.00010427
0.40319443 0.47629616 0.92568594 -0.00015082 -0.00027129 0.00037186
0.66564369 0.40682778 0.34981200 0.00022680 -0.00024883 -0.00005435
0.35101545 0.54222447 0.42521757 -0.00007142 0.00023326 0.00000070
0.50000000 0.59286851 0.56922621 0.00000015 0.00025056 -0.00010693
0.50000000 0.55565834 0.24754980 0.00000002 0.00021644 -0.00014053
0.58766985 0.40684524 0.06519253 0.00033939 -0.00020679 -0.00034410
0.39019293 0.45809755 0.90148276 -0.00023536 -0.00026830 0.00016953
0.66432780 0.40667686 0.61404383 0.00019624 -0.00028421 -0.00005735
0.64378500 0.53052402 0.20825854 -0.00011046 0.00030978 -0.00000738
0.33423567 0.55548197 0.82630378 -0.00019066 0.00023748 0.00005613
0.37232262 0.55096602 0.90456843 -0.00029667 0.00017513 -0.00007447
0.50000000 0.59258574 0.57494104 0.00000016 0.00025007 -0.00010918
0.50000000 0.52977812 0.16783310 -0.00000002 0.00022833 -0.00015427
0.60734922 0.43957457 0.88106394 0.00007166 -0.00021087 0.00029322
0.33342022 0.53734517 0.58867419 -0.00010828 0.00019825 -0.00018958
0.33306092 0.51676780 0.84917498 -0.00041903 -0.00047713 0.00009916
0.66643614 0.52549279 0.46575719 0.00018718 0.00022453 -0.00005780
0.66583592 0.42751688 0.52721977 0.00023666 0.00013488 -0.00003662
0.41174853 0.56125116 0.76716477 0.00010709 0.00016843 0.00023562
0.50000000 0.56950259 0.29387328 0.00000004 0.00023517 -0.00011447
0.67786497 0.47536024 0.52772641 0.00034651 -0.00013189 -0.00004878
0.40374807 0.40679482 0.06882961 -0.00026064 -0.00021696 -0.00038274
0.65012187 0.54184878 0.41640502 0.00008654 0.00021917 0.00000056
0.65813422 0.53875190 0.34129190 0.00024928 0.00011268 -0.00007823
0.59149981 0.56897491 0.72468299 -0.00011698 0.00017889 0.00038487
0.39705247 0.44688961 0.89045107 -0.00004542 -0.00023931 0.00022057
0.34620675 0.45383608 0.11809097 -0.00045284 0.00000476 -0.00010814
0.35270754 0.45361724 0.10777903 -0.00029729 0.00018231 -0.00028108
0.66760898 0.49501559 0.84555447 0.00037208 -0.00016469 0.00014539
0.50000000 0.57305896 0.30626526 0.00000005 0.00025055 -0.00007474
0.41140476 0.56207651 0.76292729 0.00011049 0.00016891 0.00025920
0.66665030 0.53304040 0.57254338 0.00011198 0.00018625 -0.00022405
0.40482843 0.47859192 0.92869103 -0.00013829 -0.00028057 0.00041099
0.64469194 0.54366130 0.45600674 0.00004206 0.00025488 -0.00003137
0.33441603 0.53661919 0.32325336 -0.00033751 0.00011873 -0.00006229
0.50000000 0.59541506 0.48918399 -0.00000016 0.00025849 -0.00003695
0.33468330 0.40695223 0.68859637 -0.00020920 -0.00028515 0.00004478
0.40463436 0.57785118 0.66485643 -0.00003384 0.00010888 0.00017702
0.64422411 0.52956188 0.20516562 -0.00009722 0.00030755 -0.00002730
0.35030946 0.47452644 0.11533307 -0.00028224 -0.00010150 -0.00036859
0.33394906 0.55948329 0.75315577 -0.00007940 0.00029828 -0.00000643
0.60161877 0.59027457 0.52274287 0.00017384 0.00020720 0.00003837
0.66509408 0.52219045 0.19001622 0.00026248 0.00021452 -0.00016790
0.66623157 0.55618989 0.69346142 0.00014896 0.00026491 -0.00005162
0.33694130 0.50495780 0.16689946 -0.00035817 0.00000021 -0.00001196
0.67149192 0.49097759 0.24889596 0.00035235 -0.00018794 0.00000528
0.32705003 0.44800431 0.24847911 -0.00035767 0.00033176 -0.00006940
0.66582519 0.55690235 0.81301105 0.00011596 0.00028879 0.00003681
0.33606300 0.40660465 0.58348000 -0.00019499 -0.00027024 -0.00010275
0.65577364 0.54399502 0.28655219 0.00016432 0.00024273 -0.00011324
0.62950826 0.43041384 0.86370897 0.00025707 -0.00022840 0.00034695
0.33678600 0.40654081 0.53558743 -0.00020336 -0.00018895 -0.00007844
0.36556694 0.56515825 0.36442474 -0.00028138 0.00019156 -0.00007442
0.56333917 0.59399807 0.39923990 -0.00000107 0.00033567 -0.00009588
0.45198917 0.52692312 0.16256148 -0.00009370 0.00025416 -0.00009901
0.58045137 0.54221296 0.85134107 -0.00007066 0.00021344 -0.00050013
0.65246630 0.49824408 0.12438005 0.00035304 0.00022713 -0.00026089
0.33134493 0.41216499 0.82306737 -0.00045202 -0.00023066 0.00031945
0.50000000 0.44028115 0.89689362 -0.00000080 -0.00030234 0.00025396
0.66139627 0.40656987 0.45751789 0.00019140 -0.00026711 -0.00003946
0.59325153 0.57305187 0.69908863 -0.00006635 0.00017587 0.00025701
0.66467834 0.51692170 0.18166862 0.00028126 0.00014758 -0.00015645
0.50000000 0.54499918 0.21373157 0.00000001 0.00018427 -0.00023895
0.33905363 0.40678087 0.18657543 -0.00027615 -0.00027019 -0.00010450
0.52503002 0.40878230 0.86135662 0.00002392 -0.00035286 0.00014985
0.60105836 0.58937943 0.54002059 0.00018125 0.00016883 0.00010532
0.33349341 0.52983975 0.85085398 -0.00043959 -0.00034349 0.00009970
0.42615500 0.40896010 0.85522550 -0.00007544 -0.00036709 0.00013948
0.64403957 0.54388702 0.46039751 0.00003992 0.00025419 -0.00003436
0.67107892 0.50954098 0.52780604 0.00026776 0.00007631 -0.00009803
0.59906089 0.58569944 0.59178752 0.00018760 0.00002733 0.00018336
0.34193847 0.40672299 0.16854176 -0.00026355 -0.00029130 -0.00025134
0.33471343 0.53385460 0.25436264 -0.00027178 0.00009338 -0.00010170
0.66657978 0.53734517 0.58867419 0.00010766 0.00019861 -0.00018977
0.33379683 0.52920485 0.43103412 -0.00019378 0.00021547 -0.00003601
0.36086944 0.53998268 0.23911232 0.00010638 0.00026195 -0.00011158
0.38167781 0.55073273 0.91539061 -0.00028692 0.00020463 0.00002506
0.62997943 0.55102193 0.90183121 0.00025873 0.00016887 -0.00004359
0.33500108 0.40685672 0.66661763 -0.00020387 -0.00028472 0.00003160
0.33886534 0.53677207 0.30143327 -0.00025554 0.00011784 -0.00005301
0.59527338 0.45750427 0.90419120 0.00001263 -0.00031198 0.00015015
0.33329242 0.52148902 0.50378120 -0.00017626 0.00020504 -0.00006468
0.40472665 0.45750427 0.90419120 -0.00001733 -0.00031836 0.00013572
0.38689288 0.58028364 0.38303569 -0.00014872 0.00027869 -0.00015394
0.62317437 0.43936437 0.87601030 0.00024178 -0.00021228 0.00031733
0.50000000 0.47939122 0.07458849 0.00000050 0.00001443 -0.00045398
0.50000000 0.40921941 0.04913265 0.00000000 0.00002121 -0.00032790
0.33997875 0.40664801 0.41859365 -0.00016536 -0.00026602 -0.00007757
0.34854105 0.40656891 0.13278189 -0.00039845 -0.00039534 0.00015391
0.66632879 0.55200124 0.66047859 0.00013804 0.00024011 -0.00010546
0.37530804 0.55253655 0.56936127 0.00004581 0.00001091 -0.00000820
0.57905239 0.40688673 0.06178230 0.00034280 -0.00019994 -0.00034382
0.50000000 0.50153852 0.08890292 0.00000041 0.00036858 -0.00027436
0.41954866 0.54221296 0.85134107 0.00006904 0.00021382 -0.00050112
0.33313861 0.51952881 0.52441227 -0.00016531 0.00017901 -0.00011803
0.65862674 0.47823206 0.13857424 0.00048209 -0.00018074 0.00001708
0.33724323 0.50291002 0.16450325 -0.00037581 -0.00002050 0.00001968
0.50000000 0.54990011 0.95454550 -0.00000196 0.00028015 0.00065573
0.66540921 0.53611618 0.28525025 0.00030913 0.00009829 -0.00012398
0.33947793 0.40661716 0.43156159 -0.00017964 -0.00026780 -0.00007111
0.50000000 0.51811665 0.13433990 -0.00000002 0.00027434 -0.00012973
0.66658241 0.52326572 0.48652565 0.00018340 0.00021736 -0.00004141
0.39121500 0.55049044 0.92603058 -0.00014899 0.00024570 0.00030457
0.65923423 0.48157027 0.14176860 0.00048228 -0.00015120 0.00004647
0.60841274 0.58642679 0.40749043 0.00014923 0.00030279 -0.00013266
0.66634893 0.55097139 0.65390372 0.00013255 0.00023561 -0.00011202
0.33245626 0.40754375 0.79033339 -0.00035985 -0.00033380 -0.00002664
0.66520470 0.53073722 0.23050380 0.00025503 0.00014578 0.00001177
0.41007206 0.56525958 0.74595296 0.00012264 0.00016622 0.00037298
0.36753109 0.55182743 0.27905229 0.00014852 0.00035185 -0.00017115
0.37851346 0.57661313 0.41037378 -0.00033764 0.00011129 -0.00006974
0.66343105 0.40655214 0.54863369 0.00020422 -0.00018214 -0.00014617
0.58729488 0.59330475 0.41370955 -0.00004335 0.00037657 -0.00012629
0.33728182 0.40653190 0.50952679 -0.00020748 -0.00017832 0.00003617
0.65301955 0.45020172 0.11545923 0.00046182 0.00008194 -0.00010334
0.38642809 0.55061215 0.92073160 -0.00021199 0.00022639 0.00016824
0.59209985 0.57037985 0.71615970 -0.00010452 0.00018439 0.00033927
0.35465983 0.40639895 0.10339219 -0.00043686 -0.00034342 -0.00011589
0.49039784 0.52738351 0.16164830 -0.00004202 0.00023160 -0.00014637
0.60258877 0.59157908 0.48816836 0.00016248 0.00026001 -0.00007906
0.66522688 0.53175879 0.23730421 0.00025672 0.00012889 -0.00002883
0.35019499 0.55145442 0.87653035 -0.00013785 0.00015395 0.00018102
0.34698039 0.45020172 0.11545923 -0.00046183 0.00008195 -0.00010334
0.62535954 0.55090904 0.90729260 0.00032938 0.00018216 -0.00009245
0.66656643 0.53816468 0.59190983 0.00010767 0.00020062 -0.00018277
0.65143359 0.48937273 0.12093018 0.00033479 0.00007671 -0.00030000
0.66615820 0.52991760 0.42407843 0.00019754 0.00021087 -0.00003404
0.35462564 0.43558317 0.10152304 -0.00038579 0.00022876 -0.00022584
0.58457518 0.55234057 0.80939615 -0.00012227 0.00004670 0.00051031
0.33806291 0.53599429 0.28814191 -0.00025518 0.00009946 -0.00011024
0.33348468 0.54130113 0.60488212 -0.00010938 0.00020830 -0.00015527
0.45393401 0.40888718 0.85951591 -0.00005750 -0.00035272 0.00014703
0.62557417 0.55204195 0.56503779 -0.00004054 0.00002360 -0.00001394
0.66585386 0.55749428 0.80636191 0.00009441 0.00029352 0.00007872
0.35340324 0.40643609 0.10923525 -0.00043047 -0.00035592 -0.00004471
0.35365897 0.52470720 0.18967846 -0.00000734 0.00026187 -0.00013287
0.35530806 0.54366130 0.45600674 -0.00004234 0.00025424 -0.00003170
0.62975943 0.55624413 0.29437461 -0.00006260 0.00032630 -0.00019952
0.44327286 0.59411609 0.39659417 -0.00005446 0.00032131 -0.00007050
0.66542399 0.53625792 0.28869483 0.00031147 0.00010945 -0.00010392
0.64946949 0.40874475 0.83172816 0.00014254 -0.00035452 0.00032724
0.50000000 0.56635755 0.84269100 -0.00000152 0.00017042 0.00006055
0.33373898 0.40687019 0.22891127 -0.00027632 -0.00019825 -0.00000422
0.41583627 0.40896749 0.85307157 -0.00009750 -0.00038494 0.00012701
0.33816344 0.48303708 0.85197669 -0.00031771 -0.00009831 0.00021674
0.58925366 0.46428910 0.91302025 -0.00003085 -0.00030264 0.00021963
0.33318666 0.52342594 0.54053909 -0.00014915 0.00016691 -0.00017363
0.33359912 0.54812473 0.63750333 -0.00012060 0.00022503 -0.00012426
0.38513121 0.57792443 0.37386885 -0.00015620 0.00027009 -0.00016753
0.50000000 0.59536624 0.42054993 -0.00000010 0.00028208 0.00015198
0.40075400 0.58606392 0.58747840 -0.00018821 0.00003593 0.00018265
0.66454488 0.40672904 0.63154221 0.00019784 -0.00028498 -0.00004740
0.33379734 0.55712610 0.70338649 -0.00014204 0.00027204 -0.00003150
0.33324161 0.52081090 0.51066804 -0.00017140 0.00020240 -0.00008533
0.39587831 0.52527815 0.16046096 -0.00003181 0.00031718 -0.00013134
0.33365873 0.52699405 0.45188141 -0.00018841 0.00022396 -0.00005530
0.33417487 0.55690235 0.81301105 -0.00011513 0.00028808 0.00003887
0.50000000 0.58326179 0.70051712 -0.00000127 0.00023406 -0.00005855
0.48719710 0.52734512 0.16172440 -0.00005606 0.00023262 -0.00014183
0.40850019 0.56897491 0.72468299 0.00011661 0.00017984 0.00037983
0.34296781 0.40670094 0.16255081 -0.00026649 -0.00030066 -0.00026563
0.66715419 0.40745267 0.77699941 0.00029989 -0.00031704 0.00001936
0.35134995 0.46558285 0.11205824 -0.00026829 -0.00003762 -0.00034912
0.50000000 0.50379384 0.09494514 0.00000034 0.00038062 -0.00019685
0.66808277 0.40686649 0.32582450 0.00025704 -0.00024156 -0.00015993
0.63564152 0.48319814 0.88619298 0.00034363 0.00010515 0.00023070
0.33436391 0.53639096 0.33365417 -0.00032731 0.00012125 -0.00008127
0.34961149 0.48047397 0.11755013 -0.00030343 -0.00005887 -0.00034935
0.50000000 0.57241267 0.79727340 -0.00000164 0.00017198 0.00008024
0.65378380 0.54059201 0.38551542 0.00015408 0.00016328 -0.00003925
0.35621497 0.53052402 0.20825854 0.00011050 0.00030977 -0.00000745
0.38045445 0.57148743 0.34942585 -0.00013495 0.00026198 -0.00020779
0.67224318 0.50624019 0.52779561 0.00029519 0.00004503 -0.00008980
0.35999700 0.40635961 0.09027714 -0.00042980 -0.00030888 -0.00029915
0.33425164 0.55507720 0.82962543 -0.00021524 0.00022536 0.00006086
0.33191723 0.40686649 0.32582450 -0.00025706 -0.00024160 -0.00015996
0.38404781 0.55067271 0.91806656 -0.00024808 0.00021577 0.00009730
0.35632145 0.41744930 0.09542716 -0.00043632 -0.00008927 -0.00026522
0.42526948 0.40690434 0.06017009 -0.00032175 -0.00019673 -0.00035453
0.50000000 0.48318657 0.07613936 0.00000050 0.00007604 -0.00043353
0.36969310 0.55536699 0.29131159 0.00008620 0.00033600 -0.00019263
0.59787643 0.58328813 0.61761951 0.00015719 0.00000892 0.00019114
0.65027159 0.40653804 0.12687054 0.00042180 -0.00038226 0.00015911
0.33340666 0.53651178 0.58544171 -0.00010846 0.00019617 -0.00019673
0.63792408 0.48319092 0.88340861 0.00029209 0.00008651 0.00028522
0.50000000 0.59363812 0.55207962 0.00000011 0.00025209 -0.00010063
0.63334185 0.48320436 0.88896632 0.00038146 0.00010433 0.00018194
0.63231444 0.54860312 0.53033435 0.00004564 0.00009753 -0.00001532
0.35878578 0.55128062 0.88793176 -0.00009192 0.00017306 0.00015654
0.34186581 0.53875190 0.34129190 -0.00024934 0.00011263 -0.00007832
0.33330411 0.53029442 0.56290466 -0.00012064 0.00017455 -0.00023613
0.65734851 0.53913909 0.35014343 0.00023132 0.00012076 -0.00007963
0.33664519 0.41714054 0.52698892 -0.00019278 -0.00001212 -0.00003341
0.66651529 0.54130113 0.60488206 0.00010886 0.00020859 -0.00015592
0.64551032 0.52665788 0.19587797 -0.00003825 0.00028440 -0.00009718
0.50000000 0.57312912 0.79159069 -0.00000166 0.00017604 0.00007388
0.36038378 0.53905028 0.23603268 0.00010543 0.00026145 -0.00009416
0.61027789 0.56205362 0.63372809 -0.00007966 -0.00000565 0.00006325
0.50000000 0.53900540 0.19534148 -0.00000000 0.00020380 -0.00019207
0.66596413 0.53286076 0.39275721 0.00022985 0.00018091 -0.00006549
0.58592403 0.46758050 0.91730869 -0.00005599 -0.00030781 0.00025760
0.62290156 0.55357313 0.57799816 -0.00004989 -0.00001653 0.00000586
0.62810194 0.55885649 0.30356002 0.00000257 0.00029772 -0.00021902
0.61472404 0.40892345 0.84481043 0.00001115 -0.00045736 0.00015373
0.47848925 0.40876070 0.86154950 -0.00001709 -0.00035383 0.00014931
0.39908978 0.58912992 0.54433870 -0.00018306 0.00015822 0.00011878
0.40057230 0.58641773 0.58316833 -0.00018832 0.00004514 0.00018152
0.64394188 0.42047837 0.09643365 0.00042656 -0.00003586 -0.00026182
0.61442286 0.55909264 0.61668622 -0.00007191 -0.00004211 0.00005329
0.33131388 0.43842781 0.83158857 -0.00050408 0.00010697 0.00030164
0.66438204 0.40668917 0.61841607 0.00019661 -0.00028455 -0.00005396
0.33393401 0.54293662 0.85215271 -0.00044905 -0.00009897 0.00010676
0.39955389 0.58831978 0.55728883 -0.00018860 0.00012374 0.00014655
0.64018941 0.48318273 0.88061303 0.00023597 0.00005736 0.00034030
0.45352435 0.59425783 0.39329976 -0.00007810 0.00030840 -0.00005137
0.64631128 0.44461289 0.10462853 0.00035008 0.00033617 -0.00021748
0.67423421 0.49954239 0.52777696 0.00033940 -0.00002471 -0.00007211
0.42618629 0.50345892 0.09505583 -0.00017464 0.00021703 -0.00039772
0.58173662 0.54538077 0.83878982 -0.00008227 0.00015631 -0.00013994
0.50000000 0.58537686 0.67771053 -0.00000070 0.00024046 -0.00008279
0.32204250 0.46833646 0.52771235 -0.00033455 -0.00009212 -0.00004890
0.65667981 0.46799856 0.12937598 0.00046193 -0.00023871 -0.00007561
0.50000000 0.55976188 0.88802141 -0.00000159 0.00027182 0.00002617
0.33664855 0.50699008 0.16931544 -0.00034202 0.00002360 -0.00004144
0.34112304 0.40672410 0.39267573 -0.00011147 -0.00026131 -0.00009058
0.67299742 0.45191780 0.24849777 0.00034934 0.00029663 -0.00006565
0.50000000 0.56588906 0.28149748 0.00000004 0.00022772 -0.00012799
0.49966797 0.44751993 0.06160739 -0.00000057 0.00038069 -0.00028020
0.62582487 0.53751165 0.21298736 -0.00016475 0.00033908 -0.00006593
0.33064538 0.40689534 0.29564226 -0.00026288 -0.00022639 -0.00019125
0.60122049 0.40895534 0.84881645 0.00010015 -0.00043829 0.00010119
0.33777192 0.40653864 0.48783943 -0.00020129 -0.00021679 0.00002808
0.50000000 0.42691451 0.88266820 -0.00000111 -0.00018746 0.00035864
0.37049809 0.53920567 0.22242665 0.00018986 0.00033759 -0.00007580
0.39663377 0.59224874 0.45358360 -0.00013295 0.00030647 -0.00012060
0.64971632 0.43528366 0.10575585 0.00049970 0.00019428 -0.00013544
0.63390982 0.54787362 0.52162856 0.00005595 0.00012119 -0.00000533
0.40131983 0.58493853 0.60040271 -0.00018280 0.00001384 0.00018781
0.41542479 0.55234057 0.80939615 0.00012110 0.00004669 0.00050982
0.36428189 0.56397039 0.35983706 -0.00024756 0.00022430 -0.00008084
0.65124822 0.48312527 0.86645603 0.00019028 -0.00003005 0.00036693
0.49109101 0.40700161 0.04568971 0.00000915 -0.00003974 -0.00043942
0.66672778 0.52839714 0.55649626 0.00012887 0.00016683 -0.00023060
0.67638451 0.45798692 0.52765733 0.00033320 0.00001659 -0.00004852
0.34856644 0.48937273 0.12093018 -0.00033476 0.00007671 -0.00030004
0.66618055 0.52956319 0.42755660 0.00019582 0.00021308 -0.00003453
0.39947054 0.40676603 0.07072533 -0.00020099 -0.00022508 -0.00041405
0.62318695 0.40656668 0.08155768 0.00025163 -0.00028439 -0.00039577
0.33556882 0.51496589 0.17916372 -0.00029000 0.00012233 -0.00014125
0.38863328 0.56128001 0.62948698 0.00007554 -0.00002027 0.00005445
0.65454608 0.45743278 0.12080073 0.00044932 -0.00006935 -0.00010654
0.40750414 0.59306866 0.41836581 0.00001227 0.00037476 -0.00012977
0.39631417 0.59235042 0.43629315 -0.00011014 0.00033933 -0.00014313
0.59609497 0.57946604 0.65199125 0.00007032 0.00007842 0.00016298
0.39084491 0.56285006 0.63795650 0.00007868 0.00000505 0.00006313
0.33517697 0.40680522 0.65345168 -0.00020118 -0.00028488 -0.00000439
0.38220292 0.57392603 0.35859221 -0.00014558 0.00026471 -0.00018836
0.66609448 0.40717900 0.73269552 0.00023299 -0.00029012 0.00013833
0.33406699 0.48299208 0.84608710 -0.00036959 -0.00010879 0.00016519
0.33483642 0.52836192 0.21694568 -0.00026280 0.00018556 0.00005462
0.66773129 0.49066782 0.84470993 0.00037746 -0.00013333 0.00014545
0.47119352 0.52715331 0.16210487 -0.00011563 0.00024220 -0.00011304
0.60172147 0.59251040 0.42901877 0.00008046 0.00035514 -0.00014443
0.66606176 0.55944991 0.74983233 0.00008501 0.00029750 -0.00001393
0.65527809 0.46099189 0.12358627 0.00044936 -0.00014424 -0.00010313
0.33567217 0.40667686 0.61404383 -0.00019639 -0.00028433 -0.00005630
0.63664132 0.54459947 0.25449371 -0.00013374 0.00029344 -0.00015678
0.36698911 0.51817739 0.89485455 -0.00011535 -0.00073468 0.00008084
0.60479772 0.40673468 0.07266837 0.00014065 -0.00023696 -0.00044794
0.65181220 0.50971204 0.14295928 0.00023037 0.00032934 -0.00012772
0.32928857 0.40889639 0.24839970 -0.00032852 -0.00015441 -0.00008762
0.66565388 0.53628415 0.33712378 0.00032262 0.00012313 -0.00008765
0.63421762 0.42370579 0.85445786 0.00016080 -0.00020647 0.00042208
0.62585950 0.56229538 0.31579942 0.00005764 0.00027614 -0.00023789
0.50000000 0.57095224 0.80863553 -0.00000161 0.00016605 0.00008070
0.50000000 0.58986610 0.62064099 0.00000016 0.00024676 -0.00012129
0.65188843 0.55149209 0.87363720 0.00017252 0.00015282 0.00016683
0.66660714 0.52290273 0.48998082 0.00018279 0.00021390 -0.00003860
0.66665232 0.52548009 0.85033607 0.00043605 -0.00038566 0.00009801
0.33174008 0.46892586 0.83990180 -0.00044038 -0.00009372 0.00013878
0.35431892 0.43859586 0.10255349 -0.00037851 0.00028163 -0.00021515
0.33650050 0.40655696 0.55298489 -0.00020406 -0.00018320 -0.00016455
0.66759688 0.40685809 0.33183682 0.00025202 -0.00024344 -0.00012862
0.66449046 0.40671521 0.62716526 0.00019739 -0.00028491 -0.00004994
0.57885092 0.59360957 0.40752530 -0.00008289 0.00037127 -0.00013291
0.50000000 0.58486474 0.68341339 -0.00000085 0.00023925 -0.00007821
0.66488069 0.40682185 0.65783852 0.00020183 -0.00028476 0.00000799
0.34697807 0.50560629 0.13042690 -0.00033580 0.00033023 -0.00021286
0.59632313 0.57211900 0.67961353 -0.00004764 0.00013841 0.00017775
0.40298492 0.58146465 0.63481647 -0.00011104 0.00003707 0.00017576
0.55837607 0.53154957 0.94767332 -0.00017985 -0.00018091 0.00060485
0.63311672 0.54823244 0.52598292 0.00005241 0.00010850 -0.00001030
0.57381368 0.50345892 0.09505583 0.00017451 0.00021689 -0.00039780
0.64151537 0.53529060 0.22370180 -0.00011664 0.00028043 -0.00001092
0.33439898 0.40703729 0.70621270 -0.00021517 -0.00028644 0.00002647
0.67032194 0.40499371 0.24839927 0.00031764 -0.00022621 -0.00008782
0.63955659 0.56036234 0.34608045 0.00017829 0.00028579 -0.00010972
0.46454594 0.40699068 0.04901565 -0.00000478 -0.00009522 -0.00045481
0.33172029 0.40770468 0.81260276 -0.00041441 -0.00030856 0.00023676
0.64588565 0.55420458 0.32317144 0.00015181 0.00029575 -0.00013569
0.60520911 0.44325292 0.88577425 0.00004999 -0.00022776 0.00025696
0.64830667 0.46259585 0.11097952 0.00027016 0.00001106 -0.00033560
0.60607791 0.58941680 0.41972661 0.00013503 0.00032278 -0.00013306
0.66620272 0.55712610 0.70338649 0.00014324 0.00027215 -0.00003301
0.33090883 0.40690121 0.27139714 -0.00026279 -0.00018778 -0.00018206
0.33384180 0.52991760 0.42407843 -0.00019729 0.00021100 -0.00003410
0.39053208 0.48322222 0.91615236 -0.00031445 -0.00014180 0.00019475
0.50000000 0.46532375 0.92135662 -0.00000088 -0.00034388 0.00029398
0.66499889 0.40685672 0.66661757 0.00020367 -0.00028469 0.00003187
0.36386800 0.54551369 0.25756681 0.00014065 0.00030307 -0.00015993
0.64000291 0.40635961 0.09027714 0.00042979 -0.00030887 -0.00029913
0.61310709 0.58028364 0.38303569 0.00014908 0.00027886 -0.00015350
0.66782457 0.40760675 0.79923409 0.00037490 -0.00031394 0.00009414
0.33443296 0.53666323 0.31978944 -0.00033870 0.00011926 -0.00005338
0.50000000 0.55279362 0.23831353 0.00000002 0.00020387 -0.00017704
0.59384334 0.45922431 0.90642715 0.00000268 -0.00030722 0.00016665
0.65595841 0.40869495 0.82881182 0.00024226 -0.00033164 0.00032366
0.37189803 0.55885649 0.30356002 -0.00000252 0.00029775 -0.00021904
0.66703248 0.40742320 0.77255934 0.00028896 -0.00031146 0.00008888
0.50000000 0.42088726 0.05288175 0.00000028 0.00032042 -0.00024814
0.33594823 0.40662280 0.59220523 -0.00019493 -0.00027808 -0.00008883
0.33439884 0.53655887 0.32671887 -0.00033519 0.00011888 -0.00006968
0.38500869 0.58203858 0.43340707 -0.00029394 0.00014129 -0.00009367
0.59978068 0.58709371 0.57454520 0.00019326 0.00006951 0.00016875
0.44878852 0.52688473 0.16263762 -0.00008707 0.00025638 -0.00009832
0.61832219 0.55073273 0.91539061 0.00028918 0.00020470 0.00002402
0.33144361 0.45151201 0.83537167 -0.00050044 0.00006608 0.00021581
0.33873835 0.40657645 0.45318985 -0.00019034 -0.00026814 -0.00004244
0.65934467 0.40674660 0.38541591 0.00011469 -0.00025946 -0.00009070
0.43343386 0.59393144 0.40070269 0.00003908 0.00034537 -0.00011060
0.66604000 0.55949849 0.75647962 0.00007765 0.00029933 0.00000031
0.66909111 0.40690121 0.27139714 0.00026277 -0.00018776 -0.00018202
0.50000000 0.43249851 0.05682129 0.00000046 0.00053456 -0.00018689
0.62070632 0.56984532 0.34331429 0.00012658 0.00026057 -0.00022171
0.61758834 0.57989341 0.42418841 0.00031218 0.00012851 -0.00008257
0.65038848 0.48047397 0.11755013 0.00030345 -0.00005887 -0.00034932
0.38563585 0.48322421 0.91078836 -0.00036138 -0.00009018 0.00012999
0.63864070 0.54091209 0.24219084 -0.00010978 0.00026486 -0.00012671
0.40334308 0.45576924 0.90193784 -0.00002691 -0.00031524 0.00013085
0.40880632 0.56825507 0.72894138 0.00012050 0.00017581 0.00039544
0.67795748 0.46833646 0.52771235 0.00033441 -0.00009175 -0.00004907
0.37355232 0.55156255 0.56071091 0.00003263 0.00003417 -0.00002038
0.66627979 0.55429822 0.67694890 0.00014854 0.00025222 -0.00008324
0.61679041 0.48322427 0.90809351 0.00037514 -0.00006678 0.00011212
0.34719411 0.50119501 0.12554641 -0.00035558 0.00027368 -0.00025280
0.36528784 0.40883830 0.83779192 0.00011864 -0.00042699 0.00033680
0.63071746 0.53973782 0.22558409 -0.00018629 0.00033310 -0.00008163
0.66212553 0.49876794 0.15977250 0.00040721 -0.00005546 0.00005712
0.50000000 0.57655817 0.31867337 0.00000005 0.00026616 -0.00003612
0.33847329 0.40656382 0.46184686 -0.00019237 -0.00026568 -0.00003689
0.41233006 0.40684524 0.06519253 -0.00033942 -0.00020685 -0.00034412
0.39945135 0.45048007 0.89508545 -0.00004807 -0.00026439 0.00017462
0.33358839 0.54750937 0.63422996 -0.00011854 0.00022328 -0.00012629
0.39672074 0.59219933 0.45790660 -0.00014059 0.00029910 -0.00010647
0.50000000 0.42476383 0.05417445 0.00000037 0.00040408 -0.00022450
0.50000000 0.59062099 0.60921925 0.00000017 0.00024757 -0.00012147
0.63900769 0.55123216 0.89074153 0.00011633 0.00017275 0.00011698
0.33389622 0.55913687 0.73654497 -0.00010070 0.00029173 -0.00001969
0.45137948 0.40697414 0.05199667 -0.00011075 -0.00015579 -0.00044559
0.60176635 0.44869089 0.89277411 0.00004619 -0.00025370 0.00019569
0.58233106 0.51002145 0.11259366 0.00013719 0.00027650 -0.00023002
0.50000000 0.44252592 0.89919156 -0.00000084 -0.00033415 0.00022426
0.33449870 0.53666812 0.30595040 -0.00033195 0.00012452 -0.00004189
0.39719918 0.59180546 0.47952244 -0.00015847 0.00027067 -0.00008951
0.33215132 0.48632017 0.84382588 -0.00038682 -0.00011787 0.00014272
0.63469392 0.54752630 0.51727140 0.00005589 0.00013588 -0.00000095
0.40254700 0.58239812 0.62622064 -0.00013624 0.00001978 0.00018298
0.66567725 0.40705970 0.71062154 0.00021677 -0.00028692 0.00002544
0.67243087 0.43235070 0.24842474 0.00036588 0.00019782 -0.00007897
0.65140969 0.44281921 0.11043841 0.00049101 0.00021935 -0.00008916
0.50000000 0.59562266 0.44342837 -0.00000018 0.00026916 -0.00000129
0.59486037 0.57671881 0.67342502 0.00000946 0.00012796 0.00018326
0.36322016 0.55118185 0.89353585 -0.00014427 0.00017103 0.00007640
0.33451459 0.53662443 0.30249524 -0.00032771 0.00012533 -0.00004509
0.66569865 0.55374217 0.83958620 0.00030169 0.00019661 0.00007245
0.67324430 0.44781631 0.52755576 0.00035293 0.00021235 -0.00004567
0.66604882 0.53161567 0.40668017 0.00021152 0.00019658 -0.00004785
0.47842360 0.59444970 0.38852394 0.00000529 0.00030202 -0.00003209
0.45576021 0.40698075 0.05091377 -0.00007660 -0.00014008 -0.00045300
0.65121895 0.54148293 0.40758634 0.00010507 0.00020189 -0.00000569
0.66588217 0.53397638 0.37883544 0.00025261 0.00016361 -0.00007813
0.35237256 0.45661297 0.10884005 -0.00028497 0.00012165 -0.00030134
0.62600034 0.40653583 0.08298251 0.00028322 -0.00028737 -0.00037586
0.43306601 0.40894914 0.85649586 -0.00006597 -0.00035972 0.00014411
0.53592294 0.59436160 0.39077410 0.00004470 0.00030288 -0.00004135
0.33456096 0.53637910 0.29214174 -0.00031459 0.00011756 -0.00008572
0.66416359 0.40664297 0.60093623 0.00019523 -0.00028181 -0.00007586
0.54862046 0.40697414 0.05199667 0.00011083 -0.00015561 -0.00044551
0.66593397 0.55880582 0.78640813 0.00006723 0.00029671 0.00012392
0.33362025 0.54930961 0.64405692 -0.00012535 0.00022879 -0.00011971
0.66363508 0.50900698 0.17175052 0.00032675 0.00004722 -0.00007107
0.61134481 0.58261269 0.39220414 0.00014750 0.00028532 -0.00015041
0.50000000 0.58422142 0.34664896 0.00000003 0.00026760 -0.00008614
0.33963993 0.40662694 0.42723823 -0.00017572 -0.00026726 -0.00007688
0.36914831 0.55448681 0.28824785 0.00010676 0.00034344 -0.00018625
0.39217210 0.58717942 0.41054884 -0.00014577 0.00030755 -0.00013169
0.32802123 0.42452693 0.24841090 -0.00035855 0.00008637 -0.00008356
0.36435851 0.48319814 0.88619298 -0.00034214 0.00010753 0.00023254
0.65975809 0.48305741 0.85490000 0.00028873 -0.00008692 0.00024807
0.39812011 0.59066105 0.51410127 -0.00016952 0.00022449 0.00000027
0.38889706 0.58519268 0.44724938 -0.00026808 0.00016494 -0.00009882
0.41766888 0.51002145 0.11259366 -0.00013716 0.00027653 -0.00023010
0.66613418 0.55871582 0.72658712 0.00011662 0.00028659 -0.00001836
0.39158723 0.58642679 0.40749043 -0.00014811 0.00030284 -0.00013349
0.64696115 0.45061862 0.10672358 0.00031231 0.00024125 -0.00026018
0.66518521 0.40691260 0.67979944 0.00020669 -0.00028483 0.00004890
0.33431861 0.55325669 0.84290487 -0.00033314 0.00018666 0.00008022
0.66702962 0.40684876 0.33783939 0.00024525 -0.00024526 -0.00009701
0.61242020 0.56052881 0.62523282 -0.00007607 -0.00002780 0.00005709
0.33787969 0.40654153 0.48350492 -0.00019855 -0.00023404 0.00000220
0.34301549 0.54268932 0.28197685 -0.00017835 0.00021398 -0.00012981
0.66609347 0.55924195 0.73986584 0.00009797 0.00029343 -0.00002140
0.34544316 0.54529440 0.29112798 -0.00015321 0.00026452 -0.00010009
0.50000000 0.56714505 0.83701843 -0.00000153 0.00016798 0.00005098
0.61662745 0.57553536 0.36470282 0.00015176 0.00026630 -0.00017920
0.62985355 0.54979038 0.54337138 0.00001275 0.00007079 -0.00002610
0.44238704 0.52680802 0.16278982 -0.00008112 0.00026023 -0.00010049
0.33418965 0.55657685 0.81633508 -0.00013020 0.00027879 0.00003570
0.33583638 0.40664297 0.60093629 -0.00019536 -0.00028195 -0.00007535
0.61192328 0.48322347 0.91347456 0.00033215 -0.00011877 0.00017044
0.36135924 0.54091209 0.24219084 0.00010977 0.00026478 -0.00012672
0.34972835 0.40653804 0.12687054 -0.00042181 -0.00038227 0.00015909
0.40049225 0.48321196 0.92678565 -0.00020774 -0.00024109 0.00035277
0.36007610 0.54538548 0.48669729 -0.00003614 0.00022654 -0.00001723
0.50000000 0.41587943 0.87012404 -0.00000152 -0.00026263 0.00025564
0.50320071 0.52746022 0.16149607 0.00001385 0.00023113 -0.00015213
0.38982922 0.58414847 0.39831764 -0.00014985 0.00029046 -0.00014566
0.33429167 0.53587735 0.34753987 -0.00030560 0.00013126 -0.00009442
0.65938687 0.54005879 0.27282688 0.00020546 0.00015906 -0.00014054
0.63185596 0.56751138 0.37360373 0.00033503 0.00013803 -0.00006991
0.66590822 0.55844533 0.79306000 0.00007199 0.00029572 0.00012720
0.39361951 0.55042946 0.92866546 -0.00012157 0.00025432 0.00037051
0.50000000 0.55942827 0.25987965 0.00000003 0.00022553 -0.00011816
0.42048690 0.50788230 0.10672213 -0.00015435 0.00025208 -0.00028209
0.50000000 0.59465325 0.52349472 0.00000002 0.00025459 -0.00007581
0.33377805 0.55651873 0.69676846 -0.00014667 0.00026721 -0.00004357
0.35206068 0.42759359 0.10142908 -0.00047890 0.00006865 -0.00020960
0.59656250 0.58048731 0.64340681 0.00008991 0.00005775 0.00016614
0.58877295 0.41310859 0.85641885 0.00008938 -0.00033613 0.00018057
0.64831865 0.51978004 0.17415071 0.00008816 0.00023562 -0.00012153
0.66543895 0.53637910 0.29214174 0.00031456 0.00011765 -0.00008555
0.37857604 0.40890002 0.84260583 0.00005704 -0.00045517 0.00021243
0.33320349 0.52112287 0.84977639 -0.00043053 -0.00042490 0.00009678
0.33623701 0.55166042 0.85588378 -0.00040417 0.00015320 0.00011121
0.33478430 0.53126150 0.23390229 -0.00025578 0.00013654 -0.00000869
0.36007908 0.41550237 0.84312677 -0.00005115 -0.00026226 0.00043710
0.41427583 0.55514014 0.79675514 0.00011076 0.00009206 0.00039578
0.33259022 0.40751293 0.78588647 -0.00034060 -0.00033514 -0.00006779
0.33489814 0.52307069 0.19336782 -0.00025805 0.00021987 -0.00015361
0.62927103 0.56983393 0.38278770 0.00036871 0.00010230 -0.00007082
0.33484602 0.52769649 0.21356545 -0.00026609 0.00019578 0.00004418
0.60336626 0.59224874 0.45358360 0.00013537 0.00030509 -0.00012085
0.46443379 0.40884009 0.86058313 -0.00005296 -0.00035184 0.00014789
0.33920455 0.40865424 0.82653493 -0.00031947 -0.00032004 0.00033057
0.38192156 0.40891239 0.84372497 0.00002142 -0.00045644 0.00018245
0.66268218 0.40681276 0.19864097 0.00028133 -0.00025663 -0.00003212
0.40328479 0.55018795 0.93911767 -0.00002949 0.00028394 0.00063482
0.55652374 0.40892354 0.85815388 0.00005841 -0.00035434 0.00014759
0.60681212 0.56451219 0.64637655 -0.00007838 0.00003348 0.00007110
0.59828538 0.58413488 0.60901350 0.00017303 0.00000686 0.00019174
0.50000000 0.56869417 0.82566917 -0.00000156 0.00016472 0.00005603
0.66583967 0.55720806 0.80968660 0.00010400 0.00029180 0.00005803
0.39865503 0.58984745 0.53138286 -0.00017713 0.00018928 0.00007360
0.33392757 0.55939853 0.74650961 -0.00008728 0.00029611 -0.00001644
0.33226871 0.49066782 0.84470993 -0.00037809 -0.00013528 0.00014487
0.47336334 0.40699685 0.04749538 0.00001746 -0.00006168 -0.00044858
0.66619301 0.55740446 0.70669746 0.00014041 0.00027443 -0.00002799
0.50000000 0.57522231 0.77453512 -0.00000171 0.00019002 0.00004181
0.34076780 0.53814071 0.32800967 -0.00026691 0.00010720 -0.00006766
0.50000000 0.57722908 0.75746942 -0.00000175 0.00020348 0.00001197
0.38103634 0.57230353 0.35248140 -0.00013858 0.00026292 -0.00020112
0.33636847 0.40656808 0.56169111 -0.00020101 -0.00020154 -0.00018211
0.61807841 0.40891239 0.84372497 -0.00002232 -0.00045729 0.00017974
0.58131284 0.54433733 0.84297669 -0.00007792 0.00017523 -0.00025491
0.61451930 0.53157711 0.18497203 0.00007370 0.00029447 -0.00008981
0.32707173 0.46365285 0.24857883 -0.00033244 0.00017070 -0.00005069
0.35403255 0.54322708 0.44721910 -0.00004789 0.00025273 -0.00002174
0.62865686 0.55798888 0.30049884 -0.00001709 0.00030640 -0.00021308
0.33511934 0.40682185 0.65783852 -0.00020202 -0.00028481 0.00000823
0.36447075 0.54170066 0.23826811 0.00014948 0.00030284 -0.00012380
0.58893478 0.56288993 0.75868732 -0.00011486 0.00016774 0.00029143
0.67170656 0.42061684 0.24840620 0.00035300 0.00002984 -0.00008356
0.62642497 0.40887925 0.84086406 -0.00011577 -0.00044918 0.00026378
0.33707035 0.41361761 0.52690309 -0.00018930 -0.00006624 -0.00003234
0.50000000 0.59545338 0.42626941 -0.00000013 0.00027865 0.00012970
0.67298752 0.45974249 0.24854660 0.00033660 0.00021352 -0.00005629
0.33423537 0.53534979 0.35796514 -0.00028814 0.00014081 -0.00009531
0.33020037 0.51280624 0.52781725 -0.00023705 0.00010595 -0.00010738
0.39638984 0.59233934 0.44061545 -0.00011341 0.00033052 -0.00014340
0.67107230 0.41280133 0.24840090 0.00033797 -0.00008888 -0.00008643
0.65609050 0.53969729 0.36341503 0.00020156 0.00013590 -0.00007074
0.62278575 0.57550323 0.40577224 0.00034964 0.00010494 -0.00007018
0.41348124 0.51313710 0.12144831 -0.00011430 0.00031539 -0.00015815
0.66865259 0.44279206 0.83288568 0.00050290 0.00016030 0.00029252
0.50000000 0.54400897 0.21066374 0.00000001 0.00018547 -0.00023654
0.33694139 0.40653577 0.52689600 -0.00020352 -0.00019084 -0.00003132
0.66574842 0.55507720 0.82962543 0.00021604 0.00022572 0.00005958
0.39265081 0.43957457 0.88106394 -0.00007344 -0.00020805 0.00029506
0.33415774 0.53447747 0.37187648 -0.00026412 0.00015570 -0.00008548
0.33355531 0.54557306 0.62442434 -0.00011381 0.00021847 -0.00013209
0.66578376 0.53514898 0.36144197 0.00028192 0.00014448 -0.00009267
0.64342386 0.41441754 0.09442393 0.00044555 -0.00014454 -0.00026833
0.32266524 0.48235676 0.52773941 -0.00036574 -0.00015747 -0.00004824
0.39539126 0.40894926 0.84786522 -0.00008552 -0.00044435 0.00010929
0.60549647 0.59015566 0.42278689 0.00012977 0.00032831 -0.00013684
0.40021929 0.58709371 0.57454520 -0.00019274 0.00007007 0.00016937
0.64568102 0.43859586 0.10255349 0.00037850 0.00028161 -0.00021514
0.64980507 0.55145442 0.87653035 0.00013787 0.00015369 0.00018189
0.64057469 0.53717637 0.22986974 -0.00011036 0.00026729 -0.00005504
0.64599347 0.44160575 0.10358860 0.00036783 0.00032713 -0.00020913
0.37987354 0.57066804 0.34637013 -0.00013107 0.00026110 -0.00021482
0.66576439 0.55548197 0.82630378 0.00019146 0.00023791 0.00005478
0.66872185 0.42968944 0.82888752 0.00047706 0.00001481 0.00030832
0.63150311 0.54898614 0.53468299 0.00003627 0.00008789 -0.00001991
0.65222514 0.44652951 0.11290762 0.00047528 0.00015721 -0.00009461
0.63961625 0.53905028 0.23603268 -0.00010543 0.00026151 -0.00009416
0.37072894 0.56983393 0.38278770 -0.00036845 0.00010229 -0.00007051
0.35790041 0.55792058 0.33691424 -0.00016339 0.00029413 -0.00012826
0.33254805 0.52200937 0.24959421 -0.00028899 -0.00003362 -0.00004800
0.66588157 0.55800843 0.79971147 0.00008058 0.00029499 0.00011159
0.34242639 0.40868169 0.82806134 -0.00027439 -0.00033030 0.00032895
0.35720950 0.40631974 0.09176368 -0.00046298 -0.00031429 -0.00028750
0.64701933 0.42369011 0.09940459 0.00047156 0.00000433 -0.00023476
0.33463380 0.53556466 0.27493075 -0.00029922 0.00007907 -0.00013202
0.36630383 0.42445114 0.85548669 -0.00017757 -0.00020889 0.00041351
0.50000000 0.47559139 0.07305086 0.00000051 -0.00003781 -0.00047129
0.32713047 0.44409069 0.24846180 -0.00036479 0.00034016 -0.00007219
0.42946616 0.58696300 0.60952026 0.00010223 0.00017589 0.00009129
0.66482145 0.40681607 0.35578057 0.00021602 -0.00025058 -0.00005458
0.64838821 0.55169255 0.31401324 0.00014416 0.00029811 -0.00012087
0.66524678 0.53357267 0.24993181 0.00026608 0.00010480 -0.00008857
0.50000000 0.58821118 0.64347714 0.00000001 0.00024482 -0.00011193
0.50000000 0.45383850 0.91043276 -0.00000089 -0.00040927 0.00017626
0.60013747 0.52267969 0.15136690 0.00002437 0.00033780 -0.00011163
0.33737373 0.40653217 0.50518715 -0.00020802 -0.00017685 0.00004662
0.33503100 0.40685096 0.21678871 -0.00027770 -0.00021934 -0.00000702
0.40191728 0.58371693 0.61331707 -0.00016595 0.00000767 0.00018636
0.61436421 0.48322421 0.91078836 0.00035398 -0.00009360 0.00013970
0.40086353 0.55024767 0.93651682 -0.00005029 0.00027685 0.00056749
0.60361016 0.59233934 0.44061545 0.00011566 0.00032936 -0.00014506
0.50000000 0.54794854 0.22294158 0.00000002 0.00018632 -0.00023052
0.34912840 0.54915321 0.30485761 -0.00014015 0.00029591 -0.00010026
0.54801077 0.52692312 0.16256148 0.00009369 0.00025415 -0.00009896
0.52854586 0.40880278 0.86113137 0.00003347 -0.00035229 0.00014953
0.33480591 0.53018552 0.22710884 -0.00025571 0.00015525 0.00003119
0.50000000 0.40700188 0.04545453 -0.00000000 -0.00003770 -0.00043778
0.59202874 0.51711279 0.13334197 0.00009548 0.00036097 -0.00006396
0.33388603 0.53061283 0.41712037 -0.00020168 0.00020603 -0.00003731
0.64729244 0.45361724 0.10777903 0.00029729 0.00018229 -0.00028107
0.37541097 0.53691483 0.20985201 0.00014184 0.00033512 -0.00006579
0.33430135 0.55374217 0.83958620 -0.00030087 0.00019642 0.00007352
0.52663660 0.40699685 0.04749538 -0.00001744 -0.00006154 -0.00044852
0.64063370 0.54511678 0.48231965 0.00003610 0.00023404 -0.00002332
0.60883683 0.53083622 0.92384899 0.00024120 -0.00043563 0.00014603
0.65333396 0.54658723 0.29570398 0.00014547 0.00028033 -0.00009237
0.39061573 0.43585914 0.87632900 -0.00011044 -0.00018911 0.00032768
0.66607243 0.55939853 0.74650961 0.00008912 0.00029629 -0.00001800
0.50000000 0.59398496 0.38406956 0.00000016 0.00030242 -0.00003580
