0.64828908 0.50965410 0.33494693 0.00142449 0.00101056 -0.00068409
0.40659589 0.39011943 0.63156664 0.00015143 -0.00107606 -0.00003827
0.55463713 0.54828387 0.67839795 -0.00011263 -0.00011464 0.00060839
0.59519744 0.60984850 0.51095623 -0.00008039 0.00137465 -0.00024953
0.47902852 0.39012036 0.28121743 -0.00002952 -0.00105268 -0.00029519
0.41694492 0.44521335 0.69077843 0.00016276 0.00053947 0.00022241
0.55431479 0.52692372 0.35862750 -0.00016017 0.00027482 -0.00065282
0.50683933 0.60984850 0.63783532 0.00005593 0.00103045 -0.00026935
0.48016194 0.40916005 0.95454550 0.00015117 -0.00003771 0.00151973
0.56601954 0.47723743 0.91840845 0.00038283 -0.00034750 -0.00078719
0.55022758 0.39012036 0.41862842 -0.00009682 -0.00101026 -0.00019745
0.41333368 0.39012036 0.28898901 -0.00038770 -0.00146147 -0.00030816
0.51183921 0.60984850 0.67440993 0.00013278 0.00100512 0.00102882
0.65785486 0.51303095 0.77878076 0.00091277 0.00122665 0.00026654
0.58097476 0.39011943 0.65792894 0.00002321 -0.00089922 0.00010918
0.50758439 0.39012036 0.35181245 0.00005479 -0.00095426 -0.00023141
0.47442383 0.44292077 0.79858816 0.00000153 0.00063456 0.00015452
0.51602894 0.39012036 0.38822928 0.00007103 -0.00094662 -0.00015337
0.35836187 0.49626261 0.77556872 0.00005870 0.00056570 0.00048542
0.59696466 0.45600769 0.19951388 0.00128832 -0.00042803 -0.00084844
0.48851880 0.54269832 0.67839795 -0.00000114 -0.00007990 0.00058671
0.54751205 0.39011943 0.64838880 0.00001742 -0.00076537 0.00013589
0.49956957 0.39011943 0.87774992 -0.00002016 -0.00073230 0.00027188
0.48599222 0.39011943 0.91840392 -0.00011634 -0.00103635 -0.00023189
0.61199069 0.39012036 0.49529964 0.00047333 -0.00144752 0.00009433
0.52602804 0.60984850 0.50775647 0.00011263 0.00110248 -0.00016704
0.48057207 0.44014987 0.08311684 -0.00157502 -0.00073988 -0.00145386
0.63885176 0.47944462 0.29912955 0.00145915 -0.00001617 -0.00081061
0.62235206 0.59117097 0.43212277 0.00147737 0.00095286 -0.00086824
0.54251784 0.60984850 0.61490041 0.00001856 0.00107850 0.00000046
0.42877260 0.60984850 0.44947892 0.00014744 0.00147838 -0.00013718
0.66245556 0.50766838 0.69321316 0.00117209 0.00058073 -0.00006496
0.45663637 0.39011943 0.84098971 -0.00005719 -0.00073542 0.00017969
0.57247335 0.44477302 0.71144629 -0.00006117 0.00052969 0.00002652
0.56627780 0.39011943 0.75716281 0.00002857 -0.00072559 0.00024889
0.60188949 0.40527901 0.26965901 0.00105293 -0.00102402 -0.00071677
0.44756263 0.51117402 0.95157254 0.00058877 0.00134873 0.00153813
0.34173822 0.46719298 0.83090997 -0.00113692 -0.00074514 0.00026602
0.46234941 0.60984850 0.55337334 -0.00006986 0.00107798 0.00000936
0.36953026 0.56844878 0.49787843 -0.00118296 -0.00002446 -0.00005944
0.47023705 0.39011943 0.65165478 -0.00003231 -0.00071043 0.00013496
0.53529286 0.60984850 0.54220062 0.00007410 0.00108265 -0.00012437
0.40318081 0.60984850 0.61113000 -0.00008268 0.00134353 0.00001650
0.36953026 0.54977989 0.46938229 -0.00086571 -0.00013648 0.00000849
0.59261084 0.60984850 0.46738097 -0.00003059 0.00158478 -0.00007950
0.46279719 0.60984850 0.45698577 -0.00011157 0.00126391 -0.00009004
0.59009010 0.50971544 0.95297527 -0.00005800 0.00144769 0.00123096
0.45988938 0.60984850 0.64276522 -0.00007748 0.00107092 -0.00008204
0.49597192 0.47178903 0.94438857 0.00013496 0.00056271 0.00064419
0.62645340 0.45534769 0.27564418 0.00134028 -0.00030712 -0.00078513
0.43641347 0.39012036 0.41380465 0.00010583 -0.00106160 -0.00012798
0.63627851 0.40889391 0.64208031 0.00117990 -0.00082759 0.00008428
0.36967427 0.47872382 0.91410726 0.00066301 -0.00038060 -0.00056835
0.58191431 0.60984850 0.55464423 -0.00010565 0.00120115 -0.00009648
0.66292608 0.50580031 0.73391384 0.00115479 0.00067092 0.00024133
0.40418720 0.51425999 0.23166060 -0.00020999 0.00158657 -0.00031050
0.55921906 0.60984850 0.45275089 -0.00003155 0.00137160 -0.00003230
0.36071572 0.44938537 0.95409417 -0.00094194 -0.00059538 0.00205211
0.58749259 0.44106978 0.88842952 -0.00015962 0.00079450 0.00032539
0.34626117 0.45011759 0.87276608 -0.00098040 -0.00039213 0.00038091
0.66253376 0.49216729 0.51488751 0.00139100 0.00050402 -0.00013207
0.65752065 0.46243212 0.67161208 0.00091407 -0.00038827 0.00035162
0.36425835 0.40857795 0.52834296 -0.00121613 -0.00102373 -0.00014681
0.48416653 0.60967296 0.42945388 0.00001541 0.00142408 -0.00057598
0.64224678 0.42022371 0.60612381 0.00136113 -0.00054041 -0.00008267
0.63082826 0.55756938 0.62978119 0.00084366 -0.00021265 -0.00009889
0.59013087 0.60988557 0.43359414 0.00025573 0.00186463 -0.00064352
0.57904291 0.39011943 0.53162783 -0.00007691 -0.00110776 -0.00009960
0.59623486 0.58207339 0.39782661 0.00043375 0.00102897 -0.00135193
0.62446719 0.39036679 0.71810770 0.00092275 -0.00130620 0.00029130
0.65843922 0.51281697 0.45338550 0.00113977 0.00090471 -0.00021268
0.63082826 0.52862096 0.67129570 0.00004252 0.00033744 0.00016701
0.41819912 0.42281210 0.19712760 -0.00119823 -0.00047251 -0.00115377
0.57716644 0.44249439 0.81929076 0.00005246 0.00062005 0.00019757
0.47066483 0.44446555 0.72585833 0.00000997 0.00053646 0.00000059
0.40829632 0.44164535 0.86050582 0.00006756 0.00055276 0.00030141
0.66035092 0.47759539 0.44634044 0.00139404 -0.00013009 -0.00025415
0.37601382 0.39019170 0.86118710 -0.00097234 -0.00133903 0.00035460
0.33790478 0.49148390 0.59478211 -0.00120137 0.00033388 -0.00011794
0.49716938 0.53518003 0.36221132 0.00002214 0.00013287 -0.00076186
0.58742899 0.41922876 0.21248196 0.00133568 -0.00039944 -0.00092231
0.53616410 0.44096616 0.89346039 0.00028042 0.00055638 0.00005627
0.59899884 0.39011943 0.76554209 -0.00003932 -0.00102595 0.00007417
0.50680548 0.39011943 0.62744975 0.00003206 -0.00078368 -0.00000253
0.56157243 0.39011943 0.61329234 0.00007103 -0.00092401 -0.00007892
0.57592505 0.44176361 0.85474008 0.00000759 0.00063178 0.00038479
0.47982490 0.47633687 0.67839700 -0.00002276 -0.00007110 0.00035079
0.63750756 0.41110143 0.92306310 0.00181729 -0.00098248 0.00062797
0.60604161 0.39011943 0.92625827 0.00058889 -0.00181828 0.00050179
0.37566450 0.60611063 0.64342141 -0.00126910 0.00166586 -0.00008199
0.55188549 0.47517949 0.11121842 0.00116921 -0.00058901 -0.00133654
0.41303694 0.39187795 0.25467822 -0.00090398 -0.00147154 -0.00055399
0.50897610 0.45661408 0.06137997 0.00070769 -0.00111501 -0.00204201
0.37956834 0.57541335 0.41342053 -0.00133107 0.00064819 -0.00084620
0.64939922 0.43659151 0.73596543 0.00094253 -0.00024690 -0.00001479
0.38594264 0.44112355 0.88579905 0.00051885 0.00055636 0.00030590
0.58947647 0.46651405 0.95454550 0.00027176 -0.00040039 0.00096276
0.57937026 0.39012036 0.43701521 -0.00009471 -0.00115750 -0.00006317
0.47675809 0.39011943 0.57842308 0.00003753 -0.00089198 0.00000651
0.45848769 0.51425999 0.31099245 0.00000815 0.00071147 -0.00024431
0.44134244 0.51091743 0.12140606 -0.00092454 0.00139415 -0.00128075
0.62366980 0.45485929 0.71179700 -0.00042982 0.00024737 -0.00004782
0.53772014 0.39011943 0.85788488 0.00017197 -0.00072939 0.00025420
0.63082826 0.54703009 0.55161023 0.00082925 0.00010393 -0.00006941
0.53927618 0.60984850 0.64935809 -0.00003872 0.00105776 -0.00012805
0.63082826 0.56921828 0.52394944 0.00124394 -0.00022201 -0.00002316
0.60278702 0.53277862 0.36514813 -0.00013805 0.00063919 -0.00081785
0.64476246 0.42659280 0.44069132 0.00146193 -0.00043515 -0.00029183
0.34024400 0.48163131 0.42702508 -0.00140040 -0.00000272 -0.00029322
0.47682214 0.51013011 0.67839700 0.00001214 -0.00004052 0.00041335
0.52870023 0.39012036 0.51831585 0.00003412 -0.00094204 -0.00010598
0.61659819 0.39011943 0.56191945 0.00068375 -0.00151944 -0.00000234
0.51760012 0.39012036 0.18318379 -0.00005883 -0.00139277 -0.00039884
0.36953026 0.53306025 0.50365692 -0.00038304 0.00027718 -0.00026697
0.55324167 0.39012036 0.45910639 0.00000625 -0.00101351 -0.00013679
0.45960250 0.44361317 0.76583427 -0.00001658 0.00057643 0.00012352
0.49810737 0.39011943 0.80420029 0.00001453 -0.00069197 0.00007084
0.56658554 0.39012036 0.38818812 -0.00014551 -0.00109682 -0.00025765
0.45910761 0.39011943 0.69643760 -0.00012727 -0.00061525 0.00007382
0.63724273 0.48263973 0.69587612 -0.00052661 -0.00029591 0.00007153
0.36953026 0.56736875 0.53426504 -0.00112387 -0.00030309 -0.00020867
0.53577977 0.39011943 0.69631648 0.00011502 -0.00062053 0.00009582
0.33876207 0.50979859 0.84187037 -0.00120465 0.00142508 -0.00012390
0.45298818 0.39012036 0.44958362 -0.00005693 -0.00099377 -0.00007325
0.43252835 0.51425999 0.26182249 0.00024629 0.00105897 -0.00014390
0.51846743 0.39011899 0.13345736 0.00100939 -0.00178933 -0.00029987
0.58856338 0.51425999 0.25315332 -0.00045411 0.00123626 -0.00011536
0.52725768 0.56832391 0.67839795 -0.00000500 -0.00040295 0.00081457
0.45331556 0.59441733 0.40815413 -0.00002673 0.00091086 -0.00108776
0.53267431 0.60964274 0.42930073 -0.00001283 0.00142574 -0.00061003
0.34936899 0.44084945 0.49737000 -0.00135473 -0.00038330 -0.00017582
0.34591687 0.50555629 0.36095667 -0.00147927 0.00088769 -0.00039022
0.35719180 0.42211437 0.85387367 -0.00110380 -0.00019887 0.00025520
0.38782737 0.55716240 0.38609672 -0.00081134 0.00053910 -0.00091867
0.39344722 0.51425999 0.31241903 0.00049251 0.00112118 -0.00003826
0.45903629 0.44940445 0.67839700 0.00001864 0.00035098 0.00032866
0.66273129 0.49441582 0.65262365 0.00121142 0.00016180 -0.00003081
0.65492815 0.45279807 0.84792733 0.00104289 -0.00025323 0.00044488
0.46412605 0.39011943 0.87413365 -0.00008790 -0.00076057 0.00026515
0.66151136 0.48334384 0.91902071 0.00196646 0.00004150 -0.00015218
0.34820947 0.44952074 0.41787356 -0.00138413 -0.00048566 -0.00024892
0.62919956 0.60002851 0.46723375 0.00154842 0.00114951 -0.00036933
0.35736144 0.50543493 0.30665651 -0.00144726 0.00083680 -0.00039923
0.65863448 0.48898762 0.39754814 0.00153180 0.00022777 -0.00021002
0.36076829 0.43331367 0.36245501 -0.00142699 -0.00045777 -0.00036693
0.37771425 0.45314220 0.74041891 0.00062531 0.00009119 0.00001093
0.34290919 0.48560801 0.39072391 -0.00145198 0.00015900 -0.00014032
0.52961260 0.47803214 0.07952758 0.00185475 -0.00054545 -0.00088468
0.60692686 0.39012036 0.41684845 0.00028418 -0.00144271 -0.00007839
0.35583749 0.42504203 0.89334249 -0.00120335 -0.00029433 0.00003580
0.40054440 0.42306450 0.95454550 -0.00028735 -0.00008005 0.00181707
0.37925652 0.45067325 0.79147542 0.00069329 0.00014613 0.00024197
0.37494481 0.39172339 0.59981334 -0.00090354 -0.00147385 -0.00009880
0.65633321 0.45782480 0.89540642 0.00132546 -0.00027704 0.00007199
0.39098641 0.39613205 0.31475046 -0.00102581 -0.00141246 -0.00044661
0.54257882 0.39011943 0.72948921 -0.00003481 -0.00064658 0.00006284
0.48584729 0.44076160 0.91637790 -0.00001140 0.00038841 -0.00046939
0.49894595 0.60984850 0.53665525 -0.00000270 0.00106264 -0.00006388
0.54620939 0.60984850 0.57520151 -0.00000574 0.00108796 -0.00009099
0.55003738 0.49806252 0.67839700 -0.00003056 -0.00016151 0.00037530
0.53803384 0.44404674 0.74548185 0.00005794 0.00056242 0.00009857
0.43673947 0.39011943 0.73467648 -0.00006662 -0.00069678 0.00009317
0.39926416 0.39012036 0.38530755 -0.00031373 -0.00142152 -0.00042325
0.41115084 0.39011943 0.82658726 0.00009433 -0.00086155 0.00017766
0.61708611 0.45713365 0.67839700 -0.00056799 0.00030823 0.00037427
0.55414748 0.45615238 0.95454550 0.00015620 -0.00009959 0.00099491
0.51512194 0.48935646 0.67839700 -0.00001394 -0.00012831 0.00036813
0.63323557 0.51425874 0.43091476 0.00019932 0.00054343 -0.00008793
0.35573003 0.50924271 0.90842342 0.00001254 0.00112091 -0.00018207
0.43676692 0.39012036 0.37954777 0.00007323 -0.00108673 -0.00020687
0.48188776 0.39012036 0.39930528 -0.00005052 -0.00094679 -0.00015396
0.46090239 0.51425999 0.15745755 0.00047568 0.00141557 0.00003868
0.48136625 0.60984850 0.61402667 -0.00002191 0.00104535 -0.00003657
0.44809532 0.40633890 0.15947668 -0.00123149 -0.00107473 -0.00083339
0.49981233 0.39011943 0.54162347 -0.00004050 -0.00091153 -0.00008513
0.51682138 0.44462979 0.71815526 0.00002068 0.00051933 0.00001166
0.51063234 0.42394149 0.08233041 0.00059843 -0.00078925 -0.00206213
0.63126856 0.41733125 0.35703132 0.00135507 -0.00066154 -0.00067657
0.36953026 0.52979976 0.53959382 -0.00025637 0.00037673 0.00009438
0.59129536 0.43068707 0.95454550 -0.00000366 0.00077568 0.00136947
0.62238908 0.45274395 0.87702614 -0.00062657 0.00033427 0.00027027
0.37878144 0.49368089 0.24021499 -0.00141604 0.00035980 -0.00098961
0.63998616 0.49009186 0.75987560 -0.00068168 -0.00001160 0.00016583
0.43947557 0.39011943 0.62068731 -0.00001222 -0.00089677 -0.00000400
0.65486777 0.45259362 0.76644009 0.00095553 -0.00027365 0.00006215
0.50790155 0.39011943 0.94876194 -0.00014502 -0.00141874 0.00119375
0.62977022 0.39826962 0.45611063 0.00113466 -0.00132516 -0.00024860
0.47361678 0.39012036 0.36551937 -0.00002576 -0.00096884 -0.00016187
0.46644002 0.39012036 0.20226049 -0.00012126 -0.00141838 -0.00052869
0.39863363 0.51265466 0.91840845 -0.00012064 0.00109521 -0.00043716
0.58212876 0.39011943 0.85626811 -0.00013825 -0.00084732 0.00029815
0.64553338 0.50926203 0.81510574 -0.00023943 0.00117527 0.00034392
0.49526185 0.51425999 0.16133307 -0.00001885 0.00120668 -0.00032960
0.45618615 0.50873160 0.91839617 0.00054003 0.00091055 -0.00069844
0.66085023 0.47898033 0.82661563 0.00122365 -0.00041424 0.00021524
0.43488950 0.47168687 0.13339882 -0.00119799 -0.00073594 -0.00111867
0.64622515 0.44821897 0.36958787 0.00145239 -0.00036624 -0.00041738
0.34007344 0.47567543 0.63148940 -0.00114806 -0.00016557 0.00016179
0.39551666 0.60973877 0.44063783 -0.00069710 0.00185160 -0.00079770
0.46562997 0.44128096 0.87816876 0.00003776 0.00058385 0.00026222
0.53183073 0.39011943 0.81051785 0.00007668 -0.00070618 0.00013147
0.55641943 0.39012036 0.49550176 0.00001326 -0.00101370 -0.00011016
0.62202191 0.39011943 0.86271745 0.00089679 -0.00140643 0.00005763
0.40927070 0.51200879 0.17915647 -0.00101795 0.00137446 -0.00085938
0.36954397 0.58700007 0.67701072 -0.00118882 0.00084937 0.00126671
0.65250021 0.45192584 0.94574100 0.00181714 -0.00035889 0.00163327
0.33820653 0.50895780 0.71052176 -0.00126937 0.00065708 -0.00015423
0.35688865 0.42276731 0.93337965 -0.00170755 -0.00100824 0.00098773
0.39183548 0.49094042 0.20908746 -0.00152336 0.00011829 -0.00076787
0.44240505 0.60984850 0.59477973 0.00004635 0.00111111 -0.00007793
0.62365431 0.41928181 0.95450115 0.00103887 -0.00061954 0.00216242
0.53724092 0.51425999 0.28560275 0.00001963 0.00082084 -0.00024635
0.44187421 0.44269669 0.80946940 -0.00001937 0.00060823 0.00017633
0.37516382 0.42826927 0.30594644 -0.00144240 -0.00023954 -0.00080219
0.56887817 0.51113462 0.13752079 0.00109870 0.00122465 -0.00090342
0.54694194 0.50703228 0.91840804 -0.00020485 0.00111997 -0.00033591
0.36544624 0.51425904 0.46921039 -0.00005711 0.00059478 0.00004562
0.34582362 0.45151833 0.76298892 -0.00094347 -0.00053528 0.00004229
0.58085078 0.39011943 0.72183281 -0.00012067 -0.00078218 0.00008041
0.49611282 0.51425999 0.08924837 -0.00047301 0.00194970 -0.00025509
0.53642488 0.39011943 0.55255240 0.00004599 -0.00093634 -0.00000831
0.61460471 0.39011943 0.61843175 0.00052135 -0.00147145 0.00000883
0.39981970 0.47433481 0.67839700 0.00019683 0.00006885 0.00032920
0.63862175 0.41313976 0.54102248 0.00131492 -0.00086049 -0.00020459
0.34761459 0.51425904 0.74481475 -0.00071060 0.00126028 0.00063340
0.63116890 0.51341242 0.91818672 -0.00039893 0.00171471 -0.00070066
0.53626895 0.45215946 0.67839700 0.00005800 0.00028662 0.00032255
0.57986867 0.39117792 0.23714787 0.00080458 -0.00158255 -0.00048587
0.60396212 0.42759466 0.24174717 0.00131487 -0.00033880 -0.00090354
0.61946326 0.55223846 0.39048022 0.00083186 0.00065083 -0.00078550
0.43845502 0.43830743 0.14584519 -0.00121711 -0.00042819 -0.00114340
0.62490475 0.60521770 0.67817247 0.00119494 0.00136386 0.00100172
0.62145317 0.60806900 0.61459774 0.00121695 0.00147781 0.00002691
0.36952934 0.52283061 0.41081616 -0.00050046 0.00044102 -0.00021976
0.40873161 0.47188920 0.95454550 -0.00020364 -0.00032538 0.00118077
0.64682049 0.43024385 0.67407799 0.00106175 -0.00008582 0.00035631
0.48580331 0.39012036 0.17049144 -0.00009743 -0.00149662 -0.00023692
0.64676970 0.43013632 0.48656648 0.00139047 -0.00051524 -0.00001950
0.49790964 0.44241282 0.82325453 0.00001833 0.00066448 0.00019494
0.46116325 0.39012036 0.32803172 -0.00002290 -0.00103169 -0.00026250
0.50335211 0.51425999 0.20967956 -0.00001021 0.00103230 -0.00030548
0.41974822 0.60984850 0.48655233 0.00015389 0.00129496 -0.00006451
0.64650220 0.42950767 0.57213002 0.00134030 -0.00049627 0.00006538
0.66198963 0.50937003 0.84967852 0.00129290 0.00127475 0.00076267
0.47436196 0.39011943 0.61523050 -0.00000164 -0.00082841 -0.00003669
0.43986559 0.45835274 0.95454550 -0.00005307 0.00000076 0.00112597
0.61277437 0.44277513 0.80565518 -0.00046565 0.00056976 0.00027623
0.60576725 0.60984850 0.57877576 0.00051012 0.00138882 -0.00005387
0.52108914 0.39012036 0.47154042 0.00000536 -0.00094438 -0.00021034
0.49620023 0.44521284 0.69080222 -0.00003726 0.00048650 0.00014604
0.44804135 0.52866626 0.67839700 0.00001524 0.00001129 0.00047305
0.41715664 0.56895220 0.67839795 0.00026364 -0.00035742 0.00088445
0.46298748 0.39012036 0.23634405 0.00025211 -0.00127398 -0.00022599
0.42359492 0.39533511 0.22257127 -0.00082551 -0.00142341 -0.00092825
0.49911699 0.39011943 0.75342858 -0.00001114 -0.00064997 0.00015690
0.46591666 0.39011943 0.54055566 -0.00004138 -0.00094071 -0.00022232
0.40157503 0.60984850 0.52801663 -0.00019331 0.00138191 -0.00030536
0.57460541 0.48836914 0.95454550 -0.00003266 0.00028736 0.00115906
0.55605686 0.44340977 0.77536708 0.00005358 0.00058678 0.00014053
0.33978629 0.51070499 0.44684708 -0.00116179 0.00087627 -0.00018487
0.36354417 0.40985411 0.74523306 -0.00120353 -0.00031216 0.00003415
0.61635083 0.51425999 0.32366744 -0.00023156 0.00114355 -0.00052085
0.52009547 0.44167143 0.95454550 0.00012299 0.00049698 0.00129682
0.63642299 0.48060086 0.85943270 -0.00067118 -0.00013214 0.00054645
0.46366233 0.39011943 0.80637532 0.00003561 -0.00070741 0.00016924
0.53882873 0.44265971 0.81126451 0.00007741 0.00064293 0.00018472
0.64405692 0.43100157 0.40299106 0.00147931 -0.00043044 -0.00023661
0.41083762 0.44397327 0.74894398 0.00016170 0.00052784 0.00010164
0.49823272 0.51425999 0.32014629 0.00009809 0.00059249 -0.00012534
0.63082826 0.52484101 0.60091746 -0.00004657 0.00039196 -0.00006859
0.43012193 0.39011943 0.79266238 -0.00005414 -0.00076336 0.00012061
0.49910474 0.44114482 0.88476521 0.00000675 0.00056801 0.00017762
0.43431339 0.60984850 0.51846540 -0.00002528 0.00116901 -0.00020312
0.37284061 0.55033040 0.67839795 -0.00030202 -0.00017519 0.00043044
0.42731360 0.39012036 0.50106579 0.00022558 -0.00109482 -0.00018623
0.36953026 0.51457483 0.64467877 0.00027072 0.00023654 0.00006729
0.51317704 0.39012036 0.25615278 0.00003613 -0.00109000 -0.00030616
0.39394104 0.39011991 0.52056777 -0.00038779 -0.00147942 -0.00009618
0.42041257 0.55710250 0.37472260 0.00013406 0.00046970 -0.00112992
0.39313951 0.42316508 0.25623372 -0.00149918 -0.00026705 -0.00068691
0.53443575 0.44768611 0.09826501 0.00148968 -0.00023179 -0.00109247
0.63082826 0.57627797 0.59041673 0.00136362 0.00000664 -0.00026578
0.61518079 0.60973692 0.54039735 0.00095794 0.00139853 0.00006303
0.55656803 0.39012036 0.35362905 -0.00012361 -0.00107616 -0.00014084
0.58173603 0.47669193 0.15940674 0.00128276 -0.00047906 -0.00099222
0.65936965 0.47080356 0.48136592 0.00139672 -0.00019590 -0.00014890
0.34022340 0.47480509 0.50881821 -0.00131996 -0.00020074 -0.00011918
0.36764964 0.49073303 0.67839700 0.00066331 -0.00006838 -0.00004034
0.56875014 0.51425999 0.22135273 -0.00034246 0.00120754 -0.00009203
0.64294446 0.51425964 0.38030908 0.00090890 0.00086159 -0.00013062
0.53394109 0.51425999 0.22433709 -0.00000622 0.00102647 -0.00026510
0.36406675 0.48029333 0.87814540 0.00066642 -0.00033599 0.00044484
0.62091726 0.51426160 0.27656004 0.00074572 0.00138096 -0.00024916
0.45826775 0.52730459 0.35877886 -0.00003103 0.00029661 -0.00059568
0.57028550 0.39011943 0.92085975 0.00005798 -0.00112462 -0.00022888
0.60054111 0.51378167 0.20886570 0.00077615 0.00140976 -0.00060792
0.49759850 0.48478404 0.04545454 -0.00050391 -0.00001592 -0.00305380
0.63082826 0.52027190 0.63546872 -0.00006614 0.00028646 -0.00001663
0.47003022 0.51425999 0.19794330 0.00005863 0.00111673 -0.00036515
0.62805283 0.60240978 0.50789273 0.00144578 0.00106390 0.00001028
0.42298543 0.51425999 0.29602629 0.00016352 0.00093104 -0.00021141
0.34417528 0.45724210 0.60312355 -0.00123985 -0.00031088 -0.00011095
0.57403892 0.51425999 0.32429567 -0.00017192 0.00073721 -0.00031466
0.47795501 0.60984850 0.67213249 -0.00021947 0.00104021 0.00093803
0.33907619 0.48185223 0.73426449 -0.00129495 -0.00054849 0.00015073
0.60720432 0.39011943 0.81259137 0.00031963 -0.00109455 0.00039064
0.61976779 0.42504707 0.29187232 0.00136739 -0.00046485 -0.00066285
0.60226488 0.56743556 0.67839795 -0.00022832 -0.00073753 0.00087701
0.56976974 0.44350314 0.91840845 0.00025997 0.00059669 -0.00038303
0.58408660 0.39139012 0.95454550 0.00055729 -0.00153572 0.00182843
0.45489377 0.39011943 0.76940244 0.00001671 -0.00069030 0.00013660
0.48918951 0.60984850 0.49192891 -0.00004202 0.00111350 -0.00017998
0.35374609 0.42976612 0.81572622 -0.00094273 -0.00029578 0.00019241
0.41925120 0.39011943 0.54579473 -0.00005892 -0.00114209 -0.00001085
0.43601751 0.42365021 0.95454550 -0.00037277 0.00025421 0.00141287
0.57531649 0.60984850 0.59931409 -0.00005117 0.00119030 0.00006416
0.61092806 0.48166779 0.21752293 0.00134814 -0.00040045 -0.00088842
0.56503421 0.39011943 0.82460427 0.00002062 -0.00076313 0.00015600
0.50397331 0.39011943 0.84415787 0.00002914 -0.00071063 0.00021024
0.39071569 0.39011943 0.93358910 -0.00079043 -0.00186752 0.00126434
0.55985600 0.51425999 0.18049802 -0.00034681 0.00137719 -0.00010017
0.36133385 0.42117336 0.39754406 -0.00147072 -0.00057812 -0.00041756
0.59875607 0.39011943 0.69150496 -0.00010820 -0.00101228 -0.00004719
0.41317958 0.50853670 0.95336717 -0.00070357 0.00125356 0.00163292
0.57603067 0.44000870 0.16937488 0.00125486 -0.00046210 -0.00093725
0.62208778 0.45223737 0.75811708 -0.00054567 0.00036934 0.00018030
0.34036377 0.47403294 0.66580755 -0.00096708 -0.00021560 0.00017098
0.36318931 0.41048738 0.56247258 -0.00117627 -0.00087596 -0.00013084
0.41900885 0.39011943 0.86169827 0.00006534 -0.00084448 0.00030953
0.35941121 0.41760147 0.78381723 -0.00108494 -0.00027243 0.00033941
0.34582040 0.45152840 0.53329432 -0.00135455 -0.00023022 -0.00005733
0.60675037 0.39623770 0.30467668 0.00098117 -0.00144199 -0.00046247
0.43573904 0.39011943 0.65564370 0.00003822 -0.00078363 0.00016005
0.65003300 0.43827534 0.51982474 0.00133804 -0.00045631 -0.00011480
0.35838059 0.49619582 0.81577557 0.00030942 0.00068107 -0.00001639
0.34194213 0.47802806 0.94607705 -0.00185744 -0.00042252 0.00161113
0.55728817 0.56621701 0.38144255 0.00000051 0.00047674 -0.00112039
0.58709705 0.60984850 0.63448656 -0.00005615 0.00132302 -0.00006944
0.47790873 0.39011943 0.72465718 0.00004461 -0.00062140 0.00014349
0.37763610 0.40623328 0.34457994 -0.00120606 -0.00110635 -0.00023116
0.34879380 0.44246829 0.57009238 -0.00133509 -0.00025421 0.00000360
0.49221495 0.44383007 0.75565076 0.00001382 0.00056892 0.00011086
0.38285494 0.60935837 0.57998753 -0.00096860 0.00140507 0.00025354
0.41704962 0.39011943 0.90170342 0.00026794 -0.00101041 -0.00000619
0.55938047 0.49499446 0.95454550 -0.00039776 0.00071555 0.00146205
0.36953026 0.54910642 0.43500745 -0.00100553 -0.00000845 -0.00019973
0.62925214 0.46495718 0.82938737 -0.00066340 0.00002328 0.00029023
0.53991765 0.51425999 0.32118559 -0.00004453 0.00063724 -0.00012973
0.34109718 0.51210058 0.93894839 -0.00156145 0.00174998 0.00139640
0.45523697 0.44203597 0.84154248 -0.00002340 0.00063683 0.00022513
0.36283544 0.41113114 0.48005912 -0.00126032 -0.00096984 -0.00009437
0.35059118 0.47226405 0.35340270 -0.00138393 -0.00040748 -0.00059780
0.65428752 0.45072269 0.80540687 0.00088460 -0.00038983 0.00022782
0.46839359 0.51425999 0.24031788 -0.00000658 0.00098264 -0.00021310
0.45232931 0.56777072 0.67839795 -0.00005676 -0.00031080 0.00083533
0.40041637 0.39012036 0.47324136 -0.00021625 -0.00138713 -0.00018950
0.45148847 0.48292252 0.10461599 -0.00125715 -0.00023035 -0.00143833
0.52078611 0.44325548 0.78260237 0.00004045 0.00061022 0.00013855
0.33788148 0.50756931 0.67328376 -0.00104364 0.00047308 -0.00023872
0.41036120 0.39012036 0.44031686 0.00009811 -0.00124472 0.00002830
0.38384625 0.60951883 0.47913736 -0.00109863 0.00159041 0.00017105
0.62054831 0.50933254 0.23935540 0.00141800 0.00108526 -0.00063392
0.48964235 0.39012036 0.48966196 -0.00014724 -0.00093292 -0.00011523
0.52454507 0.47179833 0.92381573 0.00002825 0.00020554 -0.00024898
0.33707398 0.50290382 0.87866801 -0.00140015 0.00067848 0.00072525
0.46508843 0.46731246 0.91840845 0.00009229 -0.00025405 -0.00054339
0.59969747 0.46746361 0.91840845 -0.00045162 -0.00006822 -0.00044062
0.56580967 0.60984850 0.49171403 0.00000374 0.00122489 -0.00008310
0.41199398 0.39011943 0.59665424 0.00010045 -0.00112952 -0.00014122
0.49402538 0.39012036 0.31964973 -0.00002871 -0.00098017 -0.00023706
0.65808254 0.46484908 0.59229738 0.00129908 -0.00026960 0.00014289
0.53585970 0.39011943 0.89593089 0.00023731 -0.00082399 0.00017682
0.46025306 0.42590287 0.12107731 -0.00136277 -0.00040115 -0.00132886
0.54032522 0.41640991 0.12967238 0.00135695 -0.00067080 -0.00097367
0.52359813 0.39012036 0.29424718 0.00007372 -0.00103954 -0.00029263
0.41952735 0.46992806 0.91840845 -0.00026822 -0.00043417 -0.00062662
0.42555827 0.39012036 0.33416140 0.00016289 -0.00129584 -0.00000226
0.64339346 0.42260543 0.79017961 0.00103371 -0.00023601 0.00039836
0.49194437 0.39012036 0.43627903 0.00003590 -0.00093732 -0.00015558
0.64338660 0.51425904 0.49746740 0.00055821 0.00078240 0.00000668
0.53297597 0.39012036 0.32898414 0.00005032 -0.00101481 -0.00020145
0.39837527 0.44206032 0.91776794 0.00029556 0.00065677 -0.00050570
0.54800588 0.51213682 0.10707592 0.00080612 0.00129570 -0.00132755
0.53635383 0.44175050 0.85540211 0.00011932 0.00064810 0.00029904
0.35760835 0.47270343 0.31919202 -0.00136917 -0.00047630 -0.00054587
0.37771383 0.45313740 0.69898760 0.00055225 0.00033109 0.00011114
0.44052765 0.51425999 0.21653533 0.00039215 0.00121653 -0.00013898
0.62525916 0.50963432 0.95303756 0.00005176 0.00135852 0.00180899
0.64182472 0.49568209 0.89047748 0.00005427 0.00077102 0.00009917
0.59411055 0.39012036 0.33685267 0.00032009 -0.00146480 -0.00015526
0.33912697 0.51016539 0.62518555 -0.00103763 0.00077556 -0.00004307
0.34479940 0.45503935 0.71383166 -0.00082785 -0.00046160 0.00004872
0.53480655 0.39011943 0.77083862 0.00005792 -0.00067841 0.00020094
0.49691999 0.39011943 0.69581211 0.00001672 -0.00058782 0.00011752
0.56025612 0.39011443 0.19647008 0.00070744 -0.00156856 -0.00085194
0.66039485 0.50937754 0.94407165 0.00207116 0.00142379 0.00140747
0.52228123 0.51425999 0.35168123 0.00002500 0.00031863 -0.00039521
0.37662604 0.48266420 0.95454550 0.00012194 0.00027818 0.00180029
0.39680606 0.50913811 0.67839700 0.00021514 -0.00015837 0.00014517
0.55681312 0.39012036 0.30341244 -0.00008077 -0.00119299 -0.00036764
0.54050517 0.39763409 0.95454550 0.00020388 -0.00080888 0.00160034
0.36459988 0.40880978 0.44092131 -0.00132352 -0.00093462 -0.00009892
0.46845686 0.60984850 0.51866704 -0.00004336 0.00109350 -0.00016157
0.56950271 0.60984075 0.67839795 -0.00010121 0.00118995 0.00103837
0.34636179 0.45006099 0.45511615 -0.00136494 -0.00044251 -0.00006525
0.39424646 0.45815074 0.21853253 -0.00125192 -0.00061514 -0.00085560
0.36953026 0.53046042 0.61339557 -0.00022219 0.00025846 -0.00009614
0.63082826 0.54164070 0.45882061 0.00058800 0.00027222 -0.00009677
0.44820094 0.39038190 0.95454550 -0.00035911 -0.00156312 0.00169148
0.53433788 0.58485115 0.39858744 -0.00005534 0.00072143 -0.00108055
0.56260896 0.60078615 0.41452250 -0.00004123 0.00128138 -0.00099964
0.47249642 0.49198461 0.07433797 -0.00213462 0.00068739 -0.00107961
0.62268811 0.47414654 0.95454550 -0.00002380 -0.00019547 0.00173750
0.62082493 0.39266118 0.38578171 0.00097404 -0.00152297 -0.00037303
0.49634179 0.39012036 0.22673802 0.00008491 -0.00116418 -0.00024126
0.66162747 0.50978178 0.58678877 0.00110039 0.00071936 -0.00016271
0.38144714 0.39011851 0.41601902 -0.00084852 -0.00161056 -0.00016756
0.47114831 0.44544452 0.95454550 0.00013060 0.00038380 0.00112467
0.59284723 0.50213081 0.91840845 -0.00005950 0.00050350 -0.00081790
0.49894306 0.58706272 0.40079907 0.00004062 0.00073359 -0.00105607
0.34814957 0.44434556 0.64150691 -0.00113169 -0.00042427 0.00019176
0.59252673 0.50569689 0.17434731 0.00131806 0.00084320 -0.00097551
0.33799669 0.49047434 0.47761521 -0.00124664 0.00020240 -0.00003968
0.65399122 0.44977438 0.63712162 0.00120848 -0.00023141 0.00000053
0.52516949 0.39011943 0.59834063 -0.00000642 -0.00086549 -0.00009217
0.34077391 0.47187445 0.79574782 -0.00131838 -0.00022812 0.00013370
0.37957793 0.39011943 0.90149403 -0.00097088 -0.00151602 0.00036875
0.37945497 0.39011943 0.77139646 -0.00064912 -0.00133243 0.00028611
0.65548640 0.45477238 0.55124444 0.00133486 -0.00029504 0.00000308
0.37615052 0.45578399 0.85645932 0.00060412 0.00008083 0.00031897
0.53350836 0.39012036 0.22009122 -0.00015660 -0.00125084 -0.00020901
0.42459992 0.52275234 0.35701802 0.00015967 0.00028129 -0.00062805
0.42573202 0.60984850 0.67396688 -0.00021462 0.00121963 0.00113401
0.52344203 0.51425999 0.18046921 -0.00009773 0.00115311 -0.00031347
0.47663972 0.39011717 0.13615413 -0.00116882 -0.00177888 -0.00058697
0.36953026 0.56679636 0.61015874 -0.00110452 -0.00008312 -0.00006893
0.34508288 0.45406851 0.92003942 -0.00154540 -0.00035069 -0.00013301
0.42657885 0.60984850 0.55504066 0.00013202 0.00118214 -0.00002468
0.42162925 0.50214869 0.14842443 -0.00120180 0.00064097 -0.00115330
0.37194034 0.51425999 0.33869258 -0.00007279 0.00118599 -0.00032160
0.54660082 0.39012036 0.25129604 -0.00009501 -0.00123490 -0.00013358
0.38470444 0.52643818 0.37122843 -0.00012042 0.00051265 -0.00042194
0.42526197 0.44093230 0.89508963 -0.00026414 0.00057767 0.00008205
0.36953026 0.55451089 0.57422453 -0.00090338 -0.00023756 -0.00001473
0.58384061 0.44387591 0.75350171 -0.00006761 0.00058421 0.00013636
0.33723858 0.49981436 0.55508786 -0.00122201 0.00050064 0.00010786
0.48310691 0.56441504 0.38002104 -0.00011444 0.00045126 -0.00097546
0.50290155 0.39312026 0.10108157 -0.00003490 -0.00196490 -0.00178375
0.42024523 0.46168429 0.16296265 -0.00123102 -0.00059626 -0.00097277
0.55629599 0.41275021 0.15922523 0.00109489 -0.00081924 -0.00109107
0.36953026 0.51855773 0.57998359 -0.00010946 0.00048645 -0.00004093
0.52693254 0.52507877 0.67839700 -0.00006207 0.00000901 0.00048122
0.37078902 0.58981985 0.45326206 -0.00176739 0.00068992 -0.00033200
0.37539428 0.39107963 0.71831167 -0.00095021 -0.00121888 0.00007690
0.35434461 0.42838737 0.69103765 -0.00103134 -0.00025468 0.00005145
0.52471817 0.60984850 0.46308711 0.00000926 0.00120202 -0.00006548
0.37807459 0.39011943 0.65649962 -0.00091789 -0.00127846 0.00000201
0.41708437 0.44321084 0.78469515 0.00003154 0.00054297 0.00016229
0.37607235 0.39011943 0.82287508 -0.00088157 -0.00129517 0.00004756
0.44481876 0.39012036 0.27535933 0.00034812 -0.00121892 -0.00012840
0.63683951 0.40989798 0.75563014 0.00112583 -0.00047250 0.00005222
0.64220744 0.42014277 0.84095126 0.00113222 -0.00041533 0.00012072
0.34006566 0.51117718 0.51640373 -0.00108036 0.00088593 -0.00023813
0.37180817 0.46752939 0.27220169 -0.00132493 -0.00075366 -0.00061888
0.64540988 0.42698875 0.88306892 0.00131558 -0.00014949 0.00025426
0.58215302 0.39011943 0.56731004 -0.00013730 -0.00110364 0.00004154
0.62247783 0.47608495 0.24930343 0.00138882 -0.00032790 -0.00076281
0.59002292 0.39011943 0.89217931 -0.00029827 -0.00098295 0.00018851
0.36953026 0.55095637 0.64301944 -0.00066682 -0.00023067 -0.00021594
0.63069475 0.54730856 0.42243856 0.00106954 0.00013293 -0.00010250
0.39466256 0.39011943 0.68990785 -0.00000419 -0.00100205 0.00016945
0.58056819 0.45147079 0.67839700 -0.00008181 0.00036788 0.00033406
0.52017337 0.55884182 0.37592101 0.00001551 0.00031011 -0.00100090
0.52062899 0.51425999 0.12926911 -0.00038367 0.00140083 -0.00010899
0.44208956 0.39011943 0.57695246 -0.00004756 -0.00097352 -0.00005102
0.66118258 0.48118877 0.79257464 0.00126964 -0.00028929 0.00019381
0.50273144 0.39011943 0.66210622 0.00001664 -0.00066202 0.00010153
0.37250912 0.60279340 0.54492462 -0.00149104 0.00107200 -0.00040563
0.36021274 0.41603589 0.62092549 -0.00131103 -0.00050127 0.00007553
0.57986546 0.52384841 0.67839700 -0.00006475 -0.00006784 0.00043773
0.47569871 0.51425999 0.11773767 0.00009945 0.00163760 -0.00042541
0.43998399 0.49291307 0.67839700 0.00000682 -0.00011863 0.00033883
0.60638458 0.49747410 0.67839700 -0.00029766 -0.00026267 0.00029696
0.63304818 0.43475434 0.32641950 0.00139021 -0.00051014 -0.00050409
0.63102531 0.40012968 0.68377405 0.00106261 -0.00089051 -0.00007037
0.49583086 0.51425999 0.27995223 -0.00004200 0.00080722 -0.00026706
0.40387902 0.39011943 0.74466980 0.00028127 -0.00094048 0.00023316
0.43690634 0.44452095 0.72325432 -0.00001593 0.00050829 0.00000610
0.62375206 0.39011943 0.89721572 0.00105301 -0.00160544 0.00037858
0.65958637 0.47187716 0.73015267 0.00095736 -0.00044463 -0.00001224
0.62682199 0.39373890 0.78446144 0.00099172 -0.00120303 0.00023182
0.64628732 0.47486892 0.33316100 0.00147083 -0.00036001 -0.00050918
0.49881509 0.60984850 0.58177328 -0.00000608 0.00104428 -0.00004371
0.38555261 0.44238114 0.82478994 0.00041804 0.00041239 0.00023403
0.42363927 0.60984850 0.63962358 0.00004498 0.00123925 0.00002379
0.57985175 0.51425999 0.28736994 -0.00023721 0.00098914 -0.00019738
0.63082826 0.55806226 0.48910594 0.00101483 -0.00018204 -0.00008895
0.66092378 0.51049268 0.62170458 0.00103538 0.00061400 0.00005865
0.63082826 0.57905841 0.65760112 0.00129990 -0.00019768 0.00001639
0.63838679 0.51425904 0.55603242 0.00024809 0.00060161 -0.00014852
0.56026340 0.45170590 0.13441572 0.00119354 -0.00036953 -0.00118825
0.41930059 0.60169375 0.41543007 -0.00014466 0.00142212 -0.00111072
0.45090961 0.39011943 0.91201222 -0.00011309 -0.00103952 -0.00017142
0.66237187 0.49060854 0.55280709 0.00129979 0.00031387 -0.00007584
0.55198747 0.51425999 0.25471249 0.00000420 0.00098102 -0.00024279
0.36934140 0.51111853 0.27453402 -0.00113422 0.00130553 -0.00069074
0.50271392 0.51425999 0.24345265 -0.00002329 0.00093153 -0.00025066
0.51465714 0.51098323 0.06111480 0.00095254 0.00203724 -0.00166904
