ply
format ascii 1.0
element vertex 1680
property float x
property float y
property float z
end_header
0.376446 -0.034268 0.043884
-0.030636 -0.077687 -0.125463
0.212053 -0.169716 -0.086060
-0.312192 -0.009761 0.065134
0.079776 -0.013254 0.325347
-0.369616 -0.024097 -0.058723
0.069451 -0.048377 0.200895
0.392487 0.060383 -0.126308
-0.271228 -0.000233 0.196055
0.058658 -0.012489 -0.134002
0.055863 -0.071748 -0.168740
-0.166829 -0.077966 -0.234046
0.057297 -0.089133 -0.327488
-0.162130 0.121565 -0.072880
-0.260969 0.098527 0.248185
0.291984 0.060863 -0.084964
0.035255 -0.006126 -0.413624
-0.201827 0.124128 -0.223711
-0.196196 -0.032339 0.039786
-0.159801 -0.046580 0.052467
-0.067248 0.086772 -0.401110
0.173067 0.049331 -0.366756
0.083969 0.094290 -0.347249
-0.336288 0.039264 -0.043426
-0.355772 -0.141393 -0.003190
0.434070 -0.129578 0.096654
-0.129269 0.154249 0.226506
0.287148 0.040592 -0.139267
-0.216419 -0.183994 0.098900
-0.013503 0.112752 0.326233
-0.382144 -0.125018 0.063140
-0.295101 -0.109193 0.209435
-0.447359 -0.114632 0.077956
0.319097 0.002521 -0.249373
-0.349142 -0.101258 0.098523
0.287927 0.137391 0.086796
-0.235777 -0.100987 -0.061187
-0.301025 -0.066743 -0.269742
-0.316897 -0.016711 0.111237
-0.276851 -0.039998 -0.320601
0.152265 -0.090408 0.062730
0.127608 0.120305 0.101875
0.234074 0.120401 0.140187
0.118955 -0.062004 0.046603
-0.212343 -0.066044 -0.023442
0.211228 -0.096569 -0.345855
-0.147212 0.096710 -0.059272
0.114929 0.000468 0.145575
-0.205834 -0.000175 -0.256446
-0.182268 0.028115 0.370163
0.089963 -0.041135 0.103549
-0.417673 -0.042379 -0.017141
0.130998 0.169900 0.295286
0.438664 -0.132996 0.115674
-0.419520 -0.077109 0.024124
-0.178961 -0.137432 0.029568
-0.124339 -0.134778 0.150328
0.035812 -0.005060 -0.427253
0.209924 -0.024575 -0.134274
0.271876 -0.131171 -0.210811
-0.158250 -0.139303 -0.198350
0.304710 0.034725 -0.098020
0.329421 -0.144430 0.036295
0.224788 -0.137395 -0.000266
-0.162343 0.166062 0.238646
-0.071157 0.013108 -0.316763
0.037661 0.053745 0.397483
-0.071065 -0.056205 -0.335262
-0.152299 -0.138541 0.105779
-0.346192 0.028212 -0.174287
-0.247740 -0.094031 0.006992
-0.024890 -0.146835 -0.360832
-0.216664 -0.003584 -0.246406
-0.284820 0.112201 -0.230644
-0.013097 0.049088 -0.423513
-0.085016 0.095085 -0.295283
-0.342445 -0.150908 -0.090543
0.244839 0.081413 0.019585
-0.321817 0.083300 -0.095134
0.295459 -0.010448 0.290461
-0.259752 0.113397 -0.056647
-0.315185 0.005788 0.342053
0.267140 -0.153840 0.109610
0.159512 0.191301 -0.287525
0.187349 0.060465 0.246343
0.290877 -0.102438 -0.051741
0.133698 0.063464 0.000084
-0.393496 -0.057033 0.029258
0.094185 0.026040 0.102997
0.113341 -0.102613 0.345244
0.247775 0.162588 -0.144623
0.042596 0.037825 -0.254706
-0.251408 0.062818 0.168581
0.059836 0.054409 0.430334
0.124044 -0.021381 -0.086337
0.111684 0.042047 -0.400266
0.152671 0.013234 0.403248
-0.249508 -0.144663 0.042900
-0.283462 -0.006839 -0.216632
-0.094906 0.043997 -0.128048
0.151148 0.074575 0.375598
-0.320993 0.125693 -0.024238
-0.332330 -0.046842 -0.111257
-0.280004 -0.090919 -0.273164
-0.304532 -0.134528 0.094846
0.150042 0.011248 -0.116725
-0.104838 -0.033166 0.357590
0.205132 0.017455 0.126990
0.081000 0.041617 -0.147991
0.117191 0.137551 0.302722
-0.126070 0.012934 0.205162
0.135666 0.170387 0.181559
-0.052501 0.118517 0.197610
0.261002 0.125577 0.249523
0.200148 -0.035873 -0.149621
0.403174 0.121432 -0.097092
-0.417182 0.116537 0.108355
-0.311717 0.097307 -0.008254
0.230325 -0.135097 -0.000570
0.109773 -0.056877 -0.479525
0.171327 -0.072882 0.137344
0.093981 -0.060492 -0.267986
0.199305 0.071748 0.041213
0.210877 0.000752 -0.244857
-0.199527 0.137008 -0.169041
-0.092603 0.037974 -0.121140
-0.319800 -0.067634 0.088405
-0.003926 -0.069060 -0.126543
-0.051313 -0.095654 -0.152825
0.294057 0.101651 -0.275362
-0.005018 -0.083916 -0.393602
-0.137535 -0.008627 -0.077299
-0.005646 -0.118741 -0.373556
0.148815 -0.097061 0.343275
-0.034162 0.121493 -0.358713
0.232259 0.121654 0.012925
0.254316 0.051834 -0.180367
0.137416 -0.113792 0.355452
0.151673 0.034139 -0.176312
0.216883 0.056906 0.050089
-0.016540 0.034196 0.332033
-0.026350 -0.040624 -0.300934
0.156684 -0.159759 -0.281324
-0.390505 -0.089048 -0.151191
-0.181943 0.048957 0.219513
-0.252478 0.047289 -0.029805
-0.056191 0.113569 -0.378317
-0.213501 0.119444 -0.311841
0.335443 -0.108778 -0.241447
0.215208 0.007233 0.345391
0.079639 -0.038315 0.372289
0.123199 0.068721 0.126075
0.098132 -0.036042 0.282003
0.114023 -0.081000 0.257929
0.141284 -0.024368 -0.401843
-0.320734 0.028805 -0.177808
-0.357335 -0.096942 0.189374
0.320350 -0.048303 -0.270356
0.218162 0.155977 0.113838
0.318330 0.124722 -0.181960
0.300617 -0.096148 -0.019439
0.300053 0.038890 -0.089546
-0.290633 -0.043428 -0.034718
-0.247521 -0.169928 0.161367
0.225552 -0.126935 -0.165979
0.131862 0.090387 0.037226
-0.060188 -0.154206 0.207034
0.135276 0.034025 -0.047713
-0.253392 -0.109471 -0.307961
0.466108 -0.050308 -0.085149
-0.147625 0.070951 -0.355554
0.380676 -0.001102 -0.197323
0.081230 0.069328 -0.376959
-0.088366 0.138664 -0.166466
0.321036 0.014681 -0.197096
-0.414473 -0.015503 -0.028301
0.257073 0.004708 0.297556
0.341929 -0.129889 -0.023674
0.185034 0.119418 0.016206
0.220645 0.030744 -0.064684
0.123181 -0.073664 0.255768
0.370251 -0.017380 -0.173565
0.254582 0.086146 -0.233855
0.001931 0.125001 0.322813
-0.131601 0.022741 -0.203752
0.293237 -0.039259 0.192542
-0.063537 -0.052775 0.412305
-0.179509 -0.002569 0.125152
-0.374229 0.095834 -0.249359
0.154037 -0.032323 -0.171349
0.100249 0.020313 0.311555
0.317399 0.026526 0.030466
0.206058 0.159023 -0.190470
0.229068 0.071525 0.256242
-0.303658 -0.013875 -0.297652
-0.326126 -0.085289 0.061137
0.216915 -0.111646 0.060257
0.253744 -0.052085 -0.145429
-0.375738 0.046513 -0.205348
0.357319 0.008976 -0.193947
-0.014060 0.140950 0.227179
-0.317710 0.161084 0.252519
-0.365508 -0.094946 -0.194323
0.344406 -0.128530 -0.030629
-0.084754 -0.036377 -0.079064
-0.309542 0.119196 -0.030389
-0.390024 -0.003195 0.230487
-0.131557 0.063028 -0.054254
0.081598 0.080092 0.375370
0.026745 -0.106841 0.146082
0.128061 -0.059554 -0.258581
0.029109 -0.021521 0.231044
0.148203 -0.096484 -0.038925
-0.135174 0.037207 -0.003028
0.403637 -0.068748 0.108467
-0.178633 0.156993 0.312401
0.193357 0.017721 0.258548
-0.094719 0.125816 0.238016
-0.407653 -0.145333 0.084371
0.180604 -0.012493 -0.255085
-0.102004 0.021369 -0.118265
-0.056197 0.118530 0.330993
-0.114277 0.116981 -0.288927
-0.197093 -0.084282 -0.077854
0.271230 0.087187 0.256640
-0.102257 -0.116283 -0.144506
0.175629 0.009498 0.261092
-0.117109 0.016197 0.186555
0.122798 -0.014007 0.302331
0.079953 0.105512 -0.134244
0.284705 -0.028088 0.159126
0.094346 -0.054132 0.260698
-0.161559 -0.030469 -0.048580
-0.298024 0.167819 0.061122
0.131275 0.031365 0.306147
0.166703 0.126330 0.136069
0.123852 0.026131 -0.008648
-0.209805 0.039966 0.111591
0.037405 -0.117024 -0.358794
-0.138512 -0.145950 -0.339581
0.320331 -0.121284 0.154777
-0.108693 -0.010594 0.189620
-0.068937 0.042473 -0.143171
-0.039017 -0.052422 -0.308137
0.153288 -0.175905 0.344498
0.202155 -0.029570 -0.077766
-0.272613 -0.102911 0.245618
-0.304464 0.035442 -0.059087
-0.094003 0.017596 -0.148651
0.186130 0.135795 0.010674
-0.087903 0.138105 0.292053
0.297453 -0.030234 0.125519
0.166076 -0.074990 -0.018216
0.357223 0.147140 0.122544
-0.207130 -0.100993 -0.193086
-0.309291 -0.179896 -0.221701
0.124234 0.128958 -0.328590
0.044305 -0.016838 -0.237252
0.379336 0.086413 0.110992
-0.018374 -0.036069 -0.233417
-0.186981 0.030137 -0.270597
0.080956 0.099124 0.393950
0.330433 -0.012210 -0.260030
-0.047784 -0.065411 -0.110408
0.042356 0.159893 -0.225146
-0.207985 -0.108464 0.230912
0.291745 0.045004 0.017899
0.000965 0.174100 0.340665
-0.024093 0.129403 0.216251
0.168889 -0.050441 -0.051961
0.223425 -0.151672 -0.212825
0.414750 -0.032793 -0.028891
-0.091795 0.064037 0.477602
0.335643 0.133128 -0.011911
-0.205403 -0.052907 0.364699
0.160489 0.147159 0.212125
-0.323888 0.140688 0.035031
-0.392356 -0.018034 0.146178
0.240724 -0.091857 -0.100259
0.193307 0.138723 0.074609
0.221535 -0.142498 0.001956
0.028789 0.057970 -0.355483
0.394735 0.040536 0.180008
0.148620 -0.066845 -0.097152
-0.066206 0.042696 -0.217248
-0.388373 -0.016456 0.135144
0.386394 0.173096 -0.084811
-0.284728 0.074861 -0.238315
0.089719 -0.028200 0.101421
0.208773 0.042202 0.091368
-0.086893 0.045491 -0.314573
0.043603 0.039040 0.238831
0.247893 -0.143805 -0.010111
-0.158309 -0.051610 0.055701
-0.431343 0.079428 -0.071148
-0.083198 -0.037738 0.109146
-0.269112 0.025267 0.178189
0.241731 0.043258 -0.053623
-0.244209 -0.094364 -0.061587
-0.063476 0.046810 0.102548
-0.314668 -0.046025 0.044964
-0.167608 -0.073368 -0.238001
0.415732 0.013390 0.022830
0.118613 -0.003629 0.495044
0.004543 0.062783 0.255177
-0.365266 0.114813 0.027865
-0.273444 0.044389 -0.145111
0.361099 -0.075794 0.159120
0.195560 0.015769 0.253402
-0.271880 0.065715 -0.389704
0.082767 -0.074506 0.113939
0.003817 -0.108074 -0.249593
-0.124885 0.108785 0.163731
0.119992 0.141680 0.121428
-0.456415 -0.043665 0.104878
-0.086795 -0.017606 0.119761
-0.419136 0.023384 -0.022095
0.128577 -0.119712 -0.306919
-0.155383 0.129551 -0.045401
-0.227064 0.060674 -0.137891
-0.148005 -0.006282 -0.119828
-0.338339 0.114084 -0.180408
-0.313035 -0.010119 0.288262
0.112084 0.107994 -0.351991
0.061080 0.005205 0.311602
-0.008607 -0.046015 0.132668
0.081866 -0.019738 -0.316578
0.047809 0.116317 0.238706
0.004098 0.154348 -0.348840
-0.129110 -0.141909 0.258770
-0.318374 -0.050594 0.079588
0.230777 0.023559 -0.369278
-0.164145 0.101021 -0.021567
-0.088082 0.139325 -0.153885
-0.251469 -0.117389 0.036429
0.201271 -0.002095 0.313535
-0.165429 -0.101624 0.087042
0.168450 0.113321 0.033025
0.389890 -0.161363 0.073148
0.032541 0.140430 -0.333983
0.045477 -0.017519 -0.315593
0.283830 -0.056454 0.086163
0.272486 0.018521 0.163719
0.028048 0.114476 0.190435
-0.061122 -0.020942 -0.108041
0.261965 0.200646 -0.186589
0.022959 -0.117049 -0.207145
-0.112552 0.084228 -0.446964
-0.066565 0.134127 0.313788
0.030260 0.045226 0.137543
0.413601 -0.054056 0.115630
-0.115176 0.130367 -0.198081
0.192404 -0.083049 -0.373508
-0.098422 0.091506 0.119592
0.255989 -0.132103 -0.063612
-0.165245 0.037023 0.282932
-0.133538 0.124371 -0.131238
-0.197171 0.111420 -0.209911
-0.312382 0.130248 -0.037287
-0.313829 0.088724 -0.030696
0.024551 0.047570 -0.159064
-0.039911 0.132874 0.203467
0.031192 -0.069761 0.265122
0.084629 -0.021637 0.297364
0.003407 0.108114 0.221587
0.409375 0.046349 0.015896
-0.119581 0.050242 0.264340
-0.410533 0.113374 0.089704
0.099614 -0.094165 0.221191
0.121437 0.170945 0.169243
0.236388 -0.086872 -0.013493
-0.394573 -0.060686 -0.133159
-0.169875 0.042956 -0.154911
0.204163 -0.120524 0.014419
-0.086196 -0.078649 -0.197666
0.385523 0.086200 0.244199
0.074837 0.178292 0.252016
0.169260 0.068272 -0.218332
-0.173803 0.109787 0.071086
-0.344427 0.184493 0.073429
-0.074735 0.079792 -0.212017
-0.101087 0.086774 -0.405271
0.141877 0.083747 0.093554
0.420337 0.072395 0.009029
0.208974 0.160653 -0.165611
0.365372 0.091567 0.123802
0.107761 0.184317 -0.244767
-0.162844 -0.118192 0.118431
0.191724 0.016370 -0.277435
0.163563 0.051112 0.327828
-0.230743 -0.117433 -0.158048
0.321801 0.126281 0.100368
-0.043316 -0.108834 0.364293
-0.269107 0.120215 0.056929
0.127129 0.025825 0.306614
-0.027883 -0.059417 -0.330209
0.015942 -0.177773 0.275363
0.154504 -0.042414 -0.249767
0.256056 -0.061466 -0.037794
-0.248217 -0.076444 0.373825
0.039707 0.095914 -0.331042
0.111296 -0.055623 -0.431498
0.220055 -0.066179 -0.260859
0.356072 -0.075384 0.121831
-0.245151 -0.141701 -0.231738
0.138584 -0.128228 -0.099358
0.063833 -0.007122 -0.101849
-0.179570 -0.052634 0.032403
0.428261 0.092300 0.095637
0.257574 0.170691 -0.139475
-0.125965 -0.126497 -0.172585
0.230579 0.115611 0.110073
0.132556 -0.059397 0.275842
-0.035661 -0.137598 -0.233274
0.274266 -0.104128 -0.255452
-0.276576 0.099888 -0.060228
0.093743 -0.112188 0.250211
0.065421 0.095407 0.232447
-0.347658 -0.168275 -0.047873
0.106956 0.054817 -0.221859
-0.227380 -0.075924 -0.030683
0.070886 0.116531 0.304733
-0.213612 -0.089782 -0.162406
0.223209 -0.146303 0.116244
-0.258086 0.023565 0.323202
-0.263607 -0.062139 -0.319220
-0.055022 -0.119325 -0.187126
-0.039758 -0.025575 0.411743
0.005068 0.121140 -0.338800
-0.259971 -0.063134 -0.151974
0.117206 0.112645 -0.359248
-0.340439 -0.033717 -0.044734
-0.220231 -0.017075 0.249849
-0.141154 -0.136723 0.161460
0.181596 -0.090662 0.002988
-0.138524 0.036612 0.391999
0.106538 -0.093205 0.310058
-0.216078 -0.073675 0.270025
-0.136353 -0.130473 -0.175139
0.144264 0.036395 -0.391093
0.413857 0.126050 0.080672
-0.274734 -0.099585 -0.282452
0.283327 0.016462 -0.316353
-0.339048 0.181816 0.071149
0.388898 0.153217 0.084518
0.201998 0.147809 -0.014806
0.175636 0.114729 0.023564
-0.253353 -0.152629 -0.011477
0.084543 -0.082888 -0.207555
0.376994 0.066640 -0.114016
0.156537 -0.064219 -0.372210
0.177750 0.156630 -0.254337
0.222279 0.124998 0.026605
-0.222933 -0.093419 -0.302132
0.016725 -0.047086 0.273658
0.002000 0.165337 0.333352
-0.347395 -0.134627 -0.266747
0.113022 -0.024862 0.096572
0.286065 -0.183917 0.201598
-0.140230 -0.018233 -0.113505
0.125147 -0.127010 0.337219
0.402421 0.104271 -0.076881
-0.239687 0.162897 -0.110966
-0.106146 -0.043452 0.495058
-0.105602 0.069156 0.179641
-0.102447 0.038751 0.194987
0.274709 -0.126287 0.117574
0.281460 -0.019886 0.143949
-0.403959 -0.086857 0.029153
-0.267754 0.138696 -0.211562
0.246046 -0.136662 0.131421
-0.099253 0.184485 -0.280880
0.196492 -0.049590 0.176293
-0.211216 0.062261 -0.130300
-0.040835 -0.111215 -0.172121
0.038764 0.087704 -0.255929
0.323196 -0.020294 -0.281377
-0.135480 -0.032067 -0.217373
-0.168958 0.003470 0.108441
-0.296903 -0.055985 0.018892
-0.269310 -0.057773 0.162419
0.190121 0.141180 -0.021242
0.129632 0.035965 -0.467338
-0.140773 -0.142317 0.185275
0.190931 -0.051042 -0.239758
-0.037467 0.020481 -0.109600
0.175679 0.086412 0.073811
0.193236 0.078431 -0.187378
-0.244209 -0.114624 -0.153728
0.187187 0.015637 0.111498
-0.034134 -0.034278 0.300461
0.333469 -0.008901 0.045517
-0.301749 0.110623 0.028172
-0.279429 0.113099 0.286570
-0.039308 -0.068687 -0.324442
-0.428731 0.063889 -0.022448
-0.440357 -0.095831 -0.093322
-0.249693 0.058831 -0.079893
-0.084056 0.162523 0.253944
0.063355 -0.062113 -0.257597
-0.288189 0.095698 -0.277990
0.017821 -0.147292 -0.294937
0.005150 0.068906 0.250485
-0.138540 0.053342 0.185696
0.213458 0.048693 -0.223559
0.205174 0.130848 -0.167837
-0.403381 0.027346 -0.131261
0.196828 0.026019 0.367561
0.093173 0.061681 -0.439171
-0.288254 0.151406 -0.001524
0.403287 -0.037936 0.132587
0.298935 0.093951 -0.190419
0.038829 -0.065496 -0.409213
-0.117412 0.082678 0.160474
-0.113598 -0.123762 -0.362353
-0.039044 -0.045097 -0.276806
0.148997 0.097578 -0.242659
0.038103 -0.005729 0.116116
-0.048359 0.053576 -0.398971
-0.211914 -0.048366 0.173451
0.255942 -0.151508 -0.038395
-0.258392 0.066346 -0.041615
-0.232498 -0.121924 -0.303389
-0.102200 -0.004277 0.333875
-0.252665 0.103185 0.250994
0.151110 -0.132134 0.161175
-0.171764 -0.017408 -0.126666
0.311133 0.037313 -0.104150
0.029710 -0.040019 -0.290495
0.051231 0.042705 -0.356360
0.362869 0.030076 0.204044
-0.103935 -0.066085 -0.236394
-0.023896 0.041518 0.221990
-0.213569 -0.071775 -0.165282
0.013910 -0.062907 0.402539
0.242141 -0.137815 -0.005205
-0.239327 0.014887 -0.362960
0.016849 -0.099988 -0.174648
-0.243749 -0.150531 0.094501
-0.032926 -0.106983 0.182058
-0.380859 0.178954 -0.066057
0.088134 0.050574 -0.091970
0.233802 0.153787 -0.140263
-0.184507 0.128149 0.021032
0.159944 -0.109181 0.226243
-0.339163 -0.152123 -0.002678
-0.032835 0.014389 -0.121673
-0.037294 -0.023731 -0.429884
0.173393 0.066316 -0.197762
0.257200 0.004521 -0.272379
-0.118378 0.071679 -0.479335
-0.169691 -0.019910 0.030189
0.260977 -0.061604 0.076713
-0.146241 -0.124361 0.283852
0.292632 0.096520 -0.256413
0.356505 0.136044 0.108051
-0.401460 -0.007093 0.249845
-0.225996 0.179006 0.197769
0.384249 0.035739 0.146162
0.415995 0.037572 -0.034224
-0.141870 -0.108643 0.269907
0.084755 -0.019772 -0.323746
0.343757 0.012818 0.091989
-0.166246 0.006042 0.103779
0.152816 -0.072242 -0.390116
-0.036672 0.185819 0.268794
0.126659 -0.041392 0.425525
-0.208409 -0.054687 0.194667
0.086198 -0.070487 0.117568
0.144745 -0.066876 -0.158040
0.358595 -0.163793 0.050322
0.143361 -0.125027 -0.330185
0.016199 -0.170553 0.341145
0.332000 0.028270 0.006859
0.340020 -0.014093 -0.282763
-0.095250 0.086438 -0.221313
0.196178 -0.091358 -0.201980
0.178485 -0.102338 0.079667
0.281101 -0.116329 -0.240491
-0.032109 0.147833 0.338074
-0.231371 -0.038597 -0.200463
-0.343814 0.022656 -0.028874
-0.380524 0.106947 0.150055
-0.197704 -0.123007 -0.189953
-0.135529 0.113885 -0.116897
0.380678 0.030175 0.040269
-0.148969 -0.073723 0.031940
-0.012420 -0.029805 0.152123
0.306579 0.104130 -0.182661
0.361506 0.048175 0.036569
-0.160222 -0.106051 0.070411
0.007429 -0.040458 0.416460
0.144967 0.033500 0.240946
-0.019341 0.121145 -0.229406
-0.300069 0.091586 -0.040355
0.317331 -0.018978 -0.081480
0.268587 0.003177 0.368203
-0.134643 -0.135089 -0.129024
0.144289 0.199930 -0.271870
0.082856 -0.016733 -0.081057
0.202751 0.089941 -0.163820
-0.124873 -0.123412 -0.104603
0.351264 -0.106434 0.184032
0.298695 -0.029982 0.091767
-0.052468 -0.157042 0.331195
0.261650 0.000442 -0.200017
0.337987 0.108920 -0.181420
-0.211042 0.052642 0.188427
-0.140643 0.081869 -0.418477
-0.055535 0.145061 -0.296088
0.289784 -0.141656 -0.004890
0.361757 -0.002753 0.074547
-0.405195 -0.080531 0.019544
-0.049036 0.047211 0.317106
-0.179364 0.093149 0.287398
-0.208312 -0.090816 0.253518
-0.164224 -0.139458 -0.197007
0.294069 -0.103446 0.070225
0.247149 -0.119639 0.249386
-0.131487 0.141046 -0.225772
-0.246215 -0.032486 0.034681
-0.022088 -0.152834 0.351548
0.014075 0.142657 0.360441
-0.231309 -0.037048 -0.212597
0.178830 0.127593 0.312896
-0.290295 0.148523 0.095513
0.163715 -0.050976 0.261432
-0.218485 0.133206 -0.175412
-0.406514 -0.039395 -0.116040
0.245238 0.036770 -0.152708
0.104293 0.060186 0.314715
-0.372898 -0.122385 0.114688
-0.185468 0.077717 -0.196062
-0.002231 -0.086829 -0.118463
0.217049 0.132203 -0.156679
0.160110 0.051144 0.240293
-0.056895 0.021795 0.238856
0.173075 -0.124833 -0.042539
0.350890 0.000603 0.085288
0.240542 0.132832 0.086984
0.324308 -0.145251 0.103116
-0.393869 0.159505 0.075211
-0.165830 -0.044957 0.191472
-0.109410 0.027050 0.193452
0.085353 -0.023035 0.140815
0.407483 -0.024231 -0.156842
0.314225 0.007044 0.233519
-0.109797 0.110589 0.105315
0.157610 -0.051643 -0.201478
0.047145 0.039908 0.178827
-0.145294 -0.021242 0.174197
-0.401837 -0.038526 0.168627
-0.160972 -0.140372 0.248499
-0.260650 -0.148967 0.105110
0.094666 -0.056524 -0.285616
-0.227095 0.045624 0.230121
-0.009431 0.127582 0.219020
-0.151323 -0.057363 0.055461
0.251027 -0.076955 0.246442
-0.216172 -0.017564 0.053113
0.351036 -0.146599 0.015181
-0.141033 -0.113832 0.265717
0.109441 -0.018795 -0.497484
-0.152675 0.031149 -0.285999
0.105988 0.019258 -0.061635
0.134169 -0.052916 0.271431
0.127511 0.045175 -0.024324
0.229718 0.091911 -0.016085
-0.298758 -0.003005 -0.254069
0.027668 0.078532 -0.275875
0.230578 0.007276 0.046428
-0.217421 -0.116536 -0.063997
0.127822 -0.121036 0.112451
0.452081 -0.042533 -0.064845
0.013941 0.111739 0.373908
-0.100779 0.060180 -0.472825
0.186564 0.072056 -0.153132
-0.030628 -0.047581 0.302986
0.275750 -0.070513 0.083008
-0.290906 -0.044379 0.063932
0.208611 -0.039021 -0.269479
-0.178416 -0.168327 -0.352905
0.248308 -0.047538 -0.113218
0.255929 -0.177896 0.150191
-0.416825 0.038922 -0.019586
-0.245949 0.046724 -0.030496
-0.400761 -0.021349 0.181223
0.032359 0.050477 0.434580
0.224954 -0.145080 -0.060882
-0.051596 -0.119598 0.236189
-0.003318 0.096961 0.316527
0.207162 -0.033725 -0.146349
0.033891 -0.033238 -0.434190
0.202986 0.015531 0.114504
0.282892 0.023781 0.359826
-0.266996 0.046923 -0.179450
-0.019707 0.056603 0.255840
0.072524 -0.045258 -0.337729
0.214061 -0.093222 0.310266
0.206684 0.026593 0.044868
0.245773 0.046083 -0.179643
-0.276593 0.185395 0.189353
0.322403 0.132066 -0.234912
0.240059 -0.161863 -0.091559
-0.352896 -0.119424 -0.117591
-0.211956 0.150556 -0.156148
-0.228966 -0.063764 -0.187139
-0.205181 0.027123 -0.374896
-0.137705 0.045630 0.403026
0.369644 -0.136301 -0.090622
-0.174420 0.147684 -0.150555
0.057774 -0.039086 0.180056
-0.293140 -0.047935 -0.214420
-0.019513 -0.058688 -0.409545
-0.254109 -0.089033 -0.254604
-0.416797 -0.109961 -0.118092
0.254962 -0.139143 -0.017079
0.299605 0.076962 -0.187179
-0.162405 0.017521 0.267983
-0.212836 0.130919 -0.126811
-0.105145 0.184802 0.240013
-0.246960 -0.160969 0.132601
0.049339 -0.119253 0.136074
-0.352438 -0.116285 0.216795
-0.094591 -0.033398 -0.289638
0.270985 -0.034390 -0.198571
-0.167995 -0.122378 0.277913
0.193480 0.150503 0.200060
0.139104 0.163280 0.302150
-0.145929 -0.033203 0.168243
-0.090471 -0.041737 0.115566
-0.155141 0.013509 -0.277769
0.279792 -0.002797 -0.397450
-0.373478 -0.013945 0.103138
-0.204697 -0.061523 0.113662
-0.354920 0.004927 -0.066877
-0.288308 -0.060235 0.057167
-0.232233 0.019614 -0.366777
0.092156 -0.179203 -0.278984
-0.087726 -0.175754 0.257121
-0.109820 -0.056118 -0.200387
0.228852 -0.157574 -0.006597
0.346284 0.161504 0.031424
-0.179331 -0.082843 -0.325458
0.034679 -0.034417 -0.168821
0.073702 -0.072293 -0.438088
0.256126 -0.053512 0.102529
0.094217 -0.068076 -0.311240
-0.335549 0.029682 0.013593
0.294626 -0.103537 0.051523
0.436238 -0.057182 -0.031296
-0.283375 0.042243 -0.046583
-0.046044 -0.043356 0.442780
-0.154314 -0.156970 0.185078
0.116598 0.009307 -0.324268
0.159336 -0.003428 0.114025
0.099872 0.161435 -0.229777
-0.185605 -0.035259 -0.045494
-0.364142 -0.020839 0.179610
-0.218145 -0.154477 0.224486
-0.243587 0.051120 0.006036
0.175911 0.043438 -0.401379
0.363148 0.051795 -0.066645
-0.086301 0.055219 -0.267174
-0.257794 0.136452 0.136044
-0.332964 0.135588 -0.133760
0.288594 0.162682 0.012119
0.073749 0.070094 0.343342
-0.179345 -0.072355 0.098677
-0.209148 0.061818 -0.168034
0.211031 -0.053478 -0.190399
-0.168929 0.090434 0.250664
0.254780 0.044710 -0.348555
0.197633 -0.016759 -0.121831
-0.223898 0.137314 0.237864
0.218815 0.108842 -0.058071
-0.360403 -0.006756 -0.081037
0.297218 0.010328 0.221246
0.208339 0.115172 0.306110
0.379133 0.077283 0.121349
0.421414 0.072975 -0.023295
-0.209849 -0.192542 0.203637
-0.210070 -0.050318 0.253407
-0.274406 0.092992 -0.267059
0.042243 -0.145138 -0.348616
0.004151 -0.018960 -0.117304
-0.288461 -0.061228 0.179945
-0.316420 0.028201 -0.065256
-0.201773 0.141625 -0.159962
-0.339052 -0.065849 -0.175935
-0.011186 -0.060772 0.125926
-0.236191 0.158862 -0.114550
-0.326357 0.044884 -0.247435
0.108050 -0.099525 0.350835
-0.227695 -0.124542 -0.309834
0.245502 -0.123234 -0.036758
-0.130375 0.055056 -0.042641
-0.262515 0.145485 0.032303
-0.413527 0.079118 -0.013962
0.067182 0.056057 0.228134
0.294799 -0.170453 0.228407
0.071359 -0.037001 -0.237860
0.168063 0.134762 0.307916
0.107538 -0.130626 -0.218192
0.181611 0.063997 0.100493
0.090495 0.037192 -0.071203
0.220069 -0.029741 -0.218183
-0.177474 0.133398 -0.127527
0.354259 -0.107522 -0.252292
0.384312 0.025325 0.053236
0.326152 0.018340 0.181597
0.329133 0.105807 -0.204101
-0.370834 -0.065038 -0.175663
0.244213 -0.138192 -0.119950
-0.115727 -0.039104 -0.290127
0.099454 0.043016 -0.278202
-0.268251 -0.044199 -0.063772
0.293222 0.134726 0.086090
0.319782 0.042796 -0.083666
-0.071520 -0.117306 0.209945
-0.319460 -0.022181 -0.028767
0.266764 -0.052305 0.104720
0.091386 0.058183 -0.183751
0.073991 0.074705 -0.179466
-0.131071 0.088994 0.154972
-0.097754 -0.013051 -0.477626
0.303708 0.007174 0.317020
0.035660 -0.041098 0.344110
-0.199658 -0.058880 0.110438
-0.101699 0.176632 -0.298930
-0.170163 -0.034815 -0.017280
0.018644 -0.033716 -0.111659
-0.123620 0.048314 0.208320
0.052139 0.112035 0.381229
0.299650 0.085455 0.268309
-0.266263 0.003898 0.274986
-0.268648 -0.046291 -0.054939
0.263992 0.048108 0.173744
0.335735 0.103768 0.107733
0.300378 0.056184 -0.193597
-0.281248 -0.090016 0.044903
0.146613 -0.165770 0.213264
0.201951 -0.027529 -0.017754
-0.018516 -0.089671 -0.202474
-0.221073 -0.147899 -0.075264
0.118020 0.043719 0.321565
-0.287120 0.040907 -0.041606
0.001387 0.052337 -0.391015
-0.017266 -0.110410 0.241068
0.132095 0.143290 0.118999
-0.177348 -0.114090 0.318664
0.291150 -0.112306 0.271841
0.138754 -0.145375 -0.262916
-0.129244 -0.016157 0.156300
0.192214 -0.055195 -0.342258
-0.194205 0.054849 -0.378174
-0.346992 0.022129 -0.034196
0.286472 -0.063924 -0.223993
0.302943 -0.139839 0.015069
-0.066185 -0.013382 0.124701
-0.213495 0.126504 0.177796
-0.036110 -0.047951 0.137223
-0.301555 -0.002186 0.316472
0.061755 0.034437 -0.224762
-0.076727 -0.080811 0.203280
0.288379 -0.029891 0.144482
0.239206 0.058998 0.104909
0.036856 -0.147436 -0.350213
-0.295805 -0.057632 -0.018633
-0.093694 -0.040757 -0.368401
-0.263987 -0.038698 0.189027
-0.023204 0.132850 0.233457
0.073324 -0.161106 -0.335239
0.351459 0.019062 -0.044108
-0.053610 -0.134534 -0.307506
0.201151 0.015099 -0.033875
0.305966 0.114359 0.035956
-0.160292 -0.039801 0.030316
0.019971 -0.048254 0.186374
-0.121329 -0.027830 -0.410839
0.035844 0.015768 -0.235067
0.243864 -0.168675 -0.054368
0.411210 -0.041242 -0.141427
0.231836 0.093132 0.121564
-0.183966 -0.046820 0.042394
-0.079865 -0.054588 -0.100921
0.305772 -0.071903 -0.170109
-0.131355 0.089358 0.133458
-0.009813 0.146162 -0.236671
0.265892 -0.174421 0.169864
0.296889 0.090987 0.031154
0.420287 -0.012093 -0.034118
0.154241 -0.021329 0.296015
0.389849 -0.015051 -0.059013
0.275731 -0.166250 0.129770
0.370872 0.116031 -0.132577
0.319560 0.142217 0.144263
0.213631 0.062181 -0.045784
0.076606 -0.180224 -0.228333
-0.315336 -0.086644 -0.035529
-0.174302 -0.053677 0.027137
0.187396 0.123936 0.078080
0.152579 -0.091214 -0.040196
0.033461 0.010386 0.116817
-0.240641 -0.099148 -0.310751
0.188774 -0.139697 0.347631
-0.277481 -0.189668 -0.207131
0.118805 0.119249 -0.359161
0.042231 0.025420 0.230023
-0.190538 0.079327 0.074940
-0.240008 -0.011004 0.265242
-0.136444 0.131758 0.190927
-0.169231 -0.142391 0.151054
-0.343915 -0.003700 -0.077804
0.262584 0.097792 0.384592
-0.234626 0.054286 -0.165783
-0.134768 0.029237 0.476580
0.030729 -0.044731 -0.301454
0.333042 -0.024047 -0.267381
-0.117271 0.122297 -0.289676
-0.221314 -0.027374 0.089402
-0.023766 -0.093234 0.317827
-0.175125 -0.026837 -0.405142
0.125413 -0.145244 0.174094
-0.061337 -0.029330 0.127503
0.298123 0.141909 -0.102147
0.122416 0.020990 -0.044676
0.072800 -0.018317 -0.149428
0.307792 -0.047919 0.082560
-0.275772 -0.146845 0.135756
-0.077975 0.041105 0.208783
0.341386 0.064792 -0.176780
-0.257372 -0.070232 -0.226863
0.299164 0.057688 0.007811
0.074608 0.161465 0.201475
0.295814 0.044834 -0.287175
-0.237998 -0.107066 -0.163343
-0.220771 0.125551 -0.017592
-0.043058 0.120061 0.188007
-0.120825 0.008840 -0.146916
-0.240888 -0.134883 0.161052
-0.238485 0.121845 -0.127018
-0.061756 -0.115339 0.321845
-0.224834 -0.075015 -0.024671
0.146158 0.151884 -0.191828
-0.007920 -0.029785 0.163467
-0.212332 -0.130351 0.226929
0.416942 -0.006614 -0.033846
0.128734 0.033102 -0.179955
0.207596 -0.032096 -0.115836
-0.095053 0.089085 0.167726
-0.452300 -0.084696 -0.086055
0.111134 0.105862 0.196120
-0.227502 -0.050524 -0.157876
-0.327505 -0.005205 0.297844
0.082635 -0.006879 -0.139156
0.361921 0.084191 -0.189251
0.189864 0.176982 0.190623
0.358932 -0.110702 0.023470
0.339625 -0.096420 -0.208726
0.203223 0.139025 0.059854
0.000040 -0.065632 0.140524
0.083586 0.128278 0.176338
0.226318 0.103571 0.102402
0.157933 -0.008045 0.030027
-0.318920 0.056383 0.109743
-0.060250 -0.021738 0.139163
0.370095 -0.106825 -0.239155
0.017441 -0.040235 -0.290728
0.219106 -0.067450 0.192763
0.178441 -0.141794 0.087633
0.160158 -0.081168 -0.052701
-0.064901 0.142837 -0.272127
0.247068 -0.141194 0.095194
-0.399268 -0.017685 0.166546
0.335923 0.184381 0.038133
-0.037085 0.032592 -0.180719
0.024235 -0.026004 -0.212590
-0.209913 -0.129555 -0.284039
0.183183 0.006747 -0.139091
0.060685 0.016192 0.117651
-0.210020 -0.027785 -0.142992
0.189448 0.060274 0.114748
-0.308921 -0.114203 -0.076558
0.053452 -0.021787 0.235712
-0.367038 -0.108731 -0.126641
0.086673 -0.188795 -0.252115
-0.256563 -0.131283 -0.248357
0.258036 -0.037867 -0.177604
0.188586 0.029482 -0.279401
-0.041294 0.120026 0.205776
-0.314330 0.117497 0.033335
-0.405396 -0.046492 0.236579
0.349865 0.126617 0.227214
0.358590 -0.116455 -0.140239
-0.203831 0.095138 -0.384093
0.269296 -0.041314 -0.063535
-0.305252 0.095463 -0.268328
-0.179944 -0.116277 -0.348445
-0.430566 -0.065133 0.000857
-0.119106 0.074995 -0.467216
-0.113412 0.005525 0.145130
-0.059416 -0.141491 -0.278635
-0.103020 0.072953 0.225933
-0.307212 0.071243 -0.043997
-0.033521 0.032452 0.312032
0.082609 0.079769 0.399296
0.320982 0.012801 -0.082052
0.448486 -0.096337 -0.083664
0.336193 0.134083 0.002752
0.152701 0.079308 -0.000586
0.149398 0.158193 0.303816
0.313344 -0.121203 -0.011256
0.228746 0.072688 0.156229
0.028192 -0.094329 0.180228
0.045623 0.008556 0.347235
-0.136803 -0.143821 0.168988
0.062988 -0.017340 0.448912
0.106430 0.051471 -0.230721
-0.013543 0.181065 0.242588
-0.304050 -0.072053 0.183076
-0.253771 -0.081036 -0.234281
0.263152 0.043205 -0.341246
-0.298299 0.024250 -0.147865
-0.147828 0.160082 0.217448
0.084254 0.161255 0.157908
0.172396 0.171386 -0.322758
-0.279877 0.085247 -0.230220
-0.337482 0.193148 0.061570
0.236433 0.097438 -0.008846
-0.375075 0.059534 -0.193158
0.094955 0.029471 -0.161770
0.379331 0.030762 0.124017
-0.126767 -0.064167 -0.023458
-0.145602 0.054107 0.249296
-0.127138 -0.029196 0.417673
-0.225148 -0.130858 0.062486
0.213792 -0.068774 -0.324844
-0.311966 -0.081113 -0.038727
-0.378936 -0.054799 -0.187568
-0.300085 0.133629 0.267617
-0.104331 -0.110115 -0.364994
-0.405922 -0.145275 0.089989
0.134580 0.119629 -0.094734
0.229276 0.032011 0.006848
0.038933 -0.037656 0.201960
0.080219 0.018444 -0.307548
0.198568 -0.137371 0.269406
-0.099404 0.109670 0.128231
-0.267701 -0.100268 -0.293939
0.260212 0.149634 0.095891
-0.148488 0.133640 0.053844
0.252255 0.116715 0.060381
-0.035992 0.130638 -0.335489
0.068713 -0.030880 -0.092192
0.245565 -0.119163 -0.041829
-0.443793 -0.044618 0.075314
0.153861 -0.104711 0.102925
-0.113984 -0.028668 -0.400620
0.234073 -0.065916 -0.297350
-0.185775 0.071321 -0.351290
-0.250966 -0.055392 -0.069405
0.227835 0.044172 0.021710
0.285678 -0.031362 -0.104588
0.188800 0.096248 0.216206
0.314608 0.094516 -0.031325
-0.199690 -0.169414 0.244514
0.178586 -0.109301 -0.241497
0.104835 0.041286 -0.063554
0.284874 -0.043445 -0.097439
0.095536 -0.107148 -0.204376
-0.085173 0.143226 0.288376
0.140587 0.064557 0.001307
-0.365996 0.023597 0.192233
-0.434340 -0.075003 -0.098899
0.223886 0.017267 0.029416
0.266997 0.113191 0.240661
-0.071273 -0.152243 -0.264076
0.262547 0.022524 0.366160
0.397233 0.151364 -0.081721
-0.015166 -0.106485 0.322329
-0.093132 0.067309 0.461898
-0.028454 0.026380 0.182187
-0.251982 -0.030840 0.155852
0.326965 -0.029474 -0.276500
0.355169 -0.164563 0.045562
0.315424 0.031164 0.060413
-0.156749 -0.070735 -0.230067
-0.075893 -0.127844 -0.237852
-0.033899 0.026466 0.408042
-0.082502 -0.056417 -0.348180
0.392827 -0.060795 -0.020068
-0.065372 -0.037503 0.292021
0.076008 -0.171279 -0.207130
0.035201 -0.134400 0.235185
0.032915 0.025053 0.330289
0.148032 -0.069082 -0.086355
0.299126 0.049709 -0.200297
0.247725 -0.114688 -0.082441
-0.134455 -0.034038 0.080244
-0.084741 -0.121863 0.205657
0.351894 0.073677 0.175930
0.383281 -0.014245 -0.248130
-0.125387 -0.051189 0.328453
-0.300062 0.069618 0.205534
-0.257435 0.148981 0.030771
-0.383377 0.045982 -0.259606
0.321543 -0.158419 0.257301
0.051633 0.109293 0.229037
-0.207521 -0.116915 -0.191244
0.123128 0.032255 0.214376
0.375099 -0.080264 0.176542
0.018596 0.159039 0.343037
0.183681 0.130357 -0.309874
-0.181337 -0.066590 -0.127601
0.190106 0.145852 0.197572
0.329195 0.116696 0.246582
-0.247518 -0.151780 -0.094648
0.056249 0.091546 -0.138445
-0.293797 -0.032861 -0.180860
0.168271 0.159407 -0.247274
0.313031 -0.122883 0.027633
0.206605 -0.048102 -0.350029
-0.371672 -0.075281 -0.191427
-0.168321 0.120578 -0.255209
-0.235601 0.042309 -0.058826
0.043302 -0.025458 -0.281687
0.163313 -0.082670 0.149256
0.173017 0.047683 0.311644
-0.225407 -0.159035 0.066436
-0.328267 -0.015217 0.083593
-0.274031 -0.116040 -0.090000
0.141656 0.129537 -0.330892
-0.170600 -0.014674 0.262183
-0.189937 -0.158548 -0.033993
-0.152815 0.080514 0.258888
-0.055691 0.063389 -0.445815
-0.154144 -0.009530 0.274962
0.178077 -0.071916 0.328923
-0.164145 0.084612 -0.007466
-0.207793 -0.151344 -0.060600
-0.069371 0.102051 -0.227960
-0.274523 0.012344 -0.333637
0.253724 0.054226 -0.109755
0.148329 0.154692 -0.338397
-0.213590 -0.083050 0.248495
-0.313766 0.055028 -0.096358
-0.253403 0.110403 0.250842
0.176420 -0.003104 0.294029
0.298501 -0.009671 -0.118904
-0.230795 -0.124572 -0.057549
-0.209934 -0.061791 -0.026827
-0.046969 0.039111 -0.273573
-0.306353 -0.070061 0.248975
-0.102532 -0.064538 0.232650
-0.077959 0.067917 0.461656
0.313541 0.194581 -0.079034
0.176327 -0.054714 -0.029415
0.147975 -0.077321 0.241027
-0.028950 -0.183395 -0.275132
0.233631 -0.173821 -0.086462
-0.335772 0.036852 -0.028252
0.056564 -0.028415 0.298874
-0.301541 0.070129 -0.255805
-0.303586 -0.092405 -0.261893
0.306042 -0.048394 0.051324
0.289636 -0.100325 -0.202752
-0.121263 0.117390 0.167323
0.141038 -0.034117 0.220819
0.370296 0.043388 -0.203282
-0.200272 -0.104839 -0.193743
0.380782 -0.065207 -0.134337
-0.312252 -0.057215 0.047491
-0.359592 -0.041005 0.032962
0.144683 0.088074 -0.012349
-0.277794 -0.006697 -0.168418
-0.181739 -0.114386 -0.354151
0.061685 -0.132276 -0.334287
-0.452282 -0.073510 0.062733
-0.429724 -0.006923 0.048418
0.175174 -0.053566 0.317120
-0.238723 -0.134153 -0.205071
0.231106 -0.130667 0.227886
0.030716 0.124122 0.198125
0.232609 -0.077877 -0.139019
0.000013 -0.052262 -0.178344
0.097601 -0.132091 0.308163
0.006030 0.121114 0.375399
0.051518 -0.050280 -0.122916
-0.042168 -0.084289 -0.347128
0.165396 -0.129960 -0.292732
-0.349572 0.092343 0.191954
-0.332477 0.117834 0.210559
0.189886 0.056829 0.204607
-0.041180 0.060513 0.274422
-0.158040 -0.143784 0.108552
-0.210904 -0.185697 0.221141
-0.025285 -0.158369 0.352476
0.414299 0.006151 -0.034691
0.322015 0.016090 0.169960
0.263627 -0.109699 -0.160546
0.028458 -0.127887 0.241042
0.289539 0.145283 -0.141111
0.205457 -0.070474 0.021778
-0.289216 0.027777 -0.385254
0.259978 0.181161 -0.150503
-0.153767 -0.071048 -0.146556
-0.251994 -0.045289 0.060727
-0.048858 -0.044530 0.171806
0.123284 0.002623 -0.128824
0.252374 0.064768 -0.026796
-0.149829 0.185735 0.260473
0.200609 -0.075273 -0.229120
-0.211041 0.049628 0.126871
0.180222 -0.069603 0.323094
-0.065507 -0.085113 0.175380
0.112023 -0.054931 -0.107416
-0.168004 -0.028250 -0.287754
-0.304715 -0.141364 -0.141639
0.357588 -0.100294 0.173065
-0.213207 -0.045396 -0.237009
0.260150 0.114743 0.328848
-0.112403 -0.044695 0.492867
-0.158700 0.031669 0.239076
-0.179860 -0.124028 0.316545
0.155588 0.039608 -0.139741
0.312019 -0.147952 0.097017
0.362368 0.051997 -0.100999
-0.377644 -0.004641 -0.186453
-0.333749 -0.031745 -0.047969
-0.080462 0.047838 0.359529
0.084888 0.138470 -0.285365
0.142672 -0.121762 -0.325043
-0.312427 0.081647 -0.256004
-0.203882 -0.089610 0.366974
-0.245650 -0.141240 0.139921
-0.132064 0.048921 -0.261859
-0.331381 -0.133757 -0.033246
0.273346 -0.053986 0.092084
0.302054 0.105907 0.269105
0.293678 -0.149908 0.130617
-0.133118 0.014366 0.409606
0.294706 0.009852 0.300924
0.034641 -0.028027 -0.404948
0.175710 -0.099842 0.156665
0.215816 0.064997 -0.296847
-0.165848 0.071352 0.272809
0.299871 -0.121027 0.266119
0.229391 0.056054 0.043025
-0.016495 -0.048415 -0.256621
-0.307475 -0.026821 0.094327
0.004436 0.084817 0.411775
0.319223 -0.093617 -0.183308
0.111419 -0.034361 0.418647
-0.212658 0.039706 -0.253613
0.100978 0.063610 -0.282366
0.182542 0.157968 -0.225061
0.204890 0.025169 0.266184
0.388239 0.158476 0.079321
0.389119 0.044158 0.197060
-0.071218 -0.050350 -0.334268
-0.201856 0.032912 -0.261549
0.057657 0.031203 0.228195
-0.208247 0.138501 0.154899
-0.018341 0.053584 0.382383
0.234496 0.057272 -0.050099
0.298880 0.111372 -0.034964
0.143096 -0.054974 -0.159739
-0.103109 0.017956 0.053053
0.320197 -0.022525 -0.013168
-0.095625 0.089830 0.112779
-0.190101 -0.041505 0.118650
0.399911 -0.073944 -0.252894
0.112552 -0.136879 0.287306
0.217364 0.020534 0.025432
0.096853 -0.064726 0.205568
0.420609 0.083021 0.043438
-0.229358 0.043013 -0.139196
0.212346 0.053227 -0.189748
-0.244714 -0.072142 0.159166
-0.135220 0.131573 -0.104317
-0.240580 -0.122547 -0.022906
-0.158725 0.061770 0.285030
0.210515 0.003798 -0.251247
0.004006 0.025012 -0.126242
0.402379 0.037442 0.037651
-0.129599 0.026344 -0.180543
0.062344 -0.085194 -0.394953
-0.164534 -0.048260 0.228403
0.313299 -0.096321 0.252495
0.277687 -0.170909 0.140335
0.084501 0.137863 0.184299
-0.044103 0.041040 -0.377884
0.230202 -0.073608 -0.284924
-0.051662 0.010343 -0.173998
0.051707 0.066530 0.169894
-0.155140 0.113355 -0.333294
-0.375380 -0.123804 0.041354
-0.244059 -0.052223 0.126819
-0.345987 0.030338 0.036882
0.208397 0.029408 -0.311548
-0.406479 -0.050002 0.032201
0.284926 0.184021 -0.203751
0.007479 0.049925 0.258334
0.145481 0.119290 -0.044864
0.226563 -0.044318 0.049566
-0.387089 0.062570 -0.101135
-0.325998 -0.151080 -0.087224
0.109146 -0.123278 -0.158338
0.232891 -0.025803 -0.215517
-0.129969 0.078485 -0.103014
-0.115005 0.120508 -0.197436
0.314811 -0.068470 -0.097625
0.263438 0.096364 0.247175
0.216510 0.107420 -0.032924
0.355394 0.000604 -0.099054
0.117958 -0.067277 0.270050
0.225905 0.002832 -0.027637
0.158863 -0.056925 0.391179
-0.183396 0.072503 0.290404
-0.246153 -0.064220 0.119369
0.107700 -0.026157 0.204363
-0.212294 0.003355 -0.269790
0.068570 -0.001491 -0.200652
0.061873 -0.040233 -0.234764
-0.122093 0.056319 -0.091720
-0.063423 0.074304 0.341296
0.369437 -0.034197 -0.168668
0.163546 0.082985 -0.353787
0.211385 -0.018957 0.010174
0.040385 0.101970 -0.264357
0.363639 0.111671 -0.029833
0.096125 -0.006838 -0.093798
-0.201286 -0.129461 -0.080280
0.344514 0.028381 0.174156
-0.043285 0.005160 -0.206468
-0.136782 0.026121 -0.281979
0.294635 0.045826 -0.083774
0.101924 0.146703 0.133441
-0.361954 -0.107008 0.104394
-0.191231 -0.134831 -0.351024
0.221657 -0.077791 0.175238
0.049140 0.000374 0.311136
-0.386207 -0.086535 -0.021799
-0.350466 -0.073961 -0.132685
-0.342868 0.096664 -0.166340
-0.264803 0.151741 0.033599
0.243533 -0.095568 0.003859
-0.170424 0.074710 -0.120788
0.161224 0.118001 0.355876
0.030550 0.044082 0.404321
0.203711 0.138340 0.065749
-0.028827 0.017852 0.227453
0.303482 -0.025944 0.292513
-0.110022 -0.017355 0.079319
-0.081249 0.052024 0.260744
-0.048190 -0.012336 -0.193691
-0.393872 -0.079397 0.258344
-0.160981 0.056781 0.137018
-0.026697 -0.096141 -0.345500
0.328532 0.140443 -0.117041
-0.173610 -0.135129 -0.203157
0.260269 0.082344 0.285890
0.105347 -0.080359 0.253896
-0.111231 -0.050069 -0.398598
-0.073804 0.128211 -0.198820
0.250714 -0.127789 -0.043228
-0.120753 -0.067898 -0.058446
0.168277 0.055653 0.166329
-0.179688 0.024130 0.246205
0.061557 0.055562 -0.110849
0.001973 -0.045329 0.408125
-0.354507 -0.017840 -0.078978
-0.065088 -0.027455 -0.258319
-0.300344 -0.060720 -0.266892
0.205387 -0.096120 -0.355205
-0.217343 0.002345 0.054200
-0.114385 0.044022 -0.498103
-0.153539 -0.041542 -0.274165
-0.290281 -0.118983 -0.279476
-0.317910 0.003112 0.337271
-0.271645 0.164739 0.156744
-0.148189 -0.139437 -0.215865
-0.319516 -0.050912 0.257757
-0.159118 -0.133303 -0.085047
0.154505 -0.124898 0.223323
-0.139203 -0.098917 -0.034447
0.161572 0.094133 -0.295092
-0.337472 -0.149919 -0.269576
-0.298414 -0.019473 0.388249
-0.333597 -0.116843 0.253178
0.340698 -0.118636 -0.084737
0.308582 -0.155267 0.246666
-0.168262 -0.095515 -0.072047
-0.250877 -0.077305 0.047846
-0.421596 0.135830 0.102884
-0.282665 -0.127346 -0.142492
0.190920 0.050841 0.261412
-0.046854 0.125708 0.336008
0.136106 -0.145607 -0.257398
-0.227315 0.109868 -0.043895
-0.060721 0.031457 -0.242748
-0.435159 -0.046912 0.113374
0.290560 -0.034178 -0.114870
-0.374519 0.059184 0.102360
-0.409171 0.034456 0.132638
-0.204706 0.145693 0.012639
-0.164075 -0.013199 0.279184
0.042024 0.010051 0.223036
-0.280682 -0.078825 0.232915
0.125505 0.007330 -0.101709
-0.288208 0.068478 -0.036947
0.426457 0.039113 0.027563
-0.295420 0.019649 0.185904
-0.014621 -0.091610 -0.208125
0.097210 -0.048772 0.288740
0.111536 -0.066543 0.298471
0.203425 -0.094178 0.190639
-0.223718 0.071143 -0.031491
0.101544 0.098452 -0.129766
-0.238392 0.036287 0.034459
0.149062 -0.053044 0.388395
-0.190409 -0.021914 -0.261405
0.158184 -0.050873 0.375860
0.188755 0.104883 0.316417
0.112203 0.184279 -0.227467
0.087087 0.137539 -0.239730
-0.145889 0.020616 0.434473
-0.186463 0.102861 0.185196
0.017798 -0.132473 0.375837
-0.189267 0.097413 0.294442
-0.078206 -0.037176 -0.108693
-0.089291 0.103082 -0.137708
0.166436 0.087062 0.346577
-0.221765 -0.188441 0.170571
0.110822 0.059184 -0.227157
-0.206224 0.141679 -0.210159
-0.163434 -0.061033 0.381245
-0.256169 -0.101842 -0.147074
-0.233402 -0.108665 -0.021137
-0.113011 -0.052215 -0.070864
-0.151558 0.041672 0.265035
0.183015 0.132445 -0.071078
0.316582 -0.146166 -0.106933
0.027773 0.054629 -0.130175
0.104620 0.046428 0.139354
-0.017446 -0.057244 0.248862
-0.151088 -0.182072 -0.231097
-0.005697 -0.091172 -0.139892
-0.090286 -0.095402 -0.112664
0.165643 -0.106927 0.140709
0.232399 0.072185 0.102985
0.284315 0.016129 -0.183787
0.136229 0.135548 -0.175881
-0.065404 0.163712 0.254894
-0.216824 0.043059 0.213368
-0.175838 0.097263 0.289894
-0.363252 0.068418 0.058691
-0.430439 -0.131062 -0.120051
-0.231914 -0.059915 -0.081794
0.309647 0.145352 -0.262090
-0.120347 -0.115738 0.309852
0.349913 -0.146307 0.009083
-0.042450 -0.068520 -0.115963
-0.111729 -0.172583 0.286508
0.332704 0.145627 0.201282
0.303778 -0.125278 0.159827
0.362481 0.109840 0.023144
0.126420 -0.041636 0.220660
0.118168 -0.076331 0.143642
-0.301525 0.069468 0.044478
-0.171960 0.061733 0.369929
-0.242379 -0.065518 -0.232553
0.237719 -0.037778 -0.203004
0.424839 -0.067897 0.104970
-0.036976 0.068632 0.154363
0.381236 -0.012338 0.190167
0.151192 -0.061265 -0.071693
-0.263560 -0.202046 -0.194298
-0.020461 0.113371 -0.361066
0.089560 -0.088527 0.205595
0.426392 0.045628 0.028061
-0.062499 -0.045501 -0.253634
0.169904 -0.082368 0.111448
-0.249185 -0.159344 0.016832
-0.271097 0.077345 0.305590
0.157828 0.156822 0.240002
-0.389909 -0.148513 0.077909
-0.123612 -0.011502 0.149039
0.217177 0.169028 -0.162310
0.197206 0.018696 -0.077355
-0.024827 0.051405 0.292367
0.400813 -0.057525 0.104553
0.200654 -0.118282 -0.062935
0.262214 0.057618 0.145797
0.162867 -0.098118 0.114881
-0.156638 -0.026817 0.022495
0.345897 0.167832 0.045461
0.037389 0.021229 -0.412177
0.264992 -0.100793 0.053680
0.408198 -0.038846 -0.121825
0.128072 0.101021 0.090634
-0.033996 0.048594 -0.254696
0.098093 0.019357 0.156590
0.149245 -0.154560 0.345487
0.012389 0.116284 0.320345
-0.236477 -0.057786 -0.152219
-0.261155 -0.090154 0.356988
-0.205856 0.012409 0.364568
0.177277 -0.062167 0.166698
-0.269153 -0.010113 -0.195704
-0.110538 0.147298 0.335626
-0.237499 0.077168 -0.282207
0.052100 0.054737 -0.449859
-0.025069 -0.053199 0.406781
0.354868 -0.127973 0.257311
-0.283881 0.145003 0.098481
0.079688 0.055505 -0.446715
-0.235112 -0.040913 -0.140343
-0.161576 0.037666 0.388939
-0.012425 -0.174569 0.343438
0.177326 0.057789 0.243977
-0.259724 0.195517 0.170353
0.335791 0.133922 -0.032090
-0.316138 -0.155888 -0.242862
0.050567 0.001856 -0.109991
-0.110926 0.054236 -0.098167
-0.255848 -0.097546 0.062528
0.157252 0.100839 -0.243019
0.163107 0.133307 -0.334657
0.385005 0.013265 0.198966
0.035302 -0.020939 0.196131
-0.000015 -0.044238 0.161641
0.155692 0.158401 -0.236777
0.213589 0.130937 0.076261
-0.245391 -0.139836 -0.125623
-0.070577 -0.007102 0.307420
-0.298897 -0.001110 0.357058
0.220408 -0.137192 0.063458
0.009873 -0.072541 0.258668
0.010684 0.142167 0.256299
0.292569 0.100323 0.173915
0.010770 -0.095164 0.368764
0.188770 0.068703 0.061782
0.198010 0.110675 0.298277
0.240638 -0.048421 0.134851
0.218380 0.057619 -0.213966
-0.009904 0.161597 -0.354140
0.208150 0.040874 -0.051916
0.204058 -0.059767 -0.041193
-0.467594 -0.089443 0.066940
-0.214172 -0.106107 -0.287633
0.109071 0.000243 0.304920
0.018286 0.044956 0.130601
-0.010122 -0.105096 0.152992
0.241872 -0.156003 -0.172441
-0.126122 -0.069002 -0.262140
0.020434 -0.183610 0.310984
-0.395823 0.085910 0.115510
-0.245540 -0.034998 -0.037984
-0.187985 0.132878 -0.297577
-0.072700 -0.026198 -0.441771
-0.096677 -0.082140 0.223069
0.247158 -0.059196 -0.297186
-0.117844 -0.110892 0.170947
-0.047149 0.100066 0.172189
-0.371853 -0.117093 -0.026912
-0.050209 0.042088 -0.384806
0.043963 -0.042001 -0.126543
0.166480 0.029131 -0.050264
-0.219350 -0.058704 0.144961
-0.232213 0.011101 -0.051609
-0.262411 -0.087839 0.351347
-0.072193 -0.027288 0.089477
-0.050410 -0.040359 0.130710
0.260814 -0.039758 -0.065083
0.204021 0.014865 -0.098729
0.162598 0.143089 -0.238471
-0.222214 0.089003 0.036300
-0.332778 0.024469 -0.242605
-0.203723 0.096722 0.172846
-0.331235 -0.102372 0.116587
-0.167254 -0.028958 -0.049846
0.320209 -0.151200 0.265009
0.001442 0.122499 0.214010
-0.186895 0.132537 -0.076084
0.203494 -0.133735 0.079907
0.304889 -0.120792 0.031136
0.225306 -0.150599 0.108470
-0.046975 -0.035883 0.271319
-0.236680 0.045555 -0.020888
0.112149 0.022001 -0.476455
0.303558 0.023313 -0.307156
0.270678 0.106294 0.022769
0.017328 0.078980 -0.314920
0.409819 0.032626 0.029975
-0.000687 -0.101622 0.147953
-0.368765 0.111221 -0.026010
-0.023860 0.009042 -0.322314
0.204242 -0.045050 0.078839
-0.126276 -0.068194 -0.027711
0.321288 -0.041959 -0.274034
-0.089280 0.097816 0.241349
0.104104 -0.087312 0.237191
-0.099563 0.049877 0.389196
-0.016791 -0.095199 -0.359819
-0.211861 -0.148296 -0.102505
0.141565 -0.083664 0.050154
0.284792 0.150550 0.092068
0.008713 0.118918 -0.233055
-0.333996 -0.150818 0.001002
-0.118498 0.045733 -0.207526
-0.035068 0.054199 0.368864
-0.129236 -0.164046 -0.248202
-0.195822 0.137857 -0.080378
-0.276750 -0.189469 -0.160468
-0.119187 0.012935 0.134775
0.058828 -0.020227 0.136669
0.232407 -0.110128 0.018060
-0.274358 0.098193 0.295545
0.325156 0.005895 -0.282409
-0.189944 0.141507 0.263534
0.152166 -0.130517 -0.123893
0.115973 0.021081 0.490237
-0.125578 0.159530 -0.277870
-0.141294 -0.042529 0.412099
0.159774 0.072084 0.367590
0.013088 -0.018349 0.116089
-0.342815 -0.165520 -0.063386
0.313313 -0.068390 -0.254751
-0.123382 -0.102572 -0.322699
-0.402564 0.121449 0.104880
-0.374877 -0.048120 0.188835
-0.152636 0.022579 0.102540
0.008654 -0.084662 0.239023
0.045565 -0.030461 -0.219465
0.327624 0.016433 -0.041958
0.286504 -0.064087 -0.180973
-0.023510 0.101097 -0.166793
-0.342906 0.130786 -0.219478
0.136943 0.074655 0.411558
-0.155093 0.007007 0.026808
0.184086 -0.168338 0.345244
0.011679 0.142270 0.262188
0.156698 -0.068973 -0.079617
0.320110 -0.059915 -0.084830
0.072758 0.055614 -0.373385
-0.120476 0.068977 0.297867
0.191456 0.149408 0.006876
-0.174995 -0.083982 -0.149679
-0.001619 0.060538 0.236711
-0.228092 0.061863 0.193522
0.205715 -0.002195 0.317640
0.043807 -0.091534 0.345292
0.139370 -0.037794 -0.060423
0.212148 -0.128197 0.315552
-0.239422 -0.140780 -0.016441
-0.127177 -0.070562 0.261728
-0.182077 0.133102 -0.137639
-0.355566 -0.020589 0.100984
-0.057079 -0.172085 0.227747
-0.060153 -0.030490 -0.386733
-0.167639 -0.146223 0.113396
-0.309926 -0.002453 -0.266439
0.452236 -0.044366 -0.106758
-0.218685 0.123279 0.280399
-0.389628 0.093249 0.159497
0.166710 -0.025037 0.398090
-0.180352 0.142253 -0.019165
0.094231 -0.023947 -0.136099
0.194345 0.121748 0.321909
-0.090695 0.148044 0.260012
-0.048043 0.128017 0.194261
-0.022677 0.159172 -0.343924
0.274797 -0.180795 0.162169
0.132064 0.062027 0.396022
0.029755 -0.041031 -0.102723
-0.140023 -0.106604 -0.350339
0.114433 0.097081 0.266554
-0.123489 -0.045999 -0.041391
