0.64780074 0.82972080 0.60972691 -0.00017636 0.00138390 -0.00102359
0.62586921 0.78192711 0.59618145 -0.00038328 0.00077648 -0.00011096
0.63912302 0.85390055 0.65244412 -0.00091606 0.00085941 -0.00055911
0.67953140 0.68532532 0.61122715 0.00076941 -0.00063129 0.00156786
0.74377787 0.23870037 0.41351721 0.00160342 -0.00095557 -0.00148062
0.77232677 0.44925421 0.46178555 0.00116563 0.00037370 -0.00179512
0.58678365 0.39415172 0.54495019 0.00020654 0.00003002 0.00078919
0.61627698 0.08829562 0.51326138 0.00062835 -0.00191476 0.00148868
0.65877312 0.51397383 0.44617939 0.00126515 0.00016609 -0.00041804
0.51345921 0.88827443 0.60234076 0.00013076 0.00180788 -0.00170467
0.64385766 0.22102612 0.57488936 0.00043531 -0.00035991 0.00192695
0.55794019 0.33702534 0.35148740 0.00003627 0.00020523 -0.00126082
0.55076963 0.85330433 0.61702591 0.00128284 0.00067557 -0.00024189
0.48967758 0.56598294 0.56007308 0.00013542 -0.00018783 0.00049503
0.40967420 0.11563741 0.29227513 -0.00021950 -0.00174092 -0.00207665
0.40737906 0.23423952 0.33224273 -0.00044213 0.00037223 -0.00117820
0.50687391 0.74484813 0.52390206 0.00062757 0.00109329 -0.00135197
0.70807803 0.70680135 0.58560759 0.00222304 0.00014844 0.00052758
0.50014907 0.47307372 0.55130911 -0.00002236 -0.00025416 0.00070915
0.45845681 0.34394279 0.35965970 -0.00025790 0.00012880 -0.00126391
0.36948550 0.32762295 0.56274641 0.00020282 -0.00031636 0.00105840
0.35075906 0.36937839 0.57260108 0.00035766 -0.00036724 0.00106120
0.64491808 0.12557462 0.53440160 0.00068634 -0.00147186 0.00172225
0.60653555 0.45158488 0.38753489 0.00051332 0.00031441 -0.00150734
0.18605946 0.60790122 0.63037866 -0.00186070 -0.00056390 0.00180660
0.36767426 0.18990871 0.56131494 0.00025815 -0.00021709 0.00158804
0.49262142 0.65062541 0.47697315 0.00039032 0.00071381 -0.00138468
0.34982434 0.86482346 0.64731544 -0.00033601 0.00110492 -0.00258385
0.77594972 0.54532516 0.50541931 0.00070106 0.00064612 -0.00160036
0.47166854 0.09112460 0.52620173 -0.00015784 -0.00099833 0.00156676
0.49623841 0.68998438 0.61043411 0.00012448 -0.00007550 0.00101926
0.62497944 0.80463737 0.63294899 -0.00050917 0.00026477 0.00037616
0.33847493 0.23340292 0.56465536 0.00017135 -0.00018195 0.00152503
0.19267647 0.58837676 0.55236864 -0.00220758 0.00078244 -0.00148406
0.46213290 0.87151432 0.65613949 -0.00101646 0.00052536 0.00058182
0.64359349 0.48300624 0.41553438 0.00104924 0.00035241 -0.00109242
0.59656674 0.56380665 0.43429795 0.00002570 0.00107319 -0.00121180
0.65486354 0.50021577 0.53678083 0.00037605 -0.00019959 0.00053766
0.39136055 0.42562568 0.57233417 0.00026899 -0.00043433 0.00094902
0.48827273 0.05945819 0.43199503 -0.00022676 -0.00176276 -0.00059846
0.39726299 0.12581219 0.54841274 0.00017032 -0.00075283 0.00169840
0.54806489 0.72170669 0.57399356 0.00061426 0.00004286 0.00013067
0.42633754 0.20186721 0.31005761 -0.00036941 0.00021071 -0.00159558
0.65950745 0.21916582 0.35338578 0.00079742 -0.00045948 -0.00164934
0.30055705 0.16534454 0.35083380 -0.00160684 0.00011997 -0.00126382
0.58767158 0.37357599 0.36308220 -0.00003744 0.00030785 -0.00126844
0.67269695 0.60287434 0.48260280 0.00139414 0.00039385 -0.00095252
0.21214131 0.33374688 0.51679957 -0.00261565 -0.00054795 -0.00029631
0.31415981 0.64476514 0.59120047 -0.00086620 0.00001857 0.00036023
0.53679532 0.16479278 0.30301267 0.00037857 0.00039918 -0.00181737
0.63607478 0.37841848 0.54004139 0.00038031 0.00016124 0.00066388
0.30845737 0.08614223 0.50609213 -0.00185816 -0.00163926 0.00130203
0.31539226 0.68937153 0.57809490 -0.00111482 0.00050834 -0.00081742
0.33399478 0.49616930 0.58468020 -0.00037950 0.00031631 0.00082089
0.53679532 0.65392625 0.57551676 0.00052017 0.00001549 0.00048480
0.65210748 0.17899594 0.35839793 0.00113218 -0.00084243 -0.00139928
0.65501535 0.46115509 0.52415824 0.00033741 -0.00029811 0.00039569
0.44800991 0.12492928 0.54020405 0.00004226 -0.00058705 0.00138164
0.65397513 0.33349603 0.54549861 0.00058228 0.00016865 0.00064221
0.42294669 0.35790056 0.54877734 0.00024584 -0.00020980 0.00079353
0.62416214 0.68977153 0.50695956 -0.00022558 0.00115781 -0.00112672
0.69700193 0.66241050 0.57694411 0.00159462 -0.00018710 0.00068063
0.17959195 0.59516758 0.59203017 -0.00293254 0.00015298 -0.00003554
0.26748210 0.58357602 0.54984599 0.00008649 0.00059764 -0.00010996
0.23137313 0.47669157 0.49524280 -0.00086952 0.00027500 -0.00181932
0.35225338 0.53303552 0.47531560 -0.00056200 0.00030773 -0.00088508
0.67217869 0.47524256 0.46805310 0.00064034 0.00002330 0.00006563
0.54874694 0.52800453 0.55790591 0.00008626 0.00025388 0.00076630
0.44132915 0.21311754 0.54370743 0.00017367 -0.00015080 0.00092790
0.44177771 0.69400585 0.53115207 -0.00088668 0.00041406 -0.00018246
0.55650693 0.36317417 0.55155402 -0.00012621 0.00002503 0.00091220
0.49630412 0.64732760 0.60209942 0.00016418 -0.00027140 0.00110341
0.53543884 0.30201399 0.34112641 0.00011918 0.00004611 -0.00136120
0.19849311 0.51345414 0.57476413 -0.00207497 -0.00045980 0.00106448
0.59786928 0.11279834 0.32804605 0.00141609 -0.00119149 -0.00196349
0.47946954 0.79378837 0.65139425 -0.00013940 -0.00011403 0.00131193
0.40528211 0.57594264 0.58370972 0.00053766 -0.00007128 0.00050490
0.67224151 0.50999957 0.49939376 0.00048702 -0.00008777 0.00002321
0.34159884 0.06166983 0.50327027 -0.00082520 -0.00263598 0.00122214
0.40539309 0.63221174 0.60237283 0.00055060 0.00001201 0.00064996
0.61101300 0.24759735 0.33558768 0.00038296 -0.00003432 -0.00164121
0.23667106 0.70591986 0.67075086 0.00157014 0.00006209 0.00136952
0.35539973 0.41614220 0.41798496 -0.00062301 0.00048473 -0.00091794
0.44077510 0.07540055 0.39341807 -0.00010508 -0.00168471 -0.00038793
0.21063323 0.63396609 0.65529287 0.00006254 -0.00074179 0.00194479
0.39339745 0.83272403 0.66112053 0.00069039 0.00059287 0.00007759
0.67172736 0.75599205 0.64897943 0.00022821 -0.00041542 0.00167613
0.48972264 0.25496197 0.54321784 -0.00018935 -0.00011005 0.00079126
0.72132903 0.27682284 0.38050508 0.00137719 -0.00027177 -0.00176522
0.59722304 0.05748964 0.41248250 0.00033580 -0.00267396 -0.00037687
0.32010996 0.82644415 0.63741124 -0.00170950 0.00142945 -0.00124843
0.67245525 0.54039186 0.52687877 0.00043143 -0.00018869 0.00026309
0.72088093 0.39741275 0.44049251 0.00014034 0.00055177 -0.00065904
0.17114675 0.66314071 0.62083089 -0.00291424 0.00035753 -0.00077327
0.36270472 0.09153604 0.53427148 -0.00033427 -0.00131159 0.00202361
0.50294662 0.70391548 0.50602096 0.00061792 0.00057628 -0.00132330
0.43768007 0.61900574 0.48893207 -0.00081938 0.00048310 -0.00035059
0.68192643 0.10519063 0.43764749 0.00218747 -0.00161667 -0.00064130
0.38891777 0.66946232 0.62724334 0.00060119 -0.00015343 0.00099387
0.42623526 0.25170183 0.54592806 0.00022211 -0.00019730 0.00089695
0.45708007 0.82426375 0.62769651 -0.00069274 0.00066812 0.00033449
0.60512060 0.70689857 0.54472667 -0.00039407 0.00065863 -0.00008314
0.53091061 0.37479740 0.35935149 0.00010496 0.00005573 -0.00140194
0.39369097 0.52666205 0.46134114 -0.00036370 0.00053688 -0.00047893
0.29545820 0.22122288 0.56220293 -0.00052325 -0.00041117 0.00191742
0.38542971 0.24102895 0.55600536 0.00026252 -0.00018391 0.00113157
0.31605548 0.52327025 0.50742662 -0.00056950 0.00018204 -0.00013738
0.74708378 0.52004087 0.58541590 -0.00062725 0.00036200 0.00151379
0.20448911 0.55228251 0.52851027 -0.00205291 0.00046820 -0.00146912
0.36854845 0.58033842 0.60703135 -0.00000693 -0.00045330 0.00120781
0.47763237 0.43472597 0.54601836 0.00009565 -0.00028950 0.00069929
0.28615853 0.43990138 0.59130269 -0.00039082 0.00015788 0.00153909
0.50920463 0.22884527 0.31941372 0.00017379 -0.00010363 -0.00149333
0.44912195 0.23872422 0.32285500 -0.00022781 0.00028044 -0.00140722
0.51270437 0.57697141 0.46233276 0.00048194 0.00017399 -0.00061020
0.53866524 0.45548555 0.38454401 -0.00029305 0.00052217 -0.00123740
0.20650856 0.62572455 0.56260610 -0.00111043 0.00162481 -0.00141792
0.45388764 0.28803647 0.34194416 -0.00030001 0.00012053 -0.00130168
0.61859727 0.33443120 0.56598318 0.00035037 0.00014892 0.00123027
0.24326973 0.62298775 0.62881696 0.00050602 -0.00011584 0.00107298
0.57723212 0.21509527 0.57385594 -0.00033126 -0.00021818 0.00160713
0.68898284 0.80117595 0.58801323 0.00088051 0.00174177 -0.00153634
0.31819460 0.11916217 0.53802246 -0.00078758 -0.00139737 0.00192989
0.48905897 0.12088258 0.28463390 0.00016366 -0.00120213 -0.00244965
0.35061231 0.76809275 0.58861041 -0.00030014 0.00123801 -0.00135945
0.71585822 0.81668353 0.62121665 0.00261517 0.00123028 -0.00090695
0.28383130 0.14036256 0.52782333 -0.00157310 -0.00118859 0.00164407
0.27544665 0.28178775 0.41080061 -0.00100727 0.00015211 -0.00144873
0.73706728 0.18706229 0.49545911 0.00211537 -0.00129893 0.00085442
0.64845800 0.55971634 0.44723061 0.00103068 0.00038882 -0.00121597
0.33126166 0.14249207 0.31228665 -0.00119923 0.00040713 -0.00217794
0.50864357 0.36138126 0.54172313 -0.00007077 -0.00005495 0.00076589
0.21389885 0.50965971 0.51270473 -0.00169033 0.00047171 -0.00150664
0.62551242 0.52182370 0.41835788 0.00060881 0.00067002 -0.00151845
0.68183154 0.36164364 0.53225619 -0.00013293 0.00002537 0.00067220
0.24394393 0.19552171 0.44856712 -0.00205256 -0.00085253 -0.00074864
0.57009315 0.53173614 0.42215049 -0.00035195 0.00064392 -0.00103221
0.65141124 0.14106795 0.37533057 0.00121284 -0.00073632 -0.00129963
0.54546618 0.28876346 0.56001890 -0.00038259 -0.00006752 0.00102073
0.22572069 0.41216016 0.57053393 -0.00163968 0.00001928 0.00166114
0.47447190 0.88559222 0.61658603 -0.00133102 0.00151251 -0.00089154
0.32871386 0.88831300 0.67538923 -0.00247484 0.00335739 -0.00035079
0.33752784 0.06301458 0.44017652 0.00008449 -0.00218268 -0.00068893
0.35831034 0.53836370 0.58626395 -0.00027195 -0.00025695 0.00078378
0.43732554 0.63845223 0.56076598 -0.00016278 -0.00003859 0.00007836
0.47114760 0.52960473 0.42273161 0.00016007 0.00084183 -0.00116488
0.52244580 0.06951328 0.39773905 -0.00017641 -0.00167583 -0.00072569
0.53263402 0.64442116 0.51494825 0.00053584 0.00024454 -0.00015600
0.47277120 0.19945422 0.30679747 -0.00005650 0.00019737 -0.00157511
0.25201854 0.50036633 0.59012443 0.00008521 -0.00005705 0.00159256
0.33021411 0.07818001 0.39782938 0.00000979 -0.00197476 -0.00080188
0.35632533 0.62482101 0.62097996 -0.00021062 -0.00016682 0.00137514
0.27807197 0.09337432 0.45962346 -0.00232600 -0.00129084 0.00065323
0.78227454 0.33267042 0.50958300 0.00197350 -0.00082895 0.00071294
0.36328721 0.78762960 0.68718123 0.00039966 -0.00048785 0.00179144
0.37678498 0.38893360 0.39581314 -0.00061301 0.00006450 -0.00123210
0.30886695 0.37470704 0.58563375 0.00032976 -0.00060921 0.00149296
0.37787884 0.47608790 0.42780936 -0.00081905 0.00041502 -0.00103433
0.44851723 0.56019843 0.56192958 0.00011028 0.00006025 0.00045676
0.52215642 0.61159384 0.48330876 0.00065353 0.00013978 -0.00042679
0.57562268 0.57963347 0.46696517 -0.00042743 0.00056181 -0.00016527
0.60435236 0.07345816 0.37273505 0.00064860 -0.00231974 -0.00153024
0.51711124 0.09116635 0.52853823 0.00009435 -0.00108468 0.00171693
0.65064484 0.30286616 0.34787321 0.00039956 -0.00018771 -0.00190800
0.61109555 0.19214649 0.57306433 0.00008282 -0.00055808 0.00189123
0.30347776 0.11178837 0.32763419 -0.00188891 -0.00125936 -0.00225932
0.25974870 0.43934265 0.47467583 -0.00079726 0.00034770 -0.00127434
0.66423297 0.64930439 0.59882468 0.00042667 -0.00016788 0.00155698
0.30991086 0.84806007 0.68012118 -0.00319036 0.00060789 0.00070439
0.41939995 0.09761274 0.33324808 -0.00014221 -0.00184287 -0.00063609
0.60636359 0.40975192 0.37880212 0.00015710 0.00034662 -0.00112310
0.73149693 0.44226605 0.45868325 -0.00026918 0.00026971 -0.00097239
0.32294491 0.56079924 0.57355601 -0.00055012 -0.00024238 0.00041220
0.68691158 0.58508682 0.52744031 0.00081559 -0.00026601 0.00011222
0.78307170 0.58200926 0.52313328 0.00055756 0.00164103 -0.00174954
0.46513751 0.72958094 0.52172893 -0.00091345 0.00103972 -0.00118488
0.51137477 0.81300879 0.55917966 0.00058756 0.00128261 -0.00149233
0.48679587 0.84401977 0.67530626 -0.00049285 -0.00019177 0.00144867
0.64965189 0.77231234 0.56217128 -0.00016731 0.00147531 -0.00111803
0.70813215 0.81392425 0.67491633 0.00230910 -0.00076378 0.00204217
0.69494951 0.35233110 0.38552555 0.00104454 0.00073960 -0.00117253
0.70955354 0.45860040 0.54555249 -0.00041859 -0.00003325 0.00052039
0.71468633 0.28497174 0.54820251 0.00066141 -0.00003546 0.00154005
0.74619633 0.47120288 0.58444768 -0.00081557 -0.00024028 0.00167309
0.37449950 0.70292568 0.64822817 0.00027546 -0.00027446 0.00147767
0.54121768 0.40013346 0.54081470 -0.00007435 -0.00010065 0.00068237
0.78113258 0.50387567 0.49126521 0.00114660 0.00083858 -0.00142287
0.49856597 0.16618343 0.54918975 -0.00044709 -0.00013555 0.00119204
0.32124054 0.62953001 0.54137135 -0.00115428 0.00053186 -0.00045433
0.68774682 0.67276967 0.51987529 0.00151387 0.00061918 -0.00117231
0.70280397 0.13063586 0.47567469 0.00195367 -0.00171373 0.00048802
0.78163522 0.28261974 0.48165756 0.00262292 -0.00080885 0.00043410
0.64279634 0.57514644 0.57495260 0.00026647 -0.00050384 0.00106079
0.38003635 0.04890408 0.47588196 -0.00031642 -0.00270308 -0.00015317
0.69341755 0.23337768 0.56108886 0.00090663 -0.00047551 0.00191025
0.51076007 0.72785133 0.62570781 0.00022668 -0.00006065 0.00127460
0.68851185 0.31611758 0.36430222 0.00124739 0.00015629 -0.00173417
0.25912634 0.24105650 0.41705436 -0.00147563 -0.00012020 -0.00135853
0.21447586 0.65989757 0.58817887 -0.00058481 0.00142552 -0.00101489
0.44607982 0.40161768 0.37653270 -0.00025752 0.00014811 -0.00136395
0.45313421 0.49338081 0.40278056 -0.00029139 0.00075577 -0.00146717
0.54966748 0.78650498 0.58971167 0.00093734 0.00063789 -0.00024673
0.44463032 0.29072326 0.54332054 0.00016618 -0.00017832 0.00082817
0.65008026 0.07329211 0.43991232 0.00144347 -0.00268325 -0.00029646
0.73243809 0.19363344 0.43098691 0.00180250 -0.00105085 -0.00107235
0.36591533 0.11937407 0.29441151 -0.00093894 -0.00143350 -0.00252939
0.22623760 0.57171661 0.61427855 0.00024949 -0.00041084 0.00179981
0.64074343 0.60066271 0.45639914 0.00055753 0.00085690 -0.00165594
0.61339980 0.06273251 0.46794620 0.00063708 -0.00249031 0.00073214
0.34638259 0.61597902 0.50892913 -0.00055371 0.00065133 -0.00120362
0.26309046 0.32576355 0.57392335 -0.00037323 -0.00062421 0.00192637
0.26341888 0.13917372 0.48879576 -0.00204444 -0.00134028 0.00020815
0.35178509 0.27137536 0.36451548 -0.00030080 0.00030911 -0.00134047
0.77139348 0.26354846 0.43481761 0.00251147 -0.00082129 -0.00114109
0.39316261 0.73961258 0.64843363 0.00070192 0.00014816 0.00102911
0.34864560 0.80495989 0.61105651 -0.00015302 0.00148888 -0.00141240
0.63902897 0.42215899 0.52005953 0.00028177 -0.00012929 0.00042574
0.35150945 0.57214957 0.48958620 -0.00056820 0.00047978 -0.00103951
0.49806568 0.31842050 0.54198623 -0.00007296 -0.00020825 0.00078400
0.71227932 0.78404927 0.64689302 0.00225952 -0.00070077 0.00139470
0.35598454 0.73055601 0.56682432 -0.00030868 0.00085834 -0.00135932
0.55936849 0.09319359 0.32821986 0.00032727 -0.00239591 -0.00120544
0.66740036 0.44804010 0.43630913 0.00099844 0.00006936 -0.00012453
0.66601527 0.71742839 0.52490431 0.00064288 0.00146148 -0.00160661
0.28588286 0.37484235 0.43647563 -0.00102145 0.00029557 -0.00110052
0.31193215 0.30642989 0.57218879 0.00019284 -0.00019081 0.00149015
0.69185311 0.75992960 0.56469250 0.00145094 0.00102559 -0.00158951
0.70863068 0.15872663 0.42639622 0.00157992 -0.00120384 -0.00121663
0.63936424 0.61538970 0.59184438 -0.00001242 -0.00011203 0.00146999
0.76001883 0.29145482 0.52378720 0.00140225 -0.00073608 0.00162155
0.57684046 0.16242796 0.56608409 -0.00004044 -0.00054215 0.00185699
0.58562738 0.29228407 0.34128693 0.00008398 -0.00008366 -0.00146068
0.31932196 0.77730709 0.61855322 -0.00178231 0.00070025 -0.00066303
0.30216649 0.33821282 0.41490740 -0.00062769 0.00014374 -0.00130397
0.51337433 0.05939444 0.49995852 0.00019780 -0.00209897 0.00107492
0.62592340 0.67041075 0.60044968 -0.00032045 0.00002653 0.00107997
0.46879861 0.61066604 0.46213964 -0.00017216 0.00065439 -0.00133308
0.77927083 0.30593365 0.44669491 0.00243759 0.00004806 -0.00091535
0.42522395 0.47329548 0.57538694 0.00021577 -0.00036617 0.00102678
0.53999305 0.76324338 0.55668885 0.00096674 0.00065479 -0.00066597
0.31755525 0.18085073 0.55996019 -0.00053703 -0.00066411 0.00191793
0.20363876 0.47670141 0.55656582 -0.00226162 -0.00064026 0.00059630
0.82036632 0.50884563 0.57762152 0.00273382 -0.00068547 0.00150182
0.59960991 0.28488415 0.57304460 0.00004386 0.00008446 0.00139709
0.48757851 0.20730044 0.54529971 -0.00024868 -0.00010532 0.00091007
0.45529777 0.60047013 0.57275474 -0.00025330 -0.00005558 0.00040031
0.37535670 0.20612536 0.32526568 -0.00039615 0.00023620 -0.00154364
0.58865774 0.49001482 0.55852777 0.00024748 -0.00013576 0.00101482
0.59163845 0.60699719 0.57192546 -0.00027010 -0.00006758 0.00073488
0.56940472 0.58228582 0.52956623 -0.00012733 0.00003260 0.00011674
0.51642579 0.86688328 0.69291216 0.00054612 -0.00027926 0.00204629
0.60901874 0.72848701 0.58875996 -0.00018706 0.00032738 0.00037695
0.51290113 0.81585246 0.65999269 0.00037522 -0.00009158 0.00142881
0.52958018 0.95454544 0.65990323 0.00141388 0.00369501 -0.00074606
0.73740900 0.38167036 0.55594534 0.00004024 -0.00042085 0.00152069
0.40642691 0.05913896 0.44279131 -0.00019960 -0.00171076 -0.00096493
0.48034069 0.84039462 0.58265114 -0.00091764 0.00151201 -0.00106232
0.45300522 0.76077211 0.55897361 -0.00105100 0.00063056 -0.00051742
0.30248201 0.09065174 0.36381418 -0.00101768 -0.00246529 -0.00080338
0.71527982 0.51751280 0.51621932 0.00004085 0.00012088 -0.00015827
0.45706126 0.79903865 0.58206546 -0.00102460 0.00089192 -0.00039283
0.23199506 0.45338735 0.57601994 -0.00066340 -0.00003637 0.00180790
0.38846782 0.38182995 0.56196487 0.00033077 -0.00026732 0.00086292
0.31081942 0.26615176 0.38205308 -0.00095132 0.00003113 -0.00132593
0.48664805 0.95161009 0.66352338 -0.00203745 0.00337629 -0.00045097
0.73403150 0.23700245 0.53094620 0.00148329 -0.00067825 0.00156184
0.40819913 0.50450903 0.42792723 -0.00057029 0.00077868 -0.00103114
0.68960023 0.42979050 0.52364337 -0.00017278 -0.00004436 0.00038841
0.71941090 0.50696695 0.55634165 -0.00042679 0.00005293 0.00058303
0.44741902 0.05887111 0.43921837 -0.00008877 -0.00171538 -0.00076504
0.28303966 0.52050275 0.57200301 0.00035128 0.00016963 0.00050900
0.49369687 0.16614032 0.29422715 0.00025538 0.00061110 -0.00181079
0.78905529 0.47102255 0.58874345 0.00113570 -0.00062072 0.00234796
0.52978832 0.10818976 0.29993418 0.00051001 -0.00175258 -0.00208280
0.32827905 0.80826628 0.69244659 -0.00141279 -0.00055463 0.00214350
0.29609710 0.07156895 0.42065892 -0.00090557 -0.00277059 -0.00066126
0.54030174 0.41720971 0.36935109 0.00020985 0.00024684 -0.00148911
0.50130725 0.49155515 0.40751666 0.00024485 0.00051864 -0.00099631
0.50449449 0.33290297 0.35146722 -0.00010918 0.00007612 -0.00127202
0.32373333 0.38286924 0.41924581 -0.00052424 0.00020962 -0.00122650
0.46685380 0.35063499 0.53916568 0.00003924 -0.00015465 0.00071802
0.71245033 0.22648641 0.38814169 0.00139787 -0.00093521 -0.00134555
0.34565333 0.74500090 0.66667253 -0.00048552 -0.00032420 0.00162558
0.41048598 0.67285997 0.58817148 0.00023647 0.00016318 0.00022857
0.80853760 0.42600062 0.52475721 0.00261515 -0.00078769 -0.00019147
0.23985872 0.29498738 0.44656926 -0.00184575 -0.00018884 -0.00105338
0.18047532 0.66402268 0.67136729 -0.00240088 -0.00141778 0.00194786
0.44500828 0.72105676 0.58942819 -0.00032730 0.00011425 0.00028125
0.43068787 0.60427010 0.53654134 -0.00006191 0.00015340 0.00018040
0.33560881 0.49270931 0.46448156 -0.00070796 0.00049174 -0.00073019
0.79160136 0.37356317 0.51939821 0.00209456 -0.00040761 0.00108043
0.69739091 0.87659121 0.69544804 0.00266867 0.00219036 0.00239566
0.65533692 0.34596407 0.35890248 0.00074192 0.00048705 -0.00169707
0.34424666 0.67466110 0.63549227 -0.00040441 -0.00029433 0.00143059
0.53881848 0.48814136 0.55857909 -0.00004507 -0.00030985 0.00093400
0.67216539 0.18052511 0.55378211 0.00086722 -0.00087218 0.00189805
0.37209064 0.89078653 0.67267263 0.00106114 0.00273290 -0.00028172
0.68540537 0.61734122 0.57050914 0.00106858 -0.00020795 0.00090195
0.61647415 0.45798206 0.54334730 0.00046084 -0.00038909 0.00069582
0.41408092 0.17392598 0.55114526 0.00031015 -0.00012487 0.00129227
0.20421024 0.69261932 0.61310530 -0.00045929 0.00170862 -0.00153070
0.26707619 0.32441282 0.43107453 -0.00093814 0.00047513 -0.00137866
0.17471784 0.69920969 0.64121807 -0.00309440 0.00167193 -0.00085529
0.31751627 0.73643368 0.59779590 -0.00146686 0.00087014 -0.00061276
0.36190894 0.33739731 0.38745052 -0.00049235 0.00018237 -0.00114395
0.38829768 0.28261656 0.55385303 0.00021334 -0.00018076 0.00097205
0.76024956 0.23632225 0.49684116 0.00218738 -0.00099577 0.00105065
0.40945080 0.27354848 0.35206762 -0.00048749 0.00007342 -0.00106852
0.23740306 0.57596141 0.52029008 -0.00016984 0.00131737 -0.00160137
0.24147959 0.67665446 0.62024796 0.00025656 0.00065905 -0.00002902
0.68549752 0.19107093 0.38264608 0.00127219 -0.00092447 -0.00115444
0.70945257 0.18887261 0.53159481 0.00143719 -0.00103963 0.00154588
0.53342235 0.56903344 0.49883562 0.00026446 -0.00001482 0.00014213
0.22187853 0.66838950 0.67804116 0.00081504 -0.00090041 0.00217245
0.66000783 0.09343807 0.48994073 0.00147099 -0.00201842 0.00113371
0.50346208 0.09479980 0.33041453 -0.00032121 -0.00204029 -0.00041101
0.43403333 0.04545455 0.47876176 -0.00010842 -0.00261646 0.00014571
0.39236411 0.69137818 0.55372578 0.00016065 0.00059862 -0.00036150
0.67952269 0.13643600 0.40650073 0.00146649 -0.00084480 -0.00136835
0.53550982 0.19132458 0.56318265 -0.00041874 -0.00020562 0.00140705
0.49213597 0.92399442 0.63378006 -0.00082671 0.00176604 -0.00193264
0.73150653 0.33137888 0.54332227 0.00019678 -0.00023660 0.00148671
0.52382523 0.43854815 0.54667372 0.00002344 -0.00030683 0.00077736
0.30317506 0.46364343 0.46553504 -0.00068564 0.00079121 -0.00068819
0.56473523 0.12980431 0.30478767 0.00094165 -0.00025783 -0.00247773
0.69942272 0.70536393 0.54568195 0.00204082 0.00090318 -0.00091268
0.52513433 0.84720331 0.58539480 0.00088820 0.00126720 -0.00125025
0.58684373 0.12440368 0.55015695 0.00027599 -0.00115881 0.00183780
0.45429745 0.16556333 0.54261202 0.00015015 -0.00010092 0.00107150
0.72159642 0.31968823 0.39035517 0.00115067 0.00052902 -0.00141312
0.67340559 0.78943992 0.67652947 0.00018112 -0.00092156 0.00200839
0.69021523 0.62657446 0.51826292 0.00142962 0.00026171 -0.00048259
0.53833866 0.08155340 0.36131912 -0.00019464 -0.00187821 -0.00060429
0.68664783 0.38919410 0.41070750 0.00068619 0.00062009 -0.00066527
0.74100989 0.35351536 0.41802490 0.00083241 0.00051100 -0.00146051
0.40706947 0.08484975 0.37096184 -0.00021627 -0.00161722 -0.00072553
0.26596761 0.09559419 0.40192106 -0.00267137 -0.00161073 -0.00072777
0.40326124 0.65306032 0.54277372 0.00032568 0.00006754 -0.00017539
0.54540426 0.90592211 0.62788045 0.00134319 0.00150141 -0.00130758
0.63429064 0.73698080 0.54268533 -0.00035274 0.00112496 -0.00087567
0.33773604 0.45628250 0.44477409 -0.00046993 0.00034405 -0.00096349
0.46219283 0.45549405 0.38878429 0.00000642 0.00028149 -0.00148259
0.41756535 0.45811522 0.39914617 -0.00066626 0.00042618 -0.00136545
0.26334181 0.38216475 0.58820271 -0.00042591 -0.00041240 0.00210227
0.45994192 0.67686039 0.49668381 -0.00081613 0.00075791 -0.00114455
0.18599065 0.70595104 0.68984646 -0.00224794 0.00072054 0.00305723
0.71440333 0.76352638 0.60370106 0.00255891 0.00021166 0.00004469
0.27036151 0.13800094 0.39051157 -0.00191682 0.00031390 -0.00125025
0.38689601 0.30225751 0.37104261 -0.00028528 0.00000900 -0.00105945
0.39269754 0.59065807 0.50152332 0.00016701 0.00042453 -0.00044783
0.45017838 0.39570791 0.54365456 0.00019867 -0.00025434 0.00068453
0.45682344 0.68181157 0.59843844 -0.00038271 0.00000674 0.00066759
0.48543730 0.78312016 0.54425478 -0.00046807 0.00116013 -0.00151372
0.41931280 0.52837968 0.57738256 0.00020827 0.00007980 0.00086140
0.41439465 0.34315112 0.37232131 -0.00053003 0.00004800 -0.00111027
0.21170832 0.40966523 0.51513398 -0.00227748 -0.00014957 -0.00065558
0.63593167 0.81904602 0.67438018 -0.00094081 -0.00021839 0.00127210
0.54006416 0.67728055 0.54127228 0.00049447 0.00027332 -0.00012381
0.23320915 0.23898566 0.45670000 -0.00225331 -0.00022758 -0.00079565
0.30322000 0.42816883 0.44332334 -0.00074274 0.00035326 -0.00126261
0.79341799 0.42638442 0.56344998 0.00153150 -0.00108135 0.00193023
0.40355068 0.70710683 0.61964667 0.00057224 0.00006930 0.00039775
0.34880888 0.23182423 0.34611976 -0.00067082 0.00026331 -0.00143597
0.35525939 0.06164413 0.44199324 -0.00011872 -0.00199759 -0.00081544
0.79238564 0.38446811 0.47681999 0.00246152 0.00012341 -0.00084191
0.43494236 0.06984258 0.51338977 0.00011848 -0.00116261 0.00175780
0.36933273 0.16069289 0.30138674 -0.00056860 0.00092877 -0.00198264
0.80064642 0.46189010 0.49137422 0.00219278 0.00028241 -0.00148831
0.52979541 0.23773171 0.56038618 -0.00041624 -0.00004050 0.00110856
0.77558142 0.34977964 0.44554871 0.00193615 -0.00008363 -0.00119637
0.68595111 0.14458859 0.52382088 0.00148515 -0.00142523 0.00144720
0.46505222 0.91653675 0.67080361 -0.00214524 0.00105827 0.00057362
0.24798241 0.27571014 0.55585426 -0.00122926 -0.00087102 0.00190999
0.37125590 0.07911704 0.39128029 -0.00019272 -0.00173727 -0.00061767
0.76729441 0.39285782 0.44547123 0.00103169 0.00073021 -0.00172257
0.75427324 0.29695043 0.40670621 0.00180619 0.00008645 -0.00172852
0.37318498 0.46103206 0.58568513 0.00020987 -0.00023405 0.00117071
0.54696786 0.79649770 0.63123274 0.00064111 0.00026118 0.00088612
0.51124263 0.94112980 0.70256221 0.00023954 0.00226438 0.00317977
0.56722611 0.19313717 0.32113227 0.00015907 0.00015595 -0.00154350
0.38744915 0.77054977 0.60702771 0.00039572 0.00073213 -0.00044060
0.43134010 0.42982626 0.55791342 0.00031258 -0.00038640 0.00073022
0.30200869 0.20676012 0.36597723 -0.00118894 0.00021158 -0.00129914
0.31349432 0.78697461 0.65916067 -0.00195575 -0.00003554 0.00085224
0.39578655 0.72287357 0.57966483 0.00027615 0.00054236 -0.00022753
0.22992241 0.22832470 0.49778250 -0.00248671 -0.00055357 0.00033672
0.57266164 0.48270199 0.39175221 0.00016324 0.00082327 -0.00140826
0.40892705 0.41475675 0.39123902 -0.00057529 0.00026517 -0.00120698
0.26066098 0.15779279 0.42598805 -0.00187324 -0.00062788 -0.00036567
0.78689462 0.53088623 0.59609562 0.00027381 0.00071684 0.00277406
0.59233934 0.15887477 0.32281280 0.00080920 -0.00005610 -0.00173121
0.26690787 0.55895686 0.58546221 0.00017186 0.00005729 0.00080480
0.60953337 0.24476150 0.57879615 -0.00000150 -0.00000733 0.00175189
0.68724269 0.72230667 0.62821841 0.00116492 -0.00030072 0.00174624
0.47242913 0.05562109 0.49780461 0.00006608 -0.00208087 0.00099424
0.61901098 0.19338208 0.33381727 0.00065751 -0.00034643 -0.00178913
0.60964525 0.62507641 0.47232664 -0.00054212 0.00086192 -0.00107353
0.54565060 0.85777122 0.66122550 0.00104110 0.00006564 0.00100583
0.57740229 0.09159793 0.52685398 -0.00002503 -0.00166135 0.00157999
0.59778440 0.56135285 0.55889422 -0.00025038 -0.00008677 0.00063387
0.69913059 0.47182870 0.50573242 0.00001243 0.00003444 0.00006485
0.45078823 0.10562360 0.30745474 -0.00017061 -0.00227303 -0.00080701
0.52035517 0.52716887 0.43670908 0.00017110 0.00057011 -0.00042511
0.54353845 0.75658786 0.62020898 0.00068802 -0.00004823 0.00085430
0.59236825 0.65293604 0.57206035 -0.00011826 0.00023023 0.00057482
0.28675887 0.27056539 0.56856906 -0.00017316 -0.00054184 0.00185438
0.29094502 0.47935778 0.57796735 -0.00009567 0.00036412 0.00073737
0.49157488 0.12372211 0.54238111 -0.00018548 -0.00059415 0.00151492
0.24236022 0.18649954 0.49399704 -0.00223695 -0.00120656 0.00036606
0.81429183 0.53055692 0.53041470 0.00224883 0.00007470 -0.00165710
0.74734712 0.48153168 0.47310713 -0.00008958 0.00087699 -0.00114236
0.36838287 0.82851404 0.70732349 0.00102523 -0.00086932 0.00209736
0.77194291 0.57988936 0.56774485 -0.00069765 0.00116061 0.00164417
0.19387171 0.55089045 0.59156919 -0.00194840 -0.00035997 0.00141697
0.46265331 0.08662198 0.35878551 0.00005400 -0.00163517 -0.00071971
0.40885684 0.31818336 0.55036318 0.00027823 -0.00023215 0.00084947
0.38355243 0.50228173 0.58487606 0.00007976 -0.00005498 0.00105858
0.26450726 0.53784633 0.51258928 0.00010713 0.00039358 -0.00103825
0.37730005 0.10010416 0.32992285 -0.00021251 -0.00216820 -0.00045795
0.49754462 0.51749718 0.55753416 0.00012410 0.00002177 0.00070071
0.34113011 0.27774426 0.56471682 0.00027612 -0.00024259 0.00125845
0.31533673 0.60558182 0.57725644 -0.00069916 -0.00019710 0.00039300
0.24779342 0.23140320 0.53726459 -0.00169375 -0.00065668 0.00149538
0.31877068 0.52267176 0.55218744 -0.00033634 0.00004518 0.00014715
0.57578415 0.44042128 0.54637104 0.00009981 -0.00032480 0.00079237
0.56374496 0.23799358 0.33231702 -0.00002043 -0.00008500 -0.00132911
0.39479727 0.06222296 0.51417238 0.00006281 -0.00200718 0.00170337
0.20927469 0.45080742 0.52308989 -0.00227372 0.00004204 -0.00057250
0.52667999 0.57298571 0.54111278 0.00027220 0.00001750 0.00016096
0.21620497 0.36317095 0.55438793 -0.00221968 -0.00051534 0.00128153
0.68589520 0.85315019 0.62791848 0.00060845 0.00219984 -0.00179295
0.28661716 0.48641071 0.49629042 -0.00021284 0.00059883 -0.00049037
0.22239773 0.28091219 0.52000517 -0.00234671 -0.00084790 0.00017295
0.43073285 0.53629839 0.44057325 -0.00064805 0.00073518 -0.00079283
0.81200731 0.58936608 0.55613673 0.00214757 0.00262762 0.00037843
0.57030141 0.32343632 0.56162137 -0.00023246 0.00002122 0.00107840
0.39489770 0.79097825 0.64163733 0.00046464 0.00039876 0.00019513
0.34519652 0.14914854 0.55539966 -0.00007403 -0.00083589 0.00190339
0.64755678 0.09276797 0.39896458 0.00160111 -0.00151970 -0.00136769
0.55617487 0.05728876 0.42322099 -0.00025352 -0.00196806 -0.00094106
0.56891167 0.04902609 0.46171355 0.00035306 -0.00266266 0.00034313
0.58899295 0.65051162 0.51594079 -0.00031945 0.00038735 -0.00026339
0.32698885 0.41358912 0.59051198 0.00030934 -0.00031682 0.00143900
0.45644951 0.50130439 0.56956297 0.00035375 -0.00007765 0.00089059
0.51066947 0.26945728 0.33122632 -0.00004124 0.00013426 -0.00137744
0.57868379 0.61294049 0.50115955 -0.00028966 0.00018778 -0.00004853
0.33111677 0.30639413 0.38807654 -0.00065778 0.00030099 -0.00117585
0.68524891 0.25149363 0.35912627 0.00095861 -0.00030007 -0.00188225
0.30809963 0.06044613 0.45814294 -0.00128906 -0.00286704 0.00036762
0.45727232 0.57330579 0.44977710 -0.00031312 0.00050292 -0.00111624
0.67211401 0.83566856 0.70236957 -0.00008156 -0.00093838 0.00301627
0.54363567 0.54586226 0.46531263 -0.00004359 0.00031015 0.00007639
0.42358425 0.57028145 0.47909084 -0.00049931 0.00032512 -0.00028872
0.71668559 0.85251409 0.65861481 0.00333138 0.00133647 -0.00048467
0.55461454 0.06721817 0.50099647 0.00034685 -0.00186490 0.00124141
0.81609941 0.46929774 0.52940559 0.00282067 0.00033396 -0.00001438
0.65754116 0.88659805 0.68067610 -0.00119832 0.00282178 0.00040114
0.20814091 0.73654693 0.66163558 -0.00071735 0.00290920 0.00000858
0.64456308 0.44131562 0.40179724 0.00108473 0.00012252 -0.00107146
0.62984854 0.76002455 0.63593805 -0.00039457 0.00002289 0.00102258
0.32745302 0.45563596 0.59504443 -0.00006283 0.00008933 0.00147814
0.34835804 0.86534035 0.71949577 -0.00060022 0.00139218 0.00330702
0.32000262 0.57223809 0.52485800 -0.00081644 0.00002613 -0.00024682
0.31308931 0.70065635 0.62062818 -0.00112910 0.00013885 0.00089124
0.67276663 0.56071669 0.48180506 0.00111540 -0.00012551 -0.00031781
0.45297450 0.75284481 0.61438453 -0.00024491 0.00013216 0.00068065
0.24623308 0.62883008 0.57207960 0.00023536 0.00078503 -0.00049516
0.33323389 0.18344672 0.33142725 -0.00088854 0.00048072 -0.00157291
0.62895095 0.53344643 0.55538619 0.00020380 -0.00030459 0.00077275
0.59943563 0.33231455 0.34811583 0.00024186 0.00025087 -0.00156321
0.52764904 0.04920726 0.45187953 -0.00028694 -0.00237002 -0.00024485
0.36021194 0.66791070 0.52969253 -0.00038334 0.00092645 -0.00110681
0.26465127 0.19204558 0.53838736 -0.00145531 -0.00115092 0.00162390
0.53449553 0.14017037 0.55405360 -0.00026000 -0.00079191 0.00156893
0.62555277 0.10760361 0.36192641 0.00166684 -0.00077535 -0.00149570
0.49475336 0.42716020 0.37964559 -0.00015322 0.00038566 -0.00116092
0.64696962 0.70680457 0.62618893 -0.00036814 -0.00022318 0.00151905
0.55373114 0.92022896 0.66821408 0.00236573 0.00094728 0.00102846
0.44656017 0.13681670 0.28050420 -0.00036424 -0.00016536 -0.00264334
0.64754570 0.65090281 0.48570761 0.00061207 0.00097465 -0.00147664
0.82885325 0.55114043 0.56654775 0.00343468 0.00049761 0.00095841
0.69255441 0.42256248 0.46237037 0.00014758 0.00011171 -0.00005374
0.49636191 0.60283351 0.58154166 0.00021795 -0.00038251 0.00078863
0.67403257 0.28040674 0.56269228 0.00011532 0.00033041 0.00153867
0.49368176 0.90137225 0.70325756 -0.00082125 -0.00005393 0.00267533
0.40910178 0.15700346 0.29143441 -0.00046624 0.00070891 -0.00205884
0.63418323 0.16090751 0.55947518 0.00042206 -0.00099956 0.00191940
0.73286372 0.54976308 0.53896832 -0.00011429 0.00036437 0.00018426
0.72636086 0.16309622 0.46338120 0.00221634 -0.00145978 -0.00020257
0.22766630 0.31311017 0.55027932 -0.00181249 -0.00079671 0.00167417
0.74306649 0.42398050 0.56520534 -0.00033394 -0.00012074 0.00147372
0.34001926 0.09516627 0.34825572 0.00041614 -0.00216007 -0.00081137
0.56719953 0.25471383 0.56962621 -0.00034485 -0.00004769 0.00129405
0.22893538 0.33923838 0.47263801 -0.00178501 -0.00014840 -0.00117779
0.49183416 0.38816994 0.36755085 -0.00025105 0.00014372 -0.00125832
0.53500575 0.61279780 0.55475056 0.00033310 -0.00016348 0.00026327
0.63415396 0.38041866 0.36639002 0.00059816 0.00066646 -0.00144202
0.76281798 0.22633368 0.45672110 0.00235191 -0.00148095 -0.00038131
0.23334351 0.38250417 0.47857389 -0.00134749 0.00033009 -0.00137186
0.26756236 0.19981197 0.40418085 -0.00148692 -0.00031087 -0.00125276
