0.53366911 0.50970310 0.47281414 -0.00000361 0.00001729 -0.00000925
0.85787898 0.47393078 0.56152815 -0.00000861 -0.00001687 0.00002544
0.07407684 0.49647269 0.45373809 -0.00002147 -0.00000835 0.00007438
0.61401772 0.52604103 0.54017067 0.00000273 -0.00001267 0.00000449
0.28629929 0.50422680 0.52159768 -0.00000215 0.00003860 0.00002138
0.88364571 0.52604103 0.56057209 0.00001090 0.00001499 0.00001412
0.74711609 0.51140791 0.49845535 -0.00000848 0.00001620 -0.00003210
0.86400205 0.50969857 0.53380376 -0.00001343 -0.00002233 -0.00002737
0.37528893 0.48798537 0.54159790 -0.00000241 -0.00004358 -0.00000005
0.30408725 0.50466621 0.51793897 0.00000101 0.00003919 -0.00000678
0.69916946 0.52604103 0.54320538 0.00000132 -0.00001640 0.00000010
0.44179764 0.50844866 0.54402494 0.00000856 0.00000946 -0.00000264
0.22176647 0.49740243 0.41613460 0.00001701 0.00000055 -0.00010771
0.71726120 0.52609742 0.53092647 0.00000747 -0.00001181 0.00001511
0.07297612 0.49684384 0.43485036 -0.00001980 -0.00000444 -0.00004869
0.57349777 0.52604830 0.53637457 0.00000450 -0.00000590 0.00000192
0.91407812 0.47392988 0.49879920 0.00001391 0.00000063 -0.00000027
0.63294280 0.52611202 0.56187296 0.00000381 -0.00000713 -0.00000814
0.90170562 0.50995690 0.47450706 0.00001609 0.00003253 -0.00001284
0.41348013 0.49706310 0.58145475 0.00001187 0.00000238 0.00001232
0.91148919 0.49026868 0.54931110 -0.00000921 -0.00000714 -0.00000048
0.79720676 0.50967491 0.53227186 0.00000137 -0.00002522 0.00000448
0.60722148 0.52212667 0.49351943 0.00000778 0.00000996 -0.00002290
0.44680908 0.50393939 0.48959690 0.00001018 0.00000167 0.00002279
0.64162844 0.52604103 0.54174072 0.00000350 -0.00001369 0.00000530
0.55905384 0.51655579 0.58545643 0.00000365 0.00001734 0.00001011
0.45729500 0.52604103 0.51550734 -0.00000086 -0.00000846 0.00000012
0.76555264 0.52604103 0.51113999 0.00000409 0.00000449 -0.00000063
0.18518087 0.49343255 0.47281232 -0.00000132 -0.00002440 -0.00001903
0.69363493 0.50970221 0.53897172 -0.00000037 -0.00002361 0.00002349
0.78464502 0.49027047 0.56437731 -0.00000631 -0.00000893 -0.00001414
0.48732817 0.52610654 0.50628954 -0.00000082 0.00000112 -0.00000079
0.71371251 0.50970310 0.53457153 0.00000819 -0.00001901 0.00003398
0.60780549 0.52604103 0.58101809 0.00000166 0.00000895 0.00001964
0.63215768 0.49026868 0.50419724 0.00000052 -0.00001428 -0.00001257
0.74943393 0.52611017 0.50560999 -0.00000494 0.00001213 -0.00001584
0.72955739 0.47392896 0.57669348 -0.00000126 -0.00001193 0.00002008
0.94503373 0.50967950 0.53686213 0.00000948 0.00004603 0.00000119
0.91246080 0.49225178 0.54878438 -0.00001359 -0.00000606 0.00000048
0.45470420 0.52604103 0.49157542 -0.00000203 -0.00002001 -0.00000833
0.53619897 0.49026868 0.48419428 -0.00000035 -0.00001432 0.00000290
0.16215408 0.49977574 0.44288924 0.00000849 0.00002124 0.00002244
0.22120701 0.49241823 0.48321179 0.00001587 -0.00003297 -0.00002016
0.18104544 0.49336341 0.49813426 0.00000002 -0.00002590 0.00004100
0.77609128 0.47389895 0.50404805 0.00000703 -0.00000756 -0.00001273
0.51557922 0.47392988 0.52738142 -0.00000159 0.00000045 0.00000375
0.18289664 0.49535015 0.43694538 -0.00000110 -0.00001260 0.00002860
0.68732172 0.52604103 0.58160758 0.00000540 0.00001377 0.00002379
0.57444292 0.49026868 0.57742214 0.00000059 -0.00001354 0.00000015
0.40121761 0.49120107 0.48852071 -0.00000213 -0.00001092 0.00000882
0.26826122 0.49415299 0.45789447 -0.00000890 -0.00001797 0.00003103
0.70238608 0.49026868 0.53582692 0.00000335 0.00002001 0.00003208
0.87429327 0.52604103 0.52923077 -0.00000359 -0.00000203 -0.00001974
0.83889210 0.50970221 0.48660582 0.00002089 0.00001096 -0.00000685
0.53833312 0.52604103 0.57765681 0.00000406 0.00000738 0.00001071
0.52818376 0.47389987 0.52140576 0.00000429 0.00000192 0.00000283
0.80657381 0.50970310 0.50452203 -0.00000290 0.00000544 0.00002216
0.28212842 0.49631804 0.43785596 0.00002016 -0.00000622 -0.00003831
0.94254029 0.47390893 0.52156037 0.00003790 -0.00001052 -0.00001293
0.60294873 0.49026868 0.58458316 0.00000136 -0.00001737 0.00001455
0.16324571 0.50076002 0.48556331 0.00001417 0.00002406 -0.00001716
0.48016894 0.47661436 0.47273776 0.00000432 -0.00000359 -0.00000957
0.84445387 0.47390893 0.49641040 0.00001080 0.00000588 -0.00001084
0.67717791 0.50970310 0.53376281 0.00000024 -0.00001843 0.00003714
0.52640074 0.49026868 0.49659869 0.00000493 -0.00001063 0.00000393
0.46875787 0.50970310 0.47580972 0.00000123 0.00000956 0.00001766
0.80087191 0.51002151 0.48737815 -0.00001205 0.00001381 -0.00003096
0.32705760 0.48926532 0.53871512 -0.00000670 -0.00004229 0.00002822
0.58377081 0.51057827 0.48801401 0.00000918 0.00001353 -0.00000747
0.41971511 0.48660541 0.57287735 0.00000016 -0.00001374 -0.00000575
0.66192615 0.49026868 0.56203848 0.00000330 0.00000389 -0.00003779
0.64433563 0.47393170 0.51897508 0.00000504 0.00000011 0.00000251
0.54604173 0.48429388 0.58489972 0.00000378 -0.00001792 0.00000767
0.15319189 0.49638903 0.42521960 -0.00000652 -0.00000623 0.00002293
0.55144435 0.50970310 0.48006430 -0.00000355 0.00001999 0.00000477
0.44499791 0.48889691 0.57715744 -0.00000333 -0.00002585 0.00000997
0.90035474 0.52611017 0.47455162 0.00001338 0.00002007 -0.00003856
0.62431806 0.52604103 0.56076771 0.00000330 -0.00000817 -0.00000991
0.40541124 0.50749171 0.54343826 -0.00000472 0.00003048 -0.00000522
0.78031129 0.49026960 0.57637143 0.00000614 -0.00001407 0.00002425
0.89370036 0.52554613 0.45494071 0.00002812 0.00003936 -0.00004841
0.69988900 0.52604103 0.54893816 0.00000205 -0.00001575 -0.00001278
0.84652066 0.47798252 0.47193539 0.00000333 -0.00000321 -0.00000737
0.53444511 0.50966126 0.50459027 0.00000685 -0.00000237 0.00001115
0.39054981 0.50716692 0.54309708 0.00000480 0.00004185 -0.00000447
0.83787686 0.49026868 0.51419652 0.00000779 0.00001663 0.00003239
0.54770374 0.49028230 0.51329774 0.00000128 0.00001565 0.00001623
0.61954498 0.52604103 0.56275171 0.00000300 -0.00000713 -0.00000680
0.56933510 0.51060188 0.48396683 0.00000771 0.00001462 0.00000179
0.64634055 0.47393078 0.52822649 0.00000415 0.00000713 0.00001523
0.50034386 0.52603829 0.54731894 -0.00000019 -0.00000656 -0.00000733
0.50584930 0.52610654 0.57424825 -0.00000103 -0.00000368 0.00000606
0.40128767 0.49360085 0.47267312 -0.00000204 -0.00000584 -0.00000246
0.80605525 0.50970310 0.52075440 0.00000496 -0.00001997 0.00003481
0.45804277 0.50422049 0.49021274 0.00000199 -0.00000554 0.00002094
0.20634189 0.49274117 0.49256334 0.00000643 -0.00002737 -0.00000566
0.38341057 0.48948178 0.50034022 -0.00001092 -0.00001240 0.00000593
0.85805911 0.50970310 0.54990423 -0.00001797 0.00000619 -0.00000684
0.49568540 0.51496929 0.58149022 0.00000282 0.00001834 0.00001506
0.93357545 0.52604103 0.54109764 0.00001404 -0.00000731 0.00001325
0.40997878 0.49035057 0.57928693 0.00000798 -0.00001714 0.00000852
0.09142721 0.49788272 0.43032652 0.00004055 0.00000634 -0.00008345
0.60857147 0.47393078 0.53137219 0.00000249 0.00000721 0.00002126
0.53898263 0.47393078 0.53118026 0.00000397 0.00000381 -0.00000220
0.28262693 0.49972576 0.45093265 0.00000203 0.00001463 0.00001627
0.29715002 0.49014226 0.52505809 -0.00000637 -0.00003795 0.00001815
0.53960121 0.52611202 0.49634305 0.00000322 -0.00000597 -0.00001253
0.77739757 0.52613199 0.56085593 -0.00000010 -0.00000305 0.00000161
0.50753307 0.52604103 0.54690504 -0.00000270 -0.00000683 -0.00000647
0.49716726 0.49005854 0.58161122 0.00000344 -0.00002003 0.00001509
0.77273995 0.49026868 0.52397376 0.00000999 0.00001167 0.00004095
0.45867953 0.50970310 0.47144598 -0.00000033 0.00001966 0.00001859
0.58421838 0.52610743 0.55321455 0.00000542 -0.00000597 -0.00001008
0.41453174 0.48679006 0.56535339 0.00000047 -0.00001534 -0.00001110
0.81733441 0.50970310 0.50615311 -0.00000148 -0.00000067 0.00003233
0.62832522 0.52014899 0.49735281 0.00000354 0.00001297 -0.00002784
0.55018443 0.47393078 0.48666313 -0.00000096 -0.00000156 -0.00000672
0.43548173 0.52611285 0.53405029 -0.00001793 0.00000645 0.00001819
0.68821323 0.52610838 0.50341862 -0.00000069 0.00001574 -0.00003284
0.41893095 0.49692392 0.45216072 -0.00000192 -0.00000528 -0.00000193
0.90624946 0.51765102 0.48235580 0.00002394 0.00000937 -0.00000085
0.73042977 0.47387803 0.50856739 0.00000127 -0.00000980 -0.00001365
0.57579201 0.47393078 0.48836058 0.00000957 -0.00000909 -0.00001132
0.61296892 0.52604103 0.55001521 0.00000426 -0.00001144 -0.00001988
0.29606929 0.49022499 0.51749593 0.00000184 -0.00003813 -0.00000135
0.40338722 0.50449610 0.49518234 -0.00000805 0.00001023 0.00000426
0.49160910 0.50574422 0.53770816 -0.00000740 -0.00001215 0.00000443
0.65868676 0.52604103 0.53934646 0.00000461 -0.00001469 0.00001413
0.55337197 0.49026868 0.48783210 -0.00000263 -0.00001619 0.00000765
0.75158262 0.52604103 0.54410231 -0.00000167 -0.00001461 -0.00001470
0.57959175 0.51793575 0.48687965 0.00000985 0.00001040 -0.00000772
0.60246933 0.52610743 0.54659301 0.00000707 -0.00001017 -0.00001585
0.69911754 0.52604103 0.53475893 0.00000115 -0.00001255 0.00001654
0.53056443 0.49026868 0.57908320 0.00000000 -0.00001190 -0.00000494
0.62539786 0.47392896 0.57178390 0.00000304 -0.00000068 0.00000571
0.84189945 0.48588675 0.57035029 0.00001397 -0.00002316 0.00001710
0.41273147 0.49814835 0.45442855 -0.00000621 -0.00000175 0.00000196
0.73849958 0.52604103 0.53051710 0.00000260 -0.00001258 0.00001537
0.41903737 0.50676852 0.50955987 -0.00000148 0.00000202 -0.00000347
0.88920933 0.47387981 0.48713437 -0.00000351 0.00000403 -0.00000251
0.20579518 0.49975759 0.44332862 -0.00000258 0.00001605 0.00002075
0.61990523 0.52604103 0.51782072 0.00000160 0.00000005 0.00000067
0.68956411 0.52604103 0.53220093 -0.00000056 -0.00001054 0.00001704
0.20263948 0.49965385 0.44192314 -0.00000371 0.00001492 0.00002081
0.67329085 0.49026868 0.54526484 0.00000111 0.00002635 -0.00000724
0.28264418 0.49300501 0.46948925 -0.00000391 -0.00002526 0.00002884
0.75880271 0.51913106 0.49645859 -0.00000384 0.00001512 -0.00003442
0.76205027 0.47392988 0.57882851 0.00001331 -0.00001799 0.00003066
0.89855355 0.48465684 0.46800646 0.00001061 -0.00003905 -0.00003201
0.58912522 0.51370841 0.48955232 0.00000966 0.00001505 -0.00001167
0.76732552 0.47393078 0.57832092 0.00001372 -0.00001715 0.00003132
0.53056622 0.50970310 0.48640570 0.00000397 0.00001498 0.00000034
0.75588179 0.50970310 0.55089492 -0.00000117 -0.00001265 -0.00003723
0.77632409 0.52112967 0.57880306 0.00001064 0.00001331 0.00003400
0.84657979 0.47393078 0.48114774 0.00000842 0.00000310 -0.00001334
0.80695403 0.47393078 0.55132878 -0.00000033 0.00000848 -0.00001531
0.54345554 0.52604103 0.57330763 0.00000391 0.00000334 0.00001077
0.53087276 0.49026868 0.57626408 -0.00000067 -0.00001037 -0.00000679
0.45398101 0.52604103 0.49414253 -0.00000387 -0.00002016 -0.00000725
0.89980257 0.50970310 0.47128317 0.00001291 0.00003749 -0.00002154
0.60668480 0.47393078 0.57416999 0.00000062 -0.00000236 0.00000908
0.93000585 0.48762241 0.50891215 -0.00000115 -0.00000652 -0.00001333
0.63922507 0.47393078 0.56543893 0.00000313 0.00000445 -0.00000359
0.67100114 0.50970131 0.57075781 0.00000093 0.00001013 -0.00002358
0.80176616 0.47393078 0.49568626 -0.00000904 -0.00001019 -0.00001818
0.85357797 0.52613378 0.51119542 0.00000725 -0.00000260 0.00001245
0.64012653 0.47393078 0.51561469 0.00000421 -0.00000228 -0.00000271
0.63081408 0.52184105 0.49770850 0.00000379 0.00001244 -0.00002895
0.69911575 0.50970310 0.53910720 0.00000124 -0.00002322 0.00002292
0.75221026 0.52604008 0.50370789 -0.00000461 0.00001352 -0.00002009
0.88952500 0.52604103 0.47661844 -0.00000459 0.00000566 -0.00003245
0.28003797 0.49812108 0.43560633 0.00002263 0.00000500 -0.00004740
0.69426256 0.49026868 0.55032450 0.00000028 0.00002230 -0.00002778
0.61667949 0.49026868 0.55756015 0.00000363 0.00001079 -0.00003462
0.51931167 0.47393078 0.54678768 -0.00000224 0.00000557 -0.00000857
0.80273402 0.47393170 0.51569200 0.00000195 0.00000749 0.00001220
0.12514184 0.49493265 0.48252952 -0.00003138 -0.00001409 -0.00000777
0.38417658 0.50484180 0.49792230 -0.00000994 0.00001569 0.00000896
0.47949302 0.48897144 0.47209096 0.00000313 -0.00001298 -0.00000140
0.38704205 0.49939099 0.46151406 0.00000391 0.00000663 -0.00001080
0.77038842 0.47880030 0.57937521 0.00001411 -0.00001468 0.00003164
0.70129812 0.47393078 0.58253270 0.00000755 -0.00001469 0.00002935
0.63247514 0.50970310 0.56483573 0.00000384 0.00000302 -0.00002850
0.89969701 0.52604103 0.51902509 0.00001115 -0.00003194 -0.00001151
0.86017227 0.50969678 0.52112377 -0.00000467 -0.00002202 -0.00000966
0.40691042 0.50626725 0.50676072 -0.00000942 0.00000108 -0.00000157
0.42086312 0.49896795 0.45974928 -0.00000054 0.00000088 0.00000743
0.41951314 0.49477980 0.46542755 0.00000022 -0.00001084 0.00000526
0.28651765 0.49062708 0.49539793 0.00001260 -0.00004034 -0.00002178
0.74921381 0.49026868 0.57701731 0.00000450 -0.00001791 0.00000952
0.49716634 0.47393078 0.49832433 0.00000055 -0.00000413 -0.00000221
0.39500087 0.49301592 0.47679308 0.00000487 -0.00000778 -0.00000270
0.90621585 0.48366529 0.55929941 0.00001581 -0.00001402 -0.00000366
0.82032001 0.47393170 0.52541018 0.00000146 0.00001204 0.00000982
0.08918394 0.49868140 0.46172878 0.00000539 0.00001443 0.00009886
0.80797470 0.50970310 0.57024384 -0.00000296 0.00001879 0.00001548
0.67352372 0.51776838 0.50162375 0.00000244 0.00001357 -0.00003181
0.86792910 0.52604103 0.52782172 -0.00001009 0.00000183 -0.00002089
0.62020719 0.51397771 0.58696198 0.00000484 0.00001888 0.00002681
0.09802876 0.49689117 0.42742738 0.00002918 -0.00000439 -0.00008964
0.73646641 0.47393078 0.54581797 -0.00000049 0.00001628 -0.00001428
0.38312405 0.48786163 0.52996677 0.00000393 -0.00003699 -0.00001130
0.57990831 0.51478004 0.48696786 0.00000925 0.00001364 -0.00000642
0.63879931 0.52604103 0.50098068 0.00000487 0.00001322 -0.00002814
0.59373182 0.47393078 0.53415674 0.00000492 0.00000753 0.00001379
0.11342788 0.49938095 0.47441065 -0.00003591 0.00001292 0.00000286
0.51678634 0.47393170 0.50067681 -0.00000052 -0.00000188 -0.00000468
0.80794466 0.51998347 0.57507610 -0.00000117 0.00001464 0.00003815
0.28896651 0.50430596 0.52297127 -0.00000399 0.00003862 0.00002241
0.74740535 0.50970310 0.54753995 -0.00000510 -0.00002044 -0.00003340
0.28421703 0.49155769 0.48322454 0.00000848 -0.00003214 -0.00000640
0.44894591 0.50970310 0.47731343 -0.00000174 0.00002040 0.00002076
0.80223370 0.52604103 0.56344396 -0.00000363 0.00000413 0.00000879
0.65296668 0.50969768 0.50435376 0.00000583 0.00001444 -0.00001689
0.63856095 0.47393078 0.52137387 0.00000367 0.00000230 0.00000666
0.76087409 0.50967950 0.56483668 0.00000742 0.00001138 -0.00002293
0.49209395 0.50367016 0.53591335 -0.00000816 -0.00000727 0.00000844
0.30974910 0.49728417 0.43599659 0.00002076 -0.00000047 -0.00008256
0.80831492 0.49026868 0.56540161 -0.00000292 -0.00001722 -0.00000402
0.83585191 0.50970310 0.50586289 0.00001435 -0.00000608 0.00002550
0.49513504 0.51237303 0.48203379 -0.00000493 0.00000616 0.00000024
0.18732864 0.49521914 0.43881112 -0.00000355 -0.00001304 0.00002667
0.87342358 0.47824723 0.56528425 -0.00000883 -0.00002159 0.00002570
0.54481637 0.51959682 0.58484423 0.00000462 0.00001427 0.00001076
0.57994014 0.52374411 0.48697883 0.00001127 0.00000844 -0.00001233
0.20635282 0.49662006 0.42267427 0.00001208 -0.00000455 -0.00004397
0.56343031 0.52076763 0.58564931 0.00000338 0.00001291 0.00001372
0.91628873 0.52604103 0.50529528 0.00000697 -0.00001132 -0.00000096
0.86188787 0.47393078 0.50762314 0.00000630 0.00000744 0.00000650
0.43387157 0.50830585 0.55351293 0.00000081 0.00001969 -0.00001022
0.92941082 0.47393078 0.50844729 0.00001765 -0.00000194 -0.00002502
0.73594421 0.52604103 0.50681353 -0.00000208 0.00001127 -0.00001642
0.94717699 0.47393078 0.52890605 0.00003931 -0.00002067 -0.00000623
0.52003485 0.50970310 0.58285296 -0.00000303 0.00001325 -0.00000017
0.87138867 0.52137250 0.56565541 -0.00001079 0.00001980 0.00002684
0.80912364 0.52604103 0.52670825 0.00000298 -0.00001493 0.00001058
0.43462661 0.52086765 0.54136598 -0.00001675 0.00000734 0.00000795
0.79906255 0.51939666 0.57618040 -0.00000515 0.00001387 0.00004174
0.53552401 0.49026868 0.56419986 -0.00000099 -0.00000276 -0.00000986
0.46848133 0.52604103 0.53815931 0.00000359 -0.00001209 0.00000287
0.62961423 0.50970310 0.50292736 0.00000089 0.00001346 -0.00001443
0.93929547 0.50970131 0.53247017 0.00000080 0.00004898 -0.00000563
0.78800082 0.49029142 0.49948418 0.00000674 -0.00001396 -0.00000493
0.85941452 0.52604103 0.53250021 -0.00001634 0.00000400 -0.00001256
0.89397418 0.50970310 0.47773826 -0.00000683 0.00003052 0.00000338
0.41647753 0.48693290 0.53818935 -0.00000229 -0.00002418 -0.00000526
0.72654176 0.50970310 0.57778239 -0.00000319 0.00001656 0.00001004
0.71679085 0.48375991 0.58380538 0.00000337 -0.00001725 0.00003325
0.78346062 0.49026868 0.54584253 -0.00000148 0.00002201 -0.00003497
0.43627587 0.49831480 0.57849461 -0.00000965 -0.00000311 0.00001544
0.59596604 0.52608103 0.57910049 -0.00000115 0.00000688 0.00001634
0.70840544 0.52604103 0.56975806 0.00000325 0.00000039 0.00000241
0.71456486 0.49032509 0.50233513 0.00000504 -0.00001556 -0.00002770
0.22580636 0.50008595 0.44865298 0.00000638 0.00002047 0.00002495
0.64513886 0.47387618 0.51606953 0.00000532 -0.00000248 -0.00000220
0.80559403 0.47393078 0.53007954 0.00000201 0.00001670 0.00000137
0.31947178 0.50181341 0.53991777 -0.00001278 0.00002324 0.00003954
0.83205676 0.52604103 0.56566447 0.00002060 0.00000629 0.00001187
0.30728841 0.50380111 0.48958594 0.00000397 0.00003155 -0.00000511
0.33260667 0.50540668 0.51729125 0.00000614 0.00004455 -0.00002090
0.21399322 0.49451688 0.44819269 0.00000265 -0.00001965 0.00002237
0.73869151 0.52604103 0.53463435 0.00000285 -0.00001518 0.00001219
0.65382361 0.47808897 0.50061220 0.00000737 -0.00001190 -0.00003083
0.44088247 0.51256317 0.45639074 -0.00000529 0.00003284 -0.00000405
0.43430004 0.47386983 0.48753101 -0.00000975 0.00000684 -0.00000871
0.75614285 0.47391534 0.54212648 -0.00000018 0.00001436 -0.00001252
0.22478662 0.49986130 0.44607404 0.00000578 0.00001839 0.00002331
0.80014414 0.47393170 0.55917937 -0.00000557 0.00000133 -0.00000180
0.26678482 0.49774715 0.42814058 0.00002165 0.00000262 -0.00006928
0.43229419 0.52127427 0.45274475 -0.00000426 0.00003133 -0.00001518
0.73901898 0.47393078 0.57102704 -0.00000051 -0.00000719 0.00000623
0.84678811 0.47392806 0.48418155 0.00000976 0.00000521 -0.00001441
0.30242616 0.48997942 0.52856582 -0.00000943 -0.00003817 0.00002286
0.70152003 0.47393170 0.52431488 0.00000329 0.00000427 0.00001057
0.34142423 0.48901153 0.52128291 0.00000569 -0.00004540 -0.00001685
0.71188223 0.52604008 0.57367063 0.00000287 0.00000554 0.00000993
0.42656049 0.48678190 0.52213436 -0.00000405 -0.00001019 0.00000849
0.16687715 0.49482891 0.44356784 0.00000762 -0.00002048 0.00002500
0.87568873 0.49026868 0.46501184 -0.00000821 -0.00003486 -0.00000011
0.83359772 0.50970310 0.48834878 0.00001609 0.00001257 -0.00000726
0.80212361 0.52601552 0.51360428 0.00000101 -0.00000632 0.00001012
0.73780638 0.49026960 0.56677520 -0.00000421 -0.00001023 -0.00002706
0.72848487 0.50969768 0.50298464 0.00000134 0.00001388 -0.00002099
0.53785914 0.49026868 0.51548547 0.00000765 0.00001564 0.00001086
0.31432661 0.50132316 0.47000143 -0.00000673 0.00001972 0.00002860
0.27798209 0.49437135 0.45563844 -0.00000415 -0.00001726 0.00002707
0.47062910 0.49646086 0.57414913 -0.00000185 -0.00001198 -0.00000834
0.89020360 0.50970310 0.49407160 -0.00000991 -0.00001621 0.00004660
0.46551305 0.51631653 0.46231458 0.00000992 0.00001934 -0.00001467
0.48033726 0.49584046 0.47653925 -0.00000228 -0.00000474 0.00000715
0.71590483 0.48598406 0.58386451 0.00000383 -0.00001912 0.00003243
0.56852275 0.47386801 0.58255094 0.00000186 -0.00001100 0.00001588
0.49851543 0.50970310 0.53258026 -0.00000670 -0.00001378 0.00001100
0.61280328 0.47393170 0.57184941 0.00000151 -0.00000051 0.00000571
0.37930700 0.49249557 0.47997972 -0.00000251 -0.00001924 0.00001110
0.51254910 0.50969946 0.54593349 -0.00000092 -0.00001435 -0.00001010
0.86250556 0.51781201 0.46532473 0.00000236 0.00001513 0.00000295
0.23982093 0.50087464 0.45819101 0.00000287 0.00002455 0.00002959
0.77070415 0.50970310 0.52501899 0.00000921 -0.00001394 0.00004085
0.63169193 0.47848102 0.58682364 0.00000456 -0.00001232 0.00003191
0.63850999 0.48887140 0.49869913 0.00000482 -0.00001662 -0.00002785
0.58599317 0.47393078 0.55897927 0.00000394 0.00000534 -0.00000286
0.74793839 0.52604103 0.51454401 -0.00000289 0.00000293 0.00000354
0.80487722 0.47393170 0.56162006 -0.00000135 -0.00000157 0.00000336
0.88383949 0.47393078 0.48268053 -0.00001013 0.00000639 -0.00002025
0.44276097 0.52609283 0.50223505 -0.00000741 -0.00001771 -0.00000709
0.82264966 0.50970042 0.53810930 -0.00000284 -0.00001522 -0.00003204
0.46398389 0.47393078 0.52261925 0.00000193 0.00000211 0.00000771
0.88062465 0.47862387 0.45639801 0.00000851 -0.00003021 -0.00001692
0.51234984 0.47388622 0.56545162 -0.00000138 0.00000910 0.00000552
0.50204039 0.48997122 0.58197415 0.00000198 -0.00001798 0.00001184
0.80478537 0.52604103 0.51305759 -0.00000063 -0.00000564 0.00001116
0.53002316 0.49026868 0.50426275 0.00000632 0.00000095 0.00001047
0.33120757 0.50520653 0.50076050 0.00000482 0.00003587 -0.00001738
0.85875583 0.47393170 0.51489419 0.00000002 0.00000378 0.00000325
0.56852639 0.47386801 0.50222236 0.00000248 0.00000337 -0.00000771
0.43067950 0.48655811 0.53874063 -0.00000475 -0.00002190 0.00000042
0.57441199 0.52604103 0.54817039 0.00000573 -0.00000473 -0.00001400
0.69877285 0.49026868 0.53473526 0.00000192 0.00001903 0.00003447
0.40933561 0.50328803 0.48717988 -0.00000287 0.00001289 0.00000439
0.49789140 0.49026960 0.48445806 -0.00000446 -0.00000499 0.00000356
0.62286168 0.52604103 0.52304679 0.00000142 -0.00000299 0.00000959
0.45564938 0.47388801 0.56604016 -0.00000348 -0.00000980 0.00000064
0.38805181 0.49400568 0.47002685 0.00000826 -0.00000983 -0.00000725
0.77518612 0.49026960 0.55283070 0.00000178 0.00000835 -0.00003500
0.87572235 0.47390893 0.55405968 0.00000204 -0.00001146 0.00001637
0.89359218 0.50970310 0.54299611 0.00002312 0.00000231 -0.00001299
0.55658680 0.50970310 0.49798504 -0.00000086 0.00000783 0.00001052
0.78772151 0.51014888 0.57759500 -0.00000034 0.00001526 0.00003668
0.63185388 0.49026868 0.56782043 0.00000338 -0.00000790 -0.00002309
0.24042767 0.50041163 0.45303857 0.00000179 0.00002075 0.00003064
0.81198823 0.47392625 0.53183156 -0.00000008 0.00001585 -0.00000870
0.72598231 0.50970310 0.52960193 0.00000949 -0.00001279 0.00003751
0.38085711 0.50314248 0.56537706 -0.00001700 0.00002681 0.00000149
0.45402014 0.48570114 0.57398808 0.00000041 -0.00002845 -0.00000241
0.81949127 0.52231860 0.57363695 0.00001251 0.00001390 0.00002900
0.49277258 0.52604103 0.58076155 -0.00000228 0.00000621 0.00002022
0.71106446 0.52604103 0.50296557 0.00000418 0.00001643 -0.00003285
0.26981676 0.50107569 0.46314970 -0.00000831 0.00002229 0.00003055
0.85114366 0.52611107 0.53880066 -0.00001375 0.00000048 -0.00000214
0.44027391 0.52610558 0.49637949 -0.00001000 -0.00001854 -0.00000850
0.52958924 0.52604103 0.56054300 -0.00000051 -0.00000635 0.00000617
0.81960225 0.47393078 0.56402254 0.00001533 -0.00000478 0.00000756
0.18876593 0.50001955 0.44555008 -0.00000610 0.00001700 0.00002222
0.83715367 0.52610922 0.54337454 0.00000288 -0.00000891 -0.00000035
0.68496925 0.49026868 0.50467485 -0.00000132 -0.00001456 -0.00002184
0.68219572 0.47388530 0.54013240 -0.00000019 0.00001466 0.00000999
0.76962429 0.49026868 0.57115620 0.00001007 -0.00001427 -0.00000201
0.37686542 0.48782349 0.55885458 -0.00001371 -0.00004085 -0.00000054
0.31775972 0.49780723 0.44132730 0.00001367 0.00000230 -0.00006383
0.44567743 0.51069379 0.56250423 0.00000569 0.00001843 -0.00001554
0.49743381 0.52605832 0.50578648 -0.00000294 0.00000222 -0.00000128
0.62164998 0.47393078 0.57289010 0.00000272 -0.00000172 0.00000721
0.67399490 0.47387710 0.54401863 0.00000085 0.00001566 -0.00000232
0.14930119 0.49504814 0.49481025 0.00000080 -0.00001672 0.00004926
0.91121179 0.49812740 0.54908276 -0.00001081 -0.00000074 -0.00000357
0.95439708 0.48212248 0.53665286 0.00004630 -0.00004892 -0.00000038
0.72766978 0.49026868 0.54357105 0.00000303 0.00002496 -0.00000812
0.23720285 0.49870145 0.43355954 0.00000379 0.00000854 -0.00000341
0.33577874 0.50194722 0.47706690 -0.00000988 0.00002341 0.00003382
0.20746988 0.50199902 0.49745923 0.00000344 0.00002825 0.00001152
0.71888047 0.51059824 0.50123352 0.00000427 0.00001558 -0.00003104
0.24302118 0.49376184 0.45928991 0.00000035 -0.00002282 0.00002877
0.74797660 0.52604103 0.54275048 -0.00000154 -0.00001530 -0.00001176
0.60604620 0.47392988 0.58229166 0.00000101 -0.00000976 0.00002046
0.59738511 0.49026960 0.50997370 0.00000067 -0.00000711 0.00000591
0.51373351 0.49026868 0.54786474 0.00000059 0.00001469 -0.00001146
0.29085952 0.49996498 0.45553291 0.00000154 0.00001605 0.00001928
0.73108196 0.47393078 0.54861432 0.00000006 0.00001570 -0.00001610
0.59827298 0.47764230 0.49168277 0.00000968 -0.00000919 -0.00001949
0.81361198 0.52611107 0.52358806 0.00000297 -0.00001228 0.00001619
0.89012718 0.49003124 0.56225413 0.00002095 -0.00001530 -0.00001389
0.50057673 0.47393078 0.53644550 -0.00000229 0.00000239 -0.00000116
0.47267681 0.48493066 0.46130851 0.00001951 -0.00001554 -0.00002500
0.60717422 0.47393078 0.53420132 0.00000320 0.00000850 0.00001922
0.78335869 0.52610922 0.50082326 0.00000498 0.00000909 -0.00001707
0.69674969 0.48540276 0.58502072 0.00000831 -0.00002015 0.00002834
0.85753417 0.52604371 0.49429354 0.00000388 -0.00001183 -0.00001155
0.57001460 0.52604103 0.49944603 0.00000289 -0.00000254 -0.00000736
0.36165375 0.50001770 0.46434957 0.00000712 0.00001428 -0.00000971
0.72762698 0.52604371 0.50291556 0.00000074 0.00001479 -0.00002943
0.31313130 0.48966467 0.53358454 -0.00000964 -0.00003959 0.00002690
0.90100700 0.52611017 0.48752645 0.00001899 0.00000826 0.00000889
0.84136546 0.50970310 0.53968579 -0.00000882 -0.00001099 -0.00002346
0.38503805 0.49043787 0.49339113 -0.00000805 -0.00001617 0.00001634
0.59198344 0.52604103 0.53475803 0.00000623 -0.00000763 0.00001169
0.56446010 0.47669441 0.58578211 0.00000243 -0.00001259 0.00001611
0.47647560 0.52604008 0.46961933 0.00000926 0.00000965 -0.00001623
0.74166435 0.52604103 0.54424876 -0.00000126 -0.00001586 -0.00001286
0.82561255 0.52604103 0.51920336 0.00000198 -0.00000718 0.00002369
0.10159744 0.49900162 0.46431774 -0.00001313 0.00001525 0.00005485
0.80489999 0.50970310 0.55672961 -0.00000881 0.00000779 -0.00003318
0.38046053 0.50668931 0.52197975 -0.00000112 0.00002965 -0.00001083
0.93048704 0.49030685 0.52530187 -0.00001281 -0.00003230 -0.00001949
0.44887951 0.52604103 0.48206291 -0.00001003 -0.00001584 -0.00001092
0.85977751 0.52604008 0.48451266 -0.00000569 -0.00001211 -0.00000801
0.60393667 0.47393078 0.51850474 0.00000409 0.00000285 0.00000293
0.42180827 0.49941918 0.57848191 -0.00000268 0.00000387 0.00000700
0.69312733 0.47393078 0.50821626 -0.00000034 -0.00001234 -0.00002043
0.71421558 0.49026868 0.58086163 0.00000308 -0.00001678 0.00001807
0.52834839 0.47393078 0.53141773 0.00000287 0.00000191 -0.00000047
0.62467104 0.47392076 0.55527502 0.00000291 0.00000921 -0.00001703
0.57474220 0.50970310 0.50128990 -0.00000293 0.00000729 0.00000386
0.52341163 0.49026868 0.54860520 0.00000100 0.00001624 -0.00000979
0.34568971 0.48900512 0.50626498 0.00000361 -0.00003554 -0.00001816
0.40516838 0.49452597 0.57693183 0.00000795 -0.00000605 0.00000146
0.92687380 0.52604103 0.53119385 0.00001663 -0.00001946 0.00000788
0.77701002 0.52604103 0.56462014 0.00000113 0.00000099 0.00000682
0.86152864 0.47393078 0.52163678 -0.00000772 0.00000114 -0.00000840
0.75282884 0.52604103 0.56003356 0.00000400 -0.00000471 -0.00000785
0.19423766 0.49450141 0.44749951 -0.00000661 -0.00001748 0.00001961
0.32662281 0.49754339 0.44097617 0.00001208 0.00000072 -0.00007149
0.57299107 0.49026778 0.56018639 0.00000344 0.00000200 -0.00001520
0.53513378 0.52610743 0.51635885 0.00000405 -0.00000504 0.00000894
0.62260973 0.52604103 0.52045423 0.00000144 -0.00000138 0.00000513
0.27243209 0.49289218 0.46982950 -0.00000479 -0.00002437 0.00002150
0.90205032 0.52604103 0.48139423 0.00001835 0.00001509 -0.00001819
0.39396292 0.50734162 0.56475210 0.00000026 0.00003868 -0.00001276
0.89006531 0.48953274 0.45164585 0.00002365 -0.00003760 -0.00003556
0.73584419 0.52604103 0.50025922 -0.00000379 0.00001662 -0.00003549
0.77846366 0.50970310 0.56345212 -0.00000104 0.00000848 -0.00001766
0.12526739 0.49503452 0.46759710 -0.00001576 -0.00001651 0.00000050
0.53364187 0.47388530 0.55124694 0.00000146 0.00000518 -0.00000404
0.35980618 0.49442959 0.46597695 0.00000586 -0.00001558 -0.00000471
0.53725147 0.47670165 0.58447760 0.00000439 -0.00001202 0.00001346
0.31972650 0.50340450 0.48702887 -0.00000343 0.00002571 0.00001399
0.83380330 0.51058912 0.57158834 0.00002045 0.00002297 0.00001454
0.22604105 0.49398747 0.45531186 0.00000841 -0.00002501 0.00002714
0.43519697 0.50442606 0.49359488 0.00001406 0.00000467 0.00000422
0.50777870 0.47393078 0.52070349 -0.00000153 -0.00000174 0.00000438
0.56884652 0.47393078 0.57443744 0.00000154 -0.00000325 0.00001255
0.71219522 0.50970221 0.56176102 0.00000153 -0.00000046 -0.00003455
0.78088528 0.50970405 0.57498872 0.00000380 0.00001429 0.00001971
0.69797778 0.52604103 0.52308863 0.00000115 -0.00000240 0.00000924
0.31985474 0.49792364 0.44286925 0.00001185 0.00000289 -0.00005853
0.58648348 0.51162344 0.48877358 0.00000962 0.00001443 -0.00000947
0.15723360 0.49982306 0.44381347 0.00000973 0.00002276 0.00001483
0.46640727 0.47393078 0.55414885 -0.00000515 0.00001462 0.00000495
0.73449153 0.52353758 0.49974892 -0.00000335 0.00001407 -0.00003590
0.70857459 0.52604103 0.55169719 0.00000348 -0.00001529 -0.00001306
0.51056504 0.52480477 0.48332825 0.00000565 0.00000516 -0.00000759
0.70907497 0.52604103 0.54459989 0.00000363 -0.00001687 -0.00000493
0.46077177 0.50970310 0.49842167 0.00000121 -0.00002804 -0.00000213
0.91664344 0.49026868 0.55190825 -0.00001451 -0.00001235 0.00000879
0.48333010 0.50217187 0.56896752 0.00000422 0.00000581 -0.00001764
0.28466186 0.49944374 0.44882673 0.00000522 0.00001296 0.00000824
0.91353422 0.47931793 0.49247512 0.00002070 0.00000132 0.00000648
0.73462254 0.52058202 0.58258367 -0.00000093 0.00001577 0.00003698
0.51551551 0.52608198 0.55553520 -0.00000391 -0.00001099 0.00000110
0.87295783 0.47393078 0.52515817 -0.00000521 0.00000293 -0.00002191
0.30527985 0.49012402 0.49725547 0.00000918 -0.00003885 -0.00002444
0.55439085 0.50970310 0.55475289 0.00000295 -0.00001200 -0.00001603
0.55371314 0.48698658 0.58522719 0.00000376 -0.00001999 0.00000701
0.52769345 0.50970221 0.50347590 0.00000596 0.00000013 0.00000970
0.89330566 0.48384812 0.45339972 0.00002804 -0.00004686 -0.00004118
0.50606304 0.51040995 0.48374760 -0.00000105 0.00000770 0.00000026
0.89706624 0.47393078 0.53392297 0.00001056 0.00002109 0.00001662
0.52261287 0.52604103 0.55381584 -0.00000358 -0.00000902 -0.00000064
0.34752092 0.50181258 0.47556046 -0.00000601 0.00002439 0.00002937
0.94971043 0.48677185 0.52289850 0.00003796 -0.00004304 -0.00003095
0.82140887 0.52609831 0.55208564 0.00001327 -0.00000871 -0.00000591
0.50581563 0.48554835 0.48372668 0.00000054 -0.00000693 -0.00000136
0.82338840 0.47393078 0.49241054 -0.00000351 -0.00000867 -0.00001465
0.74639374 0.52241957 0.58168763 0.00000403 0.00001701 0.00003487
0.60585612 0.48623425 0.49323925 0.00000644 -0.00001560 -0.00001917
0.51979464 0.50970221 0.57405907 -0.00000002 0.00001016 -0.00000762
0.66896528 0.47386712 0.52245545 0.00000235 0.00000286 0.00000729
0.58138835 0.52604103 0.58075887 -0.00000037 0.00000793 0.00001642
0.54165983 0.52604103 0.52506262 0.00000410 -0.00000496 0.00000074
0.58360338 0.50970221 0.49373323 0.00000454 0.00001084 -0.00000371
0.21606003 0.49444866 0.44911420 0.00000386 -0.00002049 0.00002297
0.88646930 0.47393349 0.50316113 0.00000060 0.00001770 0.00000777
0.82504672 0.52611107 0.54490644 0.00000877 -0.00001215 -0.00000879
0.46216178 0.47393078 0.47912097 0.00000074 0.00001553 -0.00000107
0.54292154 0.47393078 0.52868140 0.00000372 0.00000486 -0.00000134
0.81031805 0.52604103 0.50415903 -0.00000781 0.00000199 0.00000158
0.94681042 0.48702657 0.54999703 0.00001951 -0.00005098 0.00003627
0.45995310 0.52604103 0.54882532 -0.00000228 -0.00001149 0.00001113
0.91374350 0.47393078 0.49638945 0.00001832 -0.00000391 -0.00000082
0.64846742 0.47393078 0.57878119 0.00000199 -0.00000857 0.00001907
0.53573054 0.50970310 0.49414530 0.00000437 0.00001375 0.00000386
0.61467814 0.47393170 0.55404150 0.00000349 0.00000955 -0.00001769
0.52821380 0.52604103 0.51793528 0.00000485 -0.00000303 0.00000485
0.50878119 0.52604103 0.49496853 -0.00000096 0.00000308 -0.00000405
0.84054500 0.47393078 0.48159984 0.00000926 -0.00000227 -0.00001679
0.69088137 0.47388622 0.58440393 0.00000641 -0.00001686 0.00003300
0.18680464 0.49753520 0.50175387 -0.00000527 0.00000128 0.00006241
0.63833439 0.50970310 0.50464571 0.00000330 0.00001392 -0.00001275
0.49559805 0.49388558 0.52287942 -0.00000711 0.00001015 0.00001044
0.80379742 0.47393078 0.52596414 0.00000454 0.00001469 0.00001334
0.82760477 0.49026960 0.54209006 0.00000168 0.00000620 -0.00003040
0.61221927 0.49026868 0.52401924 0.00000033 0.00000865 0.00003248
0.77100974 0.50970310 0.57759041 0.00001457 0.00001669 0.00002007
0.72140020 0.49026868 0.50892854 0.00000656 -0.00001414 -0.00000070
0.39006311 0.50213271 0.56959158 -0.00000821 0.00002115 -0.00000128
0.16864647 0.49368817 0.49803051 0.00000299 -0.00002618 0.00005642
0.66176331 0.50970310 0.55052286 0.00000546 -0.00002272 -0.00003054
0.50605029 0.47393078 0.53656650 -0.00000340 0.00000267 -0.00000072
0.47384030 0.47393078 0.51826274 0.00000859 -0.00000039 0.00000461
0.74794209 0.47393170 0.56870735 0.00000392 -0.00000552 0.00000239
0.39345166 0.49219176 0.48234761 0.00000298 -0.00001112 0.00000473
0.71398723 0.52604103 0.56702811 0.00000158 -0.00000203 -0.00000124
0.63713372 0.47389987 0.53474075 0.00000181 0.00001027 0.00001963
0.88159984 0.47393078 0.53078729 0.00000841 0.00001096 -0.00000924
0.28397417 0.49125388 0.48576164 0.00001100 -0.00003482 -0.00001461
0.81494105 0.52604830 0.55583990 0.00000956 -0.00000464 -0.00000563
0.27025616 0.49168143 0.48113593 0.00000551 -0.00003055 -0.00001394
0.71963096 0.47393078 0.52427304 0.00000708 0.00000597 0.00001008
0.67518198 0.50967854 0.55990261 0.00000087 -0.00000758 -0.00004106
0.66919720 0.52604103 0.50623131 0.00000380 0.00001146 -0.00002285
0.13063633 0.49977395 0.46655008 -0.00001255 0.00001797 0.00000154
0.67447615 0.47393078 0.54761004 0.00000083 0.00001533 -0.00001371
0.11186321 0.49901798 0.44006833 0.00001131 0.00001691 -0.00003394
0.68320453 0.47388530 0.51533449 -0.00000073 -0.00000509 -0.00000451
0.17876124 0.50051987 0.45146301 -0.00000206 0.00002257 0.00001585
0.45121193 0.50638276 0.57927334 -0.00000371 0.00002049 0.00001916
0.85710299 0.47392806 0.49891746 0.00000630 0.00001202 -0.00000796
0.48671138 0.49026868 0.47895998 -0.00000272 -0.00000878 0.00000299
0.24728487 0.49819019 0.42918035 0.00000541 0.00000520 -0.00003465
0.70320934 0.47391805 0.53715414 0.00000303 0.00001356 0.00001430
0.69383597 0.49026868 0.53038156 0.00000039 0.00001268 0.00003936
0.49298453 0.49958655 0.56433362 0.00000578 -0.00000074 -0.00002012
0.52048969 0.47393078 0.51916152 0.00000196 0.00000031 0.00000281
0.47614363 0.49424490 0.57758498 0.00000133 -0.00001929 0.00000651
0.67396307 0.47387710 0.56787139 0.00000191 0.00000180 -0.00000338
0.82695615 0.47389895 0.48917386 0.00000031 -0.00000868 -0.00001815
0.57580560 0.52604103 0.52170777 -0.00000117 -0.00000458 0.00001074
0.69826704 0.47388622 0.53558856 0.00000175 0.00001228 0.00001594
0.20539492 0.49285218 0.47957581 0.00000773 -0.00002845 -0.00001669
0.79356080 0.52604103 0.51670814 0.00000551 -0.00000832 0.00001004
0.19004674 0.49398562 0.45364803 -0.00000679 -0.00002069 0.00001215
0.29723459 0.49025410 0.50865924 0.00000726 -0.00003923 -0.00001617
0.88917202 0.52604008 0.46822935 0.00000094 0.00001650 -0.00003492
0.80378562 0.49026868 0.53343356 -0.00000375 0.00002412 -0.00000847
0.80899990 0.47393078 0.51354879 -0.00000100 0.00000487 0.00001412
0.04914974 0.49739695 0.43747392 -0.00015650 0.00000076 -0.00003190
0.50091517 0.51648021 0.48332185 -0.00000218 0.00000350 -0.00000146
0.73226458 0.47393078 0.51591033 0.00000215 -0.00000194 0.00000119
0.82826334 0.52604103 0.50411904 0.00000155 0.00000089 0.00000755
0.55801225 0.50970310 0.55797136 0.00000239 -0.00000640 -0.00001431
0.56357771 0.50970310 0.57250619 0.00000178 0.00001102 -0.00000319
0.23368874 0.49211350 0.48017621 0.00001469 -0.00003446 -0.00002215
0.63190937 0.49026868 0.50915778 -0.00000026 -0.00001282 -0.00000010
0.69010353 0.49026868 0.51802355 -0.00000111 -0.00000761 0.00002376
0.87266761 0.47388530 0.53500730 -0.00000400 -0.00000097 -0.00000732
0.89571905 0.52604103 0.48221752 0.00000415 0.00000636 -0.00001813
0.90983176 0.49027139 0.50025290 -0.00000275 0.00000233 0.00002343
0.50153828 0.47392076 0.57482678 -0.00000165 0.00000053 0.00000835
0.58530360 0.52604830 0.51080155 0.00000366 -0.00000268 -0.00000639
0.60137403 0.52609563 0.52335882 0.00000413 -0.00000419 0.00001158
0.34569612 0.48940992 0.50077868 -0.00000111 -0.00002960 -0.00000377
0.48432714 0.47391713 0.51532090 0.00000368 -0.00000218 0.00000410
0.59832025 0.49026868 0.57335222 0.00000151 -0.00001344 -0.00000690
0.67947483 0.49026868 0.55068386 -0.00000037 0.00002395 -0.00003047
0.24296297 0.49749520 0.42036644 0.00001271 0.00000110 -0.00008851
0.87656659 0.52604103 0.53498727 0.00000391 -0.00000340 -0.00000524
0.66792190 0.52604103 0.52169412 0.00000354 -0.00000269 0.00000679
0.37291741 0.48822188 0.51659900 -0.00000450 -0.00002757 -0.00001143
0.45776618 0.47747126 0.46208626 -0.00000033 -0.00001047 -0.00001115
0.23024288 0.50248116 0.48132062 0.00001626 0.00003512 -0.00002227
0.87226647 0.52604103 0.56161457 -0.00000702 0.00002053 0.00002517
0.43364507 0.52194470 0.45102271 -0.00000326 0.00003439 -0.00002495
0.45426849 0.47393078 0.52898884 -0.00000742 0.00000501 0.00001194
0.28922120 0.49386102 0.46317604 -0.00000255 -0.00002042 0.00002879
0.83370054 0.47388530 0.48910379 0.00000699 -0.00000485 -0.00001634
0.94365734 0.47393078 0.53300506 0.00002686 -0.00001149 0.00000284
0.38520721 0.48794082 0.51091707 -0.00001181 -0.00001087 0.00000350
0.34512571 0.50571781 0.51503432 0.00000731 0.00004502 -0.00002652
0.47668120 0.52601552 0.52262378 0.00000935 0.00000033 0.00000122
0.42472655 0.48684555 0.51970917 -0.00000310 -0.00000820 0.00000655
0.62322921 0.50970310 0.58504796 0.00000492 0.00001636 0.00002123
0.45871499 0.52604103 0.55571890 -0.00000273 -0.00000505 0.00000760
0.59967846 0.52604008 0.56505227 0.00000169 -0.00000448 0.00000023
0.34144333 0.49697760 0.44494787 0.00000962 -0.00000241 -0.00006364
0.09552898 0.49595419 0.44654343 0.00003224 -0.00001621 0.00001521
0.11180954 0.49910623 0.44471589 0.00000873 0.00001823 -0.00001398
0.91965002 0.49026960 0.54771459 -0.00002519 -0.00001436 0.00001744
0.68377489 0.49026868 0.55741006 0.00000043 0.00001199 -0.00003879
0.88284516 0.47387981 0.50201494 -0.00000317 0.00001578 0.00000990
0.79153311 0.51081568 0.48969877 -0.00000230 0.00001562 -0.00003171
0.64924067 0.49026868 0.51093346 0.00000500 -0.00001336 0.00000310
0.65551835 0.50970310 0.58079338 -0.00000066 0.00001545 0.00001097
0.42185560 0.50816029 0.57758951 -0.00000561 0.00001740 0.00000902
0.19477709 0.49717864 0.50343585 -0.00000706 -0.00000099 0.00006425
0.34242943 0.48905152 0.51185501 0.00000759 -0.00004242 -0.00002759
0.72183323 0.47393078 0.52925897 0.00000703 0.00001064 0.00001423
0.49919677 0.52610654 0.50770319 -0.00000308 0.00000214 -0.00000091
0.54664946 0.47393078 0.54937118 0.00000349 0.00000289 -0.00000965
0.82721263 0.49028414 0.55982614 0.00001658 -0.00001904 -0.00001374
0.27033621 0.50067180 0.45936722 -0.00000847 0.00001996 0.00003121
0.90170288 0.51387948 0.47449344 0.00001387 0.00003134 -0.00001964
0.17910600 0.50026065 0.44830275 -0.00000193 0.00002061 0.00002131
0.87378383 0.49026868 0.48137879 -0.00002462 -0.00001139 0.00002068
0.21680595 0.49241281 0.50080234 0.00000239 -0.00003008 0.00001698
0.83415902 0.47393078 0.49739647 0.00000739 -0.00000098 -0.00000666
0.60115755 0.48288840 0.49227500 0.00000807 -0.00001242 -0.00001817
0.84199679 0.52604103 0.56160915 0.00000946 0.00000497 0.00001320
0.86851311 0.50970221 0.56442457 -0.00001220 0.00001728 0.00001704
0.33475626 0.48904788 0.54097295 -0.00000482 -0.00004312 0.00002676
0.25164860 0.50119394 0.46227458 -0.00000587 0.00002310 0.00002636
0.92094451 0.47763410 0.50078958 0.00001130 0.00000361 -0.00000457
0.71563834 0.52604103 0.51977372 0.00000701 -0.00000082 0.00000427
0.63413715 0.52605647 0.53718328 0.00000146 -0.00001149 0.00001689
0.61304891 0.49026868 0.57533717 0.00000178 -0.00001388 -0.00000544
0.23376606 0.50255758 0.47922105 0.00001475 0.00003548 -0.00002175
0.51348424 0.49026960 0.58200419 -0.00000082 -0.00001451 0.00000324
0.91531807 0.52604103 0.52285755 -0.00001084 -0.00002532 -0.00001800
0.67827040 0.52608013 0.54505384 -0.00000035 -0.00001625 -0.00000637
0.49984899 0.47393078 0.52288032 -0.00000155 -0.00000293 0.00000722
0.59886611 0.49026778 0.51822364 0.00000065 0.00000233 0.00002140
0.13126037 0.49778083 0.42122424 -0.00003811 0.00000268 0.00000125
0.36366504 0.49213174 0.48203194 -0.00000921 -0.00002460 0.00002933
0.44084612 0.47393078 0.54318625 -0.00001605 -0.00000431 0.00000532
0.80041426 0.49027139 0.52236092 0.00000769 0.00001992 0.00003324
0.73314154 0.48533639 0.49988267 -0.00000226 -0.00001586 -0.00003210
0.45048600 0.47770688 0.56952697 -0.00000040 -0.00001727 -0.00000214
0.84424376 0.49026868 0.53158140 -0.00001075 0.00002270 -0.00001598
0.79214162 0.49026868 0.49783951 0.00000333 -0.00001351 -0.00000735
0.43643051 0.48007840 0.45337060 -0.00000266 -0.00002747 -0.00001357
0.25641444 0.49629170 0.43274540 0.00000499 -0.00000589 -0.00002453
0.92497432 0.49026868 0.50767499 -0.00001150 -0.00000190 0.00000173
0.55827063 0.47393078 0.51065600 0.00000108 0.00000860 0.00000110
0.42785403 0.51185995 0.51898867 -0.00000263 0.00000595 0.00000471
0.54607266 0.47393078 0.58428383 0.00000403 -0.00001419 0.00001604
0.40961671 0.49633080 0.45554474 -0.00000852 -0.00000616 0.00000229
0.17236435 0.50001770 0.44549912 0.00000454 0.00002095 0.00002498
0.77135819 0.52604371 0.57065231 0.00000803 0.00000785 0.00001467
0.48642120 0.47393078 0.50581646 0.00000307 0.00000007 -0.00000201
0.88532859 0.47393078 0.55418247 0.00001960 -0.00000204 0.00000746
0.28310725 0.50298333 0.48161075 0.00000690 0.00003272 -0.00000243
0.10697823 0.49909988 0.45822647 -0.00000264 0.00001748 0.00004652
0.69132704 0.52130795 0.50201494 -0.00000095 0.00001323 -0.00003447
0.42998269 0.52604103 0.50726378 -0.00000434 -0.00000528 -0.00000822
0.17400269 0.49399656 0.45349160 0.00000353 -0.00002576 0.00001099
0.69321370 0.50970310 0.54279053 -0.00000037 -0.00002478 0.00000445
0.84805167 0.50970310 0.54836690 -0.00001347 0.00000623 -0.00001449
0.61587167 0.48788530 0.49529418 0.00000445 -0.00001616 -0.00002208
0.58694559 0.49026868 0.56939691 0.00000012 -0.00001107 -0.00001008
0.63090050 0.47393078 0.53631634 0.00000078 0.00001070 0.00001868
0.75452453 0.49026868 0.55393690 -0.00000036 0.00000741 -0.00003838
0.54253584 0.52604103 0.51291382 0.00000311 -0.00000655 0.00001009
0.68970233 0.47390714 0.55491292 0.00000164 0.00001280 -0.00001464
0.89680153 0.47811803 0.56103969 0.00002150 -0.00000727 -0.00000394
0.79410022 0.49026868 0.56818789 -0.00001005 -0.00001321 0.00000322
0.16541710 0.49674109 0.41990703 0.00001054 -0.00000400 -0.00000986
0.79050511 0.52604103 0.57167387 -0.00000465 0.00001107 0.00002868
0.62840348 0.52604103 0.52468145 0.00000141 -0.00000407 0.00001190
0.70945615 0.47393078 0.50232422 0.00000399 -0.00001649 -0.00003517
0.34968778 0.48994389 0.49750659 -0.00000393 -0.00002567 0.00000494
0.12927361 0.49649268 0.42648765 -0.00002913 -0.00000522 0.00000327
0.76511413 0.52601463 0.54281235 0.00000126 -0.00001479 -0.00001329
0.33972311 0.48901239 0.52722406 0.00000390 -0.00004548 -0.00000464
0.58491153 0.52604103 0.52994037 0.00000292 -0.00000571 0.00001589
0.74321896 0.49026868 0.56012177 -0.00000394 -0.00000105 -0.00003907
0.82016170 0.52007347 0.57355416 0.00001320 0.00001475 0.00002639
0.59855676 0.52604103 0.57710558 -0.00000100 0.00000522 0.00001423
0.47723883 0.47387347 0.51543188 0.00000689 -0.00000005 0.00000375
0.17049496 0.49567673 0.49851537 0.00000214 -0.00001183 0.00005784
0.91028756 0.52603555 0.54156429 -0.00001249 -0.00001714 0.00002353
0.41897008 0.48672366 0.55877548 -0.00000408 -0.00001887 -0.00000630
0.11614146 0.49696940 0.47806299 -0.00004038 -0.00000253 -0.00000084
0.15535513 0.49404660 0.49563259 0.00000491 -0.00002433 0.00005118
0.50136548 0.47844282 0.58192688 -0.00000291 -0.00000662 0.00001509
0.89508951 0.50970310 0.49845535 -0.00000573 -0.00001175 0.00003126
0.63230050 0.50970310 0.57296377 0.00000355 0.00001192 -0.00001024
0.81429058 0.51553780 0.57428557 0.00000508 0.00001992 0.00003042
0.72411203 0.52611107 0.54701781 0.00000335 -0.00001645 -0.00001162
0.78664809 0.52604103 0.55838430 -0.00000666 -0.00000425 -0.00000187
0.72929269 0.49026868 0.57904226 -0.00000314 -0.00001729 0.00001596
0.65650541 0.47393170 0.51401097 0.00000517 -0.00000453 -0.00000619
0.37324128 0.50241202 0.56191117 -0.00001872 0.00002374 0.00000728
0.46223640 0.47393078 0.47182804 -0.00000031 0.00000449 -0.00000408
0.42648223 0.49525923 0.46223092 -0.00000226 -0.00000878 0.00000781
0.55176002 0.49026868 0.48613372 -0.00000288 -0.00001684 0.00000737
0.73610526 0.48627698 0.58248359 -0.00000213 -0.00001989 0.00003349
0.69395787 0.51489013 0.50196129 -0.00000100 0.00001600 -0.00003280
0.81839240 0.47393349 0.49777585 -0.00000752 -0.00000703 -0.00000644
0.62521869 0.51292253 0.58690464 0.00000516 0.00001889 0.00002781
0.27668577 0.50389844 0.51055503 0.00000919 0.00003808 -0.00000250
0.77602029 0.47393078 0.54130137 0.00000218 0.00001512 -0.00001252
0.86879331 0.49027959 0.56282175 -0.00001065 -0.00001674 0.00001361
0.24615322 0.49937278 0.44156203 -0.00000283 0.00001201 0.00002029
0.42621022 0.49015313 0.47964132 0.00000548 -0.00002066 0.00000207
0.50844824 0.47393078 0.53317428 -0.00000372 0.00000169 0.00000292
0.73099196 0.47393078 0.56142539 -0.00000184 0.00000579 -0.00001044
0.44522530 0.48593494 0.57351410 -0.00000069 -0.00002557 -0.00000104
0.52512544 0.50967491 0.49801779 0.00000541 0.00000817 0.00000486
0.69504493 0.50970310 0.56736833 0.00000374 0.00000824 -0.00002798
0.48193011 0.47392532 0.51720476 0.00000477 -0.00000219 0.00000560
0.86748523 0.52604103 0.47870886 -0.00001108 -0.00000955 -0.00001015
0.52259016 0.49026868 0.57264632 -0.00000041 -0.00000867 -0.00000809
0.47412685 0.47389987 0.53180248 0.00000743 0.00000165 0.00000386
0.88268328 0.52604103 0.49801052 -0.00000364 -0.00001298 0.00001643
0.83690166 0.51059920 0.47591344 0.00000972 0.00001495 -0.00001267
0.65139836 0.52604103 0.58608955 0.00000065 0.00001555 0.00003666
0.43107703 0.49131754 0.58015025 -0.00000392 -0.00001235 0.00001737
0.50494689 0.51790297 0.48365939 0.00000161 0.00000372 -0.00000256
0.14356290 0.49813104 0.42402425 -0.00002139 0.00000501 0.00001949
0.53620446 0.47444382 0.47239929 -0.00000021 -0.00001885 -0.00002055
0.80206269 0.47386530 0.49913946 -0.00000729 -0.00000752 -0.00001159
0.20467353 0.49844310 0.42724454 0.00000624 0.00000719 -0.00001222
0.81466359 0.50970310 0.56053567 0.00000595 0.00001755 -0.00001845
0.64846927 0.52611202 0.52961737 0.00000477 -0.00000816 0.00001666
0.45532003 0.52604103 0.50200039 -0.00000458 -0.00001731 -0.00000233
0.26079091 0.49986950 0.44895136 -0.00000842 0.00001432 0.00002761
0.89412159 0.49027231 0.52258015 0.00000519 0.00002969 -0.00001737
0.46178424 0.52604103 0.52666372 0.00000328 -0.00000470 0.00000491
0.74246484 0.52604467 0.53134310 0.00000151 -0.00001286 0.00001556
0.67877257 0.49026960 0.57652426 0.00000107 -0.00001516 -0.00000652
0.36247882 0.48850662 0.51478142 0.00000041 -0.00003426 -0.00002146
0.17697735 0.49631262 0.42524505 0.00000884 -0.00000669 0.00000892
0.73200351 0.47393078 0.57252532 -0.00000167 -0.00000766 0.00000923
