165 190 0
159.05025253169416 195.94974746830584 0
161.77817459305203 203.77817459305203 0
167.02081528017132 210.02081528017132 0
166.85786437626905 218.14213562373095 0
165.26345596729058 226.26345596729058 0
171.7157287525381 227.0 0
180.30151519016502 226.0 0
186.0 222.1126983722081 0
186.0 213.1126983722081 0
183.25126265847084 205.25126265847084 0
179.0 198.01219330881975 0
172.35176772185918 192.35176772185918 0
150 176 10
147.0 183.7573593128807 10
149.92893218813452 191.0 10
157.77817459305203 193.77817459305203 10
164.72792206135784 198.72792206135784 10
170.78679656440357 203.0 10
178.0 207.1299423149112 10
181.62741699796953 214.62741699796953 10
188.57716446627535 219.57716446627535 10
194.23401871576775 226.23401871576775 10
201.476659402887 230.476659402887 10
210.25988462982238 231.0 10
216.7193000900063 226.2806999099937 10
218.0 217.8111831820431 10
215.0380592228744 210.0380592228744 10
209.0883117545686 204.0883117545686 10
202.4314575050762 198.4314575050762 10
195.77460325558383 192.77460325558383 10
189.11774900609143 187.11774900609143 10
182.1680015377856 182.1680015377856 10
174.89444430272832 178.0 10
165.89444430272832 178.0 10
156.89444430272832 178.0 10
148 174 20
141.0 178.34314575050763 20
137.92893218813452 186.07106781186548 20
135.0 193.85786437626905 20
140.4350288425444 194.5649711574556 20
148.78679656440357 193.0 20
157.55634918610406 193.55634918610406 20
165.9583694396574 195.0 20
172.92031021678298 199.92031021678298 20
177.16295090390227 207.16295090390227 20
184.57359312880715 211.0 20
191.35533905932738 216.35533905932738 20
196.30508652763322 223.30508652763322 20
200.84062043356596 229.84062043356596 20
207.3761543394987 229.6238456605013 20
215.20458146424488 227.20458146424488 20
221.0 233.21825406947977 20
225.68986283848344 230.31013716151656 20
228.0 222.26702730475878 20
225.36038969321072 214.36038969321072 20
221.11774900609143 207.11774900609143 20
215.46089475659906 200.46089475659906 20
208.7228714274745 195.0 20
201.5613998199874 190.5613998199874 20
194.45079348883237 186.0 20
186.78322522693537 182.78322522693537 20
179.24769132100263 179.24769132100263 20
171.17871555019022 177.0 20
163.0071426749364 175.0 20
154.4213562373095 174.0 20
154 171 30
146.2426406871193 174.0 30
138.07106781186548 176.0 30
130.22182540694797 178.77817459305203 30
122.14213562373095 181.0 30
113.9791847198287 183.02081528017132 30
107.04163056034261 188.0 30
99.2842712474619 191.0 30
92.50609665440987 192.50609665440987 30
97.74873734152916 198.74873734152916 30
103.98780669118025 204.0 30
112.57359312880715 205.0 30
121.57359312880715 205.0 30
129.23401871576775 201.76598128423225 30
137.50252531694167 200.0 30
145.476659402887 197.523340597113 30
152.42640687119285 192.57359312880715 30
160.36038969321072 190.0 30
168.3761543394987 187.6238456605013 30
175.91168824543144 189.91168824543144 30
180.1543289325507 197.1543289325507 30
183.68986283848344 204.68986283848344 30
189.0 211.49033200812192 30
195.83347775862953 216.0 30
200.4177848998413 211.5822151001587 30
207.5197692596448 207.0 30
215.78174593052023 208.78174593052023 30
218.5613998199874 208.5613998199874 30
212.3187591328681 203.3187591328681 30
205.9547981021892 196.9547981021892 30
201.0 190.0071426749364 30
195.34819638439097 183.34819638439097 30
188.81266247845824 178.81266247845824 30
180.97770542341354 176.0 30
172.39191898578665 175.0 30
164.63455967290594 172.0 30
146 165 40
138.2426406871193 168.0 40
130.89949493661166 172.0 40
122.80761184457488 174.1923881554251 40
115.27207793864214 177.72792206135784 40
107.62741699796952 181.0 40
102.0 186.7157287525381 40
103.0 194.4730880654188 40
109.57716446627535 199.57716446627535 40
117.698484809835 201.698484809835 40
126.57359312880715 202.0 40
135.57359312880715 202.0 40
144.15937956643404 201.0 40
151.64823227814082 197.35176772185918 40
158.89087296526012 193.10912703473988 40
166.7193000900063 190.2806999099937 40
174.77460325558383 188.0 40
183.77460325558383 188.0 40
191.9619407771256 189.9619407771256 40
200.08326112068522 192.08326112068522 40
207.03300858899107 197.03300858899107 40
213.68986283848344 202.68986283848344 40
217.93250352560273 209.93250352560273 40
220.0 218.07611844574882 40
221.0 226.6619048833757 40
223.5893577750951 234.5893577750951 40
229.53910524340094 240.53910524340094 40
237.10555569727168 244.0 40
240.0 238.7228714274745 40
240.0 229.7228714274745 40
240.0 220.7228714274745 40
238.0 212.5512985522207 40
234.1471862576143 205.1471862576143 40
229.19743878930848 198.19743878930848 40
223.54058453981608 191.54058453981608 40
217.4213562373095 186.0 40
210.34819638439097 181.34819638439097 40
202.32085117392117 179.0 40
194.10555569727168 177.10555569727168 40
185.97770542341354 175.0 40
177.8629150101524 172.8629150101524 40
170.04877323527901 170.0 40
161.8772003600252 168.0 40
153.79184719828692 165.79184719828692 40
119 162 50
111.75735931288071 166.2426406871193 50
104.72792206135786 171.0 50
99.5649711574556 177.4350288425444 50
94.0 184.1299423149112 50
95.88730162779191 189.0 50
103.64466094067262 192.0 50
111.2842712474619 195.2842712474619 50
117.94112549695429 200.94112549695427 50
125.18376618407356 205.18376618407356 50
132.60303038033 209.0 50
139.9619407771256 212.9619407771256 50
148.08326112068522 214.91673887931478 50
155.87510831897214 212.0 50
161.13856428626275 209.13856428626275 50
160.0 200.61017305526642 50
165.22539674441617 193.77460325558383 50
172.66190488337574 190.0 50
181.24769132100263 189.0 50
190.24769132100263 189.0 50
198.58935777509512 190.58935777509512 50
205.53910524340094 195.53910524340094 50
211.0 202.2771285725255 50
214.73149339882607 209.73149339882607 50
216.14570696119915 218.14570696119915 50
219.0 225.96342007354073 50
219.6812408671319 234.6812408671319 50
225.33809511662426 241.33809511662426 50
231.58073580374355 246.58073580374355 50
239.1162697096763 250.1162697096763 50
245.0 249.07821048680188 50
251.85072170133265 244.0 50
260.43650813895954 243.0 50
269.43650813895954 243.0 50
273.97770542341357 242.0 50
267.3273811042197 236.32738110421965 50
260.67052685472726 230.67052685472729 50
254.30656582404833 224.30656582404836 50
249.35681835574252 217.35681835574252 50
245.0 210.1614716074871 50
240.1644302003174 203.1644302003174 50
235.0 196.30360723121805 50
228.26493526370572 191.26493526370572 50
221.3151877953999 186.3151877953999 50
214.07254710828062 182.07254710828062 50
207.41569285878825 176.41569285878825 50
200.17305217166896 172.17305217166896 50
192.34462504692277 169.34462504692277 50
183.93041148454967 167.93041148454967 50
176.10198435980348 165.10198435980348 50
167.39487757861693 164.39487757861693 50
158.9726547895302 163.0 50
149.9726547895302 163.0 50
140.9726547895302 163.0 50
131.9726547895302 163.0 50
153 175 60
145.17157287525382 177.82842712474618 60
137.63603896932108 181.36396103067892 60
129.51471862576142 183.48528137423858 60
121.14213562373095 185.0 60
113.27207793864214 187.72792206135784 60
105.44365081389596 190.55634918610406 60
105.50609665440987 195.50609665440987 60
112.23044737829953 201.0 60
119.57359312880715 205.0 60
127.23401871576773 208.23401871576775 60
133.89087296526012 213.89087296526012 60
137.42640687119285 221.42640687119285 60
142.3761543394987 228.3761543394987 60
147.61879502661796 234.61879502661796 60
156.3259018078045 234.6740981921955 60
159.86143571373725 227.13856428626275 60
164.0 219.8528137423857 60
166.22539674441617 211.77460325558383 60
172.88225099390857 206.11774900609143 60
179.53910524340094 200.46089475659906 60
187.5197692596448 198.0 60
196.07463914933368 199.07463914933368 60
203.31727983645297 203.31727983645297 60
208.97413408594534 209.97413408594534 60
212.50966799187808 217.50966799187808 60
215.0 225.47813869930215 60
215.0 234.47813869930215 60
216.0 243.06392513692907 60
220.873629022557 248.873629022557 60
228.5786437626905 252.0 60
237.1162697096763 253.1162697096763 60
244.92178951319812 256.0 60
249.0 250.49242404917499 60
254.30865786510142 243.69134213489858 60
261.77965388946717 240.0 60
270.77965388946717 240.0 60
270.49895397947347 238.49895397947347 60
263.8420997299811 232.8420997299811 60
257.4781386993022 226.47813869930218 60
251.52839123099633 220.52839123099633 60
244.87153698150394 214.87153698150394 60
237.88939366884497 210.0 60
230.54624791833734 206.0 60
223.20310216782974 202.0 60
215.60808101421335 198.60808101421335 60
208.1025971044414 195.0 60
200.82990642116133 190.82990642116133 60
193.2943725152286 187.2943725152286 60
185.65894629054543 184.0 60
177.63751826573622 181.63751826573622 60
169.7300141024109 179.0 60
161.68777079743037 176.68777079743037 60
97 178 70
102.65685424949238 184.65685424949237 70
106.89949493661166 191.89949493661166 70
112.55634918610404 198.55634918610406 70
118.0 205.301515190165 70
123.0 212.23044737829952 70
126.0 219.98780669118025 70
129.5269119345812 227.5269119345812 70
134.06244584051393 234.06244584051393 70
141.59797974644667 237.59797974644667 70
150.01219330881975 236.98780669118025 70
156.66904755831214 231.33095244168786 70
163.0 226.71067811865476 70
168.21825406947977 220.0 70
175.68986283848344 216.31013716151656 70
182.63961030678928 211.36038969321072 70
190.6619048833757 209.0 70
198.5893577750951 211.5893577750951 70
204.2462120245875 218.2462120245875 70
209.0 225.2771285725255 70
213.0 232.6202743230331 70
216.26702730475878 240.26702730475878 70
222.92388155425118 245.92388155425118 70
230.16652224137047 250.16652224137047 70
237.7020561473032 253.7020561473032 70
245.7502166379443 254.0 70
254.7502166379443 254.0 70
262.9446968344225 255.94469683442247 70
271.507575950825 257.0 70
276.0 252.14927829866735 70
274.2771285725255 245.2771285725255 70
266.4487014477793 242.4487014477793 70
258.9131675418466 238.91316754184658 70
251.5340546095176 235.0 70
244.13499294879455 231.13499294879455 70
236.89235226167526 226.89235226167526 70
229.91883092036784 222.0 70
222.9898987322333 217.0 70
216.3360030755712 211.3360030755712 70
210.67914882607883 204.67914882607883 70
204.3151877953999 198.3151877953999 70
197.6583335459075 192.6583335459075 70
190.17366491630688 189.0 70
182.00209204105306 187.0 70
173.2943725152286 186.2943725152286 70
164.83051916579925 185.0 70
156.24473272817235 184.0 70
148.0517318281093 182.0517318281093 70
139.48737341529164 181.0 70
130.93041148454967 179.93041148454967 70
122.51619792217657 178.51619792217656 70
113.73001410241092 178.0 70
104.73001410241092 178.0 70
98 178 80
102.24264068711929 185.2426406871193 80
105.77817459305203 192.77817459305203 80
110.0208152801713 200.02081528017132 80
114.0 207.37258300203047 80
118.50609665440987 214.50609665440987 80
122.0 222.05887450304573 80
126.0 229.40202025355333 80
130.5269119345812 236.5269119345812 80
137.06244584051393 241.06244584051393 80
144.01724394270312 246.0 80
152.1888168179569 246.0 80
159.66904755831214 242.33095244168786 80
165.3259018078045 235.6740981921955 80
171.68986283848344 229.31013716151656 80
178.93250352560273 225.06749647439727 80
187.07611844574882 223.0 80
195.66190488337574 224.0 80
202.4177848998413 229.4177848998413 80
208.07463914933368 236.07463914933368 80
213.31727983645297 242.31727983645297 80
219.6812408671319 248.6812408671319 80
226.63098833543773 253.63098833543773 80
235.0452018978108 255.0452018978108 80
243.16652224137047 257.16652224137044 80
251.4070708874367 257.0 80
260.2878425849301 257.2878425849301 80
267.0 255.4213562373095 80
269.0 247.2497833620557 80
267.7624099467641 238.76240994676405 80
259.492424049175 237.0 80
251.32085117392117 235.0 80
243.10555569727168 233.10555569727168 80
235.2771285725255 230.2771285725255 80
227.63455967290594 227.0 80
220.20606076066002 223.20606076066002 80
212.94826817189067 219.0 80
205.60512242138307 215.0 80
198.26197667087544 211.0 80
190.64971157455597 207.64971157455597 80
183.11417766862323 204.11417766862323 80
175.4041122946064 201.0 80
167.64675298172568 198.0 80
159.3360030755712 196.3360030755712 80
150.92178951319812 194.92178951319812 80
143.0933623884519 192.0933623884519 80
134.96046148071045 190.0 80
126.55782848251918 188.55782848251917 80
118.61731573020282 186.0 80
110.445742854949 184.0 80
102.6883835420683 181.0 80
88 171 90
92.24264068711929 178.2426406871193 90
97.89949493661166 184.89949493661166 90
103.0 191.78679656440357 90
109.50609665440987 197.50609665440987 90
115.16295090390226 204.16295090390227 90
118.0 211.98780669118025 90
120.81980515339464 219.81980515339464 90
124.35533905932738 227.35533905932738 90
130.0 234.0172439427031 90
133.84062043356596 240.84062043356596 90
139.49747468305833 247.49747468305833 90
146.21825406947977 253.0 90
154.38982694473358 255.0 90
160.10407640085654 249.89592359914346 90
167.49033200812192 246.0 90
174.83347775862953 242.0 90
182.17662350913716 238.0 90
190.53910524340094 239.53910524340094 90
197.1959594928933 245.1959594928933 90
202.6202743230331 251.0 90
210.3776336359138 254.0 90
218.54920651116763 256.0 90
226.72077938642144 258.0 90
234.89235226167526 260.0 90
243.06392513692907 258.0 90
251.64971157455597 257.0 90
260.64971157455597 257.0 90
268.58073580374355 254.41926419625645 90
276.7020561473032 252.2979438526968 90
285.1644302003174 251.0 90
293.3360030755712 249.0 90
286.0782104868019 248.0 90
277.6410896032044 246.64108960320442 90
269.73506473629425 244.0 90
261.56349186104046 242.0 90
253.80613254815975 239.0 90
245.63455967290594 237.0 90
237.87720036002523 234.0 90
229.79184719828692 231.79184719828692 90
222.25631329235418 228.25631329235418 90
214.427886167608 225.427886167608 90
206.89235226167526 221.89235226167526 90
199.64971157455597 217.64971157455597 90
192.11417766862323 214.11417766862323 90
184.4041122946064 211.0 90
176.7502166379443 207.7502166379443 90
168.92178951319812 204.92178951319812 90
160.71782079359116 203.0 90
152.0933623884519 202.0933623884519 90
143.67914882607883 200.67914882607883 90
136.1436149201461 197.1436149201461 90
128.3151877953999 194.3151877953999 90
120.77965388946716 190.77965388946717 90
113.34523779156068 187.0 90
106.29437251522859 182.2943725152286 90
99.05173182810931 178.0517318281093 90
91.80909114099002 173.80909114099003 90
98 171 100
98.0 180.0 100
97.0 188.5857864376269 100
104.24264068711929 192.2426406871193 100
111.48528137423857 196.48528137423858 100
117.14213562373095 203.14213562373095 100
121.38477631085024 210.38477631085024 100
122.09188309203678 219.0918830920368 100
125.0 226.8873016277919 100
128.45584412271572 234.45584412271572 100
132.0 241.98780669118025 100
136.0 249.33095244168786 100
142.08831175456856 254.0 100
149.8456710674493 257.0 100
157.1888168179569 261.0 100
164.9619407771256 262.03805922287444 100
173.3761543394987 260.62384566050133 100
180.87510831897214 257.0 100
188.44722215136414 260.44722215136414 100
195.97561338236048 264.0 100
203.8111831820431 266.81118318204307 100
211.63961030678928 269.6396103067893 100
219.24769132100263 267.0 100
227.00505063388334 264.0 100
235.17662350913716 262.0 100
243.76240994676405 261.0 100
251.93398282201787 259.0 100
260.10555569727165 257.0 100
267.9030662740799 254.09693372592014 100
275.62027432303313 251.0 100
283.3776336359138 248.0 100
289.69343417595167 243.0 100
281.5218613006978 245.0 100
273.2476913210026 246.75230867899737 100
264.35028842544403 247.0 100
256.41926419625645 244.41926419625645 100
248.8837302903237 240.8837302903237 100
241.49242404917499 237.0 100
234.39844891608513 232.39844891608513 100
227.4487014477793 227.4487014477793 100
220.49895397947347 222.49895397947347 100
213.25631329235418 218.25631329235418 100
205.72077938642144 214.72077938642144 100
198.26197667087544 211.0 100
190.50461735799473 208.0 100
182.82128444980978 204.82128444980978 100
174.9898987322333 202.0 100
167.1644302003174 199.1644302003174 100
159.0609665440988 197.0 100
151.71782079359116 193.0 100
143.96046148071045 190.0 100
135.5578284825192 188.5578284825192 100
127.20310216782973 187.0 100
119.60808101421335 183.60808101421335 100
112.65833354590752 178.6583335459075 100
105.17366491630688 175.0 100
105 178 110
107.82842712474618 185.82842712474618 110
110.65685424949238 193.65685424949237 110
113.48528137423857 201.48528137423858 110
119.0 208.20101012677668 110
124.09188309203678 215.0918830920368 110
128.33452377915606 222.33452377915606 110
131.0 230.23044737829952 110
134.0 237.98780669118025 110
139.64823227814082 244.64823227814082 110
145.8456710674493 250.0 110
152.77460325558383 255.0 110
160.11774900609143 259.0 110
168.28932188134524 261.0 110
176.46089475659906 263.0 110
183.5685424949238 267.5685424949238 110
191.10407640085654 271.1040764008565 110
198.904545570495 274.0 110
207.0538238691624 276.0538238691624 110
215.24769132100263 278.0 110
223.0035713374682 274.9964286625318 110
230.34819638439097 271.0 110
238.10555569727168 268.0 110
245.8629150101524 265.0 110
253.73149339882607 262.26850660117395 110
260.97413408594537 258.02586591405463 110
268.30656582404833 254.0 110
275.7523086789974 250.24769132100263 110
277.41926419625645 244.41926419625645 110
272.2979438526968 240.7020561473032 110
263.8355697996826 242.0 110
254.83556979968262 242.0 110
246.17662350913716 241.17662350913716 110
238.49242404917499 238.0 110
231.10555569727168 234.10555569727168 110
224.22034611053283 229.0 110
216.8772003600252 225.0 110
209.1198410471445 222.0 110
201.36248173426378 219.0 110
193.72077938642144 215.72077938642144 110
186.1852454804887 212.1852454804887 110
178.50461735799473 209.0 110
170.82128444980978 205.82128444980978 110
163.28575054387704 202.28575054387704 110
155.64675298172568 199.0 110
147.92178951319812 195.92178951319812 110
140.38625560726538 192.38625560726538 110
132.78888860545663 189.0 110
124.729401357773 186.72940135777299 110
116.9009742330268 183.9009742330268 110
109.36544032709406 180.36544032709406 110
112 175 120
105.05025253169417 179.94974746830584 120
106.0 188.51471862576142 120
104.22182540694797 196.77817459305203 120
111.0208152801713 201.02081528017132 120
117.67766952966369 206.6776695296637 120
123.33452377915607 213.33452377915606 120
128.2842712474619 220.2842712474619 120
133.23401871576772 227.23401871576772 120
137.0 234.6740981921955 120
142.42640687119285 241.42640687119285 120
148.79036790187178 247.79036790187178 120
155.44722215136414 253.44722215136414 120
160.68986283848344 259.68986283848346 120
167.63961030678928 264.6396103067893 120
174.29646455628165 270.29646455628165 120
181.2462120245875 275.24621202458746 120
188.2771285725255 280.0 120
196.0344878854062 283.0 120
202.97413408594534 287.97413408594537 120
210.30656582404833 292.0 120
218.63098833543773 290.36901166456227 120
225.58073580374355 285.41926419625645 120
232.82337649086284 281.1766235091372 120
240.0933623884519 277.0 120
248.18733752154176 274.8126624784582 120
255.42997820866105 270.57002179133895 120
262.53701320234785 266.0 120
268.6223663640862 260.3776336359138 120
274.27922061357856 253.72077938642144 120
279.9360748630709 247.06392513692907 120
285.88582233137674 241.11417766862323 120
282.4041122946064 238.0 120
273.4041122946064 238.0 120
265.2325394193526 240.0 120
256.2325394193526 240.0 120
247.23253941935258 240.0 120
239.3360030755712 237.3360030755712 120
231.50757595082501 234.50757595082501 120
223.67914882607883 231.67914882607883 120
216.1436149201461 228.1436149201461 120
208.8599564173221 224.0 120
201.1025971044414 221.0 120
193.75945135393377 217.0 120
186.00209204105306 214.0 120
178.17305217166896 211.17305217166896 120
170.93041148454967 206.93041148454967 120
163.55844122715712 203.0 120
156.4451301103111 198.4451301103111 120
149.20248942319182 194.20248942319182 120
141.66695551725908 190.66695551725908 120
134.13142161132635 187.13142161132635 120
126.84271247461902 183.0 120
119.64614023708776 178.64614023708776 120
115 186 130
111.0 193.34314575050763 130
113.77817459305203 199.77817459305203 130
118.0208152801713 207.02081528017132 130
124.97056274847714 211.97056274847714 130
127.79898987322333 219.79898987322332 130
133.45584412271572 226.45584412271572 130
138.40559159102153 233.40559159102153 130
143.35533905932738 240.35533905932738 130
148.30508652763322 247.30508652763322 130
154.66904755831214 253.66904755831214 130
160.3259018078045 260.32590180780454 130
166.9827560572969 265.9827560572969 130
173.93250352560273 270.9325035256027 130
180.88225099390857 275.88225099390854 130
187.53910524340094 281.53910524340097 130
194.1959594928933 287.19595949289334 130
201.14570696119915 292.14570696119915 130
203.0 300.3776336359138 130
202.21677477306463 307.2167747730646 130
208.45941546018392 312.4594154601839 130
215.82128444980978 315.0 130
223.9928573250636 313.0 130
228.0 305.6639969244288 130
231.06601717798213 297.93398282201787 130
237.7228714274745 292.2771285725255 130
245.77965388946717 290.0 130
251.0 283.2914139223983 130
255.74368670764582 276.2563132923542 130
259.9863273947651 269.0136726052349 130
253.77103191811563 263.7710319181156 130
247.4070708874367 257.4070708874367 130
241.04310985675778 251.04310985675778 130
235.09336238845194 245.09336238845194 130
228.729401357773 238.729401357773 130
222.07254710828062 233.07254710828062 130
215.12279963997477 228.12279963997477 130
207.8801589528555 223.8801589528555 130
200.90158697766472 219.0 130
193.55844122715712 215.0 130
186.2152954766495 211.0 130
178.87214972614188 207.0 130
171.52900397563425 203.0 130
163.8385283925129 199.8385283925129 130
156.01428534987284 197.0 130
148.1816741430205 194.1816741430205 130
140.08535316173828 192.0 130
131.9390334559012 189.9390334559012 130
124.11060633115503 187.11060633115503 130
160 257 140
153.05025253169416 261.9497474683058 140
153.0 270.1005050633883 140
153.68629150101523 276.31370849898474 140
155.8492424049175 283.8492424049175 140
157.26345596729058 292.2634559672906 140
159.0 300.5441558772843 140
161.50609665440987 308.5060966544099 140
165.0416305603426 316.04163056034264 140
167.0 324.2304473782995 140
170.0 331.98780669118025 140
176.64823227814082 328.3517677218592 140
182.30508652763322 321.6949134723668 140
187.9619407771256 315.0380592228744 140
193.0 308.12489168102786 140
199.0 301.6101730552664 140
197.39696961967 293.60303038033 140
197.0 285.2670273047588 140
193.0 277.9238815542512 140
187.28932188134524 271.28932188134524 140
180.92536085066632 264.9253608506663 140
173.97561338236048 259.9756133823605 140
166.20815280171308 257.0 140
