ply
format ascii 1.0
element vertex 647
property float x
property float y
property float z
property float nx
property float ny
property float nz
end_header
-0.191582 -0.152351 -0.693064 0.567957 -0.288224 -0.770924 
-0.144461 -0.096242 -0.693064 0.0438737 -0.163715 -0.985523 
-0.145926 -0.023248 -0.693064 0.0734529 0.0333094 -0.99674 
-0.160256 0.049747 -0.693064 0.0982322 -0.00788083 -0.995129 
-0.102263 0.056367 -0.693064 -0.0264585 0.0450903 -0.998629 
-0.025094 0.047379 -0.693064 0.0753176 0.364138 -0.92829 
0.026124 0.01244 -0.693064 0.744852 0.292351 -0.599749 
0.026124 -0.068452 -0.693064 0.716102 -0.196544 0.669729 
0.001419 -0.139111 -0.693064 0.30493 -0.110705 0.94591 
-0.036792 -0.204176 -0.693064 -0.107393 0.0260836 0.993868 
-0.096546 -0.255052 -0.693064 -0.0939081 0.248852 0.963968 
-0.297444 -0.402022 -0.603184 0.243562 0.724783 0.644478 
-0.324409 -0.332299 -0.603184 0.715158 -0.0741639 0.69501 
-0.298083 -0.267202 -0.603184 0.535299 -0.714592 0.450335 
-0.227534 -0.242231 -0.603184 0.410144 -0.90215 0.133775 
-0.16507 -0.197743 -0.603184 0.598886 -0.773972 -0.205663 
-0.110612 -0.159345 -0.603184 0.498206 -0.849386 -0.174148 
-0.04578 -0.122225 -0.603184 0.753878 -0.654363 0.0588428 
-0.013177 -0.054838 -0.603184 0.736836 -0.643391 -0.207619 
0.049288 -0.01035 -0.603184 0.632794 -0.709029 -0.311198 
0.100132 0.049482 -0.603184 0.699994 -0.644293 -0.308039 
0.165229 0.087615 -0.603184 0.254875 -0.966273 0.0366592 
0.244173 0.092319 -0.603184 -0.215341 -0.960007 0.178899 
0.30223 0.049902 -0.603184 -0.673721 -0.467111 0.572625 
0.313741 -0.026222 -0.603184 -0.702746 0.129549 0.699543 
0.287119 -0.096087 -0.603184 -0.620833 0.408431 0.669141 
0.233643 -0.149564 -0.603184 -0.489175 0.570482 0.65974 
0.173811 -0.200408 -0.603184 -0.485069 0.581445 0.653168 
0.113979 -0.251252 -0.603184 -0.534418 0.621915 0.572379 
0.054147 -0.302096 -0.603184 -0.533171 0.710058 0.45994 
-0.008318 -0.346584 -0.603184 -0.527733 0.785965 0.32211 
-0.073693 -0.384046 -0.603184 -0.253901 0.938213 0.235132 
-0.154585 -0.384046 -0.603184 0.0851728 0.91032 0.405042 
-0.235477 -0.384046 -0.603184 -0.215522 0.76504 0.606842 
-0.315421 -0.419998 -0.513304 0.23062 0.969865 0.078571 
-0.378337 -0.380962 -0.513304 0.707449 0.570324 0.417417 
-0.40594 -0.311503 -0.513304 0.540781 0.201947 0.816555 
-0.432265 -0.241515 -0.513304 0.112899 -0.282161 0.952692 
-0.383415 -0.23516 -0.513304 -0.0517794 -0.62502 0.778882 
-0.308349 -0.249226 -0.513304 -0.043882 -0.972486 0.228767 
-0.229528 -0.244225 -0.513304 0.0875582 -0.967261 -0.238186 
-0.15401 -0.23125 -0.513304 0.27193 -0.793611 -0.544267 
-0.091436 -0.187026 -0.513304 0.705019 -0.488053 -0.514534 
-0.053303 -0.121929 -0.513304 0.686929 -0.676166 -0.266305 
0.013304 -0.087441 -0.513304 0.496605 -0.832425 -0.245851 
0.074258 -0.039307 -0.513304 0.697804 -0.679547 -0.226453 
0.118747 0.023157 -0.513304 0.794995 -0.494086 -0.351931 
0.159512 0.081899 -0.513304 0.382924 -0.8169 -0.431313 
0.218254 0.07995 -0.513304 -0.24752 -0.848269 -0.468149 
0.288616 0.058206 -0.513304 0.159964 -0.915517 -0.369045 
0.340705 0.112257 -0.513304 0.178523 -0.89191 0.415443 
0.382858 0.086119 -0.513304 -0.688078 -0.436485 0.579671 
0.403621 0.013827 -0.513304 -0.8482 0.0177201 0.529371 
0.379896 -0.057238 -0.513304 -0.818139 0.375334 0.435624 
0.341764 -0.122335 -0.513304 -0.745729 0.55626 0.366692 
0.29092 -0.182167 -0.513304 -0.674901 0.689086 0.263938 
0.230358 -0.23125 -0.513304 -0.549907 0.811077 0.199386 
0.165991 -0.271144 -0.513304 -0.548696 0.812422 0.197238 
0.10208 -0.312142 -0.513304 -0.481034 0.832858 0.273779 
0.033164 -0.341054 -0.513304 -0.398916 0.876922 0.268082 
-0.034566 -0.372832 -0.513304 -0.332099 0.928985 0.163367 
-0.10709 -0.393034 -0.513304 -0.244291 0.966267 0.0815162 
-0.180536 -0.41101 -0.513304 -0.163789 0.96042 0.225303 
-0.257705 -0.419998 -0.513304 -0.0879289 0.988096 0.126211 
-0.261492 -0.446962 -0.423423 0.139062 0.915401 0.377757 
-0.331216 -0.419998 -0.423423 0.30434 0.89584 0.323783 
-0.404662 -0.402022 -0.423423 0.28111 0.861284 0.423277 
-0.475211 -0.377052 -0.423423 0.284406 0.799858 0.528524 
-0.547832 -0.357082 -0.423423 0.156837 0.825961 0.54147 
-0.6212 -0.338919 -0.423423 0.378097 0.774097 0.507751 
-0.683555 -0.294166 -0.423423 0.504362 0.707315 0.495299 
-0.753279 -0.267202 -0.423423 0.0766892 0.722631 0.686951 
-0.814201 -0.253665 -0.423423 0.515442 -0.0592164 0.854852 
-0.76708 -0.197556 -0.423423 0.629476 -0.649623 0.426293 
-0.711003 -0.150357 -0.423423 0.426832 -0.902842 -0.0517479 
-0.633834 -0.141369 -0.423423 0.0247219 -0.989762 -0.140547 
-0.552942 -0.141369 -0.423423 -0.198032 -0.970424 -0.138041 
-0.48409 -0.170437 -0.423423 -0.325969 -0.944621 0.0377895 
-0.409772 -0.18631 -0.423423 -0.15076 -0.979539 0.133317 
-0.3381 -0.20857 -0.423423 -0.461393 -0.862312 0.208644 
-0.275636 -0.253058 -0.423423 -0.451025 -0.88932 0.0753466 
-0.204325 -0.27619 -0.423423 -0.29476 -0.953134 -0.0681266 
-0.132279 -0.297547 -0.423423 -0.0957437 -0.960601 -0.260873 
-0.06455 -0.276984 -0.423423 0.532215 -0.657649 -0.533126 
-0.026417 -0.211886 -0.423423 0.611056 -0.291612 -0.73591 
0.005361 -0.144157 -0.423423 0.530455 -0.354169 -0.770179 
0.053088 -0.083034 -0.423423 0.42067 -0.515504 -0.746508 
0.114508 -0.042501 -0.423423 0.0907013 -0.410863 -0.907165 
0.155712 -0.082208 -0.423423 -0.176271 -0.168645 -0.969781 
0.219545 -0.123393 -0.423423 -0.055309 -0.113843 -0.991956 
0.293803 -0.107379 -0.423423 0.0498886 0.24982 -0.967001 
0.318787 -0.109359 -0.423423 0.0297474 0.439939 -0.89751 
0.262678 -0.15648 -0.423423 -0.15955 0.0350761 -0.986551 
0.205479 -0.21368 -0.423423 -0.562842 0.419538 -0.712147 
0.160945 -0.276126 -0.423423 -0.828742 0.557904 0.0435804 
0.110146 -0.335976 -0.423423 -0.614236 0.72977 0.300237 
0.051405 -0.376742 -0.423423 -0.451511 0.835265 0.313787 
-0.019016 -0.402022 -0.423423 -0.158812 0.959665 0.231976 
-0.096185 -0.41101 -0.423423 -0.242741 0.9315 0.270875 
-0.165909 -0.437974 -0.423423 -0.287464 0.910293 0.297873 
-0.333397 -0.50089 -0.333543 0.0531389 0.739237 0.671341 
-0.40312 -0.473926 -0.333543 0.288187 0.543627 0.788292 
-0.46912 -0.437974 -0.333543 0.275561 0.673811 0.685585 
-0.54185 -0.418269 -0.333543 0.248703 0.731452 0.634902 
-0.60958 -0.386491 -0.333543 0.336047 0.830938 0.443388 
-0.67829 -0.357082 -0.333543 0.383031 0.664084 0.642074 
-0.72887 -0.305709 -0.333543 0.606756 0.468799 0.641901 
-0.719882 -0.235986 -0.333543 0.553069 -0.649091 -0.522268 
-0.660766 -0.19011 -0.333543 0.360883 -0.724863 -0.586798 
-0.587771 -0.171044 -0.333543 0.153793 -0.938463 -0.309238 
-0.508002 -0.168333 -0.333543 -0.00834667 -0.990626 0.136312 
-0.427109 -0.168333 -0.333543 -0.00191404 -0.906376 0.422459 
-0.34994 -0.177322 -0.333543 -0.23825 -0.829257 0.505534 
-0.28263 -0.210112 -0.333543 -0.501544 -0.723897 0.473732 
-0.217533 -0.248245 -0.333543 -0.403858 -0.839817 0.362769 
-0.147171 -0.273667 -0.333543 -0.317975 -0.91535 0.247027 
-0.07477 -0.294166 -0.333543 -0.119894 -0.990516 0.0670216 
0.006122 -0.294166 -0.333543 0.176938 -0.948808 -0.261606 
0.07971 -0.276532 -0.333543 0.194932 -0.888315 -0.415786 
0.152705 -0.257465 -0.333543 0.318416 -0.930956 -0.178608 
0.21517 -0.212977 -0.333543 0.633458 -0.737423 0.234332 
0.275002 -0.162133 -0.333543 0.609755 -0.625378 0.486912 
0.313134 -0.097036 -0.333543 0.844638 -0.229326 0.483719 
0.331717 -0.023841 -0.333543 0.961289 -0.148554 0.23202 
0.340705 0.053328 -0.333543 0.980677 -0.16949 0.0976359 
0.363978 0.12458 -0.333543 0.823453 -0.538125 0.179823 
0.417455 0.178057 -0.333543 0.547985 -0.757696 0.3544 
0.485462 0.209164 -0.333543 -0.210847 -0.628191 0.748937 
0.511478 0.161733 -0.333543 -0.568985 -0.0990056 0.816363 
0.511478 0.08084 -0.333543 -0.615525 0.0103953 0.788044 
0.511478 -5.2e-05 -0.333543 -0.64435 0.0605131 0.762332 
0.493502 -0.073498 -0.333543 -0.636162 0.258601 0.726926 
0.458872 -0.140046 -0.333543 -0.536543 0.374436 0.756251 
0.414384 -0.202511 -0.333543 -0.460922 0.368406 0.807355 
0.36354 -0.262343 -0.333543 -0.476921 0.460975 0.748362 
0.30854 -0.312142 -0.333543 -0.404656 0.542004 0.73653 
0.244967 -0.353952 -0.333543 -0.288887 0.573805 0.766345 
0.172817 -0.375058 -0.333543 -0.166079 0.628853 0.759576 
0.098977 -0.392085 -0.333543 -0.236683 0.711504 0.661614 
0.025924 -0.41101 -0.333543 -0.172308 0.798922 0.576213 
-0.047012 -0.430218 -0.333543 -0.249542 0.772748 0.583591 
-0.117246 -0.45595 -0.333543 -0.226986 0.78392 0.577879 
-0.190692 -0.473926 -0.333543 -0.223337 0.84144 0.492032 
-0.263363 -0.493773 -0.333543 -0.138616 0.830627 0.539298 
-0.576073 -0.527854 -0.243663 -0.214568 -0.106146 -0.970905 
-0.64117 -0.489721 -0.243663 -0.237686 -0.380481 -0.893714 
-0.704351 -0.446962 -0.243663 -0.145145 -0.320152 -0.936172 
-0.750756 -0.389124 -0.243663 0.0565179 0.360932 -0.930864 
-0.800774 -0.32895 -0.243663 0.606189 -0.0243751 -0.79494 
-0.783811 -0.285178 -0.243663 0.560757 -0.541796 -0.62609 
-0.714087 -0.258214 -0.243663 0.372237 -0.917429 -0.14051 
-0.645422 -0.228695 -0.243663 0.584253 -0.809672 0.0552897 
-0.58559 -0.177851 -0.243663 0.561597 -0.803178 0.198765 
-0.520493 -0.139718 -0.243663 0.404053 -0.868818 0.286166 
-0.453809 -0.105417 -0.243663 0.429908 -0.782515 0.450384 
-0.387667 -0.069807 -0.243663 0.288406 -0.61718 0.732057 
-0.314672 -0.052238 -0.243663 -0.0101601 -0.403245 0.915033 
-0.244639 -0.078453 -0.243663 -0.159041 -0.350047 0.92313 
-0.197331 -0.104172 -0.243663 -0.471985 -0.16317 0.866366 
-0.207564 -0.180825 -0.243663 -0.592259 -0.137896 0.793852 
-0.160598 -0.242264 -0.243663 -0.528789 -0.66907 0.522221 
-0.093759 -0.27619 -0.243663 -0.260637 -0.889535 0.37521 
-0.016589 -0.285178 -0.243663 -0.0277215 -0.926089 0.376271 
0.064303 -0.285178 -0.243663 0.024036 -0.958363 0.284507 
0.139278 -0.270893 -0.243663 0.367039 -0.91381 0.173811 
0.201742 -0.226404 -0.243663 0.708946 -0.683911 0.172167 
0.250825 -0.165843 -0.243663 0.805683 -0.561434 0.188833 
0.284364 -0.098843 -0.243663 0.931747 -0.264197 0.249082 
0.297075 -0.023215 -0.243663 0.92381 -0.255882 0.284775 
0.322729 0.04705 -0.243663 0.940291 -0.166132 0.29706 
0.328852 0.125406 -0.243663 0.844887 -0.215494 0.489617 
0.379696 0.185238 -0.243663 0.519018 -0.616441 0.592126 
0.435805 0.232359 -0.243663 0.467986 -0.740107 0.482933 
0.503535 0.264137 -0.243663 0.141579 -0.841447 0.521458 
0.556418 0.254807 -0.243663 -0.394573 -0.687646 0.609468 
0.617992 0.209164 -0.243663 -0.383671 -0.69125 0.612339 
0.695161 0.200175 -0.243663 0.0127342 -0.689744 0.723931 
0.776054 0.200175 -0.243663 0.0260375 -0.279272 0.959854 
0.81687 0.191187 -0.243663 -0.232936 -0.0577815 0.970764 
0.757097 0.140202 -0.243663 -0.243434 0.310068 0.919014 
0.697265 0.089358 -0.243663 -0.426434 0.449028 0.785188 
0.640065 0.032158 -0.243663 -0.565946 0.499569 0.655845 
0.595577 -0.030306 -0.243663 -0.746178 0.472936 0.468557 
0.556418 -0.094978 -0.243663 -0.809013 0.556328 0.18971 
0.512956 -0.157868 -0.243663 -0.821609 0.569643 -0.021434 
0.466538 -0.219533 -0.243663 -0.694802 0.698709 -0.170437 
0.406003 -0.26482 -0.243663 -0.540491 0.770447 -0.338048 
0.343538 -0.309309 -0.243663 -0.477704 0.734219 -0.48241 
0.278441 -0.347442 -0.243663 -0.451945 0.679543 -0.577895 
0.218609 -0.398286 -0.243663 -0.53232 0.711387 -0.458867 
0.153512 -0.436419 -0.243663 -0.394384 0.893451 -0.214935 
0.08315 -0.461841 -0.243663 -0.229311 0.967401 -0.107427 
0.007523 -0.474552 -0.243663 -0.276053 0.95943 -0.0572794 
-0.062839 -0.499974 -0.243663 -0.201484 0.971915 -0.121535 
-0.141099 -0.506329 -0.243663 -0.0756577 0.980041 -0.183815 
-0.216798 -0.518866 -0.243663 -0.114074 0.966036 -0.23185 
-0.29769 -0.518866 -0.243663 0.0366551 0.863057 -0.503768 
-0.378582 -0.518866 -0.243663 -0.0233689 0.679089 -0.733676 
-0.459475 -0.518866 -0.243663 0.0947414 0.397542 -0.912668 
-0.27048 -0.41101 -0.153783 0.0753545 0.620446 -0.780619 
-0.340842 -0.385588 -0.153783 0.337072 0.736639 -0.586289 
-0.408572 -0.353811 -0.153783 0.319009 0.922836 -0.215847 
-0.481567 -0.334744 -0.153783 0.167351 0.983151 0.0734196 
-0.55682 -0.32113 -0.153783 0.286708 0.939496 0.187417 
-0.627556 -0.296611 -0.153783 0.256816 0.962014 0.092408 
-0.697918 -0.271189 -0.153783 0.809353 0.493326 -0.318666 
-0.697357 -0.226701 -0.153783 0.825902 -0.545218 -0.143561 
-0.636918 -0.177322 -0.153783 0.534729 -0.842794 0.0613047 
-0.570918 -0.141369 -0.153783 0.455661 -0.87346 0.171577 
-0.502066 -0.112302 -0.153783 0.478202 -0.821994 0.309263 
-0.442234 -0.061458 -0.153783 0.739145 -0.507983 0.442278 
-0.410456 0.006272 -0.153783 0.675519 -0.392736 0.624042 
-0.365968 0.068736 -0.153783 0.619925 -0.443159 0.647534 
-0.318847 0.124845 -0.153783 0.465602 -0.745642 0.476674 
-0.240587 0.125342 -0.153783 -0.758763 -0.626478 0.178275 
-0.20881 0.057613 -0.153783 -0.862538 -0.421062 0.280582 
-0.171612 -0.007872 -0.153783 -0.842115 -0.368895 0.393388 
-0.15161 -0.080479 -0.153783 -0.748257 -0.375444 0.54694 
-0.091778 -0.131323 -0.153783 -0.412578 -0.499427 0.761804 
-0.031946 -0.182167 -0.153783 -0.296745 -0.484148 0.823125 
0.039784 -0.204286 -0.153783 -0.040078 -0.621573 0.782325 
0.116675 -0.194627 -0.153783 0.197379 -0.631489 0.749832 
0.181772 -0.156494 -0.153783 0.477291 -0.53904 0.693984 
0.232616 -0.096662 -0.153783 0.678081 -0.401914 0.615351 
0.264394 -0.028932 -0.153783 0.815389 -0.325724 0.478575 
0.286777 0.042689 -0.153783 0.915675 -0.121781 0.383019 
0.286777 0.123581 -0.153783 0.9714 -0.0116674 0.23716 
0.295765 0.20075 -0.153783 0.923651 -0.357274 0.138626 
0.339569 0.252968 -0.153783 0.553252 -0.825533 0.11134 
0.408822 0.281068 -0.153783 0.228701 -0.966475 0.116687 
0.485559 0.291101 -0.153783 0.357798 -0.926085 0.119761 
0.555715 0.31702 -0.153783 -0.255683 -0.955594 0.146441 
0.59237 0.267518 -0.153783 -0.859731 -0.487118 0.153516 
0.640084 0.206389 -0.153783 -0.637975 -0.74861 -0.180381 
0.707234 0.173211 -0.153783 -0.0451464 -0.379079 -0.92424 
0.788126 0.173211 -0.153783 -0.259452 0.279239 -0.924492 
0.785603 0.15972 -0.153783 -0.300803 0.265366 -0.916013 
0.725771 0.108876 -0.153783 -0.347888 0.338627 -0.874241 
0.668572 0.051677 -0.153783 -0.517825 0.516646 -0.681853 
0.615095 -0.0018 -0.153783 -0.521477 0.549556 -0.65272 
0.555263 -0.052644 -0.153783 -0.448796 0.546123 -0.707339 
0.492507 -0.096429 -0.153783 -0.340371 0.50346 -0.794151 
0.426507 -0.132381 -0.153783 -0.244774 0.464227 -0.85122 
0.360507 -0.168333 -0.153783 -0.248544 0.475393 -0.843933 
0.292243 -0.19882 -0.153783 -0.262364 0.590173 -0.763442 
0.224783 -0.23125 -0.153783 -0.365708 0.735175 -0.570742 
0.159416 -0.268731 -0.153783 -0.478737 0.785467 -0.392204 
0.091686 -0.300508 -0.153783 -0.381241 0.819145 -0.42851 
0.023059 -0.330118 -0.153783 -0.296476 0.704327 -0.644981 
-0.049038 -0.351352 -0.153783 -0.173658 0.650148 -0.739686 
-0.120111 -0.375058 -0.153783 -0.170142 0.561489 -0.809798 
-0.192395 -0.39584 -0.153783 -0.167614 0.564494 -0.808237 
-0.77381 -0.384046 -0.063902 0.368863 0.20719 0.906078 
-0.722966 -0.324214 -0.063902 0.43496 -0.360572 0.825092 
-0.684833 -0.259117 -0.063902 0.849399 -0.458847 0.260703 
-0.633989 -0.199285 -0.063902 0.767754 -0.640198 0.026228 
-0.585061 -0.138659 -0.063902 0.721941 -0.632052 0.281607 
-0.540121 -0.076382 -0.063902 0.728681 -0.413446 0.545966 
-0.513157 -0.006659 -0.063902 0.725067 -0.28527 0.626815 
-0.481457 0.061103 -0.063902 0.70067 -0.362552 0.614505 
-0.440692 0.119845 -0.063902 0.51021 -0.615252 0.600957 
-0.372962 0.151622 -0.063902 0.202828 -0.81487 0.542996 
-0.297335 0.146138 -0.063902 -0.365938 -0.863529 0.346978 
-0.237503 0.095294 -0.063902 -0.649291 -0.725814 0.227148 
-0.1806 0.053767 -0.063902 -0.687775 -0.63316 0.355062 
-0.133698 -0.006549 -0.063902 -0.586295 -0.63197 0.506815 
-0.066543 -0.039714 -0.063902 -0.369635 -0.693417 0.618496 
-0.004079 -0.084202 -0.063902 -0.394483 -0.624482 0.674089 
0.068026 -0.105417 -0.063902 0.015138 -0.675786 0.736931 
0.139278 -0.082144 -0.063902 0.408351 -0.550127 0.728417 
0.190122 -0.022312 -0.063902 0.62246 -0.442268 0.645702 
0.232849 0.040882 -0.063902 0.727833 -0.446755 0.52025 
0.268801 0.106882 -0.063902 0.904566 -0.341136 0.255693 
0.298165 0.175611 -0.063902 0.841189 -0.537563 -0.0584735 
0.357997 0.226455 -0.063902 0.531255 -0.823807 -0.197729 
0.423094 0.264588 -0.063902 0.430616 -0.8974 -0.0960816 
0.490824 0.296366 -0.063902 0.301062 -0.953589 0.00493927 
0.563161 0.299044 -0.063902 -0.152734 -0.984627 0.0846715 
0.644053 0.299044 -0.063902 0.0571722 -0.852007 0.520388 
0.717705 0.316523 -0.063902 0.311124 -0.885293 0.345608 
0.794668 0.326008 -0.063902 -0.359672 -0.917536 -0.169545 
0.835047 0.282409 -0.063902 -0.888491 -0.260541 -0.377737 
0.819561 0.220642 -0.063902 -0.670117 0.715586 -0.197142 
0.749199 0.19522 -0.063902 -0.303369 0.85384 0.422968 
0.68147 0.163443 -0.063902 -0.462623 0.804437 0.372615 
0.615146 0.128271 -0.063902 -0.482144 0.850175 -0.211473 
0.548643 0.093533 -0.063902 -0.395646 0.765686 -0.507126 
0.483546 0.0554 -0.063902 -0.446714 0.685333 -0.575116 
0.420868 0.011427 -0.063902 -0.441976 0.652611 -0.615427 
0.35859 -0.033513 -0.063902 -0.43574 0.630625 -0.642209 
0.298785 -0.084421 -0.063902 -0.540521 0.540003 -0.645153 
0.247941 -0.144253 -0.063902 -0.574792 0.528489 -0.624742 
0.190742 -0.201453 -0.063902 -0.564121 0.617506 -0.548128 
0.13091 -0.252297 -0.063902 -0.489316 0.709435 -0.507215 
0.063637 -0.285178 -0.063902 -0.296426 0.839836 -0.454757 
-0.009809 -0.303154 -0.063902 -0.136062 0.867555 -0.47836 
-0.088074 -0.309496 -0.063902 -0.0872201 0.849846 -0.519761 
-0.164147 -0.32113 -0.063902 -0.125791 0.816605 -0.563319 
-0.241317 -0.330118 -0.063902 -0.162185 0.788555 -0.593191 
-0.314956 -0.347629 -0.063902 -0.134927 0.860844 -0.490654 
-0.391932 -0.357082 -0.063902 -0.0635749 0.965508 -0.252482 
-0.468842 -0.366695 -0.063902 -0.152367 0.986908 -0.0527974 
-0.54447 -0.379406 -0.063902 -0.104507 0.986631 0.124999 
-0.62344 -0.384046 -0.063902 -0.0380547 0.928858 0.368445 
-0.704332 -0.384046 -0.063902 -0.10625 0.551975 0.827049 
-0.764822 -0.384046 0.025978 -0.0034203 0.406208 -0.913752 
-0.726689 -0.318949 0.025978 0.442488 -0.254484 -0.859888 
-0.694911 -0.251219 0.025978 0.86778 -0.473395 -0.151111 
-0.656778 -0.186122 0.025978 0.870684 -0.484087 0.0869547 
-0.621013 -0.120045 0.025978 0.854176 -0.497924 0.149831 
-0.580512 -0.055928 0.025978 0.853876 -0.461143 0.241329 
-0.549109 0.011956 0.025978 0.883648 -0.425427 0.195388 
-0.513157 0.077957 0.025978 0.866896 -0.487591 0.103658 
-0.472469 0.141995 0.025978 0.721714 -0.68668 0.0871492 
-0.413728 0.182761 0.025978 0.548702 -0.785604 0.285918 
-0.351218 0.22714 0.025978 0.31601 -0.780697 0.539115 
-0.277771 0.22714 0.025978 -0.211 -0.719875 0.661254 
-0.210539 0.194162 0.025978 -0.48667 -0.595639 0.639034 
-0.159695 0.13433 0.025978 -0.528434 -0.446544 0.722048 
-0.102495 0.077131 0.025978 -0.404507 -0.500663 0.765317 
-0.037398 0.038998 0.025978 -0.234208 -0.55172 0.800466 
0.035797 0.020415 0.025978 -0.0737952 -0.504185 0.860428 
0.112966 0.029403 0.025978 0.229679 -0.487889 0.842135 
0.173688 0.078098 0.025978 0.48393 -0.427496 0.763572 
0.224532 0.13793 0.025978 0.575075 -0.420549 0.701724 
0.271653 0.194039 0.025978 0.587076 -0.504233 0.633309 
0.328852 0.251239 0.025978 0.5262 -0.609936 0.592525 
0.391317 0.295727 0.025978 0.307943 -0.807724 0.502741 
0.466944 0.308438 0.025978 0.196533 -0.883514 0.425174 
0.539938 0.327505 0.025978 0.0263508 -0.977348 0.209988 
0.614005 0.326008 0.025978 0.0112031 -0.994836 0.100858 
0.693825 0.328595 0.025978 -0.0362368 -0.99916 -0.0191291 
0.754154 0.311819 0.025978 -0.615102 -0.728889 -0.300599 
0.77213 0.238373 0.025978 -0.969241 0.00856862 -0.245909 
0.761007 0.162088 0.025978 -0.598068 0.794403 -0.105918 
0.686676 0.146247 0.025978 -0.158129 0.981161 -0.11098 
0.61323 0.128271 0.025978 -0.2523 0.958384 -0.133578 
0.53939 0.111244 0.025978 -0.269069 0.942754 -0.197008 
0.469028 0.085822 0.025978 -0.353915 0.876028 -0.327588 
0.400337 0.056367 0.025978 -0.374916 0.811378 -0.448438 
0.333569 0.022267 0.025978 -0.379972 0.738332 -0.557206 
0.268336 -0.015537 0.025978 -0.369747 0.647283 -0.666559 
0.202336 -0.051489 0.025978 -0.317046 0.575665 -0.753704 
0.136335 -0.087441 0.025978 -0.249665 0.507121 -0.824906 
0.067916 -0.117554 0.025978 -0.217617 0.44569 -0.868322 
0.000187 -0.149331 0.025978 -0.209679 0.431061 -0.87761 
-0.069112 -0.177322 0.025978 -0.194264 0.473481 -0.859109 
-0.138835 -0.204286 0.025978 -0.160308 0.528078 -0.833923 
-0.213532 -0.219242 0.025978 -0.0787577 0.54098 -0.837337 
-0.289159 -0.231953 0.025978 -0.116233 0.499763 -0.858322 
-0.359521 -0.257375 0.025978 -0.14177 0.487895 -0.861309 
-0.43262 -0.27619 0.025978 -0.0999533 0.556977 -0.824488 
-0.508143 -0.289152 0.025978 -0.156583 0.617221 -0.771046 
-0.579513 -0.312142 0.025978 -0.180212 0.630527 -0.75495 
-0.652959 -0.330118 0.025978 -0.157504 0.590718 -0.791343 
-0.722682 -0.357082 0.025978 -0.105021 0.226792 -0.968256 
-0.854702 -0.446962 0.115858 -0.0737924 0.277227 0.957953 
-0.816569 -0.381865 0.115858 0.108898 -0.116817 0.987151 
-0.765725 -0.322033 0.115858 0.332816 -0.271102 0.903171 
-0.719882 -0.26013 0.115858 0.621175 -0.61796 0.481925 
-0.661405 -0.208725 0.115858 0.675914 -0.728235 -0.113141 
-0.610561 -0.148893 0.115858 0.821742 -0.447962 -0.352225 
-0.585061 -0.078563 0.115858 0.899009 -0.297794 -0.321094 
-0.559717 -0.008169 0.115858 0.93111 -0.349523 -0.104246 
-0.527939 0.059561 0.115858 0.827331 -0.561713 0.00111368 
-0.477205 0.119438 0.115858 0.829038 -0.556274 0.0570148 
-0.442685 0.180767 0.115858 0.808618 -0.540455 0.232472 
-0.391841 0.240599 0.115858 0.643632 -0.636527 0.424936 
-0.331435 0.290056 0.115858 0.404622 -0.762871 0.504286 
-0.257989 0.308032 0.115858 -0.157788 -0.674478 0.721231 
-0.206629 0.262156 0.115858 -0.422404 -0.532703 0.733345 
-0.140241 0.22714 0.115858 -0.28763 -0.571254 0.768723 
-0.074241 0.191187 0.115858 -0.303636 -0.47483 0.826039 
-0.00824 0.155235 0.115858 -0.120149 -0.486478 0.86539 
0.066922 0.169069 0.115858 0.214748 -0.413666 0.884737 
0.126754 0.219913 0.115858 0.363798 -0.308982 0.878737 
0.175508 0.27208 0.115858 0.296326 -0.402896 0.865947 
0.245231 0.299044 0.115858 0.165178 -0.581301 0.796745 
0.318677 0.31702 0.115858 0.185076 -0.741819 0.644551 
0.392124 0.334996 0.115858 0.23685 -0.867011 0.438394 
0.46557 0.352972 0.115858 -0.0214712 -0.95497 0.295918 
0.539016 0.334996 0.115858 -0.2331 -0.959936 0.155509 
0.616186 0.326008 0.115858 -0.0204362 -0.997689 0.06474 
0.697078 0.326008 0.115858 -0.182205 -0.982688 0.0334983 
0.768362 0.302812 0.115858 -0.344118 -0.888311 0.304093 
0.841357 0.283746 0.115858 -0.183596 -0.568903 0.801638 
0.917417 0.27208 0.115858 0.0102783 -0.260318 0.965459 
0.990863 0.254104 0.115858 -0.166832 0.0557205 0.984396 
0.92563 0.245116 0.115858 0.0147823 0.20596 0.978446 
0.849797 0.232902 0.115858 -0.176739 0.423037 0.888697 
0.778737 0.209164 0.115858 -0.2689 0.959403 0.0849487 
0.705291 0.191187 0.115858 -0.284273 0.838343 -0.46515 
0.635567 0.164223 0.115858 -0.289291 0.866984 -0.405767 
0.562121 0.146247 0.115858 -0.285341 0.91361 -0.289643 
0.492398 0.119283 0.115858 -0.341713 0.931757 -0.122707 
0.419727 0.099436 0.115858 -0.361154 0.93164 0.0400843 
0.351997 0.067659 0.115858 -0.394537 0.89919 0.189179 
0.281635 0.042237 0.115858 -0.326208 0.907099 0.265977 
0.213905 0.010459 0.115858 -0.452942 0.852066 0.262319 
0.148808 -0.027674 0.115858 -0.457929 0.846351 0.271989 
0.081079 -0.059451 0.115858 -0.385691 0.865205 0.320393 
0.01178 -0.087441 0.115858 -0.353718 0.86973 0.344156 
-0.057013 -0.11665 0.115858 -0.346334 0.887475 0.304025 
-0.127375 -0.142072 0.115858 -0.299158 0.910714 0.284771 
-0.201112 -0.159345 0.115858 -0.159602 0.942829 0.292558 
-0.278629 -0.167494 0.115858 -0.0951113 0.942059 0.321658 
-0.354256 -0.180205 0.115858 -0.291539 0.893512 0.34149 
-0.421986 -0.211983 0.115858 -0.387198 0.851541 0.353469 
-0.492348 -0.237405 0.115858 -0.304828 0.921344 0.241219 
-0.560078 -0.269182 0.115858 -0.420281 0.861747 0.284144 
-0.626898 -0.303154 0.115858 -0.438457 0.761172 0.477862 
-0.690272 -0.345448 0.115858 -0.274044 0.546268 0.791499 
-0.755369 -0.383581 0.115858 -0.210787 0.446403 0.869641 
-0.820466 -0.421714 0.115858 -0.1792 0.170216 0.968972 
-0.764822 -0.446962 0.205738 -0.738707 0.657042 -0.150275 
-0.764822 -0.36607 0.205738 0.257387 0.137719 -0.956424 
-0.77381 -0.288901 0.205738 0.590873 -0.657296 -0.467771 
-0.708713 -0.256033 0.205738 0.390063 -0.831388 -0.395776 
-0.643616 -0.2179 0.205738 0.680287 -0.720871 -0.132447 
-0.592772 -0.158068 0.205738 0.806736 -0.590443 0.0233466 
-0.554639 -0.092971 0.205738 0.95951 -0.264823 -0.0959156 
-0.548283 -0.014711 0.205738 0.947452 -0.203315 -0.246976 
-0.522145 0.055354 0.205738 0.87863 -0.405412 -0.252289 
-0.491084 0.12338 0.205738 0.904721 -0.420919 -0.0656173 
-0.459229 0.191078 0.205738 0.908426 -0.417656 -0.0179669 
-0.423277 0.257078 0.205738 0.777569 -0.628224 -0.0266989 
-0.368555 0.299044 0.205738 0.437403 -0.893481 -0.101812 
-0.298832 0.326008 0.205738 0.441184 -0.892474 -0.0940438 
-0.232831 0.36196 0.205738 0.316986 -0.947329 0.0456055 
-0.162966 0.37129 0.205738 -0.01346 -0.974484 0.224032 
-0.087339 0.358579 0.205738 -0.283255 -0.830963 0.478809 
-0.019938 0.326008 0.205738 -0.00636819 -0.609594 0.792683 
0.04812 0.356992 0.205738 0.322625 -0.564423 0.759828 
0.115785 0.388924 0.205738 0.24886 -0.657201 0.711446 
0.186212 0.414191 0.205738 0.278928 -0.662803 0.694903 
0.256574 0.439613 0.205738 0.0180255 -0.698179 0.715694 
0.324955 0.415888 0.205738 -0.293233 -0.660748 0.690959 
0.394679 0.388924 0.205738 -0.236856 -0.795045 0.558389 
0.468125 0.370948 0.205738 -0.138616 -0.923232 0.358362 
0.545294 0.36196 0.205738 -0.18912 -0.920157 0.342844 
0.618741 0.343984 0.205738 -0.233775 -0.944332 0.231472 
0.692187 0.326008 0.205738 -0.296866 -0.953363 -0.0544234 
0.762271 0.299915 0.205738 -0.372642 -0.843509 -0.386797 
0.831634 0.27208 0.205738 -0.243562 -0.442309 -0.863143 
0.901357 0.245116 0.205738 0.106044 -0.162698 -0.980944 
0.958123 0.200175 0.205738 0.188255 0.919519 -0.344985 
0.884677 0.218152 0.205738 0.0656373 0.37892 -0.923083 
0.810309 0.233901 0.205738 -0.00709975 0.616422 -0.787358 
0.730339 0.236128 0.205738 -0.142856 0.951643 -0.27191 
0.659054 0.212932 0.205738 -0.394308 0.910344 -0.125627 
0.591325 0.181154 0.205738 -0.405281 0.888272 -0.21614 
0.524892 0.146247 0.205738 -0.49048 0.848682 -0.197904 
0.461131 0.104888 0.205738 -0.552533 0.828107 -0.0945717 
0.398666 0.0604 0.205738 -0.582365 0.811344 0.0506873 
0.336202 0.015912 0.205738 -0.530963 0.840672 0.106508 
0.271105 -0.022221 0.205738 -0.440248 0.89509 0.0706096 
0.203375 -0.053999 0.205738 -0.436238 0.895671 0.0863817 
0.136335 -0.087441 0.205738 -0.407813 0.91306 0.000552667 
0.066612 -0.114405 0.205738 -0.346338 0.938086 0.00603531 
-0.002446 -0.142976 0.205738 -0.361554 0.93217 0.0181704 
-0.072835 -0.168333 0.205738 -0.346624 0.937792 0.0197553 
-0.14317 -0.19382 0.205738 -0.283111 0.959042 -0.00891145 
-0.216004 -0.213274 0.205738 -0.340799 0.933285 0.113256 
-0.282005 -0.249226 0.205738 -0.452368 0.890313 0.0518729 
-0.351728 -0.27619 0.205738 -0.25846 0.963233 0.0732452 
-0.427251 -0.289152 0.205738 -0.131177 0.967869 0.214512 
-0.502344 -0.303154 0.205738 -0.259709 0.930286 0.259063 
-0.570608 -0.33364 0.205738 -0.516552 0.832033 0.202206 
-0.633072 -0.378129 0.205738 -0.582675 0.791843 0.182953 
-0.700345 -0.41101 0.205738 -0.232732 0.969558 0.0760025 
-0.701906 -0.384046 0.295618 0.526598 0.0155674 -0.84995 
-0.676484 -0.313684 0.295618 0.708431 -0.0842831 -0.700702 
-0.651062 -0.243322 0.295618 0.928344 -0.363762 0.0763939 
-0.62564 -0.17296 0.295618 0.81564 -0.541515 0.20369 
-0.576073 -0.112599 0.295618 0.78492 -0.617934 0.0453348 
-0.530307 -0.050663 0.295618 0.839467 -0.513618 -0.177445 
-0.492174 0.014434 0.295618 0.844583 -0.388798 -0.368118 
-0.468217 0.085402 0.295618 0.858471 -0.273779 -0.433672 
-0.441253 0.155126 0.295618 0.769426 -0.431639 -0.470818 
-0.390486 0.21499 0.295618 0.587151 -0.602274 -0.540849 
-0.334784 0.263092 0.295618 0.507556 -0.692034 -0.513296 
-0.272506 0.308032 0.295618 0.515086 -0.765085 -0.386432 
-0.206506 0.343984 0.295618 0.382564 -0.89903 -0.213036 
-0.13306 0.36196 0.295618 0.168207 -0.982349 0.0817961 
-0.059613 0.379936 0.295618 0.314749 -0.835493 0.450419 
0.00427 0.420998 0.295618 0.412625 -0.671725 0.615244 
0.072 0.452776 0.295618 0.276695 -0.692773 0.665961 
0.142111 0.478804 0.295618 0.223673 -0.706635 0.671295 
0.215357 0.497264 0.295618 0.214335 -0.705738 0.675272 
0.289003 0.514756 0.295618 -0.0620625 -0.692338 0.718898 
0.358713 0.48776 0.295618 -0.350207 -0.656685 0.667922 
0.424727 0.45184 0.295618 -0.324277 -0.690766 0.646286 
0.49445 0.424876 0.295618 -0.266946 -0.756049 0.597602 
0.564174 0.397912 0.295618 -0.260781 -0.803854 0.53461 
0.634897 0.373361 0.295618 -0.356854 -0.777714 0.517507 
0.699994 0.335228 0.295618 -0.446844 -0.758499 0.474343 
0.765898 0.299044 0.295618 -0.419035 -0.757945 0.499913 
0.83282 0.265318 0.295618 -0.577441 -0.562423 0.591798 
0.847803 0.212932 0.295618 -0.52333 0.109121 0.8451 
0.801772 0.179522 0.295618 -0.0314475 0.731241 0.681383 
0.725712 0.191187 0.295618 0.0784908 0.80372 0.589803 
0.64482 0.191187 0.295618 -0.0693037 0.933695 0.351292 
0.566993 0.183787 0.295618 -0.239085 0.964723 0.110182 
0.497928 0.155235 0.295618 -0.447828 0.893997 -0.0145955 
0.431534 0.120232 0.295618 -0.519065 0.833225 -0.190532 
0.36965 0.074343 0.295618 -0.512853 0.769109 -0.381381 
0.303649 0.038391 0.295618 -0.388904 0.808497 -0.441683 
0.233926 0.011427 0.295618 -0.301578 0.837549 -0.455585 
0.164203 -0.015537 0.295618 -0.344312 0.801059 -0.489642 
0.095519 -0.045011 0.295618 -0.379036 0.808453 -0.450257 
0.027789 -0.076788 0.295618 -0.326801 0.809809 -0.487243 
-0.041244 -0.105417 0.295618 -0.32593 0.811303 -0.485339 
-0.110302 -0.133988 0.295618 -0.390253 0.827848 -0.402946 
-0.178032 -0.165765 0.295618 -0.370619 0.863148 -0.342948 
-0.246691 -0.195298 0.295618 -0.383676 0.894165 -0.230773 
-0.316123 -0.222965 0.295618 -0.391459 0.901795 -0.183071 
-0.383853 -0.254742 0.295618 -0.406633 0.89481 -0.184273 
-0.452138 -0.285178 0.295618 -0.310813 0.950156 -0.0243526 
-0.524577 -0.305586 0.295618 -0.315173 0.943838 0.0991168 
-0.594939 -0.331008 0.295618 -0.286009 0.95811 -0.0139967 
-0.662669 -0.362785 0.295618 -0.245061 0.154377 -0.957119 
-0.638989 -0.41101 0.385499 -0.281667 0.766747 0.576839 
-0.701454 -0.366522 0.385499 0.70109 -0.136797 0.69981 
-0.692918 -0.28954 0.385499 0.821938 0.227769 0.52204 
-0.7089 -0.215267 0.385499 0.825214 -0.518672 0.223538 
-0.64779 -0.177134 0.385499 0.531168 -0.83584 0.138649 
-0.587958 -0.12629 0.385499 0.721355 -0.685263 0.100288 
-0.537114 -0.066459 0.385499 0.797969 -0.602672 0.0052853 
-0.492626 -0.003994 0.385499 0.816319 -0.575907 0.0441891 
-0.448138 0.05847 0.385499 0.861335 -0.493913 -0.118946 
-0.414289 0.125342 0.385499 0.831811 -0.496986 -0.247173 
-0.365516 0.186032 0.385499 0.722762 -0.654775 -0.221095 
-0.308317 0.243231 0.385499 0.649442 -0.753453 -0.102625 
-0.248485 0.294075 0.385499 0.727267 -0.684785 -0.0463691 
-0.201364 0.350184 0.385499 0.677115 -0.732432 0.0711241 
-0.138899 0.394673 0.385499 0.565821 -0.78165 0.262431 
-0.079067 0.445517 0.385499 0.579449 -0.738367 0.345038 
-0.016603 0.490005 0.385499 0.544611 -0.748711 0.377928 
0.046591 0.532732 0.385499 0.407792 -0.770417 0.490062 
0.116315 0.559696 0.385499 0.348894 -0.706517 0.615715 
0.178688 0.604404 0.385499 0.44253 -0.594645 0.671239 
0.244592 0.640589 0.385499 0.170616 -0.540962 0.823556 
0.319412 0.625929 0.385499 -0.276989 -0.478159 0.83345 
0.381877 0.581441 0.385499 -0.357864 -0.536183 0.764487 
0.446974 0.543308 0.385499 -0.322994 -0.569477 0.755889 
0.512317 0.505768 0.385499 -0.224481 -0.582844 0.780959 
0.585066 0.486108 0.385499 -0.242528 -0.613496 0.751531 
0.650163 0.447975 0.385499 -0.400018 -0.638727 0.657274 
0.714041 0.4069 0.385499 -0.551581 -0.67026 0.49649 
0.768736 0.356366 0.385499 -0.686388 -0.679306 0.259626 
0.81958 0.296534 0.385499 -0.772611 -0.611404 -0.171027 
0.870424 0.236702 0.385499 -0.561444 -0.716028 -0.414814 
0.923901 0.183226 0.385499 -0.748176 0.143744 -0.647722 
0.892607 0.155235 0.385499 -0.225882 0.893562 -0.387952 
0.811715 0.155235 0.385499 0.156087 0.946337 -0.282977 
0.738268 0.173211 0.385499 0.142977 0.957199 -0.251637 
0.657376 0.173211 0.385499 0.00698008 0.984127 -0.17731 
0.576484 0.173211 0.385499 -0.132167 0.979145 -0.154268 
0.50551 0.149267 0.385499 -0.345793 0.930069 -0.124072 
0.435148 0.123845 0.385499 -0.349891 0.926934 -0.135528 
0.364785 0.098423 0.385499 -0.388616 0.911714 -0.133243 
0.297056 0.066646 0.385499 -0.483302 0.869925 -0.0982201 
0.23159 0.029403 0.385499 -0.421329 0.906234 -0.0349265 
0.161867 0.002439 0.385499 -0.429438 0.900101 0.0734729 
0.095867 -0.033513 0.385499 -0.428239 0.897997 0.101047 
0.026143 -0.060477 0.385499 -0.320979 0.938395 0.127998 
-0.044224 -0.085886 0.385499 -0.42852 0.888523 0.163991 
-0.109321 -0.124019 0.385499 -0.474641 0.855923 0.205205 
-0.175581 -0.159345 0.385499 -0.476047 0.856478 0.199551 
-0.239515 -0.200285 0.385499 -0.507021 0.835009 0.213751 
-0.304613 -0.238418 0.385499 -0.445111 0.870344 0.210654 
-0.372342 -0.270195 0.385499 -0.400611 0.89832 0.18036 
-0.440072 -0.301973 0.385499 -0.44799 0.872391 0.195539 
-0.505583 -0.339106 0.385499 -0.484333 0.826574 0.286692 
-0.570266 -0.378239 0.385499 -0.437064 0.787719 0.434126 
-0.612025 -0.312142 0.475379 0.0217837 0.196137 -0.980331 
-0.647977 -0.246141 0.475379 0.393848 -0.123114 -0.91089 
-0.623007 -0.188303 0.475379 0.615064 -0.300044 -0.729151 
-0.584874 -0.123206 0.475379 0.620291 -0.642003 -0.450626 
-0.52241 -0.078718 0.475379 0.742235 -0.511766 -0.432633 
-0.496988 -0.008356 0.475379 0.854961 -0.485585 -0.18233 
-0.446144 0.051476 0.475379 0.763485 -0.631689 -0.134377 
-0.401655 0.113941 0.475379 0.809841 -0.556055 -0.186969 
-0.357167 0.176405 0.475379 0.810622 -0.565011 -0.153789 
-0.312678 0.23887 0.475379 0.753463 -0.654717 -0.0602883 
-0.255479 0.296069 0.475379 0.772957 -0.626983 0.097058 
-0.204635 0.355901 0.475379 0.696791 -0.645197 0.313352 
-0.144803 0.406745 0.475379 0.561774 -0.810437 0.166093 
-0.082339 0.451233 0.475379 0.561929 -0.819366 -0.113412 
-0.019874 0.495722 0.475379 0.598305 -0.770503 -0.219884 
0.039958 0.546566 0.475379 0.628105 -0.756139 -0.183659 
0.09979 0.59741 0.475379 0.623628 -0.780959 0.0343783 
0.162254 0.641898 0.475379 0.745915 -0.545464 0.382194 
0.178921 0.715887 0.475379 0.81132 0.00538081 0.58457 
0.171881 0.777357 0.475379 0.591194 -0.08702 0.801815 
0.22799 0.824478 0.475379 0.143695 -0.37975 0.91386 
0.294159 0.847313 0.475379 0.0604005 -0.331088 0.941664 
0.367605 0.829337 0.475379 -0.234691 -0.264231 0.935468 
0.403621 0.763401 0.475379 -0.403648 -0.167665 0.89942 
0.431179 0.693923 0.475379 -0.460756 -0.267847 0.846144 
0.491011 0.643079 0.475379 -0.186128 -0.565172 0.8037 
0.563425 0.622613 0.475379 -0.410687 -0.550678 0.726695 
0.610346 0.562316 0.475379 -0.751916 -0.509895 0.417875 
0.652982 0.499084 0.475379 -0.819692 -0.53529 -0.20384 
0.691115 0.433987 0.475379 -0.526568 -0.109689 -0.843013 
0.635252 0.386866 0.475379 -0.146062 0.301755 -0.942122 
0.578053 0.329667 0.475379 -0.266842 0.227817 -0.936422 
0.520853 0.272467 0.475379 -0.297718 0.315169 -0.901126 
0.467377 0.218991 0.475379 -0.433053 0.41795 -0.79861 
0.410177 0.161791 0.475379 -0.522944 0.583108 -0.6217 
0.350345 0.110947 0.475379 -0.571212 0.744453 -0.345696 
0.287881 0.066459 0.475379 -0.52139 0.839323 -0.15391 
0.222784 0.028326 0.475379 -0.530266 0.845756 -0.0592648 
0.16006 -0.015537 0.475379 -0.527833 0.846331 0.0715139 
0.09406 -0.051489 0.475379 -0.466763 0.871864 0.148267 
0.028059 -0.087441 0.475379 -0.456988 0.848082 0.268174 
-0.037941 -0.123393 0.475379 -0.463345 0.820928 0.333747 
-0.103941 -0.159345 0.475379 -0.421246 0.857473 0.295448 
-0.173063 -0.187761 0.475379 -0.347786 0.916575 0.197315 
-0.243388 -0.213274 0.475379 -0.352011 0.935789 -0.0196358 
-0.313788 -0.238605 0.475379 -0.313228 0.916182 -0.249989 
-0.386558 -0.258214 0.475379 -0.203598 0.858702 -0.470294 
-0.459777 -0.276738 0.475379 -0.21258 0.690099 -0.691787 
-0.530139 -0.30216 0.475379 -0.180419 0.472859 -0.862466 
-0.207564 0.326008 0.565259 0.11313 0.504048 -0.856215 
-0.270029 0.370496 0.565259 0.923104 0.379459 -0.0620693 
-0.27048 0.443755 0.565259 0.737274 -0.110554 0.666468 
-0.264312 0.4996 0.565259 0.452777 -0.0578203 0.88974 
-0.244871 0.567329 0.565259 0.155548 -0.055367 0.986273 
-0.23216 0.642957 0.565259 0.0184564 -0.00509431 0.999814 
-0.216552 0.717384 0.565259 -0.0618258 0.0171782 0.997938 
-0.194027 0.788946 0.565259 -0.091624 0.0388125 0.995036 
-0.16225 0.856675 0.565259 -0.0971957 0.037764 0.994548 
-0.144648 0.930277 0.565259 -0.0389389 0.0109908 0.999181 
-0.117684 1 0.565259 0.00017332 0.00686082 0.999976 
-0.05793 0.967319 0.565259 0.0726236 0.0610571 0.995489 
-0.007086 0.907487 0.565259 0.167516 0.160788 0.972669 
0.043758 0.847655 0.565259 0.385533 0.242363 0.890293 
0.089041 0.78552 0.565259 0.462903 0.54619 0.698134 
0.142969 0.726965 0.565259 0.886528 0.132852 0.443173 
0.128561 0.654997 0.565259 0.971183 -0.16006 0.176558 
0.124993 0.580073 0.565259 0.913163 -0.218915 -0.343792 
0.089041 0.514072 0.565259 0.599439 -0.454765 -0.658675 
0.037713 0.454441 0.565259 0.444914 -0.424483 -0.78858 
-0.019487 0.397241 0.565259 0.285284 -0.330574 -0.899626 
-0.081951 0.352753 0.565259 0.0712098 -0.140871 -0.987457 
-0.151765 0.326008 0.565259 -0.00866361 0.194665 -0.980824 
