ply
format ascii 1.0
element vertex 831
property float x
property float y
property float z
property float nx
property float ny
property float nz
end_header
-0.585494 -0.025785 -0.310549 -0.342449 0.846207 0.408242 
-0.529632 -0.007682 -0.310549 -0.3578 0.843508 0.400592 
-0.47752 0.019472 -0.310549 -0.406338 0.717068 0.566307 
-0.425765 0.04749 -0.310549 -0.288495 0.686311 0.667643 
-0.369546 0.064729 -0.310549 -0.162522 0.688945 0.706358 
-0.309935 0.073781 -0.310549 -0.0121293 0.696635 0.717324 
-0.250324 0.064729 -0.310549 0.15028 0.656095 0.739564 
-0.190714 0.055678 -0.310549 -0.0876718 0.726738 0.681296 
-0.134852 0.073781 -0.310549 -0.274017 0.74311 0.610493 
-0.078991 0.091884 -0.310549 -0.286422 0.728769 0.621979 
-0.026878 0.119038 -0.310549 -0.414593 0.668349 0.617594 
0.02279 0.152092 -0.310549 -0.386138 0.708077 0.591205 
0.077346 0.173346 -0.310549 -0.32456 0.784416 0.528537 
0.130953 0.196894 -0.310549 -0.312297 0.843933 0.436174 
0.186359 0.216095 -0.310549 -0.284901 0.911438 0.296838 
0.241182 0.236706 -0.310549 -0.498707 0.840121 0.21328 
0.286568 0.280098 -0.310549 -0.810793 0.547737 0.206396 
0.31217 0.332854 -0.310549 -0.930548 0.299797 0.210242 
0.324639 0.391049 -0.310549 -0.9738 0.143586 0.176341 
0.333691 0.45066 -0.310549 -0.948517 0.315795 -0.0242648 
0.363372 0.501725 -0.310549 -0.64927 0.751445 -0.117384 
0.420281 0.517301 -0.310549 0.221072 0.941509 -0.254338 
0.471534 0.488074 -0.310549 0.374057 0.824127 -0.425319 
0.528254 0.472043 -0.310549 0.280067 0.86262 -0.421248 
0.584116 0.453941 -0.310549 0.295972 0.911667 -0.285069 
0.639978 0.435838 -0.310549 0.382789 0.915547 -0.123474 
0.693161 0.41127 -0.310549 0.31908 0.947456 0.0226902 
0.741005 0.388936 -0.310549 0.785449 0.613726 0.0800677 
0.750056 0.329325 -0.310549 0.987004 0.100987 0.125002 
0.767769 0.273302 -0.310549 0.917022 0.310997 0.249705 
0.786262 0.217602 -0.310549 0.920394 0.255514 0.295953 
0.79977 0.159838 -0.310549 0.907421 0.216524 0.360145 
0.813416 0.10213 -0.310549 0.845017 0.124069 0.520147 
0.813416 0.03877 -0.310549 0.71801 -0.103778 0.688253 
0.804365 -0.020841 -0.310549 0.674233 -0.0511008 0.736749 
0.804365 -0.084201 -0.310549 0.764672 0.049681 0.642502 
0.807269 -0.146358 -0.310549 0.7527 0.0937312 0.651658 
0.822468 -0.203422 -0.310549 0.65184 0.184695 0.735522 
0.84057 -0.259284 -0.310549 0.601468 0.195857 0.774517 
0.858472 -0.315229 -0.310549 0.597883 0.202818 0.7755 
0.877673 -0.370636 -0.310549 0.499042 0.210906 0.840521 
0.903274 -0.423391 -0.310549 0.416056 0.227667 0.880378 
0.928875 -0.476147 -0.310549 0.427588 0.190017 0.883777 
0.958239 -0.527344 -0.310549 0.452576 0.323591 0.830941 
0.977908 -0.576356 -0.310549 0.562471 -0.284664 0.776268 
0.922696 -0.596025 -0.310549 0.184797 -0.967194 0.174315 
0.750056 -0.605076 -0.238137 -0.298689 -0.264521 -0.916959 
0.741005 -0.545466 -0.238137 -0.431389 -0.292236 -0.853523 
0.696203 -0.505966 -0.238137 -0.283305 -0.355079 -0.890875 
0.655149 -0.464912 -0.238137 -0.325957 -0.246133 -0.912782 
0.623336 -0.420032 -0.238137 -0.367683 -0.303677 -0.878971 
0.585844 -0.377504 -0.238137 -0.478926 -0.432679 -0.763819 
0.538391 -0.339102 -0.238137 -0.245231 -0.819295 -0.518283 
0.477337 -0.333534 -0.238137 0.061199 -0.986584 -0.151352 
0.424205 -0.336107 -0.238137 -0.412981 -0.902056 0.125467 
0.378415 -0.297328 -0.238137 -0.381533 -0.907446 0.175992 
0.318804 -0.306379 -0.238137 0.213455 -0.939716 0.267153 
0.255444 -0.306379 -0.238137 -0.249892 -0.813502 0.525136 
0.203332 -0.279225 -0.238137 -0.238852 -0.603173 0.761007 
0.139972 -0.279225 -0.238137 0.142997 -0.503985 0.851793 
0.08411 -0.297328 -0.238137 0.0560228 -0.597808 0.799679 
0.024499 -0.288276 -0.238137 -0.0705776 -0.353569 0.932742 
-0.033136 -0.274456 -0.238137 -0.0286631 -0.0943072 0.99513 
-0.085891 -0.248854 -0.238137 -0.108941 -0.114616 0.987418 
-0.139336 -0.224916 -0.238137 -0.125963 -0.573354 0.809567 
-0.198947 -0.215865 -0.238137 -0.0151445 -0.907703 0.419339 
-0.258558 -0.224916 -0.238137 0.270678 -0.850621 0.450751 
-0.310169 -0.253279 -0.238137 0.407751 -0.486101 0.772946 
-0.360274 -0.285281 -0.238137 0.122997 -0.525296 0.841983 
-0.413029 -0.292779 -0.238137 0.0982309 -0.653543 0.750488 
-0.470756 -0.306379 -0.238137 0.178512 -0.747658 0.639641 
-0.530367 -0.315431 -0.238137 -0.00767158 -0.862385 0.506194 
-0.589978 -0.306379 -0.238137 -0.0685748 -0.898492 0.433602 
-0.653338 -0.306379 -0.238137 0.000239435 -0.963184 0.268842 
-0.716574 -0.306678 -0.238137 0.198734 -0.975891 0.0902306 
-0.772559 -0.324482 -0.238137 0.140384 -0.988148 -0.0620948 
-0.835919 -0.324482 -0.238137 -0.0825252 -0.962222 -0.259459 
-0.89553 -0.315431 -0.238137 -0.221904 -0.791649 -0.569254 
-0.942561 -0.288497 -0.238137 1.13994e-16 4.47539e-17 -1 
-0.935218 -0.235677 -0.238137 -0.201021 0.230107 -0.952177 
-0.879812 -0.216476 -0.238137 -0.321986 0.541859 -0.776347 
-0.829707 -0.184474 -0.238137 -0.525122 0.742759 -0.415397 
-0.779589 -0.152505 -0.238137 -0.470757 0.852774 -0.226196 
-0.727477 -0.125351 -0.238137 -0.441494 0.886611 -0.137853 
-0.675365 -0.098196 -0.238137 -0.48335 0.865127 -0.133895 
-0.623252 -0.071042 -0.238137 -0.402684 0.91502 0.024177 
-0.567391 -0.052939 -0.238137 -0.406262 0.905624 0.121638 
-0.520581 -0.025785 -0.238137 -0.297528 0.919083 0.258384 
-0.46097 -0.016734 -0.238137 -0.121099 0.917013 0.38003 
-0.400807 -0.009014 -0.238137 -0.131901 0.886713 0.443105 
-0.341748 0.001369 -0.238137 -0.183907 0.840651 0.509396 
-0.282138 0.010421 -0.238137 0.0612048 0.8673 0.494009 
-0.222527 0.001369 -0.238137 -0.0147007 0.823542 0.567065 
-0.168576 0.024085 -0.238137 -0.382953 0.750251 0.538954 
-0.114553 0.046626 -0.238137 -0.337868 0.864559 0.371998 
-0.058691 0.064729 -0.238137 -0.361023 0.904255 0.228003 
-0.005007 0.088089 -0.238137 -0.39691 0.877024 0.270724 
0.047748 0.11369 -0.238137 -0.475626 0.802262 0.360771 
0.097646 0.146192 -0.238137 -0.431422 0.796935 0.422813 
0.150608 0.171293 -0.238137 -0.353389 0.847054 0.397007 
0.205619 0.191449 -0.238137 -0.384342 0.834405 0.39503 
0.253469 0.228896 -0.238137 -0.667263 0.663059 0.339283 
0.29187 0.276349 -0.238137 -0.843008 0.50591 0.182735 
0.317472 0.329105 -0.238137 -0.888621 0.422894 0.177518 
0.342742 0.381997 -0.238137 -0.886753 0.242399 0.393589 
0.351793 0.441608 -0.238137 -0.694257 0.375251 0.614161 
0.392079 0.467072 -0.238137 -0.233619 0.621508 0.747763 
0.447486 0.486273 -0.238137 -0.265262 0.75297 0.602223 
0.505493 0.499198 -0.238137 0.234574 0.910567 0.340357 
0.551899 0.471069 -0.238137 0.582346 0.742654 0.330664 
0.600666 0.435838 -0.238137 0.469689 0.79731 0.379063 
0.652108 0.407066 -0.238137 0.471353 0.787311 0.39745 
0.699562 0.368664 -0.238137 0.591927 0.632479 0.499593 
0.734214 0.32496 -0.238137 0.863395 0.244839 0.441137 
0.741005 0.271911 -0.238137 0.896852 0.122765 0.424953 
0.754513 0.214146 -0.238137 0.838792 0.228377 0.494239 
0.768159 0.156439 -0.238137 0.825993 0.0615147 0.560313 
0.761506 0.103333 -0.238137 0.763414 -0.253448 0.594107 
0.735904 0.050577 -0.238137 0.792888 -0.333757 0.509839 
0.722902 -0.007397 -0.238137 0.898769 -0.0142961 0.438189 
0.735501 -0.065538 -0.238137 0.71837 0.314147 0.62069 
0.759108 -0.11912 -0.238137 0.75102 0.0680748 0.656761 
0.750056 -0.178731 -0.238137 0.708226 -0.0888425 0.700373 
0.7558 -0.239712 -0.238137 0.67661 0.110164 0.728054 
0.768159 -0.297952 -0.238137 0.651379 0.186749 0.735412 
0.786262 -0.353814 -0.238137 0.676143 0.226341 0.701142 
0.804365 -0.409675 -0.238137 0.742666 0.286558 0.605253 
0.832604 -0.461338 -0.238137 0.643484 0.591518 0.485834 
0.877667 -0.505511 -0.238137 0.794749 0.499004 0.345499 
0.885828 -0.553212 -0.238137 0.981631 -0.096933 0.164329 
0.844072 -0.596025 -0.238137 0.0068262 -0.700196 -0.713918 
0.784461 -0.605076 -0.238137 -1.20663e-17 1.21869e-16 -1 
0.867725 -0.614128 -0.165726 0.415779 -0.475629 0.775181 
0.81762 -0.582126 -0.165726 -0.348299 -0.234019 0.907702 
0.767249 -0.550768 -0.165726 -0.0769496 -0.464319 0.882319 
0.704156 -0.551411 -0.165726 0.0330585 -0.868531 0.49453 
0.648749 -0.549026 -0.165726 -0.315434 -0.932972 0.173392 
0.595994 -0.523425 -0.165726 -0.564128 -0.816138 -0.125211 
0.54854 -0.485023 -0.165726 -0.602745 -0.70192 -0.379482 
0.503738 -0.440221 -0.165726 -0.4952 -0.478838 -0.724907 
0.458936 -0.395419 -0.165726 -0.340796 -0.447533 -0.826784 
0.408831 -0.363417 -0.165726 -0.248662 -0.549581 -0.797576 
0.3541 -0.342585 -0.165726 -0.269893 -0.576055 -0.771569 
0.30332 -0.312214 -0.165726 -0.535045 -0.66894 -0.515991 
0.258518 -0.267412 -0.165726 -0.560341 -0.793662 -0.236892 
0.205762 -0.241811 -0.165726 -0.324895 -0.913997 -0.243008 
0.1494 -0.224916 -0.165726 -0.286995 -0.929657 -0.231023 
0.093538 -0.206814 -0.165726 -0.214104 -0.960103 -0.179894 
0.03424 -0.197009 -0.165726 -0.42725 -0.868035 -0.252929 
-0.014435 -0.161556 -0.165726 -0.424465 -0.821147 -0.381507 
-0.077795 -0.161556 -0.165726 0.257926 -0.91894 -0.298367 
-0.13198 -0.183707 -0.165726 0.339691 -0.940171 0.0262415 
-0.189518 -0.197762 -0.165726 0.0670137 -0.979393 0.190522 
-0.252878 -0.197762 -0.165726 -0.0373743 -0.951011 0.306889 
-0.316238 -0.197762 -0.165726 0.088218 -0.858386 0.505362 
-0.375849 -0.206814 -0.165726 0.154978 -0.807502 0.569141 
-0.43546 -0.215865 -0.165726 0.0633554 -0.767555 0.637844 
-0.496234 -0.222109 -0.165726 0.17606 -0.695798 0.696325 
-0.55164 -0.24131 -0.165726 0.191222 -0.68834 0.69973 
-0.609698 -0.254111 -0.165726 0.174173 -0.731593 0.659118 
-0.666405 -0.270174 -0.165726 0.116651 -0.764263 0.634267 
-0.729765 -0.270174 -0.165726 -0.000255197 -0.706711 0.707503 
-0.793125 -0.270174 -0.165726 -0.0308894 -0.58884 0.807659 
-0.852735 -0.261122 -0.165726 -0.101074 -0.500385 0.859883 
-0.910591 -0.247834 -0.165726 -0.0958596 -0.395126 0.913612 
-0.942561 -0.203019 -0.165726 -0.606547 0.341251 0.718086 
-0.902573 -0.166826 -0.165726 -0.505878 0.831285 0.230331 
-0.848895 -0.143454 -0.165726 -0.354428 0.908341 -0.222031 
-0.793033 -0.125351 -0.165726 -0.270734 0.881299 -0.387319 
-0.736353 -0.109223 -0.165726 -0.348155 0.875274 -0.335684 
-0.683598 -0.083622 -0.165726 -0.395894 0.901688 -0.17386 
-0.629198 -0.061991 -0.165726 -0.360204 0.932749 -0.0152634 
-0.573336 -0.043888 -0.165726 -0.0631754 0.986321 0.15225 
-0.513725 -0.052939 -0.165726 0.0564953 0.917747 0.393126 
-0.454115 -0.043888 -0.165726 -0.169124 0.874006 0.455534 
-0.394504 -0.034836 -0.165726 -0.0399327 0.873418 0.48533 
-0.331144 -0.034836 -0.165726 -0.10263 0.816375 0.568331 
-0.271891 -0.024921 -0.165726 0.0594381 0.819546 0.569923 
-0.221787 -0.040548 -0.165726 0.234493 0.840379 0.488648 
-0.161078 -0.040828 -0.165726 -0.410987 0.849699 0.330305 
-0.118881 -0.000248 -0.165726 -0.703111 0.650655 0.286852 
-0.077438 0.037575 -0.165726 -0.455842 0.810544 0.367731 
-0.023565 0.060479 -0.165726 -0.320153 0.820088 0.474297 
0.030536 0.082832 -0.165726 -0.458129 0.814669 0.355573 
0.082649 0.109986 -0.165726 -0.419207 0.90505 0.0717626 
0.137353 0.130883 -0.165726 -0.460845 0.886318 0.0454182 
0.187457 0.162885 -0.165726 -0.301688 0.928683 0.215714 
0.246484 0.173346 -0.165726 -0.376771 0.893629 0.243866 
0.286568 0.216738 -0.165726 -0.832674 0.477181 0.280985 
0.31217 0.269494 -0.165726 -0.844273 0.427935 0.322607 
0.337771 0.32225 -0.165726 -0.78406 0.44385 0.433875 
0.37347 0.363426 -0.165726 -0.356497 0.721687 0.593362 
0.433133 0.372354 -0.165726 -0.341253 0.696118 0.631638 
0.474186 0.413407 -0.165726 -0.346211 0.515189 0.784039 
0.532004 0.408683 -0.165726 0.0975164 0.737949 0.667774 
0.584999 0.401764 -0.165726 0.25999 0.792717 0.551367 
0.637755 0.376162 -0.165726 0.419521 0.727313 0.543156 
0.677645 0.345232 -0.165726 0.659699 0.399355 0.636641 
0.686696 0.285621 -0.165726 0.727919 0.160229 0.666678 
0.704799 0.237258 -0.165726 0.752147 0.0664685 0.655634 
0.695748 0.177647 -0.165726 0.781504 -0.0155793 0.623706 
0.704799 0.118037 -0.165726 0.823226 0.0917905 0.560244 
0.704799 0.054677 -0.165726 0.889647 -0.029709 0.455681 
0.704799 -0.008683 -0.165726 0.948273 -0.106052 0.299218 
0.686696 -0.064545 -0.165726 0.873469 -0.281947 0.396937 
0.67209 -0.121855 -0.165726 0.774083 -0.127337 0.620145 
0.668593 -0.183766 -0.165726 0.683009 -0.0293015 0.729822 
0.668593 -0.247126 -0.165726 0.629104 0.020942 0.777039 
0.677645 -0.306737 -0.165726 0.52949 0.226143 0.817618 
0.709899 -0.356737 -0.165726 0.587179 0.373994 0.717878 
0.741901 -0.406841 -0.165726 0.660783 0.480688 0.576458 
0.780303 -0.454295 -0.165726 0.66311 0.493479 0.562817 
0.818705 -0.501748 -0.165726 0.432256 0.518903 0.737492 
0.866158 -0.54015 -0.165726 0.619227 0.435045 0.653677 
0.876776 -0.599112 -0.165726 0.647221 -0.201312 0.735241 
0.541873 -0.469305 -0.093314 -0.0690813 -0.819848 0.568399 
0.482263 -0.460254 -0.093314 -0.161141 -0.926289 0.340621 
0.422652 -0.451202 -0.093314 -0.215563 -0.964467 0.152763 
0.3677 -0.430903 -0.093314 -0.53898 -0.842299 0.00576379 
0.322898 -0.386101 -0.093314 -0.688975 -0.706212 -0.16303 
0.275444 -0.347699 -0.093314 -0.597682 -0.749262 -0.285277 
0.227991 -0.309297 -0.093314 -0.518171 -0.738916 -0.430699 
0.177087 -0.279225 -0.093314 -0.445814 -0.829512 -0.336392 
0.12248 -0.258094 -0.093314 -0.418914 -0.907407 -0.0335059 
0.069724 -0.232493 -0.093314 -0.384464 -0.922745 -0.0270077 
0.014318 -0.213292 -0.093314 -0.305504 -0.951821 0.0265238 
-0.04261 -0.197762 -0.093314 -0.20098 -0.978763 -0.0403865 
-0.102221 -0.188711 -0.093314 -0.107471 -0.988468 0.106684 
-0.161831 -0.179659 -0.093314 -0.0613173 -0.952026 0.299811 
-0.225191 -0.179659 -0.093314 -0.0635225 -0.953938 0.293201 
-0.284802 -0.170608 -0.093314 -0.0999652 -0.979216 0.176472 
-0.348162 -0.170608 -0.093314 0.125832 -0.989469 0.0715318 
-0.407773 -0.179659 -0.093314 0.0641261 -0.985639 0.156216 
-0.471133 -0.179659 -0.093314 0.0588498 -0.981849 0.180305 
-0.530744 -0.188711 -0.093314 0.170083 -0.935522 0.309629 
-0.590354 -0.197762 -0.093314 0.0428906 -0.849995 0.525043 
-0.653714 -0.197762 -0.093314 0.00733931 -0.716282 0.697772 
-0.717074 -0.197762 -0.093314 -0.0527668 -0.662143 0.747517 
-0.776685 -0.188711 -0.093314 -0.158356 -0.601563 0.782972 
-0.821253 -0.156144 -0.093314 -0.564956 -0.125221 0.815564 
-0.800279 -0.109789 -0.093314 -0.670797 0.690066 0.271735 
-0.749219 -0.080094 -0.093314 -0.352492 0.87584 -0.329626 
-0.689608 -0.071042 -0.093314 -0.0490932 0.938787 -0.340983 
-0.626248 -0.071042 -0.093314 -0.0466344 0.997502 -0.0530521 
-0.562888 -0.071042 -0.093314 0.128406 0.980253 0.150383 
-0.503277 -0.080094 -0.093314 0.0907845 0.987171 0.131347 
-0.439917 -0.080094 -0.093314 -0.0534031 0.973566 0.222075 
-0.376557 -0.080094 -0.093314 0.0152328 0.978565 0.205373 
-0.313197 -0.080094 -0.093314 0.0172844 0.985167 0.170727 
-0.249837 -0.080094 -0.093314 -0.272068 0.95915 0.07753 
-0.197725 -0.052939 -0.093314 -0.403423 0.912661 -0.0655705 
-0.145736 -0.025486 -0.093314 -0.636548 0.769557 -0.0508729 
-0.104683 0.015567 -0.093314 -0.435878 0.881091 -0.183547 
-0.050439 0.001369 -0.093314 0.220735 0.972738 -0.0711139 
0.00613 0.017763 -0.093314 -0.581495 0.813445 0.0131074 
0.050932 0.062565 -0.093314 -0.875746 0.471706 -0.102776 
0.071199 0.117531 -0.093314 -0.76499 0.629148 -0.137707 
0.116502 0.146192 -0.093314 -0.266806 0.951555 -0.152831 
0.179862 0.146192 -0.093314 -0.0380871 0.997572 0.0583082 
0.237906 0.159025 -0.093314 -0.413488 0.900227 0.136453 
0.28536 0.197427 -0.093314 -0.795767 0.602721 0.0590159 
0.317361 0.247532 -0.093314 -0.790182 0.597197 0.137728 
0.362164 0.292334 -0.093314 -0.650359 0.658578 0.378561 
0.407324 0.336272 -0.093314 -0.427827 0.788399 0.442031 
0.463185 0.354375 -0.093314 -0.225991 0.836614 0.499005 
0.522796 0.363426 -0.093314 0.0120404 0.747618 0.66402 
0.578658 0.345323 -0.093314 0.451912 0.404014 0.795329 
0.596182 0.299488 -0.093314 0.543275 0.258549 0.798752 
0.628593 0.249553 -0.093314 0.634226 0.276624 0.721967 
0.641439 0.191514 -0.093314 0.7542 0.187259 0.629378 
0.659542 0.135652 -0.093314 0.797487 0.140124 0.586838 
0.657391 0.080682 -0.093314 0.810965 -0.129064 0.570682 
0.650491 0.02018 -0.093314 0.831354 0.167718 0.529831 
0.668593 -0.035682 -0.093314 0.837259 -0.114746 0.534631 
0.645046 -0.076487 -0.093314 0.695749 -0.466913 0.545825 
0.614285 -0.127105 -0.093314 0.676961 -0.379549 0.630608 
0.587443 -0.179347 -0.093314 0.617386 -0.243378 0.748065 
0.578079 -0.238829 -0.093314 0.618447 0.011615 0.785741 
0.587131 -0.298439 -0.093314 0.766184 0.208396 0.607892 
0.607117 -0.35352 -0.093314 0.789281 0.515496 0.333617 
0.645519 -0.400974 -0.093314 0.653601 0.460764 0.600419 
0.690322 -0.445776 -0.093314 0.322231 0.288867 0.901512 
0.701868 -0.469305 -0.093314 0.291547 -0.0671017 0.9542 
0.638508 -0.469305 -0.093314 -0.0459068 -0.441806 0.895935 
0.575148 -0.469305 -0.093314 0.0109366 -0.723649 0.690082 
0.451359 -0.396894 -0.020903 -0.146652 -0.84266 0.51809 
0.393301 -0.384093 -0.020903 -0.104789 -0.889783 0.44419 
0.332138 -0.378791 -0.020903 -0.202134 -0.955316 0.215668 
0.277186 -0.358492 -0.020903 -0.453497 -0.870635 -0.190617 
0.227913 -0.324482 -0.020903 -0.499326 -0.825058 -0.264486 
0.176977 -0.294488 -0.020903 -0.778606 -0.585152 -0.226649 
0.157776 -0.239082 -0.020903 -0.835466 -0.543897 0.0785647 
0.107782 -0.206814 -0.020903 -0.462016 -0.792089 0.39892 
0.057567 -0.175078 -0.020903 -0.450885 -0.646171 0.615765 
0.007306 -0.143454 -0.020903 -0.272801 -0.586477 0.762643 
-0.052304 -0.134402 -0.020903 -0.0112204 -0.590302 0.807105 
-0.115664 -0.134402 -0.020903 0.0788818 -0.727981 0.681044 
-0.175275 -0.143454 -0.020903 0.137325 -0.884813 0.44525 
-0.234886 -0.152505 -0.020903 0.112308 -0.919331 0.377117 
-0.294497 -0.161556 -0.020903 0.142597 -0.946645 0.289015 
-0.354108 -0.170608 -0.020903 0.0794342 -0.961572 0.262812 
-0.417468 -0.170608 -0.020903 -0.00926018 -0.939688 0.341906 
-0.480828 -0.170608 -0.020903 -0.0334661 -0.921904 0.38597 
-0.540438 -0.161556 -0.020903 -0.216461 -0.805636 0.551448 
-0.594324 -0.138684 -0.020903 -0.315387 -0.648641 0.692673 
-0.648412 -0.116299 -0.020903 -0.198288 -0.667876 0.717372 
-0.705138 -0.100282 -0.020903 -0.248761 -0.620455 0.743743 
-0.742442 -0.062978 -0.020903 -0.87807 -0.173363 0.446026 
-0.707067 -0.025785 -0.020903 -0.118876 0.773975 -0.621958 
-0.643707 -0.025785 -0.020903 0.158872 0.754174 -0.637166 
-0.588347 -0.045096 -0.020903 0.293895 0.797812 -0.526424 
-0.531984 -0.061991 -0.020903 0.182591 0.876253 -0.445917 
-0.472231 -0.070698 -0.020903 0.070364 0.929506 -0.362032 
-0.409014 -0.071042 -0.020903 -0.0164911 0.957208 -0.288931 
-0.345654 -0.071042 -0.020903 -0.0581588 0.946288 -0.318051 
-0.286043 -0.061991 -0.020903 -0.108518 0.955858 -0.273054 
-0.226432 -0.052939 -0.020903 -0.153494 0.988068 -0.0127058 
-0.166821 -0.043888 -0.020903 -0.299841 0.941034 0.156688 
-0.118881 -0.00726 -0.020903 -0.886333 0.462649 -0.0192325 
-0.092981 0.045372 -0.020903 -0.522688 0.831604 -0.187702 
-0.033889 0.055678 -0.020903 -0.199954 0.881155 -0.428468 
0.018223 0.082832 -0.020903 -0.462585 0.864469 -0.196744 
0.070335 0.109986 -0.020903 -0.614846 0.772581 0.158376 
0.120693 0.141377 -0.020903 -0.233858 0.931571 0.278361 
0.178309 0.137141 -0.020903 0.0938726 0.961707 0.257502 
0.23792 0.146192 -0.020903 -0.499897 0.854203 0.142967 
0.279382 0.189299 -0.020903 -0.813836 0.576597 -0.0721511 
0.316263 0.237382 -0.020903 -0.635151 0.766676 0.0937585 
0.368655 0.263861 -0.020903 -0.28122 0.854855 0.436049 
0.428266 0.272912 -0.020903 -0.00922678 0.728495 0.684989 
0.476083 0.266291 -0.020903 0.198654 0.57703 0.792195 
0.527189 0.236706 -0.020903 0.34037 0.498913 0.797016 
0.569028 0.204581 -0.020903 0.523409 0.301664 0.796895 
0.578079 0.14497 -0.020903 0.638514 0.138924 0.756967 
0.598144 0.089921 -0.020903 0.683603 0.268396 0.678713 
0.617345 0.034515 -0.020903 0.77664 0.11211 0.619888 
0.610126 -0.020892 -0.020903 0.681686 -0.259787 0.68397 
0.578125 -0.070996 -0.020903 0.597038 -0.423197 0.681505 
0.541873 -0.119341 -0.020903 0.587564 -0.476513 0.653991 
0.49952 -0.161556 -0.020903 0.510015 -0.555567 0.65668 
0.460411 -0.207015 -0.020903 0.588503 -0.214962 0.779394 
0.473354 -0.265014 -0.020903 0.595014 0.444887 0.669354 
0.518156 -0.309816 -0.020903 0.602481 0.597973 0.528626 
0.564194 -0.351636 -0.020903 0.414964 0.541375 0.731244 
0.613063 -0.38662 -0.020903 0.62921 0.155844 0.761451 
0.574505 -0.396894 -0.020903 -0.0958691 -0.492089 0.86525 
0.511145 -0.396894 -0.020903 0.10325 -0.752003 0.651022 
0.252228 -0.369739 0.051508 -0.365868 -0.929602 0.0444915 
0.202123 -0.337738 0.051508 -0.568781 -0.821345 -0.0433656 
0.151752 -0.306379 0.051508 -0.479724 -0.860516 -0.171399 
0.115547 -0.280135 0.051508 -0.793298 -0.512147 -0.329216 
0.110966 -0.219426 0.051508 -0.875806 -0.130241 -0.464759 
0.085364 -0.16667 0.051508 -0.654106 -0.719834 -0.232345 
0.03537 -0.134402 0.051508 -0.576403 -0.762834 -0.292992 
-0.012993 -0.098196 0.051508 -0.357686 -0.889806 -0.283383 
-0.070251 -0.094824 0.051508 0.147555 -0.942625 -0.299474 
-0.124716 -0.116299 0.051508 0.392622 -0.869343 -0.300151 
-0.180577 -0.134402 0.051508 0.0933767 -0.974436 -0.204343 
-0.243937 -0.134402 0.051508 0.00325324 -0.997768 -0.0666897 
-0.307297 -0.134402 0.051508 -0.00650403 -0.998577 0.0529382 
-0.370657 -0.134402 0.051508 -0.0322338 -0.97694 0.211067 
-0.431853 -0.129178 0.051508 -0.14821 -0.949297 0.277252 
-0.489879 -0.116299 0.051508 -0.251164 -0.870754 0.422734 
-0.545318 -0.097176 0.051508 -0.390062 -0.791604 0.470334 
-0.598074 -0.071575 0.051508 -0.303781 -0.829359 0.468915 
-0.653714 -0.052939 0.051508 -0.346794 -0.799908 0.489777 
-0.705827 -0.025785 0.051508 -0.376878 -0.823995 0.42308 
-0.761642 -0.007572 0.051508 -0.377153 -0.889447 0.258147 
-0.811747 0.02443 0.051508 -0.716614 -0.690815 0.0961231 
-0.842995 0.074846 0.051508 -0.912131 -0.330652 -0.242253 
-0.852046 0.134457 0.051508 -0.768731 0.0661439 -0.636142 
-0.819291 0.178947 0.051508 -0.119588 0.309005 -0.943512 
-0.76111 0.173346 0.051508 0.112307 0.277127 -0.954247 
-0.711129 0.141046 0.051508 0.26881 0.275497 -0.922953 
-0.672727 0.093593 0.051508 0.417234 0.304928 -0.856116 
-0.641823 0.053638 0.051508 0.460416 0.424024 -0.779885 
-0.59437 0.015236 0.051508 0.39387 0.656193 -0.643644 
-0.541614 -0.010366 0.051508 0.376388 0.774327 -0.508675 
-0.488391 -0.034836 0.051508 0.385577 0.883262 -0.266793 
-0.432529 -0.052939 0.051508 0.16146 0.986197 -0.0366867 
-0.369169 -0.052939 0.051508 -0.0418992 0.998963 0.0177955 
-0.305809 -0.052939 0.051508 0.0571022 0.990973 0.121294 
-0.246198 -0.061991 0.051508 0.168288 0.968476 0.183668 
-0.185314 -0.067969 0.051508 -0.259279 0.954411 0.147897 
-0.140512 -0.029314 0.051508 -0.843415 0.537134 0.0117376 
-0.109829 0.021337 0.051508 -0.756521 0.653381 0.0277217 
-0.066456 0.046626 0.051508 -0.338375 0.930099 0.142892 
-0.010595 0.064729 0.051508 -0.282519 0.955424 0.085717 
0.04756 0.077296 0.051508 -0.332135 0.93999 0.0781384 
0.101128 0.100935 0.051508 -0.314055 0.91866 0.239652 
0.160739 0.109986 0.051508 -0.0343182 0.935946 0.350468 
0.22035 0.119038 0.051508 -0.439531 0.859708 0.260221 
0.260135 0.163151 0.051508 -0.884233 0.403084 0.235913 
0.283067 0.209552 0.051508 -0.626766 0.721045 0.295395 
0.346427 0.209552 0.051508 0.0293844 0.842959 0.537175 
0.406037 0.218604 0.051508 0.0576854 0.746996 0.662322 
0.45815 0.191449 0.051508 0.472386 0.540758 0.696012 
0.496616 0.145347 0.051508 0.588669 0.386586 0.709943 
0.523771 0.093235 0.051508 0.68099 0.248273 0.688922 
0.532822 0.033624 0.051508 0.665385 -0.0562946 0.744375 
0.514719 -0.022238 0.051508 0.600757 -0.283679 0.747407 
0.491626 -0.076032 0.051508 0.616806 -0.22279 0.754927 
0.466025 -0.128788 0.051508 0.386076 -0.510845 0.768103 
0.407967 -0.141588 0.051508 0.221029 -0.519847 0.82517 
0.366914 -0.182641 0.051508 0.507728 -0.230261 0.830176 
0.369896 -0.239738 0.051508 0.642034 0.398523 0.654959 
0.41503 -0.279101 0.051508 0.501985 0.64121 0.580397 
0.465134 -0.311103 0.051508 0.390307 0.624527 0.676481 
0.511705 -0.351636 0.051508 0.586694 -0.0352059 0.809043 
0.461444 -0.368706 0.051508 0.0120036 -0.775922 0.630715 
0.398512 -0.369739 0.051508 0.0109416 -0.936519 0.350447 
0.335152 -0.369739 0.051508 0.0646084 -0.974472 0.21501 
0.270331 -0.315431 0.12392 -0.00627968 -0.551709 0.834013 
0.21072 -0.306379 0.12392 -0.210934 -0.762696 0.611393 
0.154858 -0.288276 0.12392 -0.328194 -0.887461 0.323575 
0.102746 -0.261122 0.12392 -0.530036 -0.842448 -0.0966546 
0.050634 -0.233968 0.12392 -0.291948 -0.67635 -0.676252 
-0.004052 -0.213025 0.12392 -0.204498 -0.545215 -0.81297 
-0.061089 -0.197762 0.12392 -0.135751 -0.557241 -0.819179 
-0.117516 -0.181024 0.12392 -0.192817 -0.671218 -0.715743 
-0.176562 -0.170608 0.12392 -0.139687 -0.86193 -0.487406 
-0.236173 -0.161556 0.12392 -0.145319 -0.953891 -0.26263 
-0.295783 -0.152505 0.12392 -0.260844 -0.965143 0.0214283 
-0.351645 -0.134402 0.12392 -0.231045 -0.952535 0.198232 
-0.411256 -0.125351 0.12392 -0.239369 -0.916681 0.319998 
-0.465863 -0.10422 0.12392 -0.369213 -0.848671 0.378734 
-0.519229 -0.080094 0.12392 -0.395386 -0.82055 0.412755 
-0.571374 -0.053017 0.12392 -0.361851 -0.84887 0.385336 
-0.626781 -0.033816 0.12392 -0.336519 -0.847943 0.409571 
-0.679316 -0.007682 0.12392 -0.419414 -0.745669 0.517754 
-0.729641 0.023787 0.12392 -0.404949 -0.618885 0.673051 
-0.777094 0.062189 0.12392 -0.409666 -0.446168 0.795681 
-0.818147 0.103242 0.12392 -0.512004 -0.398388 0.761012 
-0.852046 0.15256 0.12392 -0.692466 -0.392827 0.605126 
-0.87575 0.206102 0.12392 -0.900888 -0.22808 0.369297 
-0.876251 0.266811 0.12392 -0.979426 0.178935 0.0933081 
-0.861098 0.323894 0.12392 -0.964536 0.25639 -0.0627165 
-0.837849 0.377624 0.12392 -0.601967 0.693214 -0.396346 
-0.783605 0.399632 0.12392 -0.190668 0.788118 -0.585248 
-0.723994 0.408683 0.12392 -0.00435362 0.737463 -0.675374 
-0.663675 0.401341 0.12392 0.207647 0.709377 -0.673548 
-0.612271 0.372478 0.12392 0.494652 0.451992 -0.742309 
-0.585319 0.322984 0.12392 0.609944 0.237808 -0.755921 
-0.571452 0.265368 0.12392 0.668869 0.0540772 -0.741411 
-0.571452 0.202008 0.12392 0.682204 0.0556821 -0.729038 
-0.562401 0.142397 0.12392 0.69216 0.0486415 -0.720103 
-0.562401 0.079037 0.12392 0.696988 0.225129 -0.680826 
-0.527716 0.030044 0.12392 0.736815 0.515503 -0.437447 
-0.495714 -0.02006 0.12392 0.731437 0.643017 -0.227001 
-0.445973 -0.052939 0.12392 0.424103 0.904563 -0.0436233 
-0.390111 -0.071042 0.12392 0.0600494 0.990938 0.12015 
-0.326751 -0.071042 0.12392 0.0180631 0.996971 0.0756536 
-0.263483 -0.070821 0.12392 -0.0736316 0.99228 -0.0997948 
-0.203781 -0.061991 0.12392 -0.169266 0.913161 -0.37079 
-0.150018 -0.03882 0.12392 -0.679441 0.642419 -0.354481 
-0.122961 0.010421 0.12392 -0.739473 0.667031 -0.0908283 
-0.070849 0.037575 0.12392 -0.288513 0.93503 0.206105 
-0.014987 0.055678 0.12392 -0.313705 0.903572 0.2918 
0.040874 0.073781 0.12392 -0.228803 0.920343 0.317205 
0.100485 0.082832 0.12392 0.0113693 0.854185 0.519844 
0.16057 0.074925 0.12392 0.0561141 0.718907 0.692838 
0.219707 0.082832 0.12392 -0.216536 0.613283 0.759603 
0.271819 0.109986 0.12392 -0.323765 0.516011 0.793038 
0.323931 0.137141 0.12392 -0.184472 0.433114 0.88226 
0.383542 0.146192 0.12392 0.16423 0.429857 0.887835 
0.416849 0.099239 0.12392 0.338011 0.227613 0.913204 
0.451359 0.050174 0.12392 0.385345 0.057961 0.92095 
0.415466 0.001681 0.12392 0.290067 -0.272119 0.917503 
0.378162 -0.035622 0.12392 0.256314 -0.342976 0.903698 
0.325724 -0.061991 0.12392 0.188426 -0.413556 0.890768 
0.275302 -0.093225 0.12392 0.378104 -0.300282 0.87571 
0.261279 -0.150777 0.12392 0.770541 0.101191 0.629307 
0.279258 -0.20669 0.12392 0.705642 0.338224 0.622635 
0.31766 -0.254143 0.12392 0.458888 0.417054 0.78453 
0.356062 -0.301597 0.12392 0.403106 -0.0194171 0.914947 
0.344204 -0.315431 0.12392 0.164571 -0.379014 0.91064 
0.134559 -0.270174 0.196331 -0.131586 -0.981869 0.13645 
0.074948 -0.261122 0.196331 -0.0667624 -0.980586 0.184375 
0.011588 -0.261122 0.196331 -0.161183 -0.976977 0.13977 
-0.044273 -0.243019 0.196331 -0.324331 -0.931834 0.162769 
-0.100135 -0.224916 0.196331 -0.368158 -0.924819 0.0957618 
-0.152247 -0.197762 0.196331 -0.476375 -0.867793 0.141427 
-0.204359 -0.170608 0.196331 -0.410499 -0.885436 0.217932 
-0.256472 -0.143454 0.196331 -0.454606 -0.87898 0.14397 
-0.308694 -0.116566 0.196331 -0.374201 -0.924645 -0.0707499 
-0.366752 -0.103765 0.196331 -0.299464 -0.952419 0.0567408 
-0.419508 -0.078164 0.196331 -0.389568 -0.920993 -0.00302183 
-0.476169 -0.061991 0.196331 -0.385802 -0.898456 0.209605 
-0.528281 -0.034836 0.196331 -0.377933 -0.870271 0.315903 
-0.583077 -0.014161 0.196331 -0.390479 -0.826164 0.406176 
-0.63053 0.024241 0.196331 -0.635207 -0.667814 0.38799 
-0.671583 0.065294 0.196331 -0.653298 -0.701866 0.283879 
-0.716385 0.110097 0.196331 -0.735156 -0.62653 0.258854 
-0.754787 0.15755 0.196331 -0.732965 -0.468383 0.493335 
-0.786789 0.207655 0.196331 -0.63929 -0.438835 0.631452 
-0.824892 0.255232 0.196331 -0.62225 -0.203898 0.755798 
-0.824892 0.311093 0.196331 -0.688819 0.0581908 0.722594 
-0.817095 0.371224 0.196331 -0.710615 0.242798 0.660361 
-0.783605 0.417735 0.196331 -0.500256 0.715058 0.488299 
-0.727743 0.435838 0.196331 0.0553983 0.93132 0.359963 
-0.671629 0.418346 0.196331 0.314864 0.832699 0.455492 
-0.616222 0.399145 0.196331 0.335433 0.821425 0.461244 
-0.566118 0.367143 0.196331 0.674281 0.668139 0.314539 
-0.534116 0.317039 0.196331 0.880768 0.465754 -0.0855625 
-0.517144 0.260709 0.196331 0.816944 0.161505 -0.553641 
-0.508092 0.201098 0.196331 0.6626 0.187347 -0.725164 
-0.490665 0.145517 0.196331 0.545667 0.0299003 -0.837469 
-0.499918 0.092761 0.196331 0.597368 -0.037831 -0.801074 
-0.474317 0.040005 0.196331 0.376815 0.417977 -0.826623 
-0.419462 0.019472 0.196331 -0.0540589 0.430143 -0.901141 
-0.372321 0.028855 0.196331 0.116567 0.441533 -0.889641 
-0.325101 -0.009644 0.196331 0.244961 0.408453 -0.879295 
-0.264678 -0.016734 0.196331 -0.132524 0.567468 -0.812661 
-0.208986 0.001778 0.196331 -0.175908 0.719095 -0.672279 
-0.149206 0.010421 0.196331 -0.0912685 0.953182 -0.288296 
-0.085846 0.010421 0.196331 -0.015713 0.985437 0.169314 
-0.022486 0.010421 0.196331 0.0397721 0.849738 0.525702 
0.037125 0.001369 0.196331 0.220017 0.597319 0.771235 
0.086605 -0.03214 0.196331 0.386114 0.489039 0.782149 
0.134059 -0.070542 0.196331 0.456227 0.555171 0.695444 
0.181512 -0.108944 0.196331 0.457219 0.634216 0.623475 
0.228965 -0.147345 0.196331 0.724331 0.539253 0.429593 
0.252228 -0.20107 0.196331 0.948621 0.261739 0.177794 
0.248791 -0.255508 0.196331 0.783395 -0.592329 0.188252 
0.191505 -0.270174 0.196331 0.0139483 -0.994904 0.0998523 
0.197919 -0.288276 0.268743 -0.0614241 -0.89513 -0.441553 
0.142512 -0.269075 0.268743 -0.442054 -0.864829 -0.238034 
0.089757 -0.243474 0.268743 -0.300677 -0.951612 -0.0634652 
0.031699 -0.230673 0.268743 -0.194408 -0.96419 0.180396 
-0.025527 -0.215865 0.268743 -0.309297 -0.917947 0.248413 
-0.081389 -0.197762 0.268743 -0.258081 -0.948517 0.183603 
-0.13725 -0.179659 0.268743 -0.410142 -0.897594 0.161585 
-0.189928 -0.15387 0.268743 -0.32667 -0.933495 0.147897 
-0.248973 -0.143454 0.268743 -0.147428 -0.977609 0.150151 
-0.308694 -0.134669 0.268743 -0.329541 -0.942116 0.0617991 
-0.360696 -0.107248 0.268743 -0.467075 -0.862616 0.194254 
-0.412809 -0.080094 0.268743 -0.455566 -0.864337 0.213029 
-0.46431 -0.051464 0.268743 -0.529211 -0.770551 0.355228 
-0.511763 -0.013062 0.268743 -0.51587 -0.693191 0.503354 
-0.561868 0.018939 0.268743 -0.36004 -0.723569 0.588914 
-0.614623 0.044541 0.268743 -0.357021 -0.781574 0.511544 
-0.667379 0.070142 0.268743 -0.514156 -0.78964 0.33483 
-0.712181 0.114944 0.268743 -0.830422 -0.400212 0.387596 
-0.725326 0.172859 0.268743 -0.803222 -0.235597 0.54711 
-0.752481 0.224972 0.268743 -0.746635 -0.29703 0.595239 
-0.74688 0.278513 0.268743 -0.546637 0.495983 0.674677 
-0.692447 0.300066 0.268743 -0.289826 0.898348 0.330108 
-0.632837 0.309118 0.268743 -0.0233984 0.981315 0.190983 
-0.573226 0.300066 0.268743 0.303209 0.876903 0.372968 
-0.517364 0.281963 0.268743 0.388211 0.795482 0.465296 
-0.465252 0.254809 0.268743 0.562908 0.780181 0.272858 
-0.419742 0.211716 0.268743 0.747017 0.644807 0.161831 
-0.390424 0.1605 0.268743 0.899602 0.38882 -0.198833 
-0.368539 0.106205 0.268743 0.642375 0.525879 -0.557499 
-0.318435 0.074203 0.268743 0.3474 0.741964 -0.573412 
-0.263028 0.055002 0.268743 0.247246 0.851905 -0.461658 
-0.206887 0.037575 0.268743 0.33665 0.924481 -0.178889 
-0.152215 0.0166 0.268743 0.316042 0.938037 0.142139 
-0.095164 0.001369 0.268743 0.292519 0.865361 0.40692 
-0.044052 -0.028202 0.268743 0.496927 0.528655 0.688177 
-0.00565 -0.075655 0.268743 0.326381 0.42902 0.842269 
0.052122 -0.089145 0.268743 0.161693 0.629034 0.760376 
0.105163 -0.114057 0.268743 0.398771 0.642233 0.654613 
0.155267 -0.146059 0.268743 0.381793 0.822095 0.422367 
0.208023 -0.17166 0.268743 0.449382 0.887924 0.0982203 
0.255476 -0.210062 0.268743 0.862099 0.461289 -0.209758 
0.261279 -0.26352 0.268743 0.820336 -0.433912 -0.372517 
0.170765 -0.315431 0.341154 -0.265629 -0.95746 -0.112744 
0.118653 -0.288276 0.341154 -0.338568 -0.907334 -0.249233 
0.059042 -0.279225 0.341154 -0.284341 -0.916328 -0.281946 
0.006929 -0.252071 0.341154 -0.421151 -0.821583 -0.384231 
-0.048932 -0.233968 0.341154 -0.137936 -0.891262 -0.432002 
-0.108543 -0.224916 0.341154 -0.315356 -0.863555 -0.393476 
-0.159024 -0.193825 0.341154 -0.460497 -0.755175 -0.466533 
-0.209018 -0.161556 0.341154 -0.456021 -0.711153 -0.535076 
-0.259233 -0.129821 0.341154 -0.369325 -0.892668 -0.258345 
-0.313243 -0.107248 0.341154 -0.454816 -0.878308 -0.147371 
-0.364744 -0.078619 0.341154 -0.415708 -0.891115 -0.181939 
-0.417468 -0.052939 0.341154 -0.58072 -0.79168 -0.189756 
-0.458553 -0.011964 0.341154 -0.695784 -0.693581 -0.186627 
-0.506006 0.026438 0.341154 -0.60761 -0.76697 -0.206317 
-0.553505 0.064729 0.341154 -0.501926 -0.839174 -0.209421 
-0.606215 0.090441 0.341154 -0.45984 -0.887474 -0.0306081 
-0.652915 0.129155 0.341154 -0.813615 -0.498463 0.299276 
-0.671018 0.185017 0.341154 -0.89731 -0.246387 0.366235 
-0.692071 0.239656 0.341154 -0.838233 -0.302223 0.453901 
-0.707224 0.29674 0.341154 -0.957423 0.166558 0.235797 
-0.674923 0.341418 0.341154 -0.324696 0.94575 -0.0113635 
-0.616865 0.336428 0.341154 0.293235 0.954414 -0.055736 
-0.571452 0.302483 0.341154 0.892242 0.450459 0.0314784 
-0.565663 0.24902 0.341154 0.909728 0.411677 0.0540157 
-0.518209 0.210618 0.341154 0.50597 0.860884 0.0536001 
-0.470288 0.173346 0.341154 0.617723 0.738628 0.269901 
-0.418175 0.146192 0.341154 0.305822 0.917376 0.254745 
-0.359943 0.133814 0.341154 0.15687 0.973457 -0.166655 
-0.301885 0.121013 0.341154 0.517656 0.816402 -0.25597 
-0.263483 0.07356 0.341154 0.761693 0.647773 -0.0146181 
-0.21603 0.035158 0.341154 0.587348 0.700975 0.404545 
-0.174976 -0.005895 0.341154 0.584223 0.541573 0.604469 
-0.136575 -0.053348 0.341154 0.577299 0.451743 0.680187 
-0.098173 -0.100802 0.341154 0.595404 0.647521 0.475617 
-0.04873 -0.134402 0.341154 0.41837 0.906863 0.0506531 
0.007131 -0.152505 0.341154 0.159234 0.98539 -0.0604292 
0.066742 -0.161556 0.341154 0.227549 0.973705 0.0109249 
0.126353 -0.170608 0.341154 -0.0705345 0.996513 0.0445801 
0.185964 -0.161556 0.341154 0.0698819 0.996336 0.0493104 
0.242221 -0.178704 0.341154 0.540732 0.830992 0.13062 
0.279382 -0.226671 0.341154 0.966301 0.252142 -0.0518263 
0.265341 -0.284215 0.341154 0.772657 -0.628491 -0.0894465 
0.21491 -0.315431 0.341154 0.235021 -0.970758 -0.0489217 
0.170765 -0.297328 0.413566 -0.174305 -0.911943 0.371454 
0.114903 -0.279225 0.413566 -0.230008 -0.939216 0.254892 
0.055293 -0.270174 0.413566 -0.244405 -0.946876 0.209027 
-0.000569 -0.252071 0.413566 -0.278215 -0.942328 0.18605 
-0.058815 -0.239725 0.413566 -0.235103 -0.946312 0.221856 
-0.114222 -0.220524 0.413566 -0.334261 -0.906457 0.258081 
-0.171903 -0.206814 0.413566 -0.055159 -0.992775 0.106561 
-0.235263 -0.206814 0.413566 -0.188601 -0.980199 -0.0603274 
-0.291124 -0.188711 0.413566 -0.349536 -0.920855 -0.172774 
-0.346453 -0.169321 0.413566 -0.33518 -0.922739 -0.190283 
-0.399098 -0.143454 0.413566 -0.542984 -0.80769 -0.229795 
-0.446662 -0.105318 0.413566 -0.576634 -0.765904 -0.284403 
-0.496766 -0.073316 0.413566 -0.601726 -0.756299 -0.256784 
-0.541569 -0.028514 0.413566 -0.691036 -0.668818 -0.274139 
-0.583499 0.010421 0.413566 -0.618859 -0.759222 -0.201482 
-0.623675 0.053592 0.413566 -0.870221 -0.488767 -0.0618291 
-0.643864 0.108589 0.413566 -0.927368 -0.34362 0.148032 
-0.661966 0.164451 0.413566 -0.949569 -0.207505 0.235075 
-0.661856 0.227765 0.413566 -0.917311 0.164655 0.362531 
-0.627801 0.272912 0.413566 -0.506408 0.772747 0.38264 
-0.56819 0.281963 0.413566 0.264984 0.952801 -0.148168 
-0.512329 0.263861 0.413566 0.464616 0.757238 -0.459045 
-0.471886 0.219734 0.413566 0.702314 0.459605 -0.543615 
-0.434284 0.171949 0.413566 0.437553 0.714225 -0.546287 
-0.377844 0.155244 0.413566 0.262533 0.911008 -0.318028 
-0.32347 0.133548 0.413566 0.486147 0.86094 0.149812 
-0.281806 0.09805 0.413566 0.822837 0.411785 0.391628 
-0.266966 0.040837 0.413566 0.857673 0.288803 0.425428 
-0.241364 -0.011919 0.413566 0.764477 0.564131 0.311979 
-0.196562 -0.056721 0.413566 0.603098 0.794823 0.0673061 
-0.146458 -0.088722 0.413566 0.452773 0.873001 -0.181291 
-0.090771 -0.107248 0.413566 0.150591 0.911778 -0.382077 
-0.027411 -0.107248 0.413566 0.101603 0.83077 -0.547265 
0.030367 -0.120724 0.413566 0.210021 0.821956 -0.529414 
0.088061 -0.134402 0.413566 0.246268 0.819515 -0.517443 
0.143923 -0.152505 0.413566 0.230527 0.895015 -0.381844 
0.199238 -0.171927 0.413566 0.514618 0.857418 0.00179742 
0.242942 -0.206579 0.413566 0.530381 0.838856 0.12254 
0.290396 -0.244981 0.413566 0.905609 0.26748 -0.329131 
0.278803 -0.279225 0.413566 0.629695 -0.748438 -0.208148 
0.222942 -0.297328 0.413566 0.105795 -0.962901 0.248252 
0.279382 -0.288276 0.485977 -0.162618 -0.986439 0.0222361 
0.219771 -0.279225 0.485977 -0.234234 -0.92063 0.312368 
0.16391 -0.261122 0.485977 -0.127493 -0.860013 0.494088 
0.10055 -0.261122 0.485977 -0.108266 -0.847378 0.519836 
0.044688 -0.243019 0.485977 -0.301096 -0.739359 0.602237 
-0.008256 -0.217873 0.485977 -0.367609 -0.636545 0.677993 
-0.05836 -0.185871 0.485977 -0.220256 -0.628223 0.746206 
-0.119147 -0.179659 0.485977 -0.144955 -0.699118 0.700159 
-0.171825 -0.15387 0.485977 -0.290236 -0.566938 0.770937 
-0.22458 -0.128268 0.485977 -0.249354 -0.522709 0.815229 
-0.275484 -0.098196 0.485977 -0.348269 -0.548987 0.759817 
-0.32744 -0.070665 0.485977 -0.228262 -0.703278 0.673273 
-0.383458 -0.052939 0.485977 -0.260614 -0.683338 0.682004 
-0.435603 -0.025863 0.485977 -0.451363 -0.644673 0.616984 
-0.483056 0.012539 0.485977 -0.52425 -0.650764 0.549243 
-0.530509 0.050941 0.485977 -0.535067 -0.522913 0.663525 
-0.562511 0.101045 0.485977 -0.66226 -0.28024 0.694893 
-0.581712 0.156452 0.485977 -0.670093 -0.20903 0.712238 
-0.607313 0.209208 0.485977 -0.576906 -0.342742 0.741423 
-0.625007 0.264614 0.485977 -0.741866 0.360848 0.565176 
-0.577885 0.291015 0.485977 -0.0303447 0.937634 0.346298 
-0.520594 0.276363 0.485977 0.309703 0.936606 0.163867 
-0.467838 0.250761 0.485977 0.508143 0.854991 -0.103832 
-0.417734 0.21876 0.485977 0.569963 0.771412 -0.282959 
-0.37403 0.184107 0.485977 0.556474 0.774209 -0.301558 
-0.344556 0.155854 0.485977 0.860206 0.459724 -0.220681 
-0.339377 0.095146 0.485977 0.977895 0.18848 0.0905313 
-0.307375 0.045041 0.485977 0.6855 0.725735 0.0583001 
-0.257271 0.013039 0.485977 0.443221 0.825138 -0.35029 
-0.202494 -0.007682 0.485977 0.212701 0.719794 -0.660798 
-0.142883 -0.016734 0.485977 0.022051 0.656148 -0.75431 
-0.079523 -0.016734 0.485977 0.151084 0.705092 -0.692833 
-0.027411 -0.043888 0.485977 0.376562 0.646736 -0.663275 
0.025065 -0.070165 0.485977 0.312847 0.755732 -0.575323 
0.080563 -0.089145 0.485977 0.252235 0.835974 -0.487365 
0.136424 -0.107248 0.485977 0.371143 0.832017 -0.412311 
0.182233 -0.136819 0.485977 0.604284 0.717959 -0.345509 
0.227036 -0.181621 0.485977 0.662654 0.672756 -0.329074 
0.27714 -0.213623 0.485977 0.243449 0.935734 -0.255215 
0.329896 -0.239224 0.485977 0.937329 -1.1479e-16 -0.348446 
0.315652 -0.288276 0.485977 0.456725 -0.86379 -0.212767 
0.234125 -0.224916 0.558388 0.0706678 -0.343603 0.936453 
0.178263 -0.206814 0.558388 -0.209239 -0.72709 0.65388 
0.122402 -0.188711 0.558388 -0.251742 -0.857994 0.447742 
0.06654 -0.170608 0.558388 -0.311171 -0.842326 0.440069 
0.010679 -0.152505 0.558388 -0.282451 -0.898849 0.335101 
-0.04556 -0.135312 0.558388 -0.234089 -0.930035 0.283261 
-0.104794 -0.125351 0.558388 -0.220797 -0.893438 0.391173 
-0.160655 -0.107248 0.558388 -0.296211 -0.877252 0.377742 
-0.216517 -0.089145 0.558388 -0.384136 -0.829495 0.405435 
-0.268629 -0.061991 0.558388 -0.355885 -0.863051 0.358454 
-0.325244 -0.045707 0.558388 -0.253166 -0.904592 0.342958 
-0.380352 -0.025785 0.558388 -0.358994 -0.866345 0.34723 
-0.433406 -0.000905 0.558388 -0.487064 -0.79524 0.361057 
-0.48086 0.037497 0.558388 -0.642776 -0.663905 0.38219 
-0.519262 0.08495 0.558388 -0.783429 -0.426825 0.451728 
-0.535246 0.141689 0.558388 -0.820746 -0.0431726 0.569659 
-0.526195 0.2013 0.558388 -0.631643 0.19278 0.750908 
-0.490977 0.24477 0.558388 -0.224332 0.756186 0.614702 
-0.432919 0.233945 0.558388 0.301483 0.952613 -0.0404533 
-0.377513 0.214744 0.558388 0.0643983 0.749516 -0.658846 
-0.333808 0.216297 0.558388 0.12291 0.420765 -0.898805 
-0.295406 0.168844 0.558388 0.383136 0.246573 -0.890173 
-0.247953 0.130442 0.558388 0.137259 0.254066 -0.957398 
-0.197849 0.09844 0.558388 0.137958 0.275275 -0.951415 
-0.145093 0.072839 0.558388 0.263054 0.372763 -0.88986 
-0.09634 0.037575 0.558388 0.364474 0.660928 -0.655998 
-0.042233 0.015236 0.558388 0.369051 0.81438 -0.44787 
0.010523 -0.010366 0.558388 0.428266 0.760617 -0.487903 
0.060627 -0.042367 0.558388 0.51448 0.774923 -0.367158 
0.110732 -0.074369 0.558388 0.556618 0.829948 -0.0369153 
0.160836 -0.10637 0.558388 0.516862 0.850758 0.0952082 
0.208836 -0.143454 0.558388 0.777685 0.610989 0.147986 
0.234125 -0.192129 0.558388 0.575778 0.267178 0.77272 
0.107405 -0.170608 0.6308 -0.417531 -0.8069 0.417829 
0.0573 -0.138606 0.6308 -0.173955 -0.78691 0.592041 
0.001894 -0.137508 0.6308 -0.101195 -0.903813 0.41579 
-0.053513 -0.118307 0.6308 -0.297451 -0.922035 0.247739 
-0.10892 -0.099106 0.6308 -0.369778 -0.870566 0.32462 
-0.161675 -0.073505 0.6308 -0.395163 -0.822692 0.408685 
-0.214431 -0.047904 0.6308 -0.411656 -0.807707 0.422076 
-0.267186 -0.022302 0.6308 -0.318075 -0.815193 0.484034 
-0.322593 -0.003101 0.6308 -0.311395 -0.733358 0.604334 
-0.372698 0.0289 0.6308 -0.42007 -0.500333 0.757105 
-0.408526 0.07742 0.6308 -0.446508 -0.161329 0.880116 
-0.408526 0.14078 0.6308 -0.42362 0.0973184 0.900597 
-0.399475 0.20039 0.6308 -0.569776 6.97774e-17 0.8218 
-0.404855 0.25848 0.6308 -0.793894 0.147071 0.590002 
-0.381372 0.312113 0.6308 -0.796496 0.439792 0.414943 
-0.347252 0.36134 0.6308 -0.614254 0.694225 0.375158 
-0.303548 0.385168 0.6308 -0.248543 0.92257 0.295112 
-0.245445 0.390581 0.6308 -0.0936661 0.987468 0.127016 
-0.187433 0.403492 0.6308 -0.337535 0.905842 -0.255971 
-0.126724 0.407475 0.6308 0.589455 0.557445 -0.584634 
-0.127932 0.351113 0.6308 0.869187 -0.133612 -0.476089 
-0.118881 0.291502 0.6308 0.790571 0.438533 -0.427418 
-0.091727 0.23939 0.6308 0.907911 0.269712 -0.320863 
-0.080823 0.180546 0.6308 0.911471 0.269436 -0.310846 
-0.055521 0.127667 0.6308 0.850888 0.34125 -0.399421 
-0.046469 0.068056 0.6308 0.716119 0.343515 -0.607594 
0.002316 0.037575 0.6308 0.143141 0.776769 -0.613303 
0.053096 0.027191 0.6308 0.459122 0.610477 -0.645387 
0.07964 -0.025174 0.6308 0.853155 0.31535 -0.415548 
0.105241 -0.07793 0.6308 0.826342 0.563005 -0.0136008 
0.152694 -0.116332 0.6308 0.451926 0.882383 0.131003 
0.184696 -0.166436 0.6308 0.671362 -0.646649 0.362102 
0.170765 -0.152505 0.703211 -0.450591 -0.832429 -0.322536 
0.12066 -0.120503 0.703211 -0.613666 -0.781392 -0.113319 
0.070289 -0.089145 0.703211 -0.23478 -0.971841 -0.0200632 
0.006929 -0.089145 0.703211 0.173781 -0.955929 0.236642 
-0.052681 -0.098196 0.703211 -0.152295 -0.959133 0.238475 
-0.104794 -0.071042 0.703211 -0.523986 -0.825081 0.211379 
-0.156906 -0.043888 0.703211 -0.414132 -0.859934 0.298341 
-0.209129 -0.017 0.703211 -0.481618 -0.784891 0.389859 
-0.257381 0.019472 0.703211 -0.58878 -0.595305 0.546764 
-0.291235 0.065106 0.703211 -0.618805 -0.381945 0.686439 
-0.308961 0.121124 0.703211 -0.713783 0.111317 0.691464 
-0.28347 0.164295 0.703211 -0.696775 0.57258 0.432039 
-0.244581 0.210572 0.703211 -0.802475 0.579055 0.143981 
-0.218446 0.263107 0.703211 -0.914868 0.347332 0.205856 
-0.199778 0.318734 0.703211 -0.86051 0.328908 0.389027 
-0.180577 0.374141 0.703211 -0.85005 0.238569 0.469574 
-0.158725 0.423147 0.703211 -0.492706 0.788444 0.368234 
-0.109829 0.41383 0.703211 0.76718 0.640311 0.0379003 
-0.109829 0.35047 0.703211 0.949018 -0.0938129 -0.300937 
-0.100778 0.290859 0.703211 0.901956 0.270166 -0.336878 
-0.087867 0.232847 0.703211 0.950212 0.187175 -0.249122 
-0.073624 0.175387 0.703211 0.911951 0.338486 -0.231889 
-0.043065 0.124685 0.703211 0.638994 0.676912 -0.365346 
0.009691 0.099083 0.703211 0.237067 0.797852 -0.554284 
0.06632 0.082832 0.703211 0.443488 0.749853 -0.490957 
0.098652 0.046328 0.703211 0.708736 0.461517 -0.533569 
0.125508 -0.005908 0.703211 0.795634 0.309541 -0.520721 
0.152662 -0.058021 0.703211 0.748515 0.452755 -0.484498 
0.188257 -0.106637 0.703211 0.54885 0.648618 -0.527313 
0.236367 -0.143454 0.703211 0.62799 0.459437 -0.628129 
0.197919 -0.179659 0.775623 -0.373895 -0.846263 0.379529 
0.147815 -0.147658 0.775623 -0.504434 -0.844673 0.179094 
0.095059 -0.122056 0.775623 -0.442187 -0.884024 -0.151565 
0.042304 -0.096455 0.775623 -0.273686 -0.948569 -0.159097 
-0.018029 -0.089145 0.775623 -0.0609663 -0.99315 0.0996826 
-0.076463 -0.077254 0.775623 -0.41669 -0.873903 0.250324 
-0.123917 -0.038852 0.775623 -0.615734 -0.71407 0.333128 
-0.167621 -0.004199 0.775623 -0.548558 -0.695682 0.4638 
-0.212423 0.040603 0.775623 -0.68048 -0.40958 0.607611 
-0.236549 0.093969 0.775623 -0.674381 -0.388792 0.627735 
-0.263626 0.146114 0.775623 -0.857374 -0.0935294 0.506125 
-0.250981 0.204172 0.775623 -0.89069 0.396804 0.221853 
-0.22538 0.256927 0.775623 -0.898132 0.428147 0.100247 
-0.199778 0.309683 0.775623 -0.874487 0.465896 0.134958 
-0.167777 0.359787 0.775623 -0.746669 0.610504 0.26414 
-0.122474 0.390581 0.775623 -0.336259 0.887459 0.315191 
-0.062863 0.381529 0.775623 0.775951 0.545056 -0.317512 
-0.055521 0.325512 0.775623 0.782667 0.154631 -0.602927 
-0.028711 0.273257 0.775623 0.769749 0.299972 -0.563474 
-0.019315 0.213788 0.775623 0.752173 0.180923 -0.633643 
0.009691 0.162443 0.775623 0.645235 0.588779 -0.486838 
0.053096 0.122365 0.775623 0.691434 0.696056 -0.193455 
0.091797 0.080337 0.775623 0.480119 0.873385 -0.0817597 
0.143611 0.059648 0.775623 0.825155 0.545967 -0.14505 
0.143611 -0.003712 0.775623 0.993605 0.0306796 -0.108667 
0.160004 -0.060282 0.775623 0.888455 0.456915 0.0433137 
0.198406 -0.107735 0.775623 0.539592 0.761298 0.359535 
0.248511 -0.139737 0.775623 0.737744 0.481322 0.473354 
0.252195 -0.17064 0.775623 0.727736 -0.306558 0.613533 
0.080251 -0.107248 0.848034 -0.305866 -0.835616 0.45628 
0.031888 -0.071042 0.848034 -0.471564 -0.626464 0.620621 
-0.020225 -0.043888 0.848034 -0.248999 -0.603942 0.757135 
-0.072714 -0.017643 0.848034 -0.355585 -0.516691 0.778839 
-0.117516 0.027159 0.848034 -0.484694 -0.284264 0.827203 
-0.127932 0.086205 0.848034 -0.385364 -4.71935e-17 0.922765 
-0.13085 0.143275 0.848034 -0.214003 0.0107383 0.976774 
-0.109829 0.197928 0.848034 -0.176864 0.046452 0.983138 
-0.109829 0.261288 0.848034 -0.199651 -2.44502e-17 0.979867 
-0.100778 0.320898 0.848034 -0.288239 0.126613 0.949151 
-0.055521 0.341041 0.848034 0.518658 0.271789 0.810632 
-0.046469 0.281431 0.848034 0.446624 0.0669732 0.892211 
-0.028367 0.225569 0.848034 0.540401 0.157751 0.826488 
-0.014091 0.168122 0.848034 0.483728 0.236349 0.842702 
0.024311 0.120669 0.848034 0.48606 0.52135 0.701384 
