0.42868325 0.63917625 0.61131442 -0.00027071 0.00006064 0.00008009
0.52206087 0.73571694 0.63430279 0.00021070 0.00004647 0.00026375
0.42255837 0.48054734 0.42896977 -0.00019123 0.00000704 0.00013116
0.41927746 0.65789872 0.54494584 -0.00019253 -0.00000370 -0.00004137
0.57519555 0.74485725 0.53465277 0.00020821 -0.00000236 0.00004211
0.57522911 0.28254747 0.51070803 0.00021257 -0.00000453 -0.00004234
0.42480248 0.24352339 0.51111907 -0.00020890 -0.00001500 -0.00004023
0.53300941 0.50708687 0.38626805 0.00000443 0.00016874 -0.00015449
0.57860589 0.10645039 0.41326851 0.00022441 -0.00001516 -0.00006711
0.56107920 0.04729813 0.46577749 -0.00014325 -0.00009052 -0.00001581
0.57288057 0.62549585 0.53863221 0.00012353 -0.00005896 0.00001780
0.47263160 0.68986750 0.42351276 -0.00007324 0.00014377 -0.00017787
0.55840486 0.53080744 0.39468402 -0.00008395 0.00001519 -0.00007684
0.47250703 0.29916188 0.61495942 -0.00011766 0.00000297 0.00026650
0.46174824 0.04547177 0.35879135 -0.00008163 -0.00016433 -0.00024030
0.51660484 0.17846566 0.37692454 -0.00000465 0.00013391 0.00000206
0.57711774 0.27773055 0.42110574 0.00023325 0.00003155 0.00015227
0.46257037 0.04758078 0.61769128 0.00007379 -0.00010112 -0.00009160
0.53818280 0.05654774 0.64149320 0.00007482 0.00002709 0.00019660
0.42272031 0.18703973 0.46016335 -0.00017562 0.00007134 -0.00004727
0.52749878 0.33212435 0.61494696 0.00011642 0.00000884 0.00026405
0.57646233 0.69659698 0.47512773 0.00017416 0.00010552 -0.00004089
0.53815693 0.06211685 0.64147979 0.00006262 0.00008744 0.00018959
0.57246560 0.43257356 0.39080709 0.00014079 0.00003892 -0.00014000
0.57730460 0.22483252 0.42671123 0.00021433 0.00002247 0.00014624
0.44303343 0.82084531 0.53646475 -0.00002409 -0.00000318 -0.00004065
0.50000000 0.51940084 0.38408527 0.00000002 0.00017548 -0.00007237
0.51375228 0.91511601 0.44359875 0.00004619 0.00006904 -0.00018575
0.52752459 0.67092174 0.40442139 0.00002576 0.00012406 -0.00021529
0.50000000 0.04545548 0.64559823 -0.00000000 -0.00013410 0.00017272
0.42292634 0.33786786 0.42053270 -0.00023311 0.00002167 0.00013739
0.52689981 0.19500917 0.61506677 0.00009359 -0.00011491 0.00020383
0.57481521 0.63007993 0.51694310 0.00014077 -0.00000914 -0.00002234
0.47250032 0.25479290 0.61491531 -0.00010198 -0.00001320 0.00026622
0.47255301 0.21668774 0.61493158 -0.00011392 -0.00006020 0.00024814
0.42424384 0.61111122 0.40292847 -0.00025698 -0.00008404 -0.00001465
0.48883301 0.53539622 0.38638878 0.00000640 0.00001101 0.00001278
0.52214617 0.64786822 0.64337230 0.00004301 -0.00002094 0.00028917
0.54020649 0.84352136 0.58684838 0.00013998 0.00014033 0.00011485
0.56723094 0.60660571 0.57199609 0.00012768 -0.00002499 -0.00005250
0.58030379 0.65716088 0.55601317 0.00020079 -0.00000218 -0.00003174
0.53269798 0.49116045 0.38456723 0.00003204 0.00014092 -0.00018473
0.52205706 0.67555761 0.64120477 0.00012855 0.00003423 0.00026822
0.53685182 0.04790274 0.38638687 -0.00012621 -0.00009931 0.00012273
0.50000000 0.80499554 0.61904430 0.00000000 0.00010759 0.00027144
0.53258973 0.17328365 0.61363322 0.00005920 0.00003856 0.00010753
0.46293449 0.13444069 0.63831484 -0.00006139 0.00012202 0.00026040
0.47248593 0.37660447 0.61497092 -0.00011618 0.00002416 0.00026026
0.54817498 0.56752986 0.60569924 0.00009281 -0.00001781 0.00001273
0.51639211 0.05981907 0.61154431 -0.00005716 0.00005438 -0.00017762
0.55963808 0.04743801 0.55388975 -0.00012802 -0.00008262 -0.00000897
0.50000000 0.47616637 0.61786473 0.00000000 0.00004198 0.00026582
0.50000000 0.16013029 0.35814553 -0.00000033 0.00013726 -0.00015533
0.42292634 0.30457577 0.42047331 -0.00023583 0.00002239 0.00014544
0.50000000 0.40997034 0.61786473 0.00000000 0.00002814 0.00028686
0.41955343 0.09015794 0.57219166 -0.00019052 0.00006940 0.00001006
0.47277915 0.20581301 0.61498910 -0.00010653 -0.00011621 0.00022982
0.51673031 0.06394607 0.48623914 0.00010650 -0.00009805 -0.00001203
0.47792667 0.70264238 0.63891083 -0.00017561 0.00003847 0.00026147
0.47777048 0.62574881 0.64385235 0.00004495 0.00009858 0.00029339
0.52719116 0.76205236 0.48712263 0.00001152 0.00001567 -0.00006240
0.43665078 0.57917404 0.58402932 -0.00013065 0.00008024 0.00004766
0.43135568 0.55790365 0.38196474 -0.00009565 0.00000637 -0.00012625
0.47791612 0.72474825 0.63626331 -0.00020154 0.00003222 0.00026567
0.43379435 0.19333710 0.57508057 -0.00020107 -0.00005890 0.00006410
0.47163314 0.54812706 0.61469108 -0.00004854 0.00003771 0.00006992
0.58103871 0.04546123 0.43388730 0.00016624 -0.00011849 -0.00003252
0.57519466 0.63049388 0.51131839 0.00014500 -0.00000465 -0.00003312
0.50000000 0.06237748 0.55763161 0.00000000 -0.00012467 -0.00001749
0.56109738 0.04726746 0.45474178 -0.00014382 -0.00009195 -0.00000613
0.42376187 0.68752378 0.46131033 -0.00018107 0.00009801 -0.00008939
0.53345591 0.26995274 0.37798721 0.00001424 0.00000726 -0.00024899
0.42476228 0.41499615 0.51093608 -0.00020648 0.00004135 -0.00004984
0.52747476 0.70113128 0.43493366 0.00006916 0.00014998 -0.00015699
0.52750260 0.34317252 0.61494410 0.00011678 0.00000978 0.00026296
0.57899487 0.68706381 0.51770484 0.00019900 -0.00000247 0.00005487
0.42530459 0.60708672 0.51917189 -0.00015391 0.00008329 0.00001262
0.56638384 0.18225156 0.57461298 0.00016048 0.00002349 0.00005955
0.41958600 0.10205220 0.57264775 -0.00022617 -0.00012548 -0.00000531
0.56193775 0.04547945 0.62802655 0.00020354 -0.00015102 0.00018541
0.52742112 0.71254164 0.44644177 0.00006953 0.00014187 -0.00013689
0.51104718 0.78154624 0.47943777 0.00001695 -0.00000810 -0.00006098
0.44618881 0.05776082 0.49778846 0.00012354 0.00003455 0.00000563
0.43895143 0.04734508 0.48231047 0.00011680 -0.00008814 -0.00000206
0.54489219 0.15567942 0.36052573 0.00009108 0.00013257 -0.00021375
0.41689533 0.04545548 0.48885316 -0.00017810 -0.00011179 0.00001109
0.50000000 0.06190509 0.43144289 0.00000000 -0.00012573 -0.00014426
0.41828859 0.04545837 0.55518335 -0.00017494 -0.00011035 0.00001457
0.51669395 0.06217721 0.44195831 0.00017526 -0.00010241 -0.00001480
0.56992543 0.64713895 0.39582717 0.00016099 0.00009749 -0.00015127
0.52204365 0.68635851 0.64026290 0.00014791 0.00005946 0.00026137
0.42427358 0.67554414 0.44276512 -0.00018450 0.00008700 -0.00012023
0.43892080 0.04729813 0.46577749 0.00014326 -0.00009052 -0.00001581
0.57743877 0.70350093 0.50459558 0.00018408 0.00001973 0.00000229
0.54681718 0.06122666 0.57406777 -0.00014370 0.00006832 0.00002173
0.53178191 0.05985834 0.60813504 -0.00012230 0.00009308 -0.00018999
0.50000000 0.31067479 0.61786473 0.00000000 0.00001021 0.00029597
0.57748759 0.13797456 0.59295893 0.00028141 0.00007425 0.00002961
0.57681972 0.57246464 0.41826749 0.00017673 0.00014920 0.00000428
0.55313563 0.04547272 0.36492488 0.00016341 -0.00016588 -0.00025883
0.50000000 0.11201376 0.35440180 0.00000001 -0.00011184 -0.00026945
0.56442338 0.59691244 0.37544602 0.00025382 0.00004086 -0.00012565
0.42529693 0.52279001 0.51893425 -0.00018990 0.00002820 0.00000818
0.42173624 0.04545932 0.58765423 -0.00018114 -0.00011428 0.00004240
0.45768350 0.04776286 0.61495554 0.00006982 -0.00009747 -0.00007984
0.48947692 0.06008448 0.38969463 0.00002280 0.00002915 0.00012690
0.41731119 0.04545453 0.52203405 -0.00017464 -0.00011032 -0.00001353
0.57226437 0.62362063 0.54382378 0.00012011 -0.00007212 0.00002157
0.46639365 0.14479318 0.35740292 -0.00005217 0.00006612 -0.00023254
0.50000000 0.06024548 0.39303783 -0.00000000 -0.00000666 0.00007990
0.42622256 0.66117966 0.41934073 -0.00016580 0.00008044 -0.00014703
0.42375901 0.13702402 0.59830284 -0.00029597 0.00007489 0.00004331
0.52749878 0.25479290 0.61491531 0.00010198 -0.00001320 0.00026621
0.42428985 0.73690706 0.52725440 -0.00020250 -0.00001387 0.00000088
0.50000000 0.61431736 0.64525133 0.00000000 0.00014790 0.00026832
0.42153022 0.10098764 0.41269073 -0.00021452 0.00001778 -0.00006755
0.56555212 0.56929779 0.57757103 0.00013644 0.00014197 0.00011166
0.52790791 0.58223748 0.35628471 0.00000777 -0.00000998 -0.00022580
0.56696361 0.55877280 0.57284796 0.00014799 0.00014870 0.00012533
0.48343828 0.06295336 0.54103827 -0.00014957 -0.00010147 -0.00006439
0.56239390 0.13208349 0.62801600 0.00028730 0.00007244 0.00022186
0.50000000 0.13355434 0.64251655 0.00000000 0.00013091 0.00024017
0.56680071 0.40869689 0.57317859 0.00027008 0.00001963 0.00009068
0.53535604 0.53644645 0.38655263 -0.00014158 -0.00007579 -0.00000728
0.50000000 0.89599109 0.55572093 -0.00000000 0.00026333 0.00019255
0.57173258 0.28231177 0.38795739 0.00014543 0.00001420 -0.00015736
0.42548189 0.04546602 0.60419202 -0.00021706 -0.00013422 0.00008912
0.42285159 0.41497603 0.42193076 -0.00022158 0.00001327 0.00014288
0.58207840 0.16309883 0.45021328 0.00021398 0.00003580 -0.00005926
0.41795707 0.14564312 0.54924339 -0.00021375 0.00006992 0.00000153
0.56923074 0.64229232 0.61542416 0.00026599 0.00010023 0.00012337
0.46645400 0.11765952 0.35748723 -0.00007445 -0.00017641 -0.00027083
0.57475579 0.49408591 0.51817149 0.00019708 0.00006867 -0.00002290
0.54071343 0.60879523 0.36014724 0.00006583 0.00006741 -0.00024851
0.42542249 0.75376773 0.54118770 -0.00021070 -0.00000136 0.00007579
0.53968525 0.61538768 0.36024404 0.00005539 0.00006556 -0.00024424
0.58026546 0.62917441 0.44355181 0.00021562 -0.00012253 0.00000858
0.50000000 0.06071977 0.40401030 0.00000000 -0.00008037 -0.00003889
0.42806521 0.41039097 0.38864827 -0.00014259 0.00003203 -0.00014850
0.42308444 0.56666845 0.41974986 -0.00016580 0.00013710 0.00000370
0.56857342 0.81278294 0.53356707 0.00014822 0.00004375 -0.00006044
0.41956684 0.09623201 0.57240528 -0.00020977 -0.00003746 0.00000368
0.42066303 0.68275088 0.51921791 -0.00020019 -0.00001738 0.00005401
0.50000000 0.82762951 0.47074008 -0.00000000 -0.00010180 -0.00013463
0.53870118 0.58333552 0.35857961 0.00006008 0.00000165 -0.00022536
0.52786094 0.50990695 0.61484444 0.00008088 0.00012643 0.00021887
0.56228560 0.58945751 0.37191311 0.00021974 0.00005398 -0.00015613
0.42815912 0.62418699 0.61146677 -0.00026862 -0.00004775 0.00001261
0.57717139 0.42038512 0.42243859 0.00021969 0.00001241 0.00014135
0.53361595 0.12302647 0.35743073 0.00007427 -0.00016465 -0.00027383
0.50000000 0.65522051 0.38571039 -0.00000000 0.00018228 -0.00013758
0.43383744 0.19887652 0.57512563 -0.00021598 -0.00008383 0.00006596
0.57156968 0.17914601 0.54734808 0.00015417 0.00003791 0.00000688
0.46647987 0.25898796 0.37877101 -0.00001860 0.00001978 -0.00024364
0.57337499 0.46579090 0.39428732 0.00013043 0.00003335 -0.00012891
0.56809431 0.04548040 0.38045555 0.00025206 -0.00015193 -0.00016377
0.42386249 0.53935176 0.49493393 -0.00017794 0.00002096 -0.00002792
0.50000000 0.38790464 0.61786473 0.00000000 0.00002803 0.00028990
0.46179807 0.58942693 0.35853648 -0.00006340 0.00000466 -0.00024112
0.51635379 0.88872975 0.45104885 0.00015429 -0.00022976 -0.00016859
0.43351552 0.24324645 0.57412046 -0.00026336 0.00003606 0.00008763
0.57168180 0.37698874 0.38782707 0.00013881 0.00002240 -0.00014887
0.42291674 0.26129818 0.42241848 -0.00022928 0.00004149 0.00015484
0.45480406 0.56409854 0.36090615 -0.00004692 -0.00004577 -0.00016478
0.54869723 0.83990508 0.58056736 0.00017253 0.00012138 0.00010305
0.57487172 0.47031650 0.51654351 0.00020173 0.00006622 -0.00004132
0.50000000 0.30515835 0.61786473 0.00000000 0.00000792 0.00029604
0.46623647 0.15571199 0.35740867 -0.00004148 0.00014454 -0.00020761
0.57892305 0.65105516 0.57707655 0.00022746 0.00000969 -0.00001584
0.51837462 0.06100245 0.58547813 0.00006920 -0.00008703 0.00008566
0.57380617 0.76375514 0.54616278 0.00020695 -0.00000694 0.00010169
0.41693559 0.04545643 0.50546950 -0.00017426 -0.00011092 0.00000456
0.41888648 0.14275315 0.56570935 -0.00022840 0.00006424 0.00001041
0.52215195 0.64227223 0.64352465 0.00002046 -0.00001191 0.00029076
0.55001092 0.15591322 0.36283982 0.00011265 0.00011747 -0.00021290
0.58143926 0.04545837 0.43915075 0.00016751 -0.00012022 -0.00002628
0.42292634 0.55950105 0.42206779 -0.00015221 0.00010758 -0.00000174
0.47807229 0.80542773 0.61550945 -0.00018416 0.00007095 0.00024156
0.46059647 0.54856402 0.37676930 0.00007108 -0.00009192 -0.00005377
0.42013219 0.04545739 0.42309976 -0.00016539 -0.00011973 -0.00004051
0.43892080 0.04724828 0.44380671 0.00013063 -0.00009422 0.00000218
0.57585198 0.15112984 0.57710242 0.00020100 0.00011379 0.00002683
0.48892114 0.58176988 0.64528197 -0.00002958 -0.00006145 0.00019122
0.57606089 0.19172059 0.41073120 0.00014375 -0.00001524 -0.00002164
0.57846981 0.10098764 0.41269073 0.00021452 0.00001780 -0.00006750
0.50000000 0.04739585 0.37658823 0.00000000 -0.00012185 0.00013677
0.42927542 0.04546891 0.38562319 -0.00024484 -0.00014240 -0.00012529
0.45182499 0.56752986 0.60569924 -0.00009282 -0.00001780 0.00001273
0.57421154 0.75862491 0.54390424 0.00020995 -0.00000396 0.00008967
0.41803849 0.04545739 0.54965162 -0.00017662 -0.00011097 0.00001027
0.42477086 0.28254747 0.51070803 -0.00021257 -0.00000453 -0.00004234
0.42404839 0.61898482 0.40653229 -0.00024413 -0.00008294 -0.00001728
0.56698662 0.49957260 0.57268888 0.00023844 0.00002104 0.00007112
0.51770675 0.92161745 0.44459146 0.00007049 0.00013963 -0.00021048
0.46666959 0.10673305 0.35743549 -0.00007204 -0.00007014 -0.00026057
0.46745151 0.58540243 0.64275324 -0.00008600 -0.00007795 0.00018522
0.47784713 0.64227223 0.64352465 -0.00002047 -0.00001190 0.00029076
0.50557971 0.06160707 0.42595905 0.00007020 -0.00012479 -0.00017801
0.58280855 0.04545643 0.47225979 0.00018019 -0.00011705 0.00000303
0.47231823 0.58882326 0.35632685 -0.00001867 -0.00000106 -0.00024488
0.57532012 0.34782270 0.50944126 0.00021103 0.00001519 -0.00004561
0.45101243 0.06231808 0.54682773 0.00012589 0.00007560 -0.00003528
0.50000000 0.13974725 0.35440180 0.00000009 0.00000919 -0.00024797
0.51157612 0.84957057 0.59734750 0.00007925 0.00016018 0.00017994
0.47305703 0.56082815 0.62323451 -0.00005920 -0.00009582 0.00000203
0.53683460 0.04598346 0.63565964 0.00004221 -0.00012520 0.00010675
0.47249457 0.28812522 0.61495274 -0.00011558 -0.00000829 0.00026669
0.53820199 0.58942693 0.35853648 0.00006341 0.00000467 -0.00024112
0.44198895 0.17500843 0.59448248 -0.00012520 0.00006287 0.00010337
0.42661926 0.76904160 0.54785496 -0.00020075 -0.00000989 0.00011092
0.46646741 0.32066703 0.37590882 -0.00001860 0.00002561 -0.00026376
0.50000000 0.82035953 0.61283886 0.00000000 0.00010711 0.00020187
0.49235636 0.91963875 0.44116110 -0.00002126 0.00013142 -0.00021157
0.55555135 0.84011495 0.52556032 0.00008872 -0.00001060 -0.00004013
0.42472392 0.18810718 0.50978142 -0.00016378 0.00001799 0.00002373
0.50000000 0.92451704 0.44980320 -0.00000000 0.00011234 -0.00024747
0.57927853 0.13986129 0.58211195 0.00025294 0.00006979 0.00001884
0.53420049 0.14394037 0.63259143 0.00001270 0.00023182 0.00017030
0.50545990 0.17280456 0.61763287 0.00000910 -0.00003493 0.00013205
0.42292821 0.39332429 0.42078760 -0.00022645 0.00001714 0.00014559
0.51128680 0.15626295 0.35472280 0.00000925 0.00013510 -0.00019997
0.56664640 0.25990593 0.57360309 0.00026897 0.00003649 0.00008925
0.57164925 0.32685992 0.38774177 0.00015674 0.00002629 -0.00014986
0.42711848 0.62549585 0.53863221 -0.00012344 -0.00005906 0.00001797
0.44257060 0.04547945 0.63202035 -0.00017788 -0.00014982 0.00020158
0.42681089 0.22103994 0.39285195 -0.00013674 -0.00004242 -0.00012867
0.57322359 0.46025148 0.39370665 0.00013049 0.00003405 -0.00013197
0.46625471 0.41829431 0.37768632 -0.00001964 0.00005857 -0.00025168
0.48876786 0.92577225 0.45197734 -0.00006477 0.00012987 -0.00022311
0.50000000 0.32564205 0.37338489 0.00000005 0.00003403 -0.00023034
0.46801394 0.92935312 0.45792592 -0.00014331 0.00019486 -0.00013480
0.50000000 0.63641757 0.64497346 0.00000000 -0.00004201 0.00028106
0.42287266 0.40962249 0.42150435 -0.00022317 0.00001412 0.00014404
0.57526171 0.30011532 0.51023561 0.00021276 -0.00000649 -0.00004389
0.42625803 0.63108414 0.40219447 -0.00021542 -0.00002483 -0.00006943
0.49441940 0.06160707 0.42595905 -0.00007021 -0.00012479 -0.00017801
0.45006478 0.06306931 0.51382220 0.00012063 0.00007554 0.00002462
0.57754898 0.04594897 0.49969047 0.00008384 -0.00009806 0.00000877
0.47767273 0.04546218 0.64418101 -0.00001623 -0.00012710 0.00017958
0.57471073 0.56185436 0.51896590 0.00017946 0.00003732 0.00000561
0.52754855 0.66716653 0.40056455 0.00000242 0.00014183 -0.00020279
0.43883836 0.59504300 0.37144452 -0.00023297 0.00003694 -0.00015585
0.42922753 0.80050445 0.54528981 -0.00014319 0.00006132 0.00000566
0.46655366 0.11221499 0.35749587 -0.00007387 -0.00012823 -0.00026599
0.56537586 0.82612413 0.55668390 0.00017869 0.00007268 0.00005841
0.41711095 0.15920946 0.47223392 -0.00021177 0.00002923 -0.00003639
0.50000000 0.38114065 0.37325940 0.00000024 0.00001965 -0.00022740
0.57635123 0.63915229 0.59555948 0.00025490 -0.00000935 -0.00001128
0.52208388 0.70816839 0.63839537 0.00018290 0.00003188 0.00026308
0.57669997 0.60677147 0.41555864 0.00021759 -0.00003393 -0.00000798
0.52099538 0.82473952 0.47660050 0.00010424 -0.00008025 -0.00009279
0.42974496 0.16623795 0.57545429 -0.00015121 0.00011394 0.00004638
0.57900834 0.04545837 0.58295804 0.00017520 -0.00011165 0.00003848
0.56999063 0.17818299 0.55818063 0.00014968 0.00005403 0.00001366
0.50000000 0.81017756 0.61712688 0.00000000 0.00009485 0.00025773
0.51662970 0.06362890 0.52465284 0.00012688 -0.00010043 -0.00002432
0.57976717 0.04545837 0.57740140 0.00017127 -0.00010998 0.00003288
0.41680145 0.12042300 0.50072056 -0.00020783 -0.00012857 -0.00003293
0.50000000 0.39893749 0.61786473 0.00000000 0.00002791 0.00028843
0.53940260 0.54856402 0.37676930 -0.00007108 -0.00009192 -0.00005377
0.41919601 0.63530505 0.45913616 -0.00020654 -0.00011890 -0.00000049
0.47272933 0.73633975 0.46939859 -0.00006520 0.00005441 -0.00010844
0.42479581 0.25460699 0.51104051 -0.00021059 0.00000047 -0.00004134
0.48325720 0.04546027 0.64471668 -0.00000761 -0.00012546 0.00017135
0.55025911 0.06288917 0.48629186 -0.00012550 0.00007901 -0.00001652
0.50000000 0.94281787 0.51334500 0.00000000 0.00020361 0.00017155
0.50000000 0.71472061 0.44237611 -0.00000000 0.00012445 -0.00014841
0.52209538 0.71370012 0.63782805 0.00018958 0.00002889 0.00026491
0.57532495 0.37615508 0.50945276 0.00020929 0.00002352 -0.00004815
0.52704358 0.20041923 0.61502266 0.00010078 -0.00012091 0.00021784
0.42772600 0.17963469 0.54190928 -0.00015534 0.00003081 0.00001294
0.50000000 0.17510523 0.37312043 -0.00000170 0.00013888 -0.00000407
0.42041868 0.64970601 0.52378470 -0.00017442 -0.00001151 -0.00003191
0.47827065 0.62445718 0.35702825 -0.00000413 0.00007966 -0.00023718
0.54588103 0.04762583 0.61169863 -0.00007105 -0.00009914 -0.00008010
0.48339900 0.06342384 0.53011173 -0.00013535 -0.00010064 -0.00003830
0.46687850 0.09567915 0.35731956 -0.00006826 0.00006067 -0.00024392
0.42276341 0.04546218 0.59319079 -0.00019157 -0.00011849 0.00005181
0.43432903 0.13270919 0.62343097 -0.00030881 0.00007469 0.00018414
0.57518595 0.20469478 0.51109034 0.00018848 -0.00006719 -0.00000120
0.47251466 0.22202593 0.61491728 -0.00011370 -0.00002779 0.00025426
0.47222146 0.65286434 0.38590777 0.00007979 0.00024958 -0.00011290
0.48277137 0.84907037 0.59648699 -0.00010810 0.00016089 0.00017141
0.56618172 0.20441113 0.57507390 0.00022803 -0.00009812 0.00006825
0.46464396 0.53644645 0.38655263 0.00014158 -0.00007577 -0.00000728
0.58318710 0.15436570 0.49979016 0.00020808 0.00004238 0.00000738
0.54758000 0.62902975 0.36472943 0.00008767 0.00010593 -0.00022943
0.53306687 0.65392119 0.64108884 0.00010753 0.00002490 0.00028412
0.56679308 0.35344067 0.57318336 0.00027679 0.00001852 0.00009081
0.47201738 0.75536412 0.48570350 -0.00002241 0.00000507 -0.00006831
0.55542767 0.59754968 0.63384861 0.00021287 -0.00007780 0.00012979
0.52827299 0.51595324 0.61473614 0.00007018 0.00015945 0.00021037
0.43168533 0.16402160 0.38019300 -0.00016608 0.00005776 -0.00013469
0.46650860 0.32638082 0.37598836 -0.00001781 0.00002811 -0.00026250
0.46152306 0.65393555 0.63964099 -0.00013327 0.00005098 0.00028224
0.50000000 0.83534211 0.60575390 -0.00000000 0.00014018 0.00017644
0.56668288 0.26544628 0.57347465 0.00027045 0.00002925 0.00008956
0.42571473 0.49901208 0.39776850 -0.00010335 0.00008046 -0.00010710
0.57203829 0.41596872 0.38912639 0.00014309 0.00003463 -0.00014626
0.50000000 0.69092059 0.41970959 -0.00000000 0.00013406 -0.00017501
0.46750516 0.73545527 0.47126517 -0.00005915 0.00006623 -0.00011520
0.56836545 0.52528811 0.56716484 0.00021473 0.00000945 0.00004083
0.42258713 0.18756099 0.45444283 -0.00017814 0.00006820 -0.00003955
0.47794965 0.74114329 0.63324976 -0.00021402 0.00005585 0.00026251
0.43286681 0.54650480 0.57226056 -0.00017256 0.00009585 0.00009869
0.52204937 0.68096477 0.64074874 0.00013887 0.00004896 0.00026459
0.42472681 0.30615106 0.51007175 -0.00021269 -0.00000378 -0.00004435
0.57700664 0.37094429 0.42058063 0.00022864 0.00002201 0.00014183
0.50000000 0.51387489 0.38356975 0.00000002 0.00020712 -0.00009246
0.42000282 0.14081948 0.57667023 -0.00024281 0.00006691 0.00001638
0.42164043 0.08428985 0.41195482 -0.00016847 0.00019981 -0.00005428
0.55286545 0.80517375 0.52042329 -0.00003154 0.00002945 -0.00008196
0.46182778 0.06771375 0.64147121 -0.00005154 0.00012728 0.00018394
0.48229226 0.92161745 0.44459146 -0.00007049 0.00013963 -0.00021048
0.42827123 0.39370182 0.38792577 -0.00013863 0.00002556 -0.00015055
0.46655461 0.28639850 0.37682679 -0.00001722 0.00000065 -0.00025709
0.43902236 0.04726651 0.43819639 0.00012226 -0.00009269 -0.00000193
0.48326963 0.06394607 0.48623914 -0.00010650 -0.00009805 -0.00001203
0.42527297 0.51158476 0.51859885 -0.00019218 0.00004343 0.00000314
0.42273083 0.61047018 0.42592362 -0.00020374 -0.00003414 -0.00000463
0.50000000 0.49177179 0.38150671 -0.00000000 0.00011890 -0.00016055
0.45046529 0.06273010 0.53036094 0.00013252 0.00007161 0.00000851
0.50000000 0.21138021 0.61786473 0.00000000 -0.00009429 0.00025440
0.43301341 0.49957260 0.57268888 -0.00023844 0.00002104 0.00007113
0.43478611 0.60526901 0.61320204 -0.00022646 -0.00009483 -0.00002262
0.43890256 0.04726746 0.45474178 0.00014383 -0.00009195 -0.00000612
0.50000000 0.88194847 0.45030430 0.00000000 -0.00026285 -0.00020501
0.52729464 0.17310448 0.61493260 0.00004117 0.00002569 0.00011133
0.52147156 0.83339596 0.60273939 0.00010185 0.00012241 0.00015298
0.52141893 0.82197797 0.60855377 0.00012216 0.00008356 0.00018187
0.42467409 0.37049490 0.50943452 -0.00020967 0.00002140 -0.00004738
0.50000000 0.50926495 0.61786473 0.00000000 0.00013296 0.00023219
0.58124095 0.64521104 0.48546109 0.00019469 -0.00008561 -0.00001315
0.41989645 0.67178130 0.52071267 -0.00019391 -0.00002246 0.00001120
0.47228470 0.05988805 0.60389495 0.00009134 0.00004765 -0.00016981
0.41749614 0.16115081 0.46121931 -0.00021157 0.00003272 -0.00006149
0.48311248 0.06171727 0.43134612 -0.00014069 -0.00010538 -0.00009343
0.55337042 0.53102875 0.39312404 -0.00011404 -0.00000074 -0.00007042
0.53430587 0.45772946 0.38141760 -0.00000407 0.00004752 -0.00023506
0.43223053 0.17721328 0.56904966 -0.00014135 0.00006643 0.00003943
0.54667062 0.90104181 0.49348512 0.00033875 0.00003344 -0.00000044
0.57706118 0.38212088 0.42063525 0.00022795 0.00001978 0.00014448
0.57410896 0.18111032 0.52563405 0.00015577 0.00003119 0.00003411
0.53513283 0.93754488 0.47215632 0.00014610 0.00022073 -0.00012222
0.50000000 0.86852396 0.57476914 -0.00000000 0.00008851 0.00010319
0.47295547 0.20041923 0.61502266 -0.00010078 -0.00012091 0.00021785
0.54094815 0.56068057 0.61020482 0.00006424 -0.00002246 0.00003380
0.41948250 0.04545837 0.42859894 -0.00016535 -0.00011935 -0.00003655
0.50000000 0.06764092 0.35440180 -0.00000000 0.00013695 -0.00015635
0.50000000 0.46414182 0.37892911 -0.00000012 0.00002519 -0.00019974
0.43279108 0.52997947 0.57196736 -0.00020812 0.00002015 0.00006335
0.50000000 0.04594034 0.64005113 -0.00000000 -0.00011444 0.00004995
0.42647266 0.47133893 0.39486894 -0.00013084 0.00003451 -0.00012515
0.47248304 0.47048035 0.61498624 -0.00009884 0.00004451 0.00024737
0.43344268 0.64494562 0.61996317 -0.00025513 0.00013292 0.00016850
0.57711297 0.64255965 0.59121877 0.00024882 0.00000033 -0.00001258
0.47109365 0.52190369 0.61455500 -0.00006455 0.00016457 0.00019855
0.43000942 0.17818299 0.55818063 -0.00014967 0.00005403 0.00001365
0.50000000 0.05157461 0.38023615 0.00000000 -0.00006366 0.00014896
0.45509154 0.57858765 0.36055160 -0.00008397 0.00000668 -0.00020634
0.55985272 0.04741213 0.54840976 -0.00013607 -0.00008325 -0.00001428
0.42269444 0.22483252 0.42671123 -0.00021443 0.00002240 0.00014609
0.43203604 0.82076484 0.54739505 -0.00017146 0.00005058 0.00000975
0.50000000 0.44858432 0.61786473 0.00000000 0.00006101 0.00027748
0.57529616 0.39851874 0.50996059 0.00020768 0.00003381 -0.00005013
0.53267884 0.04546507 0.64254344 0.00005437 -0.00013680 0.00019921
0.50000000 0.93495864 0.52102125 0.00000000 0.00015699 0.00028628
0.53823358 0.05099681 0.64148849 0.00008331 -0.00005149 0.00020377
0.46454236 0.04646064 0.63045180 -0.00000193 -0.00011416 0.00002702
0.54090118 0.06015157 0.59934253 -0.00016430 0.00010285 -0.00014652
0.57167798 0.28787321 0.38780406 0.00014924 0.00001399 -0.00015646
0.42271742 0.17122926 0.40606472 -0.00018701 0.00001389 -0.00003749
0.57172877 0.39370182 0.38792577 0.00013885 0.00002584 -0.00015050
0.50000000 0.27757630 0.61786473 0.00000000 -0.00002662 0.00029378
0.50000000 0.67902058 0.40837684 -0.00000000 0.00008322 -0.00022554
0.48903042 0.54892910 0.61741626 -0.00002096 0.00001906 0.00003256
0.47290754 0.17859022 0.61503029 -0.00006006 -0.00002700 0.00014216
0.50000000 0.24248275 0.37601617 0.00000009 0.00005067 -0.00021139
0.42396408 0.04546123 0.40094399 -0.00020493 -0.00012703 -0.00006002
0.57727200 0.53805149 0.46172813 0.00016875 0.00002207 -0.00008337
0.53374249 0.51756400 0.38747925 -0.00004359 0.00011053 -0.00012614
0.57528466 0.31223571 0.50991845 0.00021257 -0.00000002 -0.00004473
0.52798265 0.75536412 0.48570350 0.00002239 0.00000509 -0.00006831
0.50545603 0.78809845 0.49084908 0.00000308 -0.00001122 0.00002028
0.48670390 0.92053950 0.44267982 -0.00004311 0.00013279 -0.00021760
0.54839349 0.59090251 0.36239523 0.00013566 0.00000835 -0.00021991
0.57531726 0.38741115 0.50959742 0.00020849 0.00002848 -0.00004950
0.57181787 0.27673686 0.38821611 0.00014213 0.00001572 -0.00015752
0.41714352 0.14951813 0.52729654 -0.00020632 0.00007099 0.00000211
0.47252426 0.70113128 0.43493366 -0.00006918 0.00014998 -0.00015698
0.52327782 0.05551862 0.38844705 -0.00008734 0.00000564 0.00017839
0.42748165 0.77932799 0.54927409 -0.00016987 0.00000685 0.00010240
0.48884639 0.64749253 0.37870201 0.00004506 0.00023687 -0.00009319
0.42482072 0.22687925 0.51129448 -0.00020421 -0.00006783 -0.00003343
0.42333260 0.58350134 0.41602913 -0.00019232 0.00012707 -0.00001078
0.57727587 0.04546316 0.40643936 0.00019018 -0.00012481 -0.00005042
0.57217723 0.26010138 0.38949916 0.00013971 0.00002524 -0.00015396
0.53742868 0.04758078 0.61769128 -0.00007379 -0.00010112 -0.00009160
0.42292443 0.29366460 0.42054036 -0.00023526 0.00002427 0.00014860
0.43921784 0.04739683 0.50983220 0.00010948 -0.00008612 0.00000859
0.42578849 0.75862491 0.54390424 -0.00020995 -0.00000396 0.00008970
0.57520902 0.26573566 0.51101083 0.00021170 0.00000295 -0.00004130
0.53870404 0.12393964 0.64134473 0.00009057 -0.00001468 0.00031018
0.50000000 0.28124332 0.37356123 -0.00000002 -0.00000624 -0.00022703
0.46932194 0.06174314 0.56618935 -0.00005199 -0.00004979 0.00004457
0.45753688 0.06021385 0.59600794 0.00017149 0.00009629 -0.00011457
0.52210021 0.65899974 0.64257979 0.00008322 -0.00001237 0.00028154
0.44633254 0.82693863 0.55809349 -0.00005014 0.00003535 0.00002512
0.51665181 0.06383013 0.51921213 0.00011739 -0.00010042 -0.00000419
0.50000000 0.32009208 0.37339738 0.00000003 0.00003172 -0.00023062
0.46656325 0.27538103 0.37760296 -0.00001427 0.00000239 -0.00025150
0.48342010 0.06271861 0.54646647 -0.00015570 -0.00010197 -0.00006714
0.53361022 0.24245785 0.37994865 0.00003580 0.00000570 -0.00023115
0.44444391 0.79524386 0.50318986 -0.00006270 0.00006074 -0.00011925
0.41785645 0.04545548 0.54411697 -0.00017883 -0.00011332 0.00000467
0.51859695 0.86230999 0.46064246 0.00013416 0.00003854 -0.00029014
0.57494068 0.18209249 0.51471812 0.00015687 0.00002956 0.00003138
0.56625456 0.21549284 0.57482958 0.00024509 -0.00008989 0.00007372
0.49434176 0.78116864 0.47882068 -0.00000936 -0.00001137 -0.00005956
0.43323475 0.30362713 0.57316518 -0.00027600 0.00000965 0.00009184
0.57156205 0.60365921 0.38856009 0.00026463 -0.00003415 -0.00006566
0.50000000 0.16296279 0.62402791 -0.00000000 0.00011952 0.00009854
0.47248593 0.42078373 0.61495554 -0.00011335 0.00003180 0.00025526
0.57435715 0.53748995 0.39849100 0.00005423 0.00002348 -0.00008559
0.43323189 0.31473854 0.57316607 -0.00027657 0.00001575 0.00009202
0.42530650 0.54504067 0.51910770 -0.00018480 0.00001224 0.00000771
0.45810127 0.53225625 0.39078796 0.00015819 -0.00002685 -0.00004751
0.46701360 0.06770994 0.35749012 -0.00004013 0.00014283 -0.00018988
0.48348236 0.06096699 0.41387987 -0.00005846 -0.00009277 -0.00008680
0.48355040 0.62410450 0.35641977 -0.00000273 0.00007492 -0.00023490
0.48367402 0.06077440 0.40937147 -0.00004177 -0.00007985 -0.00005409
0.44856805 0.87957114 0.50614786 -0.00028674 0.00019104 -0.00008025
0.47249743 0.24395072 0.61492300 -0.00010341 0.00000197 0.00026531
0.53359771 0.30909568 0.37588394 0.00001988 0.00001817 -0.00026490
0.57531440 0.33651963 0.50950545 0.00021162 0.00001258 -0.00004541
0.56126803 0.79996973 0.51137590 0.00007784 0.00006235 -0.00014052
0.52752173 0.67474413 0.40824461 0.00004701 0.00011276 -0.00022219
0.47272167 0.73231918 0.46553317 -0.00006659 0.00008570 -0.00010867
0.43098581 0.17769910 0.56369513 -0.00014659 0.00005997 0.00002513
0.43316767 0.44256386 0.57319295 -0.00026197 0.00001683 0.00009070
0.42351371 0.53521132 0.41319954 -0.00009304 0.00003988 -0.00004124
0.50000000 0.78089082 0.47836551 -0.00000000 -0.00001252 -0.00005992
0.44662958 0.53102875 0.39312404 0.00011404 -0.00000071 -0.00007042
0.50000000 0.11755987 0.64559823 0.00000000 -0.00008612 0.00030032
0.52750444 0.28812522 0.61495274 0.00011558 -0.00000829 0.00026669
0.47270536 0.17310448 0.61493260 -0.00004117 0.00002569 0.00011133
0.44867727 0.57125831 0.60317153 -0.00010437 -0.00001889 -0.00000461
0.50000000 0.25551057 0.61786473 -0.00000000 -0.00001787 0.00028965
0.47900465 0.82473952 0.47660050 -0.00010425 -0.00008025 -0.00009279
0.58266866 0.14854456 0.53278905 0.00020727 0.00007352 -0.00000203
0.57231617 0.42703417 0.39023027 0.00014245 0.00003818 -0.00014172
0.56109166 0.59082776 0.59503919 0.00013455 -0.00005176 -0.00008329
0.53412473 0.06044956 0.40251645 -0.00011814 0.00004975 0.00008738
0.47250032 0.33212435 0.61494696 -0.00011642 0.00000884 0.00026405
0.47778770 0.05976827 0.61076534 0.00007694 0.00006789 -0.00019131
0.41942695 0.14177771 0.57119894 -0.00023453 0.00006484 0.00001353
0.50000000 0.74627542 0.63446569 0.00000000 0.00006914 0.00029967
0.47955176 0.84861714 0.59570509 -0.00011404 0.00015883 0.00016538
0.41773283 0.14660804 0.54375958 -0.00021091 0.00007251 -0.00000011
0.52205324 0.77323663 0.62596160 0.00021567 0.00009740 0.00025684
0.47579658 0.78677422 0.48855704 -0.00000954 -0.00000053 -0.00003099
0.46642333 0.37632278 0.37675783 -0.00001967 0.00002164 -0.00025366
0.50000000 0.76790041 0.62993145 0.00000000 0.00010530 0.00029659
0.50000000 0.77857578 0.62708271 0.00000000 0.00012325 0.00028707
0.50000000 0.18931453 0.61786473 0.00000000 -0.00013551 0.00020252
0.42236865 0.61765766 0.44691703 -0.00018578 -0.00003948 -0.00001551
0.46158630 0.92845142 0.47732395 -0.00015820 0.00012432 -0.00006859
0.54600465 0.65275985 0.39068925 -0.00000699 0.00020590 -0.00014000
0.53198606 0.92935312 0.45792592 0.00014332 0.00019486 -0.00013480
0.43280837 0.52435380 0.57201433 -0.00021642 0.00001116 0.00006029
0.52751023 0.37103248 0.61494982 0.00011664 0.00002191 0.00026054
0.52114964 0.81976157 0.47917041 0.00008161 -0.00004838 -0.00006235
0.47263736 0.57086927 0.63251770 -0.00006331 -0.00011941 0.00005997
0.42346483 0.71550351 0.50221348 -0.00017811 0.00003212 -0.00004812
0.45399535 0.65275985 0.39068925 0.00000699 0.00020591 -0.00013999
0.54560220 0.19417457 0.38599977 -0.00008684 0.00005235 -0.00011008
0.57346892 0.18169293 0.39239198 0.00012997 0.00001629 -0.00008601
0.53364182 0.12845570 0.35740578 0.00007298 -0.00012065 -0.00027185
0.42833638 0.34914792 0.38777915 -0.00014816 0.00002348 -0.00014909
0.57169431 0.53185570 0.54828715 0.00020813 0.00000859 -0.00001306
0.57714939 0.18655297 0.46553317 0.00017329 0.00007149 -0.00004948
0.49475956 0.84997201 0.59802973 -0.00003866 0.00016033 0.00018876
0.55057532 0.06243113 0.46429613 -0.00014399 0.00007261 -0.00001690
0.56720793 0.52997947 0.57196736 0.00020812 0.00002015 0.00006335
0.43362185 0.56393850 0.57496083 -0.00014124 0.00015223 0.00012463
0.41963968 0.11324027 0.57325619 -0.00024750 -0.00015926 -0.00000994
0.52861315 0.05979798 0.60941905 -0.00010688 0.00008486 -0.00019374
0.50000000 0.61225241 0.35512334 -0.00000000 0.00006722 -0.00023850
0.53399348 0.21525234 0.38194078 0.00002658 -0.00010294 -0.00019670
0.58051747 0.04545837 0.42859894 0.00016536 -0.00011934 -0.00003656
0.57470208 0.52279001 0.51893425 0.00018989 0.00002817 0.00000818
0.45471975 0.90563166 0.49070922 -0.00035624 -0.00005143 0.00004258
0.57594776 0.67850024 0.44743448 0.00018499 0.00008804 -0.00011622
0.45033306 0.06171057 0.43667281 0.00013135 0.00007403 0.00000799
0.47412831 0.58955812 0.64388776 -0.00004788 -0.00003040 0.00021202
0.43276906 0.60660571 0.57199609 -0.00012769 -0.00002489 -0.00005260
0.50824445 0.93029791 0.45981553 0.00012431 0.00011707 -0.00026841
0.46081492 0.56462073 0.35888430 -0.00003421 -0.00005131 -0.00016342
0.42023277 0.04545837 0.57740140 -0.00017127 -0.00010998 0.00003288
0.50000000 0.48168281 0.61786473 0.00000000 0.00003625 0.00026269
0.57933694 0.68275088 0.51921791 0.00020025 -0.00001741 0.00005397
0.50000000 0.44203782 0.37686607 0.00000003 0.00007954 -0.00020771
0.50000000 0.57201523 0.35440180 -0.00000000 -0.00000694 -0.00018566
0.53494310 0.93478328 0.46741030 0.00014333 0.00021646 -0.00012283
0.50000000 0.58116519 0.64559823 0.00000001 -0.00005736 0.00019007
0.50000000 0.04594034 0.35994792 0.00000001 -0.00012573 -0.00005450
0.50000000 0.65850627 0.64427781 0.00000000 -0.00005934 0.00028849
0.42753628 0.24900149 0.39044970 -0.00014530 0.00002556 -0.00015005
0.42791191 0.55176347 0.39013636 -0.00008547 0.00000613 -0.00009286
0.50000000 0.04739585 0.62341177 -0.00000000 -0.00010089 -0.00015725
0.42245874 0.18805544 0.44895324 -0.00018079 0.00006302 -0.00002590
0.55388975 0.57527989 0.60024613 0.00010602 -0.00002343 -0.00001988
0.57619786 0.18407504 0.49287760 0.00016184 0.00004241 -0.00000010
0.57072359 0.04546891 0.38562319 0.00024483 -0.00014240 -0.00012528
0.47791228 0.66452283 0.64215529 -0.00010105 0.00000085 0.00027723
0.44360450 0.82191467 0.54940438 -0.00003603 0.00001443 -0.00000017
0.57203925 0.26565039 0.38903347 0.00013887 0.00002194 -0.00015547
0.50524044 0.84997201 0.59802973 0.00003866 0.00016033 0.00018875
0.57608575 0.72929883 0.51927733 0.00019284 -0.00001900 -0.00003518
0.46675488 0.15982750 0.36144370 -0.00002598 0.00016483 -0.00016490
0.50000000 0.23142022 0.37692168 0.00000013 -0.00000422 -0.00019622
0.56783366 0.81005299 0.52883548 0.00013338 0.00004686 -0.00008255
0.56626028 0.18779288 0.57489181 0.00018250 -0.00002328 0.00006195
0.50000000 0.11756085 0.35440180 0.00000003 -0.00015544 -0.00027454
0.52202159 0.77855468 0.62432784 0.00021264 0.00010336 0.00025241
0.47163889 0.04714386 0.37587816 0.00007910 -0.00011352 0.00007729
0.51671022 0.06410707 0.49175557 0.00010366 -0.00009838 -0.00001237
0.57721937 0.55213332 0.42465302 0.00014139 0.00007952 -0.00000652
0.48889625 0.04749646 0.37723598 0.00005047 -0.00011504 0.00013403
0.55137450 0.17430703 0.60307860 0.00010831 0.00005619 0.00011597
0.46917725 0.05180170 0.61654812 0.00008930 -0.00003099 -0.00013887
0.51682144 0.53499287 0.38685447 -0.00001725 0.00000508 0.00000768
0.42154458 0.64856094 0.58198547 -0.00023530 0.00000978 -0.00001409
0.57481420 0.60110271 0.40010461 0.00024454 -0.00000675 -0.00002422
0.43889683 0.04725308 0.44921961 0.00013973 -0.00009380 0.00000433
0.57374102 0.63108414 0.40219447 0.00021542 -0.00002483 -0.00006943
0.42280173 0.23838162 0.42504591 -0.00022249 0.00003335 0.00015582
0.53556782 0.84505838 0.58951122 0.00013581 0.00014814 0.00011982
0.57536042 0.19232044 0.40510169 0.00013138 -0.00002078 -0.00004541
0.57607043 0.68148512 0.45207700 0.00018427 0.00009008 -0.00011041
0.42833927 0.34358358 0.38776958 -0.00015050 0.00002445 -0.00014928
0.47260574 0.74898142 0.48131394 -0.00004634 -0.00002354 -0.00008433
0.42507941 0.13612328 0.60369754 -0.00031112 0.00007499 0.00006598
0.56676525 0.29803503 0.57317281 0.00027563 0.00000698 0.00009162
0.47792092 0.73025900 0.63535297 -0.00020656 0.00003816 0.00026542
0.58094770 0.04545932 0.56631297 0.00017111 -0.00010897 0.00002344
0.44841856 0.82931978 0.56223291 -0.00005345 0.00004702 0.00003144
0.42088437 0.14065756 0.41650346 -0.00024493 -0.00004092 -0.00002991
0.42666048 0.60614097 0.39318252 -0.00026661 -0.00005626 -0.00004610
0.55000901 0.06311915 0.50830007 -0.00011721 0.00007572 0.00002085
0.42640847 0.18062261 0.53105080 -0.00015567 0.00003059 0.00003051
0.50000000 0.63538647 0.36682215 -0.00000000 0.00016739 -0.00014330
0.50000000 0.06332612 0.53568566 0.00000000 -0.00011808 -0.00006889
0.42341694 0.58890373 0.41480646 -0.00019869 0.00009899 -0.00001886
0.57705551 0.34338042 0.42054421 0.00023224 0.00002187 0.00013730
0.47250223 0.26032847 0.61490864 -0.00010303 -0.00001934 0.00026629
0.46551305 0.94023740 0.47684965 -0.00015187 0.00022024 -0.00012282
0.50000000 0.70282060 0.43104237 -0.00000000 0.00014306 -0.00015616
0.52658081 0.04774943 0.38095286 -0.00009949 -0.00010935 0.00013382
0.53448600 0.94023740 0.47684965 0.00015187 0.00022024 -0.00012282
0.57184088 0.62418699 0.61146677 0.00026862 -0.00004776 0.00001260
0.50000000 0.60663539 0.35494128 -0.00000000 0.00008864 -0.00024251
0.57752115 0.50430715 0.43099064 0.00016767 -0.00000605 0.00008751
0.52022111 0.06072170 0.59083164 0.00003862 -0.00006480 0.00003604
0.53156441 0.04602082 0.36374152 -0.00000992 -0.00013403 -0.00009690
0.42451695 0.74080211 0.53102016 -0.00020597 -0.00000665 0.00002243
0.47770149 0.62024873 0.64393950 0.00005349 0.00012974 0.00029214
0.42249611 0.61963928 0.45209810 -0.00018219 -0.00004558 -0.00001983
0.51669395 0.06248577 0.55182099 0.00016022 -0.00010265 -0.00005118
0.42302692 0.53765959 0.47275808 -0.00017267 0.00002474 -0.00008195
0.41680530 0.07879738 0.50067079 -0.00015686 0.00020756 0.00000069
0.44036192 0.04743801 0.55388975 0.00012802 -0.00008262 -0.00000897
0.57528090 0.40400738 0.51022315 0.00020728 0.00003640 -0.00005021
0.42079049 0.14624871 0.41746452 -0.00024306 -0.00002470 -0.00001338
0.42405221 0.67850024 0.44743448 -0.00018499 0.00008805 -0.00011618
0.51096869 0.54892910 0.61741626 0.00002096 0.00001907 0.00003256
0.46656325 0.33759186 0.37614936 -0.00001704 0.00003064 -0.00026010
0.54953474 0.06273010 0.53036094 -0.00013252 0.00007161 0.00000852
0.45108527 0.83204299 0.56696171 -0.00006435 0.00005631 0.00002912
0.57714170 0.25010246 0.42351851 0.00022674 0.00004233 0.00015601
0.50000000 0.92314100 0.53258973 0.00000000 0.00023125 0.00027146
0.42473829 0.40951997 0.51054800 -0.00020688 0.00003894 -0.00005011
0.50000000 0.74083853 0.63544977 0.00000000 0.00005583 0.00029933
0.58041400 0.10205220 0.57264775 0.00022618 -0.00012547 -0.00000531
0.50000000 0.58978242 0.35444590 -0.00000000 -0.00000289 -0.00023574
0.46573824 0.45215458 0.38083500 0.00000295 0.00005625 -0.00023782
0.42634332 0.18747285 0.39377758 -0.00011904 -0.00000091 -0.00008963
0.42564189 0.53748995 0.39849100 -0.00005423 0.00002349 -0.00008559
0.42480344 0.74485725 0.53465277 -0.00020822 -0.00000239 0.00004214
0.41834128 0.15896799 0.50625712 -0.00019623 0.00005248 0.00001647
0.42323390 0.53773814 0.47909376 -0.00017449 0.00002569 -0.00007063
0.47801769 0.78934699 0.62099040 -0.00020475 0.00010695 0.00024701
0.57515055 0.43129051 0.51237911 0.00020534 0.00004734 -0.00004856
0.43279687 0.53556973 0.57199901 -0.00019814 0.00003755 0.00007028
0.56908315 0.53140533 0.39785093 -0.00000739 0.00003212 -0.00008907
0.53825271 0.04546986 0.64119619 0.00008975 -0.00014308 0.00020758
0.52514726 0.06183705 0.56516790 0.00010212 -0.00007440 0.00005030
0.42336997 0.70580733 0.48889434 -0.00017451 0.00007664 -0.00003527
0.56106871 0.04731441 0.47127667 -0.00013455 -0.00008962 -0.00001130
0.50000000 0.56426138 0.63204432 0.00000001 -0.00011877 0.00004702
0.54969472 0.06286523 0.52485120 -0.00013025 0.00007341 0.00002022
0.42629060 0.59911823 0.39504048 -0.00025248 0.00001635 -0.00003473
0.49445388 0.64734215 0.37835035 0.00002670 0.00023437 -0.00009071
0.52726299 0.58401209 0.64380729 0.00006384 -0.00007517 0.00019034
0.53795284 0.73449135 0.47306758 0.00004697 0.00008348 -0.00012911
0.57333285 0.21543343 0.39333200 0.00012802 -0.00005021 -0.00012277
0.51720083 0.06148443 0.57490045 0.00012382 -0.00010548 0.00013070
0.42479867 0.24906473 0.51107121 -0.00020984 -0.00000533 -0.00004101
0.42808628 0.27116874 0.38859746 -0.00013971 0.00001838 -0.00015672
0.56288737 0.17584783 0.58465308 0.00012710 0.00007547 0.00008396
0.42082307 0.62269795 0.42809108 -0.00022886 -0.00011297 0.00002407
0.53339559 0.51220280 0.38686407 -0.00001791 0.00014469 -0.00014338
0.50000000 0.43651181 0.37635058 0.00000014 0.00008314 -0.00021035
0.47179601 0.06132441 0.42510146 -0.00003920 -0.00006261 -0.00006894
0.58119875 0.64336073 0.48038062 0.00019694 -0.00009625 -0.00001163
0.56678540 0.33135775 0.57318234 0.00027711 0.00001988 0.00009171
0.42368618 0.69054687 0.46591452 -0.00017827 0.00010416 -0.00007226
0.56655639 0.64494562 0.61996317 0.00025513 0.00013291 0.00016852
0.56648445 0.24324645 0.57412046 0.00026337 0.00003606 0.00008763
0.52751213 0.44847986 0.61497283 0.00010389 0.00005455 0.00025263
0.42990017 0.61625683 0.55872679 -0.00011979 -0.00007433 -0.00000037
0.42290139 0.19060044 0.42142960 -0.00017211 0.00000659 0.00002715
0.57470500 0.55623829 0.51901478 0.00018140 0.00002471 0.00000652
0.57469827 0.55063570 0.51906550 0.00018318 0.00001616 0.00000700
0.56704408 0.50576645 0.57248956 0.00023472 0.00001571 0.00006587
0.42467314 0.36484626 0.50942880 -0.00021005 0.00001957 -0.00004671
0.41814199 0.16407430 0.44469497 -0.00021704 0.00003430 -0.00004778
0.46703660 0.05099491 0.35728028 -0.00003671 -0.00006759 -0.00021517
0.42039666 0.15717423 0.41999614 -0.00023447 -0.00000273 0.00000456
0.58314204 0.04545837 0.49991667 0.00017562 -0.00011127 0.00000861
0.50000000 0.88699824 0.56246477 -0.00000000 0.00015012 0.00023064
0.50000000 0.53684700 0.61786473 0.00000000 0.00012047 0.00012774
0.43998724 0.04740160 0.54289049 0.00014553 -0.00008426 -0.00001714
0.50000000 0.53595871 0.38583592 -0.00000000 0.00001227 0.00001735
0.42158192 0.09546354 0.41224897 -0.00020221 0.00006411 -0.00006600
0.50000000 0.93527675 0.46844035 0.00000001 0.00016203 -0.00024318
0.41689533 0.15242438 0.51079232 -0.00020595 0.00005524 0.00000861
0.54175693 0.60185391 0.36017212 0.00008127 0.00008197 -0.00024690
0.42467695 0.38179797 0.50950068 -0.00020889 0.00002590 -0.00004889
0.42528641 0.51722956 0.51877230 -0.00019097 0.00003536 0.00000683
0.55891365 0.56236988 0.36916113 0.00007622 -0.00002476 -0.00015138
0.58294940 0.15047634 0.52183855 0.00020546 0.00006703 0.00000489
0.42653015 0.18169293 0.39239198 -0.00012923 0.00001614 -0.00008654
0.50000000 0.78785992 0.49043608 -0.00000001 -0.00001297 0.00001997
0.51114303 0.04545932 0.64510477 0.00000322 -0.00012651 0.00016628
0.57709575 0.32667020 0.42050204 0.00023463 0.00002157 0.00013870
0.47249934 0.40429962 0.61496514 -0.00011430 0.00002701 0.00025722
0.47750506 0.15601671 0.35561395 -0.00001785 0.00014429 -0.00020081
0.42293879 0.38212088 0.42063525 -0.00022792 0.00001966 0.00014448
0.53357285 0.24797811 0.37955579 0.00002913 0.00001876 -0.00023625
0.41705438 0.04545453 0.51099932 -0.00017349 -0.00011039 -0.00000075
0.42285064 0.18655297 0.46553317 -0.00017332 0.00007149 -0.00004944
0.57641536 0.18457139 0.48740909 0.00016364 0.00004788 -0.00001378
0.54898661 0.06231808 0.54682773 -0.00012589 0.00007560 -0.00003527
0.42470381 0.39851874 0.50996059 -0.00020768 0.00003380 -0.00005013
0.46205679 0.83819848 0.57759690 -0.00005819 0.00007011 0.00002259
0.50000000 0.68298656 0.41215411 -0.00000000 0.00010267 -0.00020669
0.47248688 0.44847986 0.61497283 -0.00010389 0.00005455 0.00025263
0.57675749 0.62812233 0.47819880 0.00016676 -0.00003959 -0.00004780
0.52751887 0.48704401 0.61498243 0.00009984 0.00003447 0.00023906
0.45128742 0.13027342 0.63737959 -0.00016982 0.00006055 0.00028866
0.43163455 0.52528811 0.56716484 -0.00021472 0.00000946 0.00004082
0.57521951 0.27692279 0.51085079 0.00021236 -0.00000152 -0.00004179
0.57420766 0.66402262 0.42401868 0.00016898 0.00008130 -0.00014320
0.57383019 0.48240721 0.39602840 0.00012977 0.00004568 -0.00011644
0.50000000 0.06356471 0.46984801 0.00000000 -0.00011260 0.00005608
0.42205626 0.14599286 0.57703918 -0.00022123 0.00009733 0.00002070
0.55858022 0.79752725 0.50713581 0.00006484 0.00006358 -0.00013861
0.55902481 0.60093504 0.63133520 0.00023222 -0.00007583 0.00011817
0.46081683 0.10729840 0.64124888 -0.00008281 -0.00016618 0.00029372
0.50000000 0.06209482 0.35440180 0.00000000 0.00008088 -0.00014963
0.43959728 0.04739683 0.52636999 0.00013835 -0.00008245 -0.00000900
0.57748568 0.49224424 0.43010908 0.00018131 0.00000288 0.00011790
0.50000000 0.05990818 0.61248916 -0.00000000 0.00003571 -0.00014549
0.43662682 0.59536111 0.58371407 -0.00012453 -0.00001008 -0.00006789
0.58045715 0.07882039 0.57193959 0.00016261 0.00021355 0.00001568
0.53663433 0.06006340 0.60437882 -0.00014657 0.00010217 -0.00017739
0.42399761 0.04546218 0.59869570 -0.00020534 -0.00012586 0.00006513
0.56901419 0.17769910 0.56369513 0.00014659 0.00005997 0.00002514
0.41680530 0.10911612 0.50019455 -0.00019877 -0.00009283 -0.00002302
0.57046586 0.59511578 0.38525715 0.00026085 0.00007205 -0.00006893
0.43321750 0.38637438 0.57319677 -0.00027366 0.00002055 0.00009053
0.55660921 0.82564980 0.53372037 0.00003480 -0.00000975 -0.00004175
0.50000000 0.76518571 0.48228365 -0.00000001 0.00002296 -0.00003382
0.42685691 0.62802076 0.60771632 -0.00026589 -0.00004079 0.00000305
0.48576385 0.90978736 0.44502842 -0.00005143 0.00002366 -0.00015618
0.50000000 0.66954100 0.64367694 0.00000000 -0.00001860 0.00029012
0.50000000 0.61984241 0.64518231 0.00000000 0.00013067 0.00027162
0.57653517 0.71550351 0.50221348 0.00017812 0.00003229 -0.00004820
0.47266129 0.72036737 0.45397523 -0.00007127 0.00013142 -0.00012158
0.42559013 0.62939197 0.52242213 -0.00013655 -0.00001765 -0.00001147
0.57971644 0.65489662 0.56677198 0.00021244 0.00000261 -0.00001713
0.47268331 0.72436213 0.45777932 -0.00007073 0.00012179 -0.00011535
0.50000000 0.06119218 0.58506322 0.00000000 -0.00011809 0.00016270
0.52212411 0.65345073 0.64302444 0.00006399 -0.00002022 0.00028580
0.42835361 0.32129177 0.38773224 -0.00015824 0.00002571 -0.00015017
0.56686872 0.48164546 0.57311434 0.00024656 0.00002882 0.00008473
0.45089266 0.89165521 0.49913278 -0.00030739 0.00016305 -0.00006684
0.50000000 0.72995615 0.63737291 0.00000000 0.00003040 0.00029911
0.46843463 0.04602082 0.36374152 0.00000992 -0.00013402 -0.00009691
0.42282858 0.42038512 0.42243859 -0.00021970 0.00001239 0.00014143
0.54031003 0.78762609 0.48999915 0.00003507 0.00002360 -0.00008054
0.52135277 0.04761720 0.37918305 -0.00008635 -0.00011212 0.00013209
0.43317056 0.44809276 0.57319772 -0.00026008 0.00001867 0.00009066
0.53355074 0.38186601 0.37683734 0.00002026 0.00002246 -0.00025314
0.55555516 0.79524386 0.50318986 0.00006269 0.00006074 -0.00011925
0.41893440 0.63929987 0.46956819 -0.00020187 -0.00011114 -0.00000629
0.50000000 0.72450298 0.63826501 0.00000000 0.00002075 0.00029851
0.56591439 0.72172993 0.48926231 0.00008441 0.00010480 -0.00011139
0.54519594 0.56409854 0.36090615 0.00004693 -0.00004576 -0.00016478
0.52789062 0.06382727 0.49710047 0.00002315 -0.00005549 -0.00000631
0.42247787 0.50430715 0.43099064 -0.00016767 -0.00000601 0.00008752
