0.63995039 0.54697591 0.32381392 0.00006581 -0.00003354 -0.00006125
0.46011040 0.46490371 0.06998644 -0.00023827 -0.00037126 -0.00022029
0.68896008 0.51901054 0.65643656 0.00043322 0.00018147 -0.00007225
0.50000000 0.59920222 0.32366112 0.00000006 0.00028766 -0.00003549
0.39985618 0.49346992 0.93728518 -0.00012639 0.00012468 0.00038481
0.36625615 0.55822331 0.69164973 0.00005519 0.00038407 -0.00001232
0.50000000 0.56512403 0.51251757 0.00000001 0.00017718 0.00005261
0.37859118 0.59289038 0.33578172 -0.00017655 0.00017763 -0.00012365
0.53049290 0.55011582 0.77250004 -0.00001703 0.00029920 0.00008900
0.38255438 0.58229953 0.24279754 -0.00021613 0.00009554 -0.00018365
0.33235937 0.53547442 0.55274975 -0.00035772 0.00020266 -0.00000076
0.33273107 0.53539395 0.54660660 -0.00035833 0.00019355 -0.00000602
0.68707204 0.53168547 0.78213048 0.00041978 0.00030577 -0.00004013
0.40424684 0.54242945 0.78993511 0.00000183 0.00024296 0.00008598
0.33244139 0.53555799 0.34418502 0.00001627 0.00031256 -0.00006285
0.41939160 0.53489423 0.85185510 0.00018702 0.00037030 0.00003013
0.49341506 0.40047204 0.13189293 0.00000686 -0.00039407 -0.00012331
0.36533457 0.54749793 0.25906157 -0.00010195 -0.00006287 -0.00004234
0.64063144 0.55839521 0.48795995 0.00007470 0.00013458 0.00004605
0.32527483 0.40351224 0.62706721 -0.00020760 -0.00027633 0.00003857
0.31072378 0.51424181 0.63130599 -0.00040648 0.00020433 -0.00003750
0.38996506 0.53226769 0.85140300 -0.00020758 0.00025755 0.00015478
0.38469321 0.55078030 0.69122547 0.00018898 0.00023497 -0.00004849
0.68927628 0.51424176 0.63130593 0.00040651 0.00020394 -0.00003706
0.37827694 0.59328759 0.34139907 -0.00018356 0.00018033 -0.00012243
0.66713488 0.53547603 0.33807498 -0.00003901 0.00033681 -0.00004492
0.32028612 0.40124807 0.39865768 -0.00023315 -0.00026430 -0.00016341
0.35600734 0.54979205 0.43455279 -0.00008720 -0.00009891 -0.00019775
0.50000000 0.55106485 0.75760758 -0.00000009 0.00028071 0.00005704
0.60631555 0.55200899 0.52262390 -0.00013262 0.00015304 -0.00005384
0.50000000 0.55092084 0.76205885 -0.00000011 0.00028600 0.00006607
0.33334982 0.53522938 0.53431648 -0.00033302 0.00019096 -0.00003200
0.57262671 0.49460751 0.05702524 0.00004973 -0.00007126 -0.00046456
0.62926573 0.54936177 0.20967554 0.00014316 -0.00001810 -0.00011173
0.33204103 0.40155658 0.84248430 -0.00035382 -0.00037299 0.00008122
0.50000000 0.55283886 0.62398428 0.00000003 0.00020815 -0.00007100
0.50000000 0.55146480 0.74425191 -0.00000002 0.00026769 0.00003964
0.59772515 0.54337138 0.78102636 0.00000684 0.00023798 0.00005100
0.40524888 0.54194552 0.79438418 0.00001112 0.00024678 0.00009551
0.67446756 0.40240097 0.70228660 0.00024362 -0.00029678 0.00008226
0.31322765 0.53062320 0.79889345 -0.00036021 0.00031385 0.00006092
0.53616810 0.40043983 0.13398731 -0.00005360 -0.00034807 -0.00020230
0.52936548 0.59922355 0.31338051 -0.00003674 0.00029608 -0.00008428
0.44490260 0.40237513 0.93237120 -0.00004080 -0.00029987 0.00042474
0.61893541 0.49460939 0.93085998 0.00023318 0.00014851 0.00034475
0.55814737 0.59597605 0.42130271 0.00010220 0.00029555 0.00000047
0.61285901 0.53606552 0.83666277 0.00017121 0.00026828 0.00013080
0.55351758 0.48319727 0.94775164 0.00005541 -0.00006852 0.00036842
0.61667889 0.56110787 0.14001361 0.00020658 0.00025271 -0.00025067
0.33205792 0.53563440 0.35029683 0.00000034 0.00029526 -0.00008189
0.48898226 0.59907842 0.31312349 0.00004956 0.00029221 -0.00007687
0.62446451 0.59553784 0.38632274 0.00018157 0.00022422 -0.00003656
0.58770579 0.49483499 0.94072968 0.00002018 0.00016597 0.00041160
0.44152454 0.51219970 0.92730933 -0.00004865 0.00045506 0.00018033
0.50000000 0.55263960 0.60171074 0.00000002 0.00019408 -0.00013736
0.63361484 0.55438173 0.57292610 -0.00001792 0.00019883 0.00001562
0.33566308 0.47481030 0.11366133 -0.00043127 -0.00013726 -0.00025719
0.37939221 0.59156609 0.31373334 -0.00018174 0.00017833 -0.00010865
0.61719942 0.54177582 0.81210250 0.00003234 0.00031016 0.00006776
0.35282117 0.51730341 0.85442126 0.00022837 0.00016407 0.00015642
0.63675755 0.50640363 0.89223415 -0.00016186 0.00036523 -0.00004879
0.53740072 0.51006675 0.93049526 -0.00009242 0.00032545 0.00008637
0.30976695 0.49433070 0.31377032 -0.00039873 0.00005638 -0.00003754
0.61702311 0.57950407 0.22579260 0.00020667 0.00010404 -0.00019189
0.62277842 0.54840159 0.77739060 -0.00003230 0.00036507 0.00005671
0.55416781 0.46417060 0.07397412 0.00007971 -0.00045191 -0.00019335
0.38487872 0.40207583 0.91625869 -0.00011269 -0.00028659 0.00048406
0.33041748 0.40003079 0.26475403 -0.00024245 -0.00028158 -0.00008981
0.48962018 0.40260100 0.93700850 -0.00003141 -0.00026933 0.00041754
0.50000000 0.55283457 0.66407990 0.00000003 0.00022498 -0.00002489
0.30967918 0.49922436 0.53919131 -0.00037281 0.00023479 -0.00002774
0.38235322 0.55155927 0.67765504 0.00019603 0.00022653 -0.00003069
0.34705606 0.40164486 0.89897323 -0.00040386 -0.00039024 0.00039043
0.61835331 0.40205023 0.91502202 0.00008742 -0.00029433 0.00050109
0.48171023 0.46624339 0.06473456 -0.00017176 -0.00028121 -0.00029677
0.50000000 0.60014409 0.37381354 0.00000010 0.00029841 -0.00016603
0.50000000 0.40955848 0.11510123 0.00000038 -0.00032626 -0.00033168
0.36083123 0.54692912 0.31237543 -0.00007650 -0.00004187 -0.00004030
0.39723581 0.54195946 0.77233702 0.00000235 0.00020379 0.00000536
0.51207888 0.49581254 0.95404571 -0.00001400 0.00013698 0.00023352
0.50000000 0.44224900 0.07965843 0.00000033 -0.00004540 -0.00051493
0.33582950 0.46299827 0.12152455 -0.00038959 -0.00033727 -0.00018880
0.66817421 0.39997929 0.25179023 0.00023430 -0.00029792 -0.00018840
0.61643887 0.56808639 0.16876712 0.00017453 0.00026057 -0.00006890
0.45809206 0.54922217 0.77276123 -0.00004744 0.00028579 0.00008224
0.35623643 0.54905456 0.41544527 -0.00003493 -0.00009210 -0.00014459
0.52960998 0.40044913 0.13330902 -0.00003989 -0.00035984 -0.00017959
0.41489252 0.48914227 0.94179028 -0.00003177 0.00003689 0.00041891
0.57227898 0.54545856 0.77297753 0.00017912 0.00023326 0.00004015
0.68603837 0.46263674 0.31406158 0.00032803 -0.00006381 -0.00005976
0.44392267 0.49520072 0.94828671 -0.00007266 0.00017476 0.00038300
0.66958249 0.40003073 0.26475403 0.00024184 -0.00028186 -0.00008989
0.61505616 0.49462771 0.93220419 0.00022715 0.00014526 0.00034371
0.34023470 0.41455787 0.15756947 -0.00035248 -0.00028032 -0.00037142
0.67632085 0.40382889 0.57533091 0.00020068 -0.00026922 0.00005016
0.40936744 0.53992409 0.81214398 0.00009994 0.00027778 0.00007081
0.39288884 0.40025711 0.14924105 -0.00011322 -0.00037046 -0.00028045
0.50000000 0.59062541 0.44372314 0.00000003 0.00025849 0.00008668
0.66850168 0.53562015 0.56503081 0.00034492 0.00022475 -0.00000970
0.32743299 0.40187356 0.76509619 -0.00026094 -0.00032089 0.00010574
0.63118577 0.55248004 0.50785536 -0.00005659 0.00011704 0.00001847
0.50000000 0.55287802 0.63289434 0.00000003 0.00021247 -0.00005168
0.50000000 0.56495577 0.08011797 0.00000016 0.00048719 -0.00006035
0.40645409 0.55184585 0.52899003 -0.00004766 0.00017226 -0.00007138
0.36342260 0.55261457 0.50422800 0.00000496 0.00011905 0.00002496
0.56832755 0.46354836 0.07837071 0.00008502 -0.00050434 -0.00015174
0.68373883 0.44860223 0.31433618 0.00035024 0.00013336 -0.00008791
0.34912834 0.51993686 0.84274262 0.00026471 0.00014207 0.00019350
0.59167904 0.54044205 0.80770957 -0.00006725 0.00026716 0.00007735
0.50000000 0.58751059 0.20245928 0.00000045 0.00029917 -0.00024584
0.44865039 0.59859788 0.31357843 -0.00004798 0.00029343 -0.00010841
0.50000000 0.60011917 0.35831952 0.00000010 0.00029203 -0.00010238
0.67719918 0.53489810 0.64456320 0.00038001 0.00029692 -0.00007848
0.31919965 0.40252548 0.48923603 -0.00024298 -0.00027362 -0.00002678
0.39515653 0.52719247 0.87170994 -0.00019652 0.00025333 0.00027911
0.37170208 0.49539217 0.07927221 0.00009418 -0.00007391 -0.00058491
0.64309406 0.55632657 0.53632891 0.00005797 0.00023896 -0.00007063
0.69222742 0.51552290 0.31373340 0.00048039 0.00025716 -0.00005863
0.68677241 0.53062320 0.79889345 0.00035484 0.00031347 0.00006910
0.68561399 0.51881325 0.85756868 0.00012553 0.00044789 -0.00005604
0.42802897 0.40036687 0.13985099 -0.00005612 -0.00031404 -0.00026398
0.50000006 0.53572893 0.82907552 0.00000010 0.00020062 0.00026968
0.57985348 0.54428196 0.77297890 0.00010877 0.00021991 0.00002275
0.41416705 0.46290392 0.08446721 -0.00007945 -0.00052882 -0.00015219
0.50000000 0.56415242 0.07644327 0.00000015 0.00048964 -0.00009188
0.64152765 0.53472626 0.16181543 0.00033188 0.00011223 -0.00008093
0.64399266 0.54979205 0.43455276 0.00008723 -0.00009892 -0.00019794
0.35699317 0.55674267 0.54157192 -0.00005531 0.00024268 -0.00009473
0.52938205 0.48191968 0.95054638 -0.00000060 -0.00009933 0.00027713
0.33568567 0.46888626 0.11756198 -0.00041251 -0.00024767 -0.00021644
0.35309228 0.49516079 0.08997362 -0.00015827 0.00009894 -0.00054170
0.33688062 0.53482229 0.29535711 0.00005358 0.00037248 -0.00007446
0.37461567 0.55124539 0.17935385 -0.00021444 0.00002880 -0.00006861
0.37360638 0.55071807 0.18692881 -0.00019339 0.00001688 -0.00010145
0.50000000 0.48590502 0.04721353 0.00000027 -0.00018013 -0.00046880
0.37798214 0.54755062 0.78237194 0.00002876 0.00036042 0.00006610
0.39921555 0.40027976 0.14727667 -0.00017451 -0.00035201 -0.00025691
0.33624616 0.45423624 0.12758228 -0.00036259 -0.00028489 -0.00026406
0.31456649 0.51594031 0.86595124 -0.00015709 0.00051237 -0.00013481
0.63323528 0.50082779 0.90762907 -0.00006513 0.00032693 0.00010188
0.33824655 0.43130684 0.14438200 -0.00040153 0.00001139 -0.00054853
0.31912524 0.40246072 0.48492640 -0.00024309 -0.00027325 -0.00003284
0.68066871 0.40164915 0.42886671 0.00023936 -0.00026704 -0.00010530
0.48020652 0.48155981 0.95126927 0.00001644 -0.00009634 0.00023773
0.39680332 0.52595383 0.87675691 -0.00018954 0.00026087 0.00030175
0.57606727 0.54487938 0.77297890 0.00015079 0.00022737 0.00003192
0.54185092 0.49296311 0.04995842 0.00009694 -0.00013849 -0.00043396
0.59760976 0.40029064 0.14633697 0.00019494 -0.00034383 -0.00024802
0.50000000 0.59963655 0.33518350 0.00000006 0.00028925 -0.00001754
0.32153422 0.40093285 0.37275386 -0.00022740 -0.00025719 -0.00023069
0.42114136 0.46314552 0.08194665 -0.00010822 -0.00052528 -0.00013521
0.63969725 0.54695421 0.32000056 0.00006991 -0.00003666 -0.00005339
0.63169956 0.55434328 0.58664626 -0.00006189 0.00019652 0.00001276
0.40876094 0.40031150 0.14454302 -0.00020128 -0.00033197 -0.00024283
0.50000000 0.55191046 0.56162727 -0.00000001 0.00013716 -0.00008929
0.35808426 0.55276108 0.50048202 -0.00005560 0.00012621 0.00002720
0.66429842 0.46790236 0.11821813 0.00040771 -0.00026300 -0.00021207
0.31508571 0.50899911 0.88257062 -0.00025126 0.00045255 0.00008919
0.38141039 0.58706301 0.27669814 -0.00019655 0.00013366 -0.00018274
0.50000000 0.43235007 0.08924560 0.00000033 -0.00005998 -0.00053760
0.50000000 0.59592730 0.27406394 0.00000023 0.00028093 -0.00022128
0.44228047 0.46400520 0.07503426 -0.00006809 -0.00046812 -0.00018352
0.67487270 0.40294766 0.66022950 0.00023089 -0.00028593 0.00006740
0.37522295 0.40199423 0.91243875 -0.00004550 -0.00031283 0.00053540
0.69014138 0.50123882 0.55593544 0.00036504 0.00024793 -0.00002698
0.33617663 0.40146104 0.88994813 -0.00056918 -0.00040774 0.00027535
0.60634023 0.52844656 0.86662281 0.00019929 0.00025002 0.00025243
0.52813607 0.49558437 0.95263582 -0.00000134 0.00013635 0.00027547
0.60784769 0.54791123 0.73178798 -0.00013492 0.00023466 0.00000132
0.32907471 0.40009612 0.27771741 -0.00025000 -0.00025326 -0.00002926
0.56848872 0.54601783 0.77297354 0.00019258 0.00023875 0.00004751
0.46854421 0.49217474 0.04831067 -0.00014041 -0.00013418 -0.00044221
0.36424100 0.55931878 0.67120868 0.00004508 0.00036213 0.00000261
0.31844211 0.53316969 0.67494333 -0.00038758 0.00029981 -0.00010063
0.44831601 0.40238869 0.93293202 -0.00003791 -0.00029916 0.00042398
0.37553552 0.59553784 0.38632274 -0.00018146 0.00022432 -0.00003625
0.31197473 0.52930605 0.72346604 -0.00046522 0.00022158 -0.00009929
0.68103981 0.40220422 0.46768391 0.00024288 -0.00027163 -0.00006074
0.40378100 0.46257728 0.08845816 -0.00003433 -0.00052101 -0.00019246
0.38322642 0.55960649 0.13424055 -0.00020069 0.00026803 -0.00029025
0.50381517 0.55072498 0.77123529 -0.00001135 0.00030123 0.00009260
0.50000000 0.55229384 0.70862615 0.00000002 0.00024105 0.00013203
0.63091475 0.55621994 0.71706510 -0.00005538 0.00039698 -0.00002461
0.64271188 0.54785979 0.37724397 -0.00000727 -0.00001392 -0.00009660
0.66386551 0.45617592 0.12622450 0.00036425 -0.00030913 -0.00023878
0.32558736 0.40236855 0.70528471 -0.00024421 -0.00029766 0.00008403
0.50000000 0.57116640 0.10957753 0.00000027 0.00040897 -0.00011941
0.63419312 0.53609759 0.12561944 0.00029027 0.00027416 -0.00018109
0.30916581 0.49430832 0.41506955 -0.00043100 0.00003584 -0.00008297
0.45963734 0.59901619 0.31349286 -0.00000863 0.00029404 -0.00009906
0.38008055 0.55224717 0.66406137 0.00020055 0.00021627 -0.00001779
0.57184505 0.55166113 0.53796363 0.00011432 0.00017253 -0.00003362
0.37025926 0.55420291 0.60035050 0.00010604 0.00019464 0.00000396
0.32171184 0.40344161 0.54952353 -0.00022997 -0.00027493 0.00001925
0.37725058 0.55273569 0.16043346 -0.00024019 0.00009157 -0.00008402
0.40399146 0.49524340 0.06475849 -0.00020004 -0.00008315 -0.00039913
0.50000006 0.49982315 0.94358379 0.00000013 0.00017364 0.00004906
0.62976182 0.58483243 0.42967382 0.00022521 0.00003933 0.00004104
0.60892534 0.53098768 0.85644084 0.00020357 0.00025586 0.00018231
0.31148914 0.52482021 0.68994892 -0.00045571 0.00018782 -0.00008192
0.68904209 0.49370962 0.33464995 0.00036795 0.00004056 0.00004857
0.32668936 0.53566945 0.61405057 -0.00038631 0.00025501 -0.00006840
0.37258807 0.59107518 0.41497439 -0.00020036 0.00016165 0.00004277
0.60244662 0.59409153 0.31373060 -0.00007840 0.00027363 -0.00009812
0.50000006 0.50855708 0.91792512 0.00000038 0.00022790 -0.00023662
0.34341905 0.53419161 0.24666065 -0.00004113 0.00032366 -0.00007006
0.38221568 0.58400828 0.25411266 -0.00021640 0.00010157 -0.00018608
0.57315594 0.53251690 0.86830616 -0.00011775 0.00037984 0.00010761
0.66619772 0.53487545 0.47899473 0.00026223 0.00015715 -0.00003922
0.41895780 0.59597558 0.41651517 0.00009090 0.00031256 0.00003828
0.36167845 0.54693854 0.30094144 -0.00008383 -0.00004695 -0.00002422
0.52668524 0.55033660 0.77238077 -0.00002664 0.00030207 0.00008986
0.66912013 0.40001202 0.26043275 0.00023935 -0.00028795 -0.00011965
0.36209717 0.53530329 0.14370404 -0.00036641 0.00012969 -0.00006276
0.55500942 0.59841299 0.31360164 0.00004677 0.00029410 -0.00010973
0.52278799 0.52384949 0.90095782 -0.00014960 0.00019146 0.00023801
0.32229850 0.40078709 0.35979888 -0.00022859 -0.00024416 -0.00023651
0.66505581 0.53511053 0.31365317 -0.00006601 0.00038094 -0.00005629
0.58335310 0.51702386 0.91228092 -0.00001914 0.00057378 0.00010606
0.66489565 0.49482420 0.10878257 0.00051120 0.00026363 -0.00022074
0.32583842 0.40033281 0.31228352 -0.00024796 -0.00019897 -0.00008928
0.46785927 0.49552771 0.95215660 -0.00001438 0.00013941 0.00029505
0.42684412 0.53251690 0.86830616 0.00011815 0.00038057 0.00010723
0.33794349 0.43413672 0.14223206 -0.00039282 -0.00001091 -0.00052457
0.67486578 0.40313819 0.64818293 0.00022510 -0.00028288 0.00004635
0.50535125 0.50829744 0.93246585 -0.00001382 0.00024616 0.00000593
0.56941563 0.48557365 0.94518775 0.00005702 -0.00001816 0.00039435
0.58938611 0.49511224 0.06234706 0.00017432 -0.00006825 -0.00042124
0.38309386 0.57850921 0.22011493 -0.00020216 0.00010937 -0.00019843
0.48669851 0.48134241 0.95164305 0.00001513 -0.00009924 0.00022204
0.37643248 0.55318624 0.64135689 0.00018935 0.00020185 -0.00001708
0.43694407 0.48445582 0.94629800 -0.00006577 -0.00003664 0.00038391
0.35646954 0.54865420 0.40398258 -0.00000456 -0.00005656 -0.00011290
0.50000000 0.55257696 0.69080889 0.00000003 0.00023387 0.00007823
0.38179183 0.55565715 0.13021438 -0.00020492 0.00025725 -0.00030597
0.32086241 0.40108681 0.38570687 -0.00022929 -0.00026233 -0.00020841
0.38348871 0.57305038 0.19164744 -0.00017601 0.00017702 -0.00018107
0.32694837 0.40195116 0.75315559 -0.00025576 -0.00031568 0.00012448
0.61549801 0.53959119 0.82195073 0.00009481 0.00028816 0.00012454
0.50000006 0.51694793 0.89215153 0.00000005 0.00008000 0.00018385
0.68763405 0.53134471 0.74860662 0.00046031 0.00025971 -0.00010593
0.67856228 0.40337634 0.54522038 0.00023241 -0.00027554 0.00001270
0.31052169 0.51104474 0.61455399 -0.00038901 0.00022184 -0.00002816
0.46259937 0.51006675 0.93049526 0.00008931 0.00032440 0.00008745
0.32511291 0.40040508 0.32092401 -0.00024316 -0.00019681 -0.00014657
0.39644217 0.59597492 0.41042364 0.00010896 0.00032034 0.00006171
0.36439249 0.50473297 0.89705473 0.00014423 0.00036590 -0.00000898
0.64214498 0.55875868 0.57294708 0.00011021 0.00027002 0.00001114
0.34146875 0.40000081 0.17401171 -0.00029321 -0.00047365 -0.00026512
0.45188305 0.49530637 0.94976008 -0.00006874 0.00016517 0.00037094
0.47712371 0.55051577 0.77224314 0.00003209 0.00030410 0.00009052
0.51556724 0.59597647 0.42620644 -0.00006290 0.00029137 0.00003979
0.62796795 0.40196365 0.91109174 0.00006123 -0.00032255 0.00053564
0.32934454 0.53578788 0.58956552 -0.00036302 0.00023404 -0.00005508
0.53669798 0.59910917 0.31345853 -0.00000876 0.00029476 -0.00009367
0.50000000 0.57914156 0.47429520 0.00000005 0.00025115 -0.00002303
0.51105022 0.46676135 0.06317015 0.00010231 -0.00026689 -0.00032104
0.38629231 0.55021095 0.70025921 0.00018309 0.00023918 -0.00005989
0.44668606 0.51161242 0.92835295 -0.00004813 0.00042017 0.00017447
0.37779653 0.55306405 0.15665235 -0.00023875 0.00010989 -0.00011490
0.42806345 0.49500445 0.94482642 -0.00005071 0.00017748 0.00039759
0.32857922 0.40174481 0.78894758 -0.00027278 -0.00033274 0.00009439
0.32093447 0.40324548 0.53661263 -0.00023635 -0.00027572 0.00000308
0.65861642 0.40543079 0.16510278 0.00032027 -0.00041109 -0.00030856
0.31909692 0.40183011 0.44180891 -0.00024081 -0.00026844 -0.00009513
0.38444158 0.49542463 0.07297229 -0.00006661 -0.00012862 -0.00044304
0.62124509 0.54666817 0.78734601 -0.00002327 0.00035260 0.00007381
0.59600848 0.49524337 0.06475849 0.00019896 -0.00008500 -0.00040039
0.49194428 0.49586931 0.95426691 0.00001067 0.00013719 0.00023069
0.59475118 0.54194546 0.79438418 -0.00001204 0.00024612 0.00009512
0.50000006 0.52718788 0.85884404 0.00000003 0.00017354 0.00008545
0.38669080 0.46211293 0.09568781 0.00012121 -0.00049969 -0.00031002
0.63527620 0.55908632 0.67632771 -0.00004867 0.00036814 0.00000011
0.31100941 0.48375100 0.31382707 -0.00036019 -0.00005014 -0.00003728
0.50000000 0.59982723 0.39326245 0.00000008 0.00031246 -0.00016654
0.50000000 0.57965559 0.15399244 0.00000043 0.00033959 -0.00018758
0.67870009 0.40098327 0.37707174 0.00022760 -0.00025969 -0.00022350
0.40557206 0.40030125 0.14542575 -0.00020129 -0.00033774 -0.00024480
0.66589522 0.53490162 0.50357974 0.00027346 0.00018223 -0.00003388
0.62880337 0.54956490 0.20588221 0.00014883 -0.00001036 -0.00011991
0.44167426 0.52941817 0.88546091 -0.00003210 0.00034585 0.00021844
0.67803890 0.53463799 0.65065086 0.00038031 0.00029960 -0.00008586
0.32957283 0.49481001 0.13949303 -0.00053527 0.00036722 0.00018841
0.36164480 0.56014574 0.64037699 0.00000764 0.00032316 -0.00000848
0.31162110 0.49372286 0.31876019 -0.00036101 0.00004565 -0.00001740
0.65658098 0.53419161 0.24666065 0.00004078 0.00032351 -0.00007125
0.37889832 0.59246653 0.33016327 -0.00017417 0.00017449 -0.00012091
0.30924553 0.49418753 0.40694898 -0.00042898 0.00002925 -0.00009078
0.33921340 0.42288211 0.15091477 -0.00037620 -0.00012380 -0.00047167
0.35956520 0.54703712 0.33144200 -0.00005714 -0.00002692 -0.00007210
0.34400862 0.40159434 0.89728886 -0.00045004 -0.00039600 0.00037229
0.35743612 0.54776376 0.37342530 0.00000345 -0.00001159 -0.00009483
0.35606235 0.55112660 0.46512935 -0.00010850 0.00002547 -0.00004024
0.53944266 0.40043470 0.13437167 -0.00006939 -0.00034087 -0.00021761
0.36030278 0.54695427 0.32000056 -0.00006986 -0.00003655 -0.00005283
0.56176513 0.53005493 0.88240671 -0.00000045 0.00035804 0.00019672
0.50000000 0.55280566 0.66853493 0.00000003 0.00022655 -0.00001545
0.35495743 0.53434211 0.17995262 -0.00016475 0.00024536 -0.00019154
0.66667181 0.53538936 0.33196676 -0.00005257 0.00035496 -0.00004149
0.50000000 0.57411432 0.12435079 0.00000033 0.00036458 -0.00022028
0.39465097 0.40214419 0.91974938 -0.00018920 -0.00026943 0.00043499
0.34161377 0.53431422 0.25882137 -0.00003164 0.00032372 -0.00005649
0.33216435 0.53536677 0.44829449 -0.00013544 0.00022962 -0.00004819
0.48998094 0.48124236 0.95179933 0.00001510 -0.00010065 0.00021762
0.32699093 0.40023389 0.29932192 -0.00025385 -0.00020559 -0.00002783
0.61837292 0.58634406 0.27105686 0.00020411 0.00012587 -0.00019599
0.56788868 0.51357365 0.92385960 0.00001766 0.00050920 0.00016971
0.43376192 0.48498920 0.94575840 -0.00006202 -0.00002624 0.00039039
0.45028919 0.55156231 0.54474229 -0.00006944 0.00015395 0.00001110
0.64328301 0.55391526 0.51005930 0.00007077 0.00017219 0.00001849
0.43415070 0.49432868 0.05517735 -0.00001199 -0.00008842 -0.00046605
0.31354073 0.52861255 0.81565726 -0.00025375 0.00030557 0.00017494
0.62300253 0.55229956 0.51306695 -0.00011815 0.00012430 0.00000142
0.45728281 0.51054895 0.92986912 0.00002859 0.00034924 0.00013269
0.30905026 0.49539286 0.46419954 -0.00040914 0.00013788 -0.00006981
0.64257169 0.55420876 0.49663815 0.00007190 0.00013018 0.00003050
0.50000000 0.41390544 0.10973434 0.00000030 -0.00027810 -0.00038757
0.33093905 0.53579021 0.42376205 -0.00004113 0.00028251 -0.00003845
0.50000006 0.54837281 0.78037339 -0.00000010 0.00027769 0.00012873
0.64396292 0.54963797 0.43073100 0.00007971 -0.00010822 -0.00019652
0.35516044 0.51536518 0.86220020 0.00018330 0.00019717 0.00010551
0.62080199 0.59201586 0.32454360 0.00017491 0.00017087 -0.00011704
0.33306167 0.53531152 0.54046214 -0.00034975 0.00018977 -0.00001809
0.63832158 0.54693854 0.30094144 0.00008391 -0.00004707 -0.00002471
0.37363037 0.55374682 0.62315261 0.00016108 0.00019564 -0.00001960
0.38070253 0.58904499 0.29360417 -0.00017588 0.00015392 -0.00011764
0.36830047 0.55434328 0.58664626 0.00006191 0.00019663 0.00001282
0.63835520 0.56014568 0.64037699 -0.00000750 0.00032315 -0.00000839
0.50000000 0.55151474 0.55108106 -0.00000001 0.00010794 -0.00003866
0.47665632 0.59597641 0.42571825 0.00005665 0.00028993 0.00004167
0.61555839 0.49542460 0.07297229 0.00006958 -0.00013082 -0.00044263
0.50000000 0.44998926 0.07278832 0.00000032 -0.00016120 -0.00042664
0.35870209 0.40011081 0.16204266 -0.00007385 -0.00049299 -0.00030247
0.32110408 0.53433746 0.65673292 -0.00038021 0.00030255 -0.00009264
0.65749675 0.53424889 0.25273982 0.00003642 0.00032351 -0.00006392
0.58859515 0.59597540 0.41462228 -0.00020902 0.00032437 0.00006288
0.50000006 0.52384615 0.86996788 -0.00000004 0.00013309 0.00002655
0.32672796 0.40199366 0.74718142 -0.00025372 -0.00031318 0.00012744
0.50000000 0.57899040 0.15027994 0.00000043 0.00034125 -0.00019537
0.56305593 0.48445582 0.94629800 0.00006741 -0.00004018 0.00038267
0.68419641 0.50075364 0.89876211 0.00033233 0.00024230 0.00046688
0.40877414 0.49080655 0.94013643 -0.00005568 0.00006572 0.00041460
0.60727596 0.49467343 0.93480253 0.00017689 0.00014979 0.00035011
0.50762945 0.55078065 0.77148384 -0.00002126 0.00030339 0.00009281
0.66764063 0.53547436 0.55274975 0.00035747 0.00020303 -0.00000098
0.68621308 0.53020072 0.70515996 0.00043523 0.00024845 -0.00008705
0.50000000 0.59106958 0.22872670 0.00000040 0.00029012 -0.00024060
0.30985871 0.50123882 0.55593544 -0.00036507 0.00024837 -0.00002681
0.38710400 0.54991150 0.70477194 0.00017932 0.00024083 -0.00006363
0.31114909 0.52054548 0.66481417 -0.00044056 0.00017816 -0.00008591
0.50000000 0.57694668 0.13915525 0.00000039 0.00034647 -0.00022265
0.68977004 0.50645983 0.58942908 0.00036826 0.00024615 -0.00000812
0.59547061 0.40220177 0.92291385 0.00021068 -0.00026554 0.00041222
0.50000000 0.59958917 0.40106800 0.00000006 0.00031730 -0.00012915
0.68959409 0.49373353 0.35060066 0.00038274 0.00002388 0.00012476
0.34030834 0.39996788 0.18265264 -0.00029032 -0.00044111 -0.00021445
0.53886098 0.59597629 0.42419046 0.00004041 0.00028935 0.00002704
0.66641086 0.53492051 0.47285113 0.00025871 0.00015138 -0.00005350
0.38164672 0.40205029 0.91502202 -0.00008382 -0.00029469 0.00050326
0.40510252 0.52122498 0.89597511 -0.00010455 0.00038737 0.00024856
0.63709116 0.54704326 0.28570387 0.00009045 -0.00005106 -0.00001888
0.31292793 0.53168547 0.78213048 -0.00042121 0.00030597 -0.00004138
0.35607490 0.54948711 0.42690936 -0.00006996 -0.00011256 -0.00018738
0.61876655 0.49542695 0.07448511 0.00002714 -0.00012621 -0.00047174
0.66423118 0.46495679 0.12019687 0.00039597 -0.00031039 -0.00019681
0.61651129 0.57305038 0.19164744 0.00017677 0.00017583 -0.00018229
0.44438651 0.49382055 0.05270369 -0.00000574 -0.00011922 -0.00045317
0.32376856 0.40056393 0.33820337 -0.00023567 -0.00020103 -0.00023611
0.36204138 0.56007445 0.64552921 0.00001462 0.00032990 -0.00000415
0.33796775 0.40148512 0.89380598 -0.00055089 -0.00040550 0.00033672
0.66984463 0.40163589 0.81573665 0.00028821 -0.00034990 0.00020652
0.63732916 0.55414647 0.54544234 -0.00000517 0.00020605 -0.00010366
0.55561346 0.49382055 0.05270369 0.00000753 -0.00011941 -0.00045285
0.50000006 0.54176235 0.80664831 0.00000008 0.00021904 0.00027948
0.31455714 0.52322966 0.84859115 -0.00013098 0.00041828 0.00008288
0.50000000 0.59597647 0.42660424 0.00000004 0.00029316 0.00003427
0.63231546 0.54818439 0.23625191 0.00011678 -0.00005817 -0.00005209
0.35933411 0.54707640 0.33525667 -0.00005239 -0.00002380 -0.00007779
0.36613956 0.50192457 0.90474963 0.00009141 0.00034297 0.00007492
0.31617519 0.49409854 0.24793436 -0.00044303 0.00004864 -0.00011109
0.44749424 0.40041119 0.13620818 0.00008611 -0.00032116 -0.00026038
0.37565058 0.55181164 0.17178276 -0.00023206 0.00004585 -0.00004410
0.58163261 0.40034050 0.14206702 0.00015380 -0.00031932 -0.00024863
0.69089520 0.49444515 0.42320886 0.00043129 0.00004578 -0.00007949
0.38345844 0.40022081 0.15239891 0.00002540 -0.00040913 -0.00033102
0.36377245 0.55952382 0.66608393 0.00004037 0.00035585 0.00000373
0.67058301 0.40168014 0.80383581 0.00027981 -0.00034156 0.00015292
0.62639362 0.55071801 0.18692881 0.00019403 0.00001613 -0.00010614
0.33643255 0.45133474 0.12963149 -0.00036024 -0.00024806 -0.00030345
0.63790274 0.53530329 0.14370404 0.00036691 0.00012960 -0.00006184
0.66693830 0.53531152 0.54046214 0.00034954 0.00019005 -0.00001833
0.32345548 0.40060642 0.34252277 -0.00023409 -0.00020653 -0.00024641
0.66640592 0.53514963 0.52816999 0.00031262 0.00019437 -0.00004205
0.69083428 0.49430832 0.41506952 0.00043109 0.00003565 -0.00008341
0.44499061 0.59841299 0.31360164 -0.00004619 0.00029423 -0.00010954
0.67157710 0.40175912 0.78596818 0.00027158 -0.00033095 0.00009070
0.36855727 0.49536765 0.08095109 0.00010392 -0.00004527 -0.00061369
0.31057751 0.48727611 0.31380445 -0.00037211 -0.00001455 -0.00003663
0.54615438 0.48261815 0.94873989 0.00003997 -0.00008451 0.00035145
0.63030845 0.55573285 0.72212923 -0.00005752 0.00039593 -0.00001876
0.67378581 0.40029851 0.30796310 0.00024853 -0.00020247 -0.00006929
0.59276742 0.46268168 0.08709951 0.00005081 -0.00052428 -0.00017762
0.57206470 0.40230852 0.92904639 0.00010560 -0.00029069 0.00041814
0.40483484 0.54217255 0.77269560 -0.00001063 0.00019507 0.00000361
0.68036675 0.40278620 0.50647026 0.00024200 -0.00027508 -0.00001090
0.35666439 0.54840630 0.39634180 0.00000769 -0.00003917 -0.00010418
0.34126952 0.40633759 0.16434301 -0.00032630 -0.00040308 -0.00031455
0.63745266 0.40186048 0.90682805 0.00018046 -0.00035184 0.00049679
0.53110969 0.59597635 0.42504448 -0.00001896 0.00028904 0.00003800
0.50000006 0.50109082 0.93992525 0.00000024 0.00016370 0.00002591
0.57622325 0.55169034 0.53633904 0.00012053 0.00017450 -0.00004535
0.62603533 0.59475702 0.40612811 0.00018619 0.00024077 0.00004079
0.32872429 0.53579074 0.59569210 -0.00037309 0.00023530 -0.00006328
0.32622346 0.39983803 0.31637368 -0.00022443 -0.00021199 -0.00011379
0.51037979 0.40260100 0.93700850 0.00003139 -0.00026937 0.00041768
0.64400065 0.55077726 0.45748496 0.00010916 -0.00000239 -0.00009778
0.38792396 0.54960221 0.70928186 0.00017503 0.00024205 -0.00006581
0.50000006 0.53259069 0.84025663 0.00000010 0.00019115 0.00024537
0.35161439 0.51821727 0.85052943 0.00024373 0.00015420 0.00017241
0.59123904 0.40031150 0.14454302 0.00020359 -0.00033156 -0.00024155
0.61026281 0.40024528 0.15026562 0.00007242 -0.00038040 -0.00029525
0.68075877 0.40170893 0.43318108 0.00023988 -0.00026751 -0.00010231
0.58658040 0.51801246 0.90857679 -0.00000240 0.00055498 0.00010784
0.40278944 0.49256447 0.93828791 -0.00009930 0.00010307 0.00039830
0.67003751 0.40005103 0.26907521 0.00024424 -0.00027455 -0.00006435
0.66589123 0.53486866 0.49743238 0.00026945 0.00017664 -0.00003126
0.64072883 0.51132333 0.87675959 -0.00015770 0.00028035 0.00000913
0.41341966 0.51801252 0.90857679 0.00000505 0.00055993 0.00011063
0.30836302 0.50845486 0.31373745 -0.00046131 0.00018629 -0.00004859
0.41764936 0.46302217 0.08319313 -0.00009496 -0.00052809 -0.00014214
0.62339288 0.59488326 0.36947668 0.00020245 0.00019704 -0.00015214
0.48894981 0.46676135 0.06317015 -0.00010170 -0.00026684 -0.00032105
0.40217495 0.55189544 0.52694702 0.00001041 0.00016753 -0.00006862
0.60430282 0.54638833 0.74973816 -0.00005223 0.00023963 -0.00006555
0.38120261 0.55525446 0.13398799 -0.00021288 0.00023584 -0.00026832
0.35596940 0.55043793 0.44984069 -0.00010566 -0.00003610 -0.00015137
0.63793468 0.55406612 0.54085654 0.00000367 0.00020716 -0.00008850
0.66083193 0.39994299 0.19129403 0.00029534 -0.00041250 -0.00014630
0.45197785 0.51106644 0.92915535 -0.00002847 0.00038413 0.00015876
0.50000006 0.54465342 0.79540211 0.00000001 0.00024435 0.00021337
0.66240704 0.53472823 0.28926244 -0.00002971 0.00035422 -0.00006773
0.40130481 0.54382920 0.77656674 -0.00000830 0.00023797 0.00002917
0.37203202 0.40196371 0.91109174 -0.00005090 -0.00032249 0.00054113
0.66363585 0.49178171 0.10295385 0.00049105 0.00016124 -0.00034725
0.50389230 0.59597647 0.42657879 -0.00002147 0.00029303 0.00003473
0.35721627 0.55750692 0.55204642 -0.00008574 0.00025530 -0.00005834
0.67435426 0.40233684 0.70828205 0.00024503 -0.00029864 0.00008471
0.67637825 0.53511989 0.63847041 0.00038183 0.00028981 -0.00007427
0.50000000 0.55211920 0.71753383 0.00000001 0.00024606 0.00012707
0.68851089 0.52482021 0.68994892 0.00045593 0.00018742 -0.00008148
0.66195673 0.43319219 0.14294717 0.00039447 0.00000238 -0.00053596
0.54229760 0.52675360 0.89537966 -0.00004628 0.00027106 0.00026630
0.38061953 0.55486262 0.13776268 -0.00021987 0.00021341 -0.00023850
0.33482566 0.39992079 0.22586246 -0.00024419 -0.00032642 -0.00025973
0.37947178 0.55411148 0.14531541 -0.00022971 0.00017132 -0.00018621
0.31904304 0.40189138 0.44612229 -0.00024124 -0.00026897 -0.00009131
0.54826480 0.40240252 0.93345851 0.00003913 -0.00029745 0.00042220
0.54346919 0.46470919 0.07094596 0.00017967 -0.00039477 -0.00021516
0.31476483 0.51271516 0.87432176 -0.00021597 0.00056361 -0.00014312
0.59271419 0.54095167 0.80327141 -0.00004338 0.00025835 0.00009049
0.52100897 0.49125299 0.04701254 0.00011456 -0.00013619 -0.00046001
0.62280732 0.49459428 0.92948687 0.00022249 0.00015345 0.00035290
0.36852238 0.54847807 0.22865462 -0.00012352 -0.00005087 -0.00005956
0.37073427 0.54936177 0.20967554 -0.00014302 -0.00001818 -0.00011210
0.33989075 0.41732123 0.15533791 -0.00036031 -0.00023159 -0.00040132
0.66670376 0.39994243 0.23882632 0.00023105 -0.00031087 -0.00027518
0.48270598 0.40255582 0.93666524 -0.00004624 -0.00027152 0.00041632
0.66411173 0.40146595 0.88698453 0.00056884 -0.00040755 0.00023256
0.54075903 0.55154079 0.54680061 0.00008349 0.00014217 0.00001205
0.39479697 0.54678303 0.74525529 0.00007388 0.00023949 -0.00005716
0.61748606 0.55219275 0.51638365 -0.00014462 0.00013338 -0.00001491
0.48024639 0.40046081 0.13251884 0.00002346 -0.00037654 -0.00015045
0.68348914 0.49264446 0.90649140 0.00038590 0.00001700 0.00063428
0.30910477 0.49444515 0.42320889 -0.00043121 0.00004600 -0.00007906
0.31895545 0.40207794 0.45906040 -0.00024234 -0.00027054 -0.00007564
0.54141062 0.40243146 0.93440843 0.00003853 -0.00029036 0.00042032
0.50000000 0.55277109 0.67298990 0.00000003 0.00022807 -0.00000220
0.35847232 0.53472626 0.16181543 -0.00033248 0.00011183 -0.00007946
0.31278291 0.53189057 0.77374923 -0.00043697 0.00029644 -0.00007594
0.43167248 0.46354836 0.07837071 -0.00008351 -0.00050507 -0.00015156
0.50328940 0.40047413 0.13181344 -0.00000255 -0.00039607 -0.00012070
0.64290333 0.55713612 0.54681104 0.00005986 0.00024656 -0.00010122
0.42933053 0.53191203 0.87208617 0.00009302 0.00037818 0.00013154
0.67970961 0.40304860 0.52369732 0.00023990 -0.00027594 -0.00000690
0.65596640 0.49498001 0.09589312 0.00034861 0.00017221 -0.00045075
0.66088778 0.53454870 0.27707949 0.00000782 0.00033019 -0.00005235
0.31705880 0.48865354 0.90616804 -0.00037798 -0.00010054 0.00061835
0.56623811 0.48498920 0.94575840 0.00006339 -0.00003004 0.00038911
0.35775506 0.54758579 0.36578873 -0.00000654 -0.00000968 -0.00009443
0.34088612 0.39998332 0.17833211 -0.00029052 -0.00045647 -0.00024002
0.33116442 0.53571248 0.42989334 -0.00005742 0.00027493 -0.00003496
0.45802104 0.48243523 0.94925690 -0.00003467 -0.00009396 0.00033795
0.55832583 0.52941817 0.88546091 0.00003292 0.00034555 0.00021742
0.44423831 0.40040457 0.13674168 0.00007452 -0.00031828 -0.00026565
0.61715221 0.58046722 0.23146552 0.00021065 0.00009951 -0.00018772
0.31687582 0.44509971 0.31442261 -0.00036208 0.00020552 -0.00009240
0.34058017 0.41180602 0.15981433 -0.00034491 -0.00032446 -0.00034701
0.50000000 0.42291036 0.09928434 0.00000029 -0.00017569 -0.00047727
0.61885363 0.54382956 0.80222297 -0.00000811 0.00032807 0.00006770
0.37875497 0.54666817 0.78734601 0.00002534 0.00035381 0.00007341
0.31928748 0.40259045 0.49354520 -0.00024281 -0.00027397 -0.00002154
0.65827686 0.40271848 0.16739073 0.00030842 -0.00044841 -0.00029953
0.68104458 0.40207791 0.45906031 0.00024239 -0.00027063 -0.00007519
0.35614949 0.49521235 0.08808500 -0.00009325 0.00007250 -0.00057055
0.31950420 0.40272084 0.50216234 -0.00024229 -0.00027461 -0.00001358
0.58804345 0.40032148 0.14368899 0.00019481 -0.00032669 -0.00024205
0.31240916 0.47318551 0.31392118 -0.00033267 -0.00012516 -0.00004416
0.62707859 0.55285472 0.74735135 -0.00008892 0.00037380 0.00003428
0.50000000 0.60000128 0.38547182 0.00000009 0.00030630 -0.00017927
0.65853125 0.40000075 0.17401171 0.00029095 -0.00046941 -0.00026216
0.36087826 0.53508806 0.14973819 -0.00038178 0.00009509 -0.00004107
0.31995663 0.40135935 0.40729025 -0.00023563 -0.00026502 -0.00013497
0.33398193 0.40150371 0.86622900 -0.00049317 -0.00039620 -0.00005221
0.68735909 0.53189421 0.76536810 0.00044746 0.00028478 -0.00009924
0.65467447 0.53410429 0.23450932 0.00004982 0.00032207 -0.00008747
0.36611187 0.55254591 0.50605673 0.00003152 0.00011770 0.00002240
0.33588326 0.48376176 0.10792840 -0.00046137 0.00001759 -0.00030422
0.50000000 0.59975314 0.33903089 0.00000006 0.00028962 -0.00002002
0.63873708 0.56019080 0.63521951 -0.00000046 0.00031641 -0.00001291
0.67192596 0.53577346 0.60181522 0.00038162 0.00023874 -0.00006734
0.32524562 0.40265208 0.68127793 -0.00023795 -0.00029093 0.00008233
0.57193667 0.49500445 0.94482642 0.00005340 0.00017369 0.00039546
0.35610619 0.55130470 0.46895155 -0.00010476 0.00003798 -0.00001578
0.67135775 0.40012079 0.28203848 0.00025222 -0.00024012 -0.00000817
0.66304892 0.39991689 0.20857780 0.00029155 -0.00036196 -0.00006864
0.67822111 0.40088332 0.36843568 0.00022699 -0.00025448 -0.00023264
0.64361608 0.54878384 0.40780330 0.00001185 -0.00006621 -0.00012157
0.39028254 0.59313440 0.31373271 -0.00001288 0.00024033 -0.00010216
0.57184678 0.46340838 0.07953572 0.00009739 -0.00051281 -0.00014285
0.61729318 0.58139902 0.23713376 0.00021408 0.00009612 -0.00018573
0.30826682 0.50082016 0.55131489 -0.00038982 0.00024589 -0.00002813
0.68085933 0.49434417 0.21676655 0.00046393 0.00007163 -0.00011866
0.58549601 0.40225115 0.92575520 0.00018356 -0.00027439 0.00040836
0.50000000 0.59910947 0.41280481 0.00000005 0.00032272 -0.00005140
0.50000000 0.58909732 0.21370135 0.00000043 0.00029413 -0.00024796
0.35603714 0.54963797 0.43073103 -0.00007968 -0.00010820 -0.00019633
0.47201937 0.52460176 0.90001851 0.00017359 0.00019967 0.00025318
0.60395157 0.40026861 0.14824475 0.00015030 -0.00035984 -0.00026594
0.62212849 0.55284196 0.65044570 -0.00019718 0.00020670 -0.00001469
0.64842212 0.53412652 0.19811469 0.00007774 0.00030958 -0.00019820
0.50000000 0.55688143 0.53547508 -0.00000001 0.00013634 0.00002748
0.41394320 0.49503216 0.06120208 -0.00015316 -0.00006202 -0.00043206
0.46113899 0.59597629 0.42419046 -0.00004020 0.00028937 0.00002710
0.58818161 0.48996091 0.94098663 0.00003015 0.00004539 0.00041764
0.59930074 0.49529493 0.06602513 0.00019892 -0.00009563 -0.00039376
0.45075431 0.40041754 0.13570434 0.00009154 -0.00032479 -0.00025300
0.43696246 0.55161279 0.54094815 -0.00009169 0.00016677 -0.00001047
0.31507918 0.45561481 0.31418529 -0.00033597 0.00002400 -0.00007266
0.50000006 0.51458716 0.89952719 0.00000012 0.00010317 0.00014384
0.43205991 0.53130078 0.87570554 0.00006554 0.00037386 0.00015530
0.69093829 0.49459863 0.43136737 0.00042956 0.00005965 -0.00007898
0.38624993 0.53727418 0.83176690 -0.00014816 0.00027221 0.00013567
0.57885867 0.46314552 0.08194665 0.00010908 -0.00052411 -0.00013594
0.67691064 0.41370529 0.31558990 0.00031033 0.00011293 -0.00011735
0.36878029 0.58102030 0.43846771 -0.00023518 0.00001872 0.00006138
0.46055731 0.40043470 0.13437167 0.00007014 -0.00034098 -0.00021778
0.54951072 0.54845154 0.77286774 0.00010949 0.00027244 0.00007466
0.39696711 0.49438846 0.93622720 -0.00015311 0.00014695 0.00037055
0.66569048 0.39992625 0.23018372 0.00023703 -0.00032037 -0.00028091
0.32462898 0.40676442 0.31595898 -0.00027127 -0.00003663 -0.00011524
0.36089581 0.56020981 0.63005692 -0.00000663 0.00030983 -0.00001711
0.68247080 0.53268421 0.68100059 0.00039500 0.00029234 -0.00009516
0.40836719 0.49479786 0.93961287 -0.00005096 0.00016430 0.00040789
0.35157788 0.53412658 0.19811469 -0.00007757 0.00031035 -0.00019634
0.64000684 0.55977714 0.48506373 0.00007855 0.00013555 0.00004900
0.51525497 0.55074215 0.77190787 -0.00003328 0.00030543 0.00009199
0.56479967 0.46369433 0.07723233 0.00007441 -0.00049409 -0.00016197
0.67316365 0.40197206 0.75016886 0.00025491 -0.00031434 0.00012563
0.63052809 0.49457413 0.92665780 0.00016648 0.00018225 0.00038150
0.42671263 0.59716034 0.31368375 0.00009811 0.00031016 -0.00010559
0.48394799 0.50862765 0.93214256 0.00003860 0.00027077 0.00000674
0.51655895 0.48144844 0.95146662 -0.00001911 -0.00009716 0.00022822
0.32070518 0.40317988 0.53230804 -0.00023773 -0.00027579 -0.00000017
0.60769725 0.52971280 0.86152357 0.00020190 0.00025244 0.00021628
0.50000000 0.56965160 0.10220205 0.00000023 0.00043986 -0.00004208
0.32780057 0.40017459 0.29068038 -0.00025558 -0.00021667 -0.00000627
0.38123336 0.49542698 0.07448511 -0.00002205 -0.00012409 -0.00047331
0.55987275 0.48397708 0.94680858 0.00007172 -0.00005266 0.00037680
0.35674286 0.55494535 0.52057773 -0.00006766 0.00020856 -0.00000598
0.30977058 0.49385089 0.37464726 -0.00040872 0.00002587 -0.00008936
0.68049580 0.40272084 0.50216234 0.00024231 -0.00027478 -0.00001302
0.62737709 0.55022883 0.19450746 0.00017305 0.00000661 -0.00012681
0.52139831 0.50890028 0.93185729 -0.00005107 0.00028681 0.00001194
0.55465627 0.52877063 0.88829911 0.00005763 0.00032968 0.00023883
0.35735202 0.55785477 0.55727768 -0.00010214 0.00026169 -0.00002219
0.38202998 0.58481693 0.25976431 -0.00021273 0.00011144 -0.00018782
0.38896337 0.53354925 0.84643823 -0.00020133 0.00026016 0.00013976
0.50000006 0.54559791 0.79164857 -0.00000002 0.00025303 0.00018987
0.31004199 0.50368237 0.57268137 -0.00036270 0.00025243 -0.00002387
0.63294208 0.53641480 0.11959732 0.00026030 0.00032595 -0.00025091
0.65511137 0.52243131 0.83008665 -0.00027323 0.00013979 0.00020747
0.57574230 0.48688233 0.94394404 0.00004567 0.00000188 0.00040483
0.39302465 0.54754454 0.73628014 0.00011977 0.00023526 -0.00000838
0.35630146 0.40178129 0.90379906 -0.00026815 -0.00036895 0.00045277
0.50599325 0.52147281 0.90176094 -0.00003755 0.00017497 0.00018468
0.68087476 0.40246069 0.48492640 0.00024308 -0.00027337 -0.00003103
0.50000006 0.53878683 0.81787276 0.00000009 0.00021094 0.00027375
0.56873918 0.40037498 0.13917048 0.00002423 -0.00031335 -0.00026698
0.53626531 0.55153304 0.54768425 0.00009782 0.00013537 0.00000769
0.33410886 0.53486866 0.49743238 -0.00026947 0.00017660 -0.00003103
0.35320285 0.40173820 0.90222818 -0.00031412 -0.00037671 0.00043043
0.63770920 0.50769389 0.88837200 -0.00016922 0.00034977 -0.00004365
0.50000000 0.55220699 0.57498670 -0.00000000 0.00016361 -0.00014581
0.36331809 0.55970174 0.66095358 0.00003471 0.00034951 0.00000372
0.36004961 0.54697597 0.32381392 -0.00006578 -0.00003343 -0.00006071
0.40389824 0.59597516 0.41258997 0.00017609 0.00032639 0.00006495
0.60078436 0.40027970 0.14727667 0.00017706 -0.00035133 -0.00025549
0.60339296 0.54598445 0.75421786 -0.00003333 0.00023957 -0.00006385
0.62589216 0.55097687 0.18314089 0.00020423 0.00002256 -0.00008902
0.32807404 0.53577346 0.60181522 -0.00038188 0.00023836 -0.00006735
0.62270623 0.59432197 0.35824674 0.00020728 0.00018740 -0.00013128
0.58850527 0.53886282 0.82100141 -0.00015848 0.00029844 0.00007021
0.37805122 0.59597409 0.40445709 -0.00012100 0.00027787 0.00004591
0.67485595 0.40285841 0.66624749 0.00023321 -0.00028739 0.00007503
0.64388472 0.53445017 0.17390411 0.00021335 0.00020652 -0.00016744
0.40723258 0.46268168 0.08709951 -0.00005067 -0.00052532 -0.00017678
0.67404240 0.53557813 0.62016219 0.00038534 0.00026543 -0.00006725
0.50000006 0.53045499 0.84769875 0.00000009 0.00018511 0.00020643
0.62052822 0.55411142 0.14531541 0.00023125 0.00017040 -0.00018460
0.57988089 0.51608229 0.91568965 -0.00002188 0.00056854 0.00012354
0.61512130 0.40207583 0.91625869 0.00011204 -0.00028606 0.00048395
0.50000000 0.59928590 0.40888873 0.00000005 0.00032096 -0.00007830
0.43131420 0.40232205 0.92978114 -0.00008428 -0.00029430 0.00042133
0.50000000 0.57265431 0.11696036 0.00000030 0.00038319 -0.00018268
0.66250294 0.39992055 0.20425679 0.00030279 -0.00037611 -0.00004340
0.61663020 0.57533181 0.20305102 0.00018897 0.00013442 -0.00021219
0.61187637 0.40209994 0.91745859 0.00013825 -0.00027882 0.00046683
0.67982012 0.42762786 0.31497797 0.00036978 0.00032800 -0.00011075
0.66769087 0.39996532 0.24746895 0.00023218 -0.00030230 -0.00022327
0.35848433 0.54728901 0.35051966 -0.00003098 -0.00001374 -0.00009012
0.62220347 0.55306405 0.15665235 0.00023987 0.00010913 -0.00011438
0.54663903 0.52743948 0.89327234 0.00001880 0.00029361 0.00026603
0.46383190 0.40043983 0.13398731 0.00005449 -0.00034817 -0.00020249
0.69061148 0.49786004 0.31375819 0.00041358 0.00008999 -0.00003932
0.64298469 0.54806542 0.38488233 -0.00001212 -0.00002098 -0.00009808
0.35598570 0.54994917 0.43837467 -0.00009258 -0.00008522 -0.00019375
0.62110168 0.59246653 0.33016327 0.00017434 0.00017432 -0.00012124
0.68294126 0.48865354 0.90616804 0.00038254 -0.00010214 0.00061523
0.68095702 0.40189132 0.44612229 0.00024128 -0.00026905 -0.00009169
0.56090271 0.54706925 0.77295226 0.00018096 0.00025109 0.00005983
0.33641088 0.39991513 0.21289890 -0.00027703 -0.00035043 -0.00013151
0.50000000 0.58583546 0.19123946 0.00000046 0.00030750 -0.00022887
0.64285213 0.54796034 0.38106301 -0.00000930 -0.00001744 -0.00009712
0.50000000 0.59329325 0.24756828 0.00000035 0.00028618 -0.00023026
0.65563989 0.53414297 0.24058382 0.00004540 0.00032292 -0.00007916
0.42377687 0.55169040 0.53633904 -0.00012047 0.00017459 -0.00004526
0.36765739 0.55436748 0.58207464 0.00004644 0.00019752 0.00001571
0.55430269 0.59597611 0.42196357 0.00010040 0.00029410 0.00000256
0.61116964 0.49464911 0.93351871 0.00020763 0.00014572 0.00034548
0.44289294 0.54755771 0.77293235 -0.00016212 0.00025829 0.00006492
0.38548875 0.55050057 0.69574374 0.00018618 0.00023724 -0.00005445
0.37159109 0.55405349 0.60947728 0.00013053 0.00019436 -0.00000698
0.41450399 0.40225121 0.92575520 -0.00018598 -0.00027524 0.00040708
0.62060785 0.59156609 0.31373334 0.00018194 0.00017810 -0.00010901
0.64151567 0.54728901 0.35051966 0.00003098 -0.00001381 -0.00009045
0.69097167 0.50139058 0.31374884 0.00042970 0.00012177 -0.00004182
0.62972140 0.54916751 0.21346967 0.00013698 -0.00002361 -0.00009970
0.42063645 0.49484125 0.05903326 -0.00010009 -0.00006092 -0.00045265
0.50000000 0.59771127 0.29688948 0.00000012 0.00028071 -0.00016991
0.33332819 0.53538942 0.33196676 0.00005253 0.00035523 -0.00004117
0.33406073 0.53485179 0.49128565 -0.00026616 0.00017089 -0.00002924
0.36982951 0.54898220 0.21726468 -0.00013402 -0.00003269 -0.00008905
0.31833959 0.49428228 0.22454271 -0.00046127 0.00006439 -0.00010629
0.66905427 0.53586650 0.37476084 0.00001642 0.00028158 -0.00011145
0.44924048 0.52811146 0.89090759 -0.00005442 0.00031188 0.00025877
0.40728587 0.54095173 0.80327141 0.00004220 0.00025897 0.00009074
0.50000006 0.53978795 0.81413370 0.00000009 0.00021342 0.00027709
0.59516525 0.54217255 0.77269560 0.00000995 0.00019436 0.00000303
0.50000000 0.55288738 0.65071470 0.00000003 0.00021996 -0.00003598
0.39043471 0.54861635 0.72279435 0.00015657 0.00024171 -0.00005032
0.38332108 0.56110787 0.14001361 -0.00020466 0.00025398 -0.00025327
0.44330794 0.48355642 0.94729233 -0.00006689 -0.00005816 0.00037265
0.68022370 0.40285170 0.51077765 0.00024162 -0.00027536 -0.00000956
0.66617030 0.53529900 0.32586035 -0.00005933 0.00036673 -0.00004524
0.37425733 0.55235702 0.51136088 0.00010008 0.00012084 0.00000770
0.31126025 0.52203333 0.67319208 -0.00044663 0.00017841 -0.00009107
0.63609368 0.54719436 0.27428186 0.00009450 -0.00005466 -0.00002775
0.37860098 0.55265409 0.65498662 0.00019941 0.00020977 -0.00001465
0.33115867 0.53582126 0.36864239 -0.00001613 0.00028019 -0.00011152
0.50350970 0.48939884 0.04561879 0.00002064 -0.00015020 -0.00048591
0.68579054 0.52136606 0.84918618 0.00014047 0.00039043 0.00005019
0.60861874 0.40212271 0.91862214 0.00016276 -0.00027290 0.00045107
0.34075153 0.53438652 0.26490518 -0.00002648 0.00032376 -0.00005130
0.50000000 0.59499729 0.43225384 0.00000003 0.00029046 0.00006177
0.46160775 0.49271464 0.04937019 -0.00012847 -0.00013512 -0.00043432
0.32117862 0.40331095 0.54091680 -0.00023465 -0.00027557 0.00000727
0.37432170 0.55362284 0.62770689 0.00016965 0.00019666 -0.00002072
0.33410478 0.53490168 0.50357980 -0.00027350 0.00018216 -0.00003365
0.37071529 0.58609194 0.42673826 -0.00022141 0.00005527 0.00003793
0.33064479 0.53589481 0.41150334 -0.00002145 0.00029009 -0.00005374
0.50000000 0.58628970 0.45518899 0.00000004 0.00024452 0.00006956
0.42087442 0.53430402 0.85613984 0.00017401 0.00037581 0.00004344
0.50000006 0.54745775 0.78413421 -0.00000008 0.00026962 0.00014732
0.64325714 0.55494535 0.52057773 0.00006772 0.00020854 -0.00000616
0.43418595 0.59597594 0.41986081 -0.00007795 0.00029928 0.00000331
0.48532787 0.46649766 0.06394102 -0.00013637 -0.00027294 -0.00030946
0.67422694 0.40227589 0.71427453 0.00024637 -0.00030062 0.00008960
0.50000000 0.44479838 0.07733690 0.00000032 -0.00008030 -0.00048515
0.50000000 0.56374174 0.51634210 0.00000001 0.00016795 0.00006120
0.36086482 0.55386966 0.53168088 -0.00001878 0.00020408 -0.00004726
0.35636500 0.55203795 0.48424003 -0.00008732 0.00008042 0.00002218
0.57724965 0.59597570 0.41740760 -0.00003385 0.00030806 0.00002607
0.55860990 0.55159324 0.54230523 0.00008098 0.00016296 -0.00000113
0.40119180 0.59454262 0.31372848 0.00011894 0.00028768 -0.00009764
0.47695866 0.40045717 0.13275185 0.00002919 -0.00037100 -0.00015986
0.37396467 0.59475702 0.40612811 -0.00018611 0.00024085 0.00004100
0.66067499 0.42195213 0.15164819 0.00037086 -0.00013955 -0.00045903
0.65118915 0.52014178 0.84176910 -0.00026251 0.00014487 0.00019404
0.31998312 0.49440536 0.20900030 -0.00046537 0.00008250 -0.00013794
0.67340159 0.40026554 0.30364257 0.00025067 -0.00020423 -0.00004780
0.32487562 0.40401876 0.58822715 -0.00017698 -0.00026375 0.00004490
