0.425049 0.448677 0.010163 0.0498144 0.249532 0.967084
0.109475 0.018446 0.010163 -0.127432 0.0154713 0.991727
0.422545 0.467692 -0.010163 0.0504814 0.321025 -0.945724
0.312222 0.424818 0.010163 0.059053 0.187785 0.980433
0.448322 0.269167 -0.010163 0.322269 0.0112738 -0.946581
0.2563 -0.176486 0.010163 0.110505 -0.0379267 0.993152
0.269326 0.325568 0.010163 0.0686973 0.112547 0.991269
0.098025 -0.353881 -0.010163 -0.103484 -0.10688 -0.988872
0.340133 0.328573 0.010163 0.0542199 0.13373 0.989534
0.112074 -0.031438 0.010163 -0.120842 0.0934898 0.988259
0.377666 0.477614 -0.010163 0.0563707 0.140222 -0.988514
0.146115 -0.469209 -0.010163 0.00265449 -0.24904 -0.968489
0.027243 0.240154 -0.010163 -0.328914 0.00125643 -0.944359
0.348192 -0.224029 -0.010163 0.167173 -0.0382114 -0.985187
0.4045 0.035439 0.010163 0.218417 -0.0109035 0.975795
0.48693 -0.300363 0.010163 -0.158943 -0.023285 0.987013
0.143468 0.5 -0.000289977 0.00889566 0.996499 -0.0831322
0.396605 -0.111811 0.010163 0.256392 -0.0241715 0.966271
0.298048 0.5 -0.00285399 0.0755651 0.863853 -0.498044
0.328675 0.077779 0.010163 0.175692 0.00729535 0.984418
0.362384 0.064556 -0.010163 0.15119 -0.00134591 -0.988504
0.5 -0.017424 0.00455999 0.817835 0.0120986 0.575325
0.475199 -0.285817 -0.010163 0.212557 0.00797787 -0.977116
0.10775 -0.5 0.00450802 -0.0404953 -0.881225 0.470959
0.488083 -0.242341 0.010163 -0.160357 -0.0561453 0.985461
0.201151 0.427115 -0.010163 -0.000765259 0.216003 -0.976392
0.5 -0.18195 -0.00379401 0.807628 -0.0195344 -0.589369
0.355681 -0.144135 0.010163 0.149182 -0.0372343 0.988109
0.163249 -0.196816 -0.010163 -0.0262681 -0.0744315 -0.99688
0.357147 0.410412 0.010163 0.0404196 0.15129 0.987663
0.327566 -0.379145 -0.010163 0.0557419 -0.15879 -0.985738
0.030073 -0.122566 0.010163 -0.451771 -0.0563982 0.89035
0.466828 -0.452759 0.010163 0.34184 -0.196491 0.918987
0.383772 0.079068 0.010163 0.255581 0.00186349 0.966786
0.411524 0.253503 0.010163 0.249204 0.0101671 0.968398
0.186767 -0.038666 0.010163 -0.0397597 -0.0281355 0.998813
0.232253 -0.175491 -0.010163 0.0902809 -0.0683096 -0.993571
0.226386 0.207339 0.010163 0.0754304 0.0393418 0.996375
0.300779 0.452601 -0.010163 0.0301574 0.355231 -0.934292
0.010473 0.493504 -0.010163 -0.0298401 0.0445222 -0.998563
0.445611 -0.040828 0.010163 0.316839 -0.0161781 0.948341
0.00428402 0.251483 0.010163 -0.732396 0.106655 0.672473
0.23157 0.15538 0.010163 0.0814333 0.0553059 0.995143
0.064546 -0.124581 -0.010163 -0.394514 -0.0849887 -0.914951
0.418482 -0.366985 -0.010163 0.173627 -0.0804942 -0.981516
0.268101 -0.376634 -0.010163 0.0461873 -0.0938949 -0.99451
0.390238 -0.113731 0.010163 0.18743 -0.0205113 0.982064
0.192913 0.008681 -0.010163 0.0518015 0.0143935 -0.998554
0.291224 0.203289 -0.010163 0.110898 0.0669728 -0.991573
0.268901 -0.327389 -0.010163 0.0752093 -0.120402 -0.989872
0.085803 0.085686 -0.010163 -0.26768 0.00999447 -0.963456
0.079693 0.466828 -0.010163 -0.0659128 0.421767 -0.904306
0.339098 0.041497 -0.010163 0.161864 0.000803031 -0.986813
0.346128 0.315713 0.010163 0.215862 0.135535 0.966971
0.412276 -0.225847 0.010163 0.211761 -0.0568325 0.975668
0.306553 -0.119349 0.010163 0.143223 -0.0289869 0.989266
0.290488 0.111227 0.010163 0.119895 0.0274865 0.992406
0.256013 0.113357 -0.010163 0.103044 0.0175517 -0.994522
0.203607 -0.013731 -0.010163 0.0240577 0.0820019 -0.996342
0.168137 0.192162 0.010163 -0.0438735 0.111665 0.992777
0.302316 0.460441 -0.010163 0.0060332 0.359139 -0.933265
0.253912 0.096193 -0.010163 0.0988578 0.0330625 -0.994552
0.18897 0.46356 -0.010163 0.0428825 0.356417 -0.933343
0.227915 0.404939 0.010163 0.059762 0.226926 0.972077
0.5 -0.108123 -0.003236 0.793378 -0.0418883 -0.607286
0.253926 0.047056 0.010163 0.103282 0.0336536 0.994083
0.0116249 -0.212278 0.010163 -0.425898 -0.0749642 0.90166
0.47368 -0.177684 -0.010163 0.261042 -0.0402757 -0.964487
0.467533 0.324837 0.010163 0.435908 0.0734549 0.896988
0.237648 0.073975 0.010163 0.0642673 0.108418 0.992026
0.120343 0.140084 0.010163 -0.16078 0.0729275 0.984292
0.017892 0.227133 0.010163 -0.246268 0.0811405 0.965799
0.219216 -0.433604 0.010163 0.00657762 -0.282542 0.959232
0.223417 -0.276149 -0.010163 0.0539378 -0.0815083 -0.995212
0.207128 -0.406491 -0.010163 0.019549 -0.155933 -0.987574
0.170484 -0.482281 -0.010163 0.0328817 0.114115 -0.992923
0.055512 0.236817 -0.010163 -0.303637 -0.0308867 -0.952287
0.247053 0.423065 -0.010163 0.0824844 0.182514 -0.979737
0.374052 0.250397 0.010163 0.22323 0.0785929 0.971592
0.256398 -0.361831 0.010163 0.0388314 -0.140653 0.989297
0.441947 0.336991 -0.010163 0.201479 0.0381993 -0.978748
0.0558689 -0.346811 0.010163 -0.244016 -0.155267 0.957261
0.29616 0.320115 0.010163 0.131392 0.101652 0.986105
0.123306 0.413247 0.010163 -0.001451 0.223505 0.974702
0.024197 0.442718 0.010163 -0.0632313 0.247745 0.96676
0.443104 -0.10809 -0.010163 0.236718 -0.0514966 -0.970213
0.086898 0.016372 0.010163 -0.27509 -0.00610349 0.961399
0.428674 0.302211 -0.010163 0.182216 0.00646453 -0.983237
0.075485 0.137432 -0.010163 -0.22665 0.00295856 -0.973972
0.088953 0.161555 -0.010163 -0.197999 0.0482027 -0.979016
0.314001 0.174684 0.010163 0.199526 0.0543508 0.978384
0.207878 0.301436 0.010163 0.0904297 0.136291 0.986533
0.123867 0.43527 -0.010163 0.0440515 0.260267 -0.964531
0.414317 0.299655 0.010163 0.22472 0.067612 0.972075
0.48766 -0.33488 0.010163 -0.170526 -0.0487068 0.984149
0.313917 0.000787973 0.010163 0.195066 -0.0274759 0.980405
0.362645 0.116965 -0.010163 0.181282 0.0117832 -0.983361
0.179456 -0.168483 -0.010163 -0.0085655 -0.0536635 -0.998522
0.203457 0.485213 0.010163 -0.0108006 -0.0894198 0.995935
0.184742 0.412332 -0.010163 -0.0221662 0.212702 -0.976866
0.424196 0.409017 0.010163 0.153103 -0.0223978 0.987956
0.020839 -0.419723 0.010163 -0.0200939 -0.126336 0.991784
0.346357 -0.214596 0.010163 0.249748 -0.0639246 0.966199
0.433355 -0.259922 0.010163 0.286833 -0.0815478 0.954504
0.425186 -0.080819 0.010163 0.219437 0.0509014 0.974298
0.158024 0.416257 0.010163 0.0603232 0.286856 0.956072
0.305916 0.258858 0.010163 0.103542 0.0821638 0.991226
0.198661 0.20616 -0.010163 0.046804 0.0590138 -0.997159
0.463608 -0.127857 -0.010163 0.389106 -0.0147907 -0.921074
0.452382 0.319995 -0.010163 0.332063 0.0316324 -0.942727
0.447775 -0.187258 0.010163 0.356627 0.00231746 0.934244
0.397619 -0.00756598 -0.010163 0.164864 0.00111894 -0.986316
0.246133 0.259673 0.010163 0.1747 0.129634 0.976051
0.272618 -0.073287 -0.010163 0.125018 -0.0233495 -0.99188
0.099881 0.487874 0.010163 -0.0734466 -0.125042 0.989429
0.16751 0.00883299 -0.010163 -0.0859974 0.00423267 -0.996286
0.257844 -0.213489 -0.010163 0.114409 -0.0741291 -0.990664
0.285939 0.424441 0.010163 0.0391962 0.17068 0.984547
0.21214 0.269391 0.010163 0.103718 0.0814712 0.991264
0.126003 -0.427011 -0.010163 -0.0286546 -0.209074 -0.97748
0.161504 0.444346 -0.010163 0.0325819 0.265223 -0.963636
0.134285 0.413936 0.010163 -0.0238115 0.307835 0.951142
0.222726 0.358653 -0.010163 0.00508293 0.109678 -0.993954
0.431958 0.154177 0.010163 0.295898 0.000613412 0.955219
0.455408 0.254211 0.010163 0.356718 0.0236688 0.933912
0.227448 0.136214 0.010163 0.0862305 0.0394132 0.995495
0.131447 -0.5 0.00110894 -0.0527358 -0.997887 0.0379523
0.084433 0.224937 -0.010163 -0.234799 0.0698522 -0.969531
0.283507 -0.450379 -0.010163 0.0601362 -0.286294 -0.956253
0.061338 0.046665 0.010163 -0.412339 -0.0249179 0.91069
0.464462 0.486623 0.010163 0.294678 -0.11808 0.948273
0.213956 -0.040591 0.010163 0.0681588 -0.0555438 0.996127
0.0610039 0.153205 -0.010163 -0.369883 -0.0103841 -0.92902
0.112424 -0.22914 -0.010163 -0.0885715 -0.0899873 -0.991997
0.424835 0.383099 0.010163 0.14259 0.161744 0.976477
0.5 -0.483901 -0.004713 0.589671 0.488178 -0.643405
0.421185 -0.480335 0.010163 0.0517044 0.0797483 0.995473
0.304838 -0.019572 0.010163 0.0831687 -0.00196385 0.996534
0.47777 -0.5 0.00339901 0.142455 -0.847012 0.51213
0.276081 -0.237195 0.010163 0.125332 -0.0776322 0.989073
0.349704 -0.057898 0.010163 0.239091 -0.064526 0.968851
0.344524 -0.079703 0.010163 0.237118 0.020439 0.971266
0.15287 0.238111 -0.010163 -0.100024 0.0378713 -0.994264
0.305733 -0.257531 0.010163 0.12752 -0.0872439 0.987992
0.252512 0.484646 0.010163 0.0479935 -0.0942917 0.994387
0.047221 -0.217052 0.010163 -0.444076 0.00743853 0.895958
0.070406 0.475577 -0.010163 -0.0334447 0.230338 -0.972536
0.296398 0.45837 -0.010163 0.0540171 0.320765 -0.945617
0.149365 -0.209822 -0.010163 -0.0706973 -0.0972918 -0.992742
0.307474 -0.300218 0.010163 0.0460294 -0.108453 0.993035
0.274712 0.287275 -0.010163 0.103242 0.0736802 -0.991923
0.454851 0.083794 -0.010163 0.379754 -0.0133122 -0.924992
0.145434 -0.07929 -0.010163 -0.038141 0.016467 -0.999137
0.453402 -0.343619 -0.010163 0.308465 -0.0295043 -0.950778
0.449758 0.079364 -0.010163 0.364302 -0.00902521 -0.931237
0.39206 0.443688 -0.010163 0.0292222 0.201541 -0.979044
0.357747 0.294978 0.010163 0.128849 0.141117 0.981572
0.185965 -0.053576 0.010163 -0.0282428 -0.0493295 0.998383
0.15562 0.147167 -0.010163 -0.0208375 0.0599261 -0.997985
0.311286 0.23207 -0.010163 0.166405 0.06273 -0.98406
0.207501 0.036478 -0.010163 0.0674549 0.00183721 -0.997721
0.36513 -0.202021 0.010163 0.210082 -0.0275004 0.977297
0.30174 0.321749 -0.010163 0.0731629 0.0536338 -0.995877
0.242136 -0.262603 -0.010163 0.102494 -0.0935238 -0.990327
0.145438 -0.356647 -0.010163 -0.00328101 -0.104818 -0.994486
0.082203 0.423731 0.010163 -0.163907 0.195531 0.966903
0.5 0.357505 -0.00304598 0.848572 0.0244362 -0.528515
0.382727 -0.339603 0.010163 0.228206 -0.0522766 0.972208
0.052447 -0.100752 0.010163 -0.467959 0.00454658 0.883738
0.480353 -0.090191 -0.010163 0.033873 -0.0248182 -0.999118
0.02074 0.0964819 0.010163 -0.268162 0.0479227 0.962181
0.281948 -0.07933 -0.010163 0.117961 0.00655563 -0.992997
0.234239 -0.417141 -0.010163 0.0193984 -0.236535 -0.971429
0.105642 -0.421399 0.010163 -0.0758546 -0.252237 0.964688
0.122929 0.174321 0.010163 -0.0794581 0.0773916 0.993829
0.371185 -0.446424 -0.010163 0.0788228 -0.21455 -0.973527
0.061928 -0.107948 -0.010163 -0.379045 -0.0206898 -0.925147
0.361587 0.036019 -0.010163 0.154681 -0.00620537 -0.987945
0.15624 0.031797 -0.010163 -0.00953472 -0.0142475 -0.999853
0.473984 0.416139 0.010163 0.30719 0.05858 0.949844
0.00959599 -0.441835 -0.010163 -0.229716 -0.167248 -0.95878
0.276169 -0.093031 0.010163 0.152354 -0.0555863 0.986762
0.232217 0.00392598 0.010163 0.100369 0.0357796 0.994307
0.5 -0.369161 0.00952798 0.457994 -0.0322345 0.888371
0.115918 0.205293 0.010163 -0.156759 0.0582417 0.985918
0.242493 -0.307987 -0.010163 0.101761 -0.0654168 -0.992656
0.389958 -0.240884 -0.010163 0.128205 -0.0534456 -0.990307
0.344601 -0.030815 -0.010163 0.155426 0.0190623 -0.987664
0.128404 0.49445 0.010163 -0.0281932 0.0131621 0.999516
0.127258 0.0261679 0.010163 -0.128215 0.040846 0.990905
0.09368 -0.438001 0.010163 -0.0857504 -0.243746 0.966041
0.41341 0.324513 0.010163 0.23508 0.0152536 0.971856
0.09788 0.448378 0.010163 -0.0722184 0.417151 0.905963
0.185504 -0.366998 0.010163 -0.0261671 -0.142821 0.989403
0.120338 -0.031434 -0.010163 -0.105093 0.0338085 -0.993887
0.092596 0.361362 0.010163 -0.114701 0.151176 0.98183
0.124611 0.05143 0.010163 -0.109053 -0.0245206 0.993733
0.473076 -0.245455 -0.010163 0.25952 -0.0409296 -0.96487
0.428731 0.069187 0.010163 0.199548 0.000720514 0.979888
0.232817 0.358591 -0.010163 0.00315997 0.162513 -0.986701
0.493274 0.105149 -0.010163 -0.0284104 0.0547548 -0.998096
0.192347 -0.313175 0.010163 0.0436172 -0.209741 0.976784
0.014181 -0.141973 -0.010163 -0.147339 -0.064661 -0.98697
0.411568 0.5 -0.00876999 0.0558207 0.529762 -0.846307
0.057383 0.234247 0.010163 -0.355117 -0.0480557 0.933586
0.437523 0.040854 -0.010163 0.264789 0.0178494 -0.964141
0.081155 0.202089 0.010163 -0.364359 -0.00381359 0.931251
0.424722 -0.393364 -0.010163 0.112444 -0.0932569 -0.989272
0.440208 0.378724 -0.010163 0.167688 0.0494446 -0.984599
0.003838 -0.382006 0.010163 -0.683493 -0.0605983 0.727437
0.429127 -0.1895 0.010163 0.232521 -0.0291691 0.972154
0.295537 -0.226481 -0.010163 0.184261 -0.119067 -0.975639
0.489036 -0.106804 0.010163 -0.204858 -0.0267243 0.978427
0.286055 0.264591 0.010163 0.0759271 0.129325 0.988691
0.00752699 -0.036519 -0.010163 -0.607137 -0.0863224 -0.789894
0.11013 -0.290498 0.010163 -0.0406546 -0.0696949 0.99674
0.41586 0.0887039 -0.010163 0.261617 -0.00502214 -0.965159
0.156447 0.40432 0.010163 0.0286153 0.230511 0.972649
0.43694 0.063667 0.010163 0.269971 -0.0364995 0.962176
0.064718 -0.076821 -0.010163 -0.369856 0.0540171 -0.927517
0.416978 0.028555 -0.010163 0.215274 -0.0335911 -0.975976
0.181261 0.319163 -0.010163 0.0246893 0.10243 -0.994434
0.486458 -0.224338 0.010163 -0.166897 -0.0488661 0.984763
0.477618 -0.408121 -0.010163 0.0989384 0.00962631 -0.995047
0.0714779 0.354831 -0.010163 -0.181335 0.0506184 -0.982118
0.052523 -0.130815 0.010163 -0.395976 -0.00344558 0.918254
0.170594 -0.491379 -0.010163 0.0555156 0.0811285 -0.995156
0.030566 -0.085851 0.010163 -0.534736 0.000884746 0.845019
0.187115 -0.464259 0.010163 0.0165307 -0.383085 0.923565
0.096892 -0.410363 -0.010163 -0.0669996 -0.125068 -0.989883
0.464346 -0.254382 -0.010163 0.325746 -0.0274371 -0.945059
0.159647 0.226706 0.010163 -0.00950746 0.106217 0.994298
0.133253 0.368844 0.010163 -0.0842277 0.141065 0.986411
0.313722 0.307447 0.010163 0.137523 0.0848034 0.986862
0.180044 0.484019 0.010163 0.0524698 -0.0617355 0.996712
0.389896 0.382554 0.010163 0.125692 0.180715 0.975471
0.242121 -0.000975013 0.010163 0.126564 0.0284649 0.99155
0.175981 -0.5 0.00581598 0.0443908 -0.786542 0.615939
0.5 0.358093 0.00336403 0.889176 -0.0719692 0.45187
0.00529099 -0.485978 0.010163 -0.326034 0.090225 0.941043
0.105816 0.394863 0.010163 0.0216073 0.199348 0.979691
0.186605 -0.292874 -0.010163 0.00161371 -0.0915475 -0.995799
0.253609 -0.43229 0.010163 0.0687253 -0.241139 0.968054
0.383323 -0.241656 -0.010163 0.182996 -0.0652518 -0.980946
0.073779 0.461826 -0.010163 -0.024529 0.406649 -0.913255
0.00187898 -0.260362 0.010163 -0.793755 -0.0145139 0.608065
0.00181299 0.13461 0.010163 -0.77175 -0.0434855 0.634438
0.444954 0.395549 0.010163 0.232164 0.0896814 0.968533
0.287926 -0.137007 0.010163 0.0767877 -0.0575636 0.995384
0.122439 -0.492431 0.010163 -0.00587846 0.113803 0.993486
0.143277 0.029319 -0.010163 -0.0676853 -0.0662914 -0.995502
0.138722 0.321953 -0.010163 -0.0567694 0.079641 -0.995206
0.214938 -0.181258 0.010163 0.0834821 -0.0447612 0.995503
0.243961 0.188125 0.010163 0.116309 0.0217573 0.992975
0.5 -0.423839 0.00906998 0.532306 0.0104606 0.846487
0.285523 0.146115 0.010163 0.0964701 0.0783204 0.99225
0.079341 -0.265572 -0.010163 -0.229616 -0.105985 -0.967493
0.146212 -0.107558 -0.010163 -0.00219992 -0.0609153 -0.998141
0.152469 -0.099819 -0.010163 -0.0385829 0.0102479 -0.999203
0.42459 0.00191998 -0.010163 0.234754 0.00793163 -0.972022
0.466563 0.226999 -0.010163 0.355198 0.0845576 -0.930959
0.244786 0.256209 -0.010163 0.0672998 0.0572147 -0.996091
0.02637 -0.409628 -0.010163 -0.184676 -0.0798314 -0.979552
0.07191 -0.071067 0.010163 -0.311568 -0.0527224 0.94876
0.019539 0.217332 -0.010163 -0.159461 -0.00594324 -0.987186
0.154799 0.484425 -0.010163 0.022122 -0.102797 -0.994456
0.065468 0.079036 -0.010163 -0.424661 -0.00582485 -0.905334
0.145345 -0.480708 0.010163 0.0372705 0.103097 0.993973
0.120571 0.0818399 0.010163 -0.135713 -0.0136582 0.990654
0.342653 -0.058414 0.010163 0.167327 -0.0480193 0.984731
0.0645189 -0.428421 0.010163 -0.182355 -0.210606 0.960412
0.246699 0.24542 0.010163 0.139457 0.137111 0.98069
0.039786 -0.364798 -0.010163 -0.270349 -0.165697 -0.948396
0.2701 -0.00924301 -0.010163 0.0899093 -0.0281752 -0.995551
0.301312 -0.229708 -0.010163 0.118587 -0.155263 -0.98073
0.0521 -0.155216 0.010163 -0.415788 -0.0291814 0.908993
0.431752 0.056896 0.010163 0.298079 0.0490672 0.953279
0.5 0.468826 0.00152999 0.865093 0.453385 0.214607
0.328734 -0.326182 -0.010163 0.165416 -0.0598453 -0.984406
0.24167 0.194426 -0.010163 0.0539708 0.105028 -0.993004
0.26678 0.008497 -0.010163 0.117336 -0.0110498 -0.993031
0.019256 0.255545 0.010163 -0.157881 -0.0837866 0.983897
0.0997149 -0.490338 0.010163 -0.0434931 0.181955 0.982345
0.013463 -0.338893 0.010163 -0.113178 -0.105016 0.988009
0.201357 0.037622 -0.010163 -0.0387465 0.0225682 -0.998994
0.0837799 0.247234 -0.010163 -0.208263 0.10302 -0.972632
0.468269 -0.432149 -0.010163 0.272639 -0.0801263 -0.958774
0.483408 -0.012563 -0.010163 -0.0464137 0.0214339 -0.998692
0.139572 0.31253 0.010163 0.0199797 0.164924 0.986104
0.200957 0.048863 0.010163 -0.0148003 0.000223766 0.99989
0.090095 0.0618169 -0.010163 -0.232175 0.0161031 -0.972541
0.302089 0.416812 0.010163 0.0504842 0.241661 0.969047
0.0392429 -0.042137 0.010163 -0.458998 -0.0290295 0.887963
0.048378 -0.373197 0.010163 -0.346385 -0.0393961 0.937265
0.256236 -0.017021 -0.010163 0.0837843 0.00323671 -0.996479
0.098573 0.372468 0.010163 -0.139001 0.120175 0.982973
0.474014 0.34242 -0.010163 0.274043 0.0371978 -0.960998
0.148911 0.242909 0.010163 -0.0962258 0.104018 0.98991
0.339517 0.473563 -0.010163 0.0260254 0.261383 -0.964884
0.328497 -0.443841 0.010163 0.114175 -0.233859 0.965543
0.43573 -0.031251 -0.010163 0.281097 0.0331235 -0.959107
0.00137699 -0.139419 -0.010163 -0.816424 -0.0156981 -0.577239
0.295619 0.484782 -0.010163 0.0509021 -0.0931533 -0.99435
0.484621 -0.324981 0.010163 -0.117422 -0.0231074 0.992813
0.124785 0.198906 -0.010163 -0.0873289 0.033217 -0.995626
0.00651997 0.144104 0.010163 -0.568532 0.0671896 0.819913
0.475056 -0.211908 0.010163 0.274784 -0.026711 0.961135
0.156583 0.5 -0.002877 0.04479 0.86769 -0.495084
0.2756 -0.208661 0.010163 0.130799 -0.104502 0.985886
0.310786 -0.098798 0.010163 0.163936 -0.0488467 0.985261
0.301307 0.370881 0.010163 0.0515945 0.130272 0.990135
0.364781 0.306564 -0.010163 0.185047 0.0648438 -0.980588
0.056806 -0.079325 0.010163 -0.435854 0.00849634 0.899977
0.124037 -0.039578 0.010163 -0.0764488 -0.0555912 0.995523
0.463297 -0.36436 -0.010163 0.323506 -0.0334003 -0.945637
0.179252 -0.328521 -0.010163 0.0560804 -0.142772 -0.988165
0.211794 -0.167914 -0.010163 0.0986745 0.0100497 -0.995069
0.322935 0.269183 0.010163 0.116597 0.0856614 0.989478
0.383513 0.372411 -0.010163 0.200038 0.0832809 -0.976242
0.259866 -0.499749 0.010163 0.0142722 -0.509192 0.860535
0.334816 0.140486 -0.010163 0.142675 0.0473305 -0.988637
0.144603 0.270404 0.010163 -0.0193843 0.0928109 0.995495
0.133469 -0.290203 -0.010163 -0.0590332 -0.030793 -0.997781
0.492933 -0.167611 -0.010163 -0.112695 0.0257547 -0.993296
0.098537 -0.27001 0.010163 -0.192666 -0.0136536 0.98117
0.36755 -0.275704 -0.010163 0.196276 -0.0678615 -0.978198
0.138868 0.071862 0.010163 -0.0740216 0.0467227 0.996162
0.275793 0.25193 0.010163 0.112007 0.0649864 0.99158
0.454753 -0.401447 -0.010163 0.258217 -0.0665214 -0.963794
0.422584 -0.349866 -0.010163 0.139472 -0.0431001 -0.989288
0.395812 0.235619 0.010163 0.220447 0.0232761 0.975121
0.374298 -0.250233 0.010163 0.186293 -0.0489654 0.981273
0.309188 -0.47952 0.010163 0.0788984 0.0566884 0.995269
0.071434 0.343358 0.010163 -0.170501 0.126196 0.977243
0.294038 -0.365742 0.010163 0.0690235 -0.16829 0.983318
0.255841 0.03961 0.010163 0.122705 0.0508345 0.99114
0.00151402 -0.112242 0.010163 -0.844738 -0.00492961 0.535158
0.018712 0.110287 -0.010163 -0.319931 0.148152 -0.935786
0.361162 -0.433147 0.010163 0.0935964 -0.21219 0.972736
0.35192 0.396946 0.010163 0.116789 0.185278 0.975722
0.162405 0.403826 -0.010163 -0.0140166 0.167366 -0.985795
0.460291 -0.451901 -0.010163 0.203939 -0.21223 -0.955702
0.441042 0.240007 0.010163 0.254022 0.0343643 0.966588
0.354854 0.057623 0.010163 0.117535 0.0768283 0.990092
0.255224 -0.368084 0.010163 0.101361 -0.176714 0.979029
0.256156 -0.446443 -0.010163 0.00589472 -0.24093 -0.970525
0.019628 0.055894 -0.010163 -0.299884 -0.00691245 -0.953951
0.200738 -0.475219 0.010163 0.0150456 -0.166092 0.985996
0.49499 0.382768 -0.010163 0.0555164 0.0870689 -0.994654
0.084467 -0.214045 0.010163 -0.269102 -0.0570023 0.961423
0.277339 0.121688 -0.010163 0.12531 0.0611851 -0.990229
0.462704 -0.076953 0.010163 0.376946 -0.0259932 0.925871
0.144382 0.458922 -0.010163 0.0229345 0.351031 -0.936083
0.379567 0.083949 0.010163 0.240553 0.0504907 0.969322
0.478585 0.324134 -0.010163 0.08419 0.044754 -0.995444
0.410071 -0.438195 0.010163 0.0712142 -0.177949 0.981459
0.177631 0.494131 -0.010163 0.0596512 -0.0762123 -0.995306
0.408904 0.151311 0.010163 0.157486 0.0315236 0.987018
0.06863 -0.402532 0.010163 -0.20689 -0.206369 0.956352
0.186799 0.126631 -0.010163 0.00662684 0.041042 -0.999135
0.176311 0.1275 -0.010163 0.00785062 0.0102458 -0.999917
0.13348 -0.250064 -0.010163 -0.0783452 -0.103804 -0.991507
0.190372 0.352101 -0.010163 0.0757107 0.136406 -0.987756
0.450226 0.164302 0.010163 0.372327 0.0406806 0.92721
0.468205 -0.492069 -0.010163 0.195829 0.204628 -0.959051
0.093551 0.463604 -0.010163 0.00256644 0.415671 -0.909512
0.27565 0.0934849 -0.010163 0.108297 0.0272916 -0.993744
0.481395 0.131047 0.010163 0.0626993 0.0372396 0.997337
0.00337094 0.206117 0.010163 -0.790519 -0.0684811 0.608597
0.46148 -0.320292 -0.010163 0.312194 -0.0306982 -0.949522
0.442836 0.223207 0.010163 0.254987 0.0439427 0.965945
0.191449 0.39139 -0.010163 0.0603533 0.132289 -0.989372
0.120234 -0.457658 -0.010163 -0.00792388 -0.277952 -0.960562
0.459243 -0.221649 0.010163 0.390385 -0.00148473 0.92065
0.235942 -0.302613 -0.010163 0.0710499 -0.0643975 -0.995392
0.417838 0.463779 -0.010163 0.081569 0.30538 -0.94873
0.249957 0.088014 0.010163 0.0529686 0.0657072 0.996432
0.174572 -0.358068 -0.010163 0.052569 -0.123833 -0.99091
0.142695 -0.240873 -0.010163 -0.0278522 -0.070655 -0.997112
0.02374 0.10555 -0.010163 -0.297475 0.126721 -0.946283
0.292446 0.359089 0.010163 0.121327 0.11425 0.986016
0.262192 0.15404 -0.010163 0.13645 0.0579972 -0.988948
0.461592 0.00345999 -0.010163 0.331885 0.00180589 -0.943318
0.475644 0.246764 0.010163 0.238714 0.100048 0.965922
0.245344 -0.046437 -0.010163 0.11705 0.00929747 -0.993082
0.218428 0.39651 0.010163 0.0254935 0.206151 0.978188
0.47244 -0.111603 0.010163 0.336684 -0.00238673 0.941615
0.355743 0.145656 0.010163 0.160871 0.0332373 0.986416
0.240372 0.316704 -0.010163 0.0681845 0.119571 -0.990481
0.046006 0.333482 0.010163 -0.378736 0.138813 0.915035
0.137119 0.079723 0.010163 -0.0880759 -0.0058461 0.996097
0.16125 0.26205 -0.010163 -0.00933899 0.0978048 -0.995162
0.109163 0.075525 0.010163 -0.22718 0.0684753 0.971442
0.435563 -0.217648 0.010163 0.312597 0.020513 0.949664
0.207497 0.111013 -0.010163 0.0659357 0.0135799 -0.997731
0.325886 0.252606 0.010163 0.133521 0.0839114 0.987487
0.433822 -0.037549 -0.010163 0.288866 -0.0125224 -0.957288
0.022726 0.401168 0.010163 -0.0964493 0.133113 0.986397
0.445788 0.460933 -0.010163 0.131132 0.193732 -0.972251
0.088385 0.451642 0.010163 -0.0293323 0.431586 0.901595
0.264041 0.077404 0.010163 0.184922 0.0378326 0.982025
0.319192 0.127142 0.010163 0.136836 0.0965686 0.985876
0.25602 0.18911 0.010163 0.0825987 0.0323215 0.996059
0.413843 -0.297947 0.010163 0.192092 -0.0896699 0.977272
0.430245 0.048027 0.010163 0.262287 -0.00314752 0.964985
0.161815 0.455691 -0.010163 0.0313907 0.359959 -0.93244
0.41806 -0.221076 0.010163 0.260989 0.033866 0.964748
0.462059 -0.360194 0.010163 0.352618 -0.0775544 0.932548
0.36513 0.391019 0.010163 0.119521 0.109155 0.986813
0.494017 -0.2078 -0.010163 -0.0147879 -0.0379998 -0.999168
0.387162 0.260551 0.010163 0.199642 0.12845 0.971413
0.342419 0.011058 0.010163 0.190601 -0.0257498 0.98133
0.183055 0.347878 0.010163 -0.0202415 0.190242 0.981528
0.019665 0.305503 0.010163 -0.140834 0.0962752 0.985341
0.144749 -0.39262 0.010163 0.0117035 -0.163608 0.986456
0.440785 0.189291 -0.010163 0.217933 0.0355296 -0.975317
0.10524 -0.302766 0.010163 -0.0599986 -0.0446199 0.997201
0.074676 0.093747 0.010163 -0.34577 0.000968792 0.938319
0.472855 -0.261718 0.010163 0.30658 -0.0781324 0.948633
0.146613 0.187815 -0.010163 -0.0324599 0.053472 -0.998042
0.17097 -0.250508 0.010163 -0.0142884 -0.101949 0.994687
0.215267 -0.46524 -0.010163 0.0565418 -0.300447 -0.952121
0.409266 -0.279423 0.010163 0.146165 -0.0937231 0.98481
0.404402 0.488974 -0.010163 0.0252297 -0.200309 -0.979408
0.441072 0.117643 0.010163 0.250622 -0.0212245 0.967852
0.060966 -0.434488 0.010163 -0.191824 -0.268218 0.944067
0.338799 0.099071 -0.010163 0.0662671 -5.81146e-05 -0.997802
0.0785229 0.299555 0.010163 -0.224336 0.113866 0.967837
0.203875 0.373483 0.010163 -0.0359003 0.150697 0.987928
0.264596 0.270562 -0.010163 0.073197 0.0656325 -0.995156
0.022069 -0.157314 0.010163 -0.257087 0.00683866 0.966364
0.342796 -0.102882 -0.010163 0.15347 -0.00567958 -0.988137
0.224763 -0.016571 0.010163 0.0910919 -0.00492038 0.99583
0.416584 0.0412819 -0.010163 0.19346 -0.00817356 -0.981074
0.453652 0.03987 -0.010163 0.347298 0.0114356 -0.937685
0.112502 0.345877 0.010163 -0.0763168 0.192035 0.978416
0.14018 0.268557 -0.010163 0.0150271 0.0429864 -0.998963
0.348501 -0.313333 -0.010163 0.204553 -0.121726 -0.971257
0.304558 -0.174433 -0.010163 0.127775 -0.0393091 -0.991024
0.327069 0.333983 -0.010163 0.158749 0.100275 -0.982214
0.392184 -0.464135 -0.010163 0.0478226 -0.208186 -0.976919
0.011542 0.269569 -0.010163 -0.267181 -0.0227437 -0.963378
0.473677 -0.12446 0.010163 0.319226 0.0152418 0.947556
0.110469 -0.38728 -0.010163 -0.0226839 -0.19262 -0.981011
0.497902 -0.110013 -0.010163 0.237076 -0.0334278 -0.970916
0.336065 -0.275484 0.010163 0.16373 -0.0427599 0.985578
0.083805 0.304978 0.010163 -0.200131 0.0710808 0.977187
0.131206 0.072431 0.010163 -0.109457 0.0936916 0.989566
0.072029 0.467876 -0.010163 -0.0315455 0.455336 -0.889761
0.090869 -0.379496 -0.010163 -0.068369 -0.214775 -0.974268
0.123055 -0.117847 -0.010163 -0.053823 -0.0160854 -0.998421
0.485994 0.084196 0.010163 -0.0976839 -0.0674054 0.992932
0.332083 0.2232 0.010163 0.167417 0.0727281 0.9832
0.071557 -0.059092 -0.010163 -0.271098 0.0103518 -0.962496
0.055554 -0.035878 0.010163 -0.460082 -0.0357136 0.887158
0.00440198 0.158045 0.010163 -0.721049 0.0207204 0.692574
0.190923 -0.200337 0.010163 0.0976932 -0.0302052 0.994758
0.301796 0.323655 0.010163 0.120703 0.0983706 0.987803
0.0851089 -0.280635 -0.010163 -0.18613 -0.0886136 -0.978521
0.140342 0.182344 -0.010163 -0.0749996 0.0230452 -0.996917
0.422589 0.319967 -0.010163 0.163886 0.116676 -0.979555
0.133723 -0.108526 -0.010163 -0.094909 -0.0610843 -0.99361
0.043305 -0.205799 -0.010163 -0.408639 -0.0265624 -0.912309
0.169754 -0.121711 0.010163 -0.0302401 -0.0900358 0.995479
0.226252 0.119547 -0.010163 0.0977378 0.0436698 -0.994254
0.278453 -0.100018 0.010163 0.195459 0.00684187 0.980688
0.017022 0.478016 -0.010163 0.263101 0.212759 -0.941016
0.126965 -0.435543 -0.010163 -0.00798986 -0.252461 -0.967574
0.05793 -0.133628 0.010163 -0.355565 -0.0122271 0.934572
0.352818 -0.219229 -0.010163 0.17114 0.0192887 -0.985058
0.423265 -0.233175 0.010163 0.222174 0.000229068 0.975007
0.273724 -0.154792 -0.010163 0.100134 -0.00386463 -0.994967
0.212487 -0.299175 -0.010163 0.0829601 -0.146417 -0.985738
0.28649 0.18726 -0.010163 0.0962304 0.026166 -0.995015
0.491595 -0.247296 0.010163 -0.167968 -0.0609069 0.983909
0.47037 0.105794 -0.010163 0.351631 0.0398672 -0.93529
0.213991 0.271537 -0.010163 0.0858852 0.0898485 -0.992245
0.028678 0.110814 -0.010163 -0.421714 0.071981 -0.903867
0.5 -0.06997 -0.00314599 0.748446 0.00148257 -0.663194
0.290822 0.283417 0.010163 0.0725277 0.0642907 0.995292
0.33026 0.142239 0.010163 0.202727 0.0527149 0.977815
0.442836 -0.107759 0.010163 0.284104 -0.0993104 0.953636
0.268613 0.432749 -0.010163 -0.00279727 0.239446 -0.970906
0.248359 -0.205157 -0.010163 0.105932 -0.0300753 -0.993918
0.055079 -0.239492 -0.010163 -0.297256 -0.0295726 -0.95434
0.484564 0.222846 -0.010163 -0.123116 -0.00916211 -0.99235
0.243201 -0.286828 0.010163 0.0949543 -0.0829947 0.992016
0.069334 -0.262676 -0.010163 -0.222053 -0.0980421 -0.970093
0.309384 -0.155491 -0.010163 0.118051 -0.0190335 -0.992825
0.257002 0.075063 0.010163 0.100504 0.0573674 0.993281
0.304562 0.196514 -0.010163 0.126448 0.0342741 -0.991381
0.331054 -0.102432 0.010163 0.198608 -0.0595164 0.97827
0.335707 -0.127346 -0.010163 0.13659 -0.0388708 -0.989865
0.090996 0.255652 -0.010163 -0.137828 0.0699653 -0.987982
0.065419 -0.18794 0.010163 -0.369136 -0.0646475 0.927124
0.278784 -0.391236 -0.010163 0.146403 -0.131712 -0.980417
0.270928 0.14826 0.010163 0.0930281 0.0310213 0.99518
0.237337 -0.275882 -0.010163 0.0772645 -0.0912516 -0.992826
0.166806 -0.286429 -0.010163 -0.0145315 -0.0942665 -0.995441
0.309777 -0.327176 -0.010163 0.0998124 -0.081765 -0.991641
0.5 -0.300103 0.003178 0.851751 -0.0101125 0.52385
0.034716 -0.156494 -0.010163 -0.413242 -0.0373407 -0.909855
0.434593 0.129015 -0.010163 0.249271 0.0370222 -0.967726
0.148823 -0.494014 -0.010163 -0.0222544 -0.0824641 -0.996346
0.353403 -0.5 0.00236499 0.0455717 -0.947113 0.317648
0.49677 -0.230582 0.010163 0.16691 -0.042366 0.985061
0.162227 0.205904 0.010163 0.0186605 0.0472301 0.99871
0.204278 -0.49194 -0.010163 -0.0340463 0.083808 -0.9959
0.443141 -0.118328 0.010163 0.269545 0.020601 0.962767
0.35342 -0.037928 0.010163 0.192631 -0.029473 0.980829
0.239052 0.5 -0.00416899 0.0350564 0.818584 -0.573316
0.399283 0.018917 -0.010163 0.214643 0.0130203 -0.976606
0.139066 -0.363141 -0.010163 0.00905856 -0.129551 -0.991531
0.321948 0.239646 0.010163 0.143662 0.0232361 0.989354
0.093387 -0.340388 0.010163 -0.151338 -0.0903787 0.984342
0.136034 -0.494044 0.010163 -0.0123097 -0.0616165 0.998024
0.343413 -0.243838 0.010163 0.155058 -0.0752078 0.985039
0.191785 -0.173946 -0.010163 0.0298017 -0.0831111 -0.996095
0.449085 -0.16301 -0.010163 0.361483 -0.0337266 -0.931769
0.019457 -0.153504 -0.010163 -0.177923 0.0599099 -0.982219
0.2755 -0.283991 0.010163 0.1241 -0.100516 0.987166
0.035194 0.420454 0.010163 -0.267392 0.169905 0.94849
0.421337 0.137744 0.010163 0.231186 0.0142793 0.972805
0.329823 -0.449516 -0.010163 0.0511518 -0.240659 -0.969261
0.058113 0.151026 0.010163 -0.40416 -0.0409121 0.913773
0.425512 -0.034049 -0.010163 0.188804 0.00610909 -0.981996
0.450786 -0.409582 0.010163 0.325827 -0.0118051 0.945356
0.164064 0.241562 0.010163 0.0123078 0.0958054 0.995324
0.250951 0.263493 -0.010163 0.0630259 0.0933373 -0.993638
0.489715 0.28403 0.010163 -0.191828 0.0507901 0.980113
0.04282 -0.00018698 0.010163 -0.466053 0.0459438 0.883563
0.322621 0.478314 -0.010163 0.0151758 0.117872 -0.992913
0.153141 0.099253 -0.010163 -0.0635274 0.0340243 -0.9974
0.278035 -0.467787 -0.010163 0.0590509 -0.274446 -0.959788
0.175626 0.345499 -0.010163 0.0588845 0.145745 -0.987568
0.169672 0.302663 0.010163 -0.0388565 0.0695448 0.996822
0.107249 -0.381575 -0.010163 -0.0428154 -0.221619 -0.974193
0.274334 -0.475209 0.010163 0.0528237 -0.0982728 0.993757
0.270027 -0.213169 0.010163 0.100109 -0.0934962 0.990574
0.398477 0.491958 0.010163 0.113779 -0.0792623 0.990339
0.216431 -0.426571 0.010163 0.00626593 -0.211782 0.977297
0.258587 0.205436 -0.010163 0.116731 0.0747114 -0.990349
0.274506 0.212187 -0.010163 0.109853 0.0795438 -0.99076
0.202789 0.459365 0.010163 0.00632454 0.408311 0.912821
0.220612 -0.477477 -0.010163 0.0290719 -0.0314394 -0.999083
0.259928 0.0781269 -0.010163 0.129552 -0.00782721 -0.991542
0.332653 -0.332242 0.010163 0.140131 -0.136278 0.98071
0.11301 -0.251263 0.010163 -0.115329 -0.0957641 0.988701
0.036952 0.459783 -0.010163 -0.0941606 0.40848 -0.907897
0.432951 -0.218875 -0.010163 0.198268 0.00552229 -0.980132
0.209845 0.267176 -0.010163 0.069988 0.0874718 -0.993705
0.448499 -0.429169 -0.010163 0.175644 -0.0442462 -0.983459
0.4742 0.323472 0.010163 0.32239 0.0847875 0.942802
0.450236 -0.336264 0.010163 0.311938 -0.0163291 0.949962
0.146658 -0.470148 0.010163 0.04232 -0.311884 0.949177
0.0635439 -0.048413 -0.010163 -0.398034 0.0370035 -0.916624
0.375568 0.34172 0.010163 0.16223 0.0595259 0.984956
0.054678 -0.02801 0.010163 -0.455697 0.0729108 0.887144
0.486752 -0.472123 -0.010163 -0.211914 -0.158686 -0.964319
0.481555 -0.208874 0.010163 0.00789211 -0.00445242 0.999959
0.242409 -0.331908 0.010163 0.149139 -0.151672 0.977115
0.454249 -0.298269 -0.010163 0.306149 -0.0270573 -0.951599
0.290198 0.244891 -0.010163 0.108261 0.0860651 -0.99039
0.216317 -0.136573 -0.010163 0.0355704 -0.00408519 -0.999359
0.391533 -0.5 0.004893 0.0476996 -0.83708 0.544997
0.021414 0.183373 -0.010163 -0.176207 -0.0832627 -0.980825
0.302754 0.395408 -0.010163 0.0251188 0.137873 -0.990131
0.39397 0.10506 -0.010163 0.170173 0.0545135 -0.983905
0.149245 0.472648 0.010163 -0.00774665 0.385234 0.922786
0.033726 -0.48216 0.010163 -0.231003 0.100275 0.967772
0.194329 0.148043 0.010163 0.0744048 0.037496 0.996523
0.319251 -0.087178 0.010163 0.167884 -0.0314406 0.985305
0.484658 -0.368176 -0.010163 -0.100928 -0.0355919 -0.994257
0.017088 -0.118629 -0.010163 -0.215447 0.0759782 -0.973555
0.00554901 0.013665 -0.010163 -0.64165 0.0249415 -0.766592
0.498705 0.060398 0.010163 0.343516 -0.000187398 0.939147
0.103505 -0.172963 0.010163 -0.206837 -0.0404366 0.977539
0.494096 -0.461482 -0.010163 -0.155847 -0.0937848 -0.983319
0.018162 -0.238472 -0.010163 -0.2246 -0.0573092 -0.972764
0.328263 0.467847 0.010163 0.0891214 0.400614 0.911902
0.295181 -0.031463 -0.010163 0.126214 0.0327251 -0.991463
0.49181 0.275854 0.010163 -0.144458 0.0491669 0.988289
0.283095 -0.304322 -0.010163 0.120346 -0.0552681 -0.991192
0.358017 0.334032 -0.010163 0.104175 0.0534018 -0.993124
0.376773 0.458708 -0.010163 0.0535676 0.295877 -0.953723
0.367871 0.430018 0.010163 0.0979157 0.202423 0.974391
0.222595 -0.10537 0.010163 0.0549025 -0.0348969 0.997882
0.336612 0.108178 0.010163 0.154453 0.05495 0.986471
0.183562 -0.191689 -0.010163 -0.00615613 -0.070476 -0.997495
0.24542 -0.221459 -0.010163 0.117786 -0.0684495 -0.990677
0.42685 0.407945 -0.010163 0.0925778 0.0187579 -0.995529
0.162354 -0.372268 -0.010163 -0.0381792 -0.10806 -0.993411
0.303575 0.343674 -0.010163 0.0561781 0.130308 -0.989881
0.160708 -0.405023 0.010163 0.0108678 -0.23446 0.972065
0.458298 0.42976 0.010163 0.268138 0.0695335 0.960868
0.177964 0.466273 0.010163 0.0873253 0.467614 0.879609
0.308656 -0.111603 -0.010163 0.101368 -0.029306 -0.994417
0.453442 -0.418014 0.010163 0.351844 -0.0701142 0.933429
0.243005 0.329659 0.010163 0.139183 0.172709 0.975089
0.016331 -0.075303 -0.010163 -0.292694 -0.0850477 -0.952416
0.244596 0.211389 0.010163 0.144203 0.11195 0.983195
0.226629 0.311758 0.010163 0.0577581 0.173841 0.983078
0.113732 -0.066766 -0.010163 -0.179819 0.0176631 -0.983541
0.089192 0.241654 -0.010163 -0.12038 0.0508538 -0.991425
0.217975 0.353808 0.010163 0.0529599 0.142248 0.988413
0.324804 0.102937 0.010163 0.122173 0.00744389 0.992481
0.480379 0.342069 -0.010163 0.0743877 0.0388393 -0.996473
0.380149 0.282468 -0.010163 0.145899 0.0773646 -0.98627
0.406984 -0.432741 -0.010163 0.0337374 -0.182849 -0.982562
0.461868 -0.00274998 -0.010163 0.345535 -0.0385264 -0.937615
0.437914 0.203461 -0.010163 0.229011 0.0224008 -0.973166
0.387515 -0.00491202 -0.010163 0.176746 -0.0121846 -0.984181
0.134972 0.245723 0.010163 -0.0587617 0.139217 0.988517
0.261192 -0.021148 -0.010163 0.140336 -0.0229818 -0.989837
0.00937903 -0.324475 0.010163 -0.253269 -0.0991267 0.962304
0.235129 0.351851 -0.010163 -0.015173 0.139086 -0.990164
0.284575 -0.431646 0.010163 0.0438648 -0.277861 0.959619
0.141993 -0.122672 0.010163 -0.0519797 -0.0749181 0.995834
0.133587 0.363534 -0.010163 -0.0436551 0.166299 -0.985109
0.262629 0.308211 -0.010163 0.0895139 0.0536691 -0.994538
0.225815 -0.273778 0.010163 0.0657658 -0.112399 0.991484
0.387414 0.023196 -0.010163 0.198675 0.0205375 -0.97985
0.038248 -0.137948 -0.010163 -0.392219 -0.038173 -0.919079
0.5 0.265185 -0.00240701 0.871261 0.0980424 -0.480928
0.41462 -0.088162 -0.010163 0.216415 -0.00911871 -0.976259
0.000603974 0.47548 0.010163 -0.585944 0.167776 0.792793
0.31442 0.0278739 -0.010163 0.162193 -0.0267965 -0.986395
0.433259 0.388737 -0.010163 0.179052 0.0945904 -0.979282
0.219278 0.165199 -0.010163 0.0303124 -0.00680555 -0.999517
0.389647 -0.0976 -0.010163 0.169883 -0.0133623 -0.985374
0.317155 -0.029338 0.010163 0.169792 -0.00228322 0.985477
0.17647 0.309222 0.010163 0.0473329 0.109661 0.992841
0.348928 -0.324095 -0.010163 0.185359 -0.0703589 -0.980149
0.07047 0.373778 -0.010163 -0.174097 0.150044 -0.97323
0.204692 0.250408 0.010163 0.0212726 0.0892355 0.995783
0.2691 -0.08554 0.010163 0.0866935 -0.0526042 0.994845
0.251465 0.04392 -0.010163 0.0467107 0.00720792 -0.998882
0.446504 0.418045 -0.010163 0.226937 0.116807 -0.966879
0.290991 0.224446 0.010163 0.0731563 0.0710122 0.994789
0.068012 -0.281695 -0.010163 -0.266396 -0.070351 -0.961293
0.351127 0.271677 0.010163 0.152447 0.0732484 0.985593
0.272872 0.5 0.00348997 0.0728183 0.858139 0.508227
0.035853 0.338436 -0.010163 -0.277568 0.097957 -0.955699
0.379435 0.135901 -0.010163 0.226885 -0.0200367 -0.973715
0.430617 0.472097 0.010163 0.0705749 0.270858 0.960029
0.259378 0.476439 0.010163 0.0860163 0.247068 0.965173
0.369383 -0.295417 -0.010163 0.13931 -0.0596556 -0.98845
0.120801 -0.418646 0.010163 -0.0077501 -0.274015 0.961694
0.03564 0.29445 0.010163 -0.353986 0.131615 0.925943
0.359608 -0.205036 0.010163 0.183499 -0.0696951 0.980546
0.455737 -0.167833 0.010163 0.422675 0.0160512 0.906139
0.00764602 -0.308123 0.010163 -0.436681 -0.0517532 0.898126
0.100018 -0.228322 0.010163 -0.187776 -0.151385 0.970475
0.5 0.056518 -0.010148 0.43466 0.0348998 -0.899918
0.262006 -0.186791 0.010163 0.119203 -0.0296936 0.992426
0.4273 0.491586 -0.010163 0.00824677 -0.170114 -0.98539
0.05575 0.356259 0.010163 -0.302538 0.116345 0.94601
0.174233 0.332658 -0.010163 0.0606909 0.149265 -0.986933
0.103259 -0.209991 0.010163 -0.185447 -0.0778306 0.979567
0.165665 -0.110617 -0.010163 -0.0314772 -0.0528698 -0.998105
0.15902 -0.415855 -0.010163 -0.00169214 -0.240703 -0.970597
0.429084 -0.177854 0.010163 0.229476 -0.0634704 0.971243
0.482479 0.361808 0.010163 -0.00188963 0.0196728 0.999805
0.089248 0.335651 0.010163 -0.131121 0.141807 0.981172
0.323409 -0.039867 -0.010163 0.131958 -0.0547325 -0.989743
0.464098 0.010575 0.010163 0.434716 -0.0350237 0.899886
0.187356 0.289081 -0.010163 0.0234116 0.0404348 -0.998908
0.319011 -0.268242 0.010163 0.121523 -0.042477 0.991679
0.122816 -0.5 0.00168502 0.0409506 -0.995448 0.086065
0.16842 0.109686 -0.010163 -0.0699925 0.0593483 -0.995781
0.31633 0.377457 0.010163 0.0986652 0.165876 0.981198
0.395486 -0.421568 0.010163 0.115805 -0.134077 0.984181
0.390054 0.029359 -0.010163 0.149317 -0.0479605 -0.987625
0.114307 -0.183916 -0.010163 -0.076963 -0.00107261 -0.997033
0.086073 -0.416672 0.010163 -0.102216 -0.294108 0.950291
0.251832 -0.096196 0.010163 0.0689785 -0.0142725 0.997516
0.314096 0.064085 -0.010163 0.183745 -0.0440534 -0.981986
0.225317 0.042947 0.010163 0.101018 0.0140075 0.994786
0.203309 -0.279785 -0.010163 0.0122018 -0.132065 -0.991166
0.081407 -0.40888 0.010163 -0.210021 -0.183212 0.960377
0.170178 0.088604 0.010163 -0.0488884 0.0494419 0.99758
0.201655 0.417448 0.010163 -0.0112961 0.271312 0.962425
0.293144 0.39403 -0.010163 0.0639331 0.137418 -0.988448
0.23608 0.388651 0.010163 0.0756459 0.160884 0.98407
0.357034 0.180518 0.010163 0.124673 0.0676603 0.989888
0.00910902 -0.189834 0.010163 -0.525996 0.0483062 0.849114
0.257017 0.421694 0.010163 0.0737865 0.228224 0.970809
0.208818 0.33301 -0.010163 0.0903745 0.190099 -0.977597
0.493584 -0.03192 -0.010163 -0.0348756 0.0256171 -0.999063
0.209677 -0.495871 -0.010163 0.0153389 -0.168426 -0.985595
0.441666 0.163812 -0.010163 0.228388 0.0197365 -0.97337
0.199954 0.127673 0.010163 0.0421019 0.0516284 0.997778
0.137503 0.5 -0.00284702 0.00423769 0.893115 -0.449808
0.274973 -0.277448 0.010163 0.125569 -0.122871 0.984447
0.071248 -0.42655 -0.010163 -0.122284 -0.141792 -0.982314
0.441593 0.425634 -0.010163 0.135895 0.0597698 -0.988919
0.382097 -0.073721 0.010163 0.246742 -0.0336321 0.968497
0.5 0.136832 -0.00825799 0.510841 0.025969 -0.859283
0.207863 -0.341231 0.010163 0.0240445 -0.173644 0.984515
0.274454 0.294516 -0.010163 0.0986548 0.119218 -0.987955
0.412675 0.366568 0.010163 0.195649 0.122778 0.972958
0.458011 0.013337 0.010163 0.383029 -0.0669328 0.921308
0.390627 0.030068 0.010163 0.166679 -0.0228082 0.985747
0.168814 0.146317 0.010163 -0.0667826 0.0706378 0.995264
0.080261 -0.173877 -0.010163 -0.291979 -0.0965897 -0.951535
0.290158 -0.468115 -0.010163 0.0549413 -0.231758 -0.971221
0.463377 0.204449 -0.010163 0.344898 0.0471628 -0.937455
0.1169 -0.28215 0.010163 -0.0981073 -0.14522 0.984523
0.328192 -0.071877 -0.010163 0.158241 -0.029947 -0.986946
0.412934 0.403934 -0.010163 0.162731 0.0952863 -0.982059
0.00639701 -0.137117 0.010163 -0.694396 0.0454238 0.718158
0.083171 -0.19498 -0.010163 -0.295125 -0.109717 -0.949138
0.233824 -0.269256 -0.010163 0.0425322 -0.0760082 -0.9962
0.21966 -0.453186 0.010163 0.00629607 -0.380883 0.924602
0.487531 -0.092597 0.010163 -0.16075 -0.0368606 0.986307
0.5 0.050176 0.00376099 0.869035 -0.0257545 0.49408
0.0552689 0.105771 0.010163 -0.404169 0.0540195 0.913088
0.299401 0.044175 0.010163 0.124952 -0.0378288 0.991441
0.176765 -0.2285 -0.010163 0.0336292 -0.109083 -0.993464
0.373704 -0.43327 -0.010163 0.054272 -0.193013 -0.979694
0.186911 0.485392 -0.010163 0.0573644 -0.107571 -0.992541
0.214661 0.451755 0.010163 0.0104428 0.389573 0.920936
0.21476 -0.232346 0.010163 0.0490748 -0.071316 0.996246
0.160425 -0.256244 0.010163 -0.00432773 -0.0781925 0.996929
0.20085 0.430232 0.010163 0.0172906 0.25871 0.9658
0.274234 0.074612 0.010163 0.16479 0.0326073 0.98579
0.0474339 0.440712 0.010163 -0.292748 0.186343 0.937857
0.120013 -0.059664 -0.010163 -0.119237 -0.00650104 -0.992845
0.39394 -0.232423 0.010163 0.156209 -0.0537848 0.986259
0.08036 0.369329 -0.010163 -0.15784 0.116872 -0.980524
0.215427 -0.316443 0.010163 0.02178 -0.131891 0.991025
0.033143 -0.218153 0.010163 -0.402438 -0.00770039 0.915415
0.107066 0.069358 -0.010163 -0.130839 0.0280084 -0.991008
0.486224 -0.464532 -0.010163 -0.163759 -0.160232 -0.973401
0.462608 0.00375199 0.010163 0.411271 -0.00438791 0.911502
0.434739 0.312996 0.010163 0.303936 0.0932703 0.948116
0.045783 -0.386331 0.010163 -0.378562 -0.1554 0.912437
0.189558 0.397821 -0.010163 0.0198207 0.189282 -0.981723
0.134601 0.429458 0.010163 -0.00302534 0.290642 0.956827
0.42412 0.418228 -0.010163 0.0725363 0.131681 -0.988635
0.437054 0.30575 -0.010163 0.223333 0.0277381 -0.974347
0.355268 -0.072306 -0.010163 0.172566 -0.0572797 -0.983331
0.370341 0.456839 -0.010163 0.0480406 0.309797 -0.949588
0.44884 0.403511 -0.010163 0.277851 0.0634128 -0.958529
0.352282 0.459544 0.010163 0.0529918 0.342613 0.937981
0.017698 0.231439 -0.010163 -0.194847 0.0053512 -0.980819
0.11674 -0.14228 -0.010163 -0.15819 -0.0661534 -0.98519
0.26114 -0.439587 -0.010163 0.0443971 -0.186993 -0.981357
0.018095 0.434948 -0.010163 -0.00339792 0.17233 -0.985033
0.00783998 0.019862 -0.010163 -0.500461 0.0945781 -0.860577
0.187794 0.242818 0.010163 -0.0456045 0.110713 0.992806
0.12864 0.187423 -0.010163 -0.0818159 0.0378751 -0.995928
0.034157 -0.248276 0.010163 -0.440602 -0.0967447 0.892474
0.467201 0.31228 -0.010163 0.367069 0.0805998 -0.926695
0.11874 0.443934 0.010163 -0.0494254 0.382963 0.922441
0.145857 0.156031 0.010163 -0.0499129 0.115031 0.992107
0.077825 0.179688 -0.010163 -0.256603 0.0647813 -0.964344
0.037468 0.380255 0.010163 -0.342692 0.198694 0.918195
0.446059 0.263538 -0.010163 0.28456 0.0592979 -0.956823
0.118067 0.041649 0.010163 -0.152533 0.02041 0.988088
0.170993 0.325817 -0.010163 -0.00275413 0.113018 -0.993589
0.065912 0.096331 0.010163 -0.39556 -0.0195756 0.918231
0.046904 -0.337371 0.010163 -0.371357 -0.0663705 0.926115
0.050901 -0.474286 -0.010163 -0.162877 -0.128613 -0.978228
0.09753 0.090776 -0.010163 -0.205062 0.0694996 -0.976278
0.372454 0.471707 -0.010163 0.0395436 0.303799 -0.951915
0.438008 0.264793 0.010163 0.236806 0.0395761 0.970751
0.018487 0.472086 -0.010163 0.212965 0.366415 -0.905752
0.120914 -0.127132 0.010163 -0.13179 -0.0365449 0.990604
0.359892 0.260793 0.010163 0.166024 0.0849352 0.982457
0.34075 -0.135167 -0.010163 0.130515 -0.0154892 -0.991325
0.056375 -0.466153 0.010163 -0.110489 -0.349143 0.930533
0.283458 -0.095451 0.010163 0.111711 -0.0273176 0.993365
0.032833 -0.473297 0.010163 -0.240721 -0.318348 0.916901
0.225216 0.43604 -0.010163 0.0740036 0.264186 -0.961628
0.436637 0.038654 0.010163 0.286693 -0.0306991 0.957531
0.175673 0.1509 0.010163 0.00413931 0.0154596 0.999872
0.335059 -0.325392 -0.010163 0.127719 -0.0941475 -0.987332
0.474872 -0.493338 -0.010163 0.116222 0.212072 -0.970319
0.220682 -0.153536 0.010163 0.0600013 -0.0242071 0.997905
0.207569 -0.255184 0.010163 0.0482397 -0.100176 0.9938
0.02899 -0.185204 0.010163 -0.437922 0.0476667 0.897748
0.067348 -0.133163 0.010163 -0.352958 -0.0306895 0.935136
0.127496 0.138061 -0.010163 -0.105908 0.0460049 -0.993311
0.495648 0.041775 0.010163 0.0482099 0.0566227 0.997231
0.388553 0.46204 0.010163 0.0629212 0.364265 0.929167
0.328755 -0.357379 -0.010163 0.0956492 -0.08229 -0.992008
0.354414 -0.271646 -0.010163 0.128267 -0.0482839 -0.990564
0.279662 0.2581 0.010163 0.125417 0.0999739 0.987054
0.299008 0.034695 -0.010163 0.158876 -0.014299 -0.987195
0.479821 -0.5 0.00938302 -0.0462404 -0.349868 0.935657
0.470381 -0.471131 0.010163 0.368177 -0.226596 0.901721
0.308692 -0.140293 0.010163 0.161147 -0.0551314 0.985389
0.289308 -0.033325 -0.010163 0.0754783 -0.0195484 -0.996956
0.314945 -0.317421 0.010163 0.153854 -0.101203 0.982897
0.19957 -0.091569 0.010163 -0.0244827 -0.0617726 0.99779
0.391046 0.041776 -0.010163 0.1934 -0.000906712 -0.98112
0.057252 -0.051752 0.010163 -0.413239 0.0330734 0.910022
0.179486 0.339803 -0.010163 0.0341463 0.0786836 -0.996315
0.380093 0.301717 0.010163 0.23329 -0.00464461 0.972396
0.103463 -0.388303 -0.010163 -0.0310344 -0.162388 -0.986239
0.391868 0.311551 -0.010163 0.114641 0.0857642 -0.989698
0.236561 0.072013 -0.010163 0.0599496 0.0686696 -0.995837
0.15144 -0.293562 -0.010163 -0.0494337 -0.115302 -0.9921
0.173239 0.0801679 0.010163 0.0185981 0.0604309 0.997999
0.169494 0.210757 0.010163 -0.0245613 0.0502353 0.998435
0.0910249 -0.106318 -0.010163 -0.154482 -0.0347267 -0.987385
0.043199 0.298365 -0.010163 -0.327313 0.135953 -0.935084
0.33079 0.430311 0.010163 0.140324 0.207376 0.968145
0.481635 0.164076 -0.010163 -0.00854884 -0.0135508 -0.999872
0.095726 -0.5 -0.00624299 -0.0118345 -0.709555 -0.704551
0.349408 -0.401316 0.010163 0.131609 -0.224139 0.96563
0.249398 0.055321 -0.010163 0.118719 0.0206975 -0.992712
0.0870569 0.151763 0.010163 -0.277558 0.0275616 0.960313
0.125431 -0.00889999 -0.010163 -0.0356469 0.00657528 -0.999343
0.305624 0.17475 0.010163 0.0757526 0.0612742 0.995242
0.028639 -0.093911 -0.010163 -0.458905 0.0377452 -0.887683
0.337647 -0.231737 0.010163 0.124776 -0.0824908 0.98875
0.146462 -0.327201 -0.010163 -0.0321373 -0.123518 -0.991822
0.192751 -0.450117 0.010163 0.0951599 -0.388773 0.916406
0.38252 -0.141974 0.010163 0.271248 -0.0397009 0.96169
0.379776 0.321225 -0.010163 0.170591 0.0411453 -0.984483
0.472186 -0.11777 0.010163 0.360229 0.0505602 0.931493
0.099148 0.481189 0.010163 -0.0698375 0.0699896 0.9951
0.304224 0.075118 -0.010163 0.111216 0.0325956 -0.993262
0.309949 -0.44281 -0.010163 0.0581494 -0.189743 -0.98011
0.346218 0.399673 0.010163 0.14351 0.214722 0.966074
0.043259 0.033474 -0.010163 -0.445102 -0.0301916 -0.894971
0.073445 -0.379899 0.010163 -0.18836 -0.15659 0.969536
0.217284 0.480963 0.010163 0.0475496 0.0521412 0.997507
0.20466 0.282124 0.010163 0.0243956 0.11052 0.993574
0.105883 -0.309186 -0.010163 -0.0505091 -0.10251 -0.993449
0.354251 -0.00430298 -0.010163 0.154016 0.0224812 -0.987812
0.192133 -0.308992 -0.010163 0.0435304 -0.0924486 -0.994765
0.306618 -0.104267 0.010163 0.137063 -0.0781486 0.987475
0.136336 0.116847 0.010163 -0.114077 0.00743636 0.993444
0.164489 0.409984 -0.010163 -0.0267536 0.178854 -0.983512
0.013949 -0.330622 -0.010163 -0.182558 -0.156891 -0.970597
0.118833 -0.48474 0.010163 -0.0518576 0.205546 0.977273
0.2517 -0.181489 0.010163 0.103395 -0.0549917 0.993119
0.00516897 0.441649 -0.010163 -0.470418 0.15115 -0.869402
0.212313 0.083435 -0.010163 0.0669772 0.00482838 -0.997743
