-0.42328 0.412154 0.010163 -3.8990175e-18 -1.5721279e-17 -1
-0.186839 -0.247064 0.010163 -5.8724404e-17 1.7387191e-17 1
-0.047004 0.053096 0.010163 -1.8621543e-17 -2.0645605e-18 1
-0.28851 -0.01288 -0.010163 0 0 -1
-0.00933 -0.210661 0.010163 -1.2909585e-16 -6.0210651e-17 -1
-0.04505 -0.11852 0.010163 -1.5294077e-16 2.3050798e-17 -1
-0.006888 0.064518 -0.010163 -1.6209937e-16 6.3172094e-17 -1
-0.092927 0.236967 0.010163 9.1272466e-17 4.5232931e-17 -1
-0.485151 0.229956 0.010163 8.2513412e-17 -5.6306517e-17 -1
-0.418451 0.335606 -0.010163 -5.5904275e-19 -3.7165237e-19 -1
-0.374756 0.244895 -0.010163 6.1532687e-19 4.4606883e-17 1
-0.089381 -0.237352 -0.010163 2.9235274e-17 2.8296245e-17 1
-0.094183 -0.200373 -0.010163 -7.9469442e-18 -2.1383951e-17 1
-0.25917 -0.097541 0.010163 0 0 -1
-0.073465 -0.158095 0.010163 -1.11498e-16 1.2817509e-16 1
-0.104232 0.088393 0.010163 0 0 -1
-0.294113 0.014558 -0.010163 3.9545085e-17 8.2855146e-17 1
-0.379755 0.454791 -0.010163 -3.7224365e-17 -3.8471825e-17 -1
-0.099553 0.338799 -0.010163 4.1884287e-17 -1.8891309e-17 -1
-0.262377 0.149368 0.010163 -5.5353043e-18 7.5001891e-17 -1
-0.22609 -0.409535 -0.010163 -5.4629938e-18 4.3989665e-17 1
-0.454706 0.367681 0.010163 1.1849851e-17 6.6280371e-18 1
-0.416931 0.041635 -0.010163 -1.0114637e-16 -1.7058037e-17 -1
-0.279201 0.302373 -0.010163 0 0 -1
-0.183544 0.395866 0.010163 0 -0 1
-0.369112 0.330608 -0.010163 0 0 -1
-0.140666 -0.254809 -0.010163 -4.9743194e-18 -2.5762204e-17 -1
-0.278396 0.00357 -0.010163 -4.3087635e-18 5.9769538e-17 1
-0.349342 -0.149199 -0.010163 -2.6682046e-17 1.389147e-17 1
-0.173934 -0.351522 -0.010163 -6.5126307e-18 6.6749375e-18 1
-0.339548 -0.340497 0.010163 -6.6148858e-17 -4.8447689e-17 -1
-0.069719 -0.035355 0.010163 2.2655557e-17 -1.2384296e-18 1
-0.197701 -0.469819 -0.010163 -2.644834e-17 -1.4689847e-18 -1
-0.183356 -0.105512 0.010163 -1.5641213e-17 -5.167349e-18 -1
-0.377134 -0.364659 0.010163 2.9808037e-17 2.2031957e-17 -1
-0.002688 0.314589 -0.010163 0 0 1
-0.297149 0.294295 0.010163 1.1682262e-16 4.3263323e-17 -1
-0.081418 -0.322991 -0.010163 -2.7849689e-17 -2.1586418e-17 -1
-0.417598 -0.273158 0.010163 2.3801553e-17 -9.4891419e-17 1
-0.096239 -0.204046 0.010163 0 -0 1
-0.169798 0.047788 -0.010163 1.1086224e-16 1.9348412e-16 -1
-0.441609 0.094322 -0.010163 -2.0735315e-17 -9.0842072e-17 1
-0.024923 -0.228921 -0.010163 -4.8991897e-17 -6.7015577e-18 -1
-0.211621 -0.169345 0.010163 1.7248855e-16 1.4922281e-16 -1
-0.292126 0.083009 -0.010163 4.4215545e-17 4.1194006e-17 1
-0.477957 -0.154808 -0.010163 0 -0 1
-0.350807 0.488028 0.010163 -3.8124552e-17 -3.6427022e-17 -1
-0.308244 -0.008074 0.010163 0 0 -1
-0.13487 -0.255073 0.010163 5.0918733e-18 5.0614611e-18 1
-0.00495 0.436401 0.010163 3.4021166e-17 -1.2978917e-17 1
-0.155684 0.255636 0.010163 0 0 -1
-0.5 0.403264 -0.003649 1 -3.9762907e-15 -7.8487515e-15
-0.262644 0.281766 0.010163 0 -0 1
-0.222552 -0.364546 -0.010163 1.4404051e-19 -2.1333697e-17 1
-0.266256 0.072974 0.010163 5.3402566e-17 1.2117212e-17 -1
-0.460307 -0.242878 -0.010163 -1.2198589e-16 -5.2000198e-18 -1
-0.05851 -0.153666 0.010163 3.4124085e-17 9.3847099e-17 1
-0.216475 -0.336854 -0.010163 0 0 1
-0.093837 0.125602 -0.010163 0 0 -1
-0.260698 -0.470005 -0.010163 2.3591479e-18 1.4580118e-16 1
-0.052871 -0.428504 0.010163 0 0 -1
-0.155548 0.234517 -0.010163 6.420888e-18 1.4184083e-17 1
-0.406658 -0.235896 0.010163 -2.7350954e-17 -7.3587326e-17 -1
-0.424409 -0.336211 0.010163 0 0 -1
-0.086952 -0.346508 0.010163 5.2981243e-17 2.3390513e-17 1
-0.060154 0.188351 -0.010163 -4.8375771e-17 2.844069e-17 -1
-0.214294 -0.332268 -0.010163 9.3015331e-18 1.0726934e-16 1
-0.04393 0.028109 -0.010163 -5.6179077e-18 2.5362843e-17 1
-0.151765 -0.322185 0.010163 5.4119153e-17 9.6351555e-17 -1
-0.180808 0.494289 -0.010163 0.45109696 -0.67572888 0.58301117
-0.165225 0.24956 -0.010163 1.9219737e-17 3.8809733e-17 1
-0.22349 0.467876 0.010163 -5.695856e-17 -9.2675719e-18 -1
-0.072363 -0.399865 0.010163 1.514714e-17 1.6442726e-17 1
-0.038993 -0.090368 0.010163 -5.523959e-17 -5.1594259e-17 1
-0.003857 -0.406764 0.010163 -6.5088542e-17 1.3798363e-16 -1
-0.187816 0.011704 -0.010163 -8.8255036e-17 -1.5946139e-17 -1
-0.138121 0.367094 -0.010163 -2.1591491e-17 2.6223776e-17 1
-0.338657 0.033758 0.010163 3.0563244e-17 -1.0111566e-17 -1
-0.275229 -0.412605 -0.010163 -9.0907615e-17 8.9958893e-18 -1
-0.127865 0.033368 0.010163 -4.2683278e-17 -1.2134352e-16 1
-0.490618 0.291152 0.010163 -0.027665099 0.022678513 0.99935996
-0.292277 -0.005925 0.010163 2.5048287e-17 -6.7373462e-17 1
-0.116663 0.297033 -0.010163 3.307863e-17 -6.6756478e-17 -1
-0.181139 -0.43369 0.010163 8.5922408e-18 4.9763877e-18 -1
-0.367947 -0.14091 0.010163 0 0 -1
-0.141702 0.218896 -0.010163 -2.0873133e-16 -8.3661233e-18 -1
-0.175517 -0.477607 -0.010163 3.4926656e-17 -3.424729e-17 -1
-0.143209 -0.315566 0.010163 0 0 1
-0.13106 0.485014 0.010163 -1.9204936e-17 4.5078187e-19 1
-0.168201 -0.334315 0.010163 1.9526109e-17 1.5174588e-17 1
-0.053134 0.023319 -0.010163 0 0 1
-0.469736 0.440978 -0.010163 -9.1483222e-18 4.1179404e-17 1
-0.313268 -0.383454 0.010163 -1.8635797e-17 -3.4875913e-17 -1
-0.144563 0.032011 0.010163 -6.7554273e-17 -2.4074834e-17 1
-0.440621 -0.394259 0.010163 1.0488597e-16 -1.8166487e-16 1
-0.386728 -0.302297 -0.010163 -2.110879e-17 -5.6046081e-17 1
-0.19436 -0.197501 -0.010163 -4.5998976e-17 1.1515431e-16 1
-0.138495 -0.155635 0.010163 2.5091995e-17 -4.6001831e-17 -1
-0.114129 0.157388 -0.010163 -1.0598388e-16 -5.7007887e-17 -1
-0.040922 0.436286 0.010163 1.8210104e-16 1.4196426e-16 -1
-0.134377 0.307012 -0.010163 1.6697852e-17 3.8177842e-18 -1
-0.065529 0.412627 -0.010163 1.2083643e-17 -9.2243143e-17 1
-0.372284 -0.410223 -0.010163 0 -0 1
-0.479638 -0.292052 0.010163 -5.9945384e-18 3.2813618e-17 -1
-0.160022 0.341899 -0.010163 -2.7590753e-17 -5.6664199e-17 -1
-0.186548 -0.059337 0.010163 2.4790045e-17 -1.0282631e-16 1
-0.141074 0.435379 -0.010163 3.0609097e-17 3.5197495e-17 -1
-0.102483 -0.312794 0.010163 -8.9139493e-17 8.5246581e-17 -1
-0.254786 0.270569 0.010163 1.0159583e-16 -1.5139593e-16 1
-0.025446 -0.040609 0.010163 -1.4268262e-17 -2.0084967e-17 -1
-0.471874 -0.388343 -0.010163 0 -0 1
-0.493852 0.141054 0.010163 -0.27632916 0.017830762 0.96089763
-0.457846 0.141285 0.010163 0 0 -1
-0.267738 0.027034 -0.010163 5.149301e-18 -8.7703423e-19 1
-0.100299 0.142316 -0.010163 5.6209219e-17 6.7977742e-18 -1
-0.103189 0.142705 -0.010163 0 0 1
-0.5 -0.024235 0.009694 0.87472858 0.026456508 -0.48389046
-0.259306 -0.32664 0.010163 0 0 1
-0.339046 -0.249499 -0.010163 5.875387e-18 -3.9629108e-17 1
-0.27385 0.2689 0.010163 -2.1426981e-17 -1.4878012e-16 1
-0.246936 0.461099 0.010163 7.4039873e-17 -4.4679112e-17 -1
-0.317189 0.481159 0.010163 3.964062e-18 3.6901224e-17 1
-0.493407 0.407935 0.010163 -0.17564914 0.096709329 0.97969112
-0.315246 -0.5 -0.009277 -0.049526608 -0.55583917 -0.82981319
-0.051303 0.232204 0.010163 -3.0335871e-17 -2.3662214e-17 1
-0.410734 -0.395187 0.010163 -2.6635196e-17 1.3850635e-17 -1
-0.237622 -0.442519 0.010163 -2.8929651e-17 2.5364076e-17 -1
-0.085679 -0.369843 -0.010163 -1.6226414e-17 1.2622146e-17 -1
-0.075057 -0.079198 -0.010163 8.1376961e-18 6.8390144e-18 -1
-0.338527 -0.200082 -0.010163 -9.0606108e-18 8.9905085e-17 -1
-0.410532 0.205872 -0.010163 5.1121956e-17 1.2600491e-16 1
-0.154879 0.170342 -0.010163 2.0884879e-17 4.669756e-17 1
-0.474592 0.065562 0.010163 2.2519643e-17 3.8459718e-17 1
-0.360145 0.390538 0.010163 -2.6816694e-16 1.4886781e-18 -1
-0.391695 0.174772 0.010163 -8.362513e-18 -3.0962807e-16 1
-0.099555 -0.29413 -0.010163 4.5987506e-17 -7.3623674e-17 1
-0.000825 0.08437 0.010163 -2.370184e-18 7.3930602e-17 -1
-0.191178 0.416241 -0.010163 -1.6186894e-17 3.8400813e-17 1
-0.118916 -0.187424 0.010163 0 0 -1
-0.417937 0.09618 -0.010163 2.7156295e-17 -1.8605068e-17 -1
-0.329835 0.305991 0.010163 1.3912754e-17 8.1448654e-17 1
-0.33177 0.376154 -0.010163 -5.2246813e-17 1.4295441e-17 1
-0.384578 -0.353181 -0.010163 0 0 1
-0.182318 0.154301 -0.010163 0 -0 1
-0.329196 0.367979 0.010163 4.2064624e-17 4.3196972e-17 1
-0.200852 -0.18287 -0.010163 0 0 -1
-0.339697 -0.421738 0.010163 1.5294884e-17 3.2072481e-17 -1
-0.5 -0.188155 0.005388 -0.9742404 0.044437253 0.2210904
-0.060202 0.374009 0.010163 0 0 -1
-0.388261 0.109152 0.010163 -9.0630947e-17 -3.877415e-17 1
-0.36211 0.18522 -0.010163 -3.8393672e-17 -2.7058257e-17 -1
-0.303616 0.321595 0.010163 -3.3969972e-18 -7.6409623e-18 -1
-0.177127 0.291628 -0.010163 -2.0044815e-19 2.9247295e-17 -1
-0.254158 -0.409135 -0.010163 5.8198493e-17 -2.2259279e-18 -1
-0.409374 0.34408 -0.010163 0 0 1
-0.453287 -0.24955 -0.010163 2.4966976e-17 1.0240627e-16 1
-0.452086 -0.085541 0.010163 1.0683663e-18 1.1055788e-17 1
-0.030824 0.423828 0.010163 8.299331e-17 6.6191688e-17 -1
-0.426509 0.199665 -0.010163 3.7356123e-17 -8.9963478e-17 1
-0.126873 -0.196528 0.010163 -2.7632085e-17 2.8283661e-17 1
-0.212117 0.362648 -0.010163 -9.4454477e-17 -3.7155314e-17 -1
-0.302403 -0.161436 0.010163 -7.7965375e-17 -1.8847942e-17 1
-0.5 0.137191 0.005519 0.99848768 -0.04578407 -0.030433021
-0.180104 -0.199161 0.010163 0 0 1
-0.115903 -0.231682 -0.010163 0 0 -1
-0.193329 0.046615 0.010163 1.7370299e-16 1.7449695e-16 -1
-0.027413 -0.214409 -0.010163 8.7338261e-17 9.4333053e-17 1
-0.011146 0.168343 -0.010163 -9.5173279e-18 -2.4841725e-17 1
-0.081781 -0.233155 -0.010163 0 0 1
-0.300452 0.40626 -0.010163 3.0897102e-17 -4.0325472e-17 -1
-0.328677 0.392439 -0.010163 0 0 -1
-0.410888 0.237108 0.010163 0 0 -1
-0.097219 -0.230045 -0.010163 0 0 -1
-0.000389 0.435322 0.010163 9.2200575e-17 -2.4008719e-17 -1
-0.396715 0.108729 -0.010163 -4.0461985e-17 -2.4251541e-17 1
-0.075331 0.019333 -0.010163 0 0 -1
-0.219794 0.143117 -0.010163 0 -0 1
-0.493731 -0.272838 -0.010163 0.13823455 -0.073466662 0.98767093
-0.205209 0.106829 0.010163 6.1239312e-18 1.302909e-17 1
-0.34403 -0.232606 0.010163 6.2587456e-17 -2.4381598e-16 1
-0.197963 -0.016602 -0.010163 -3.8693684e-17 4.973691e-19 1
-0.34616 -0.053741 -0.010163 -3.1954162e-17 -3.8671638e-17 1
-0.141271 -0.317725 -0.010163 -9.0265479e-17 -1.5038938e-16 1
-0.070816 -0.326062 0.010163 -2.5420148e-17 -8.5177943e-17 -1
-0.292387 -0.327911 -0.010163 -4.2755033e-17 5.7579495e-17 1
-0.393181 -0.208781 -0.010163 8.0423958e-17 -2.1719063e-16 1
-0.403451 0.450785 -0.010163 -2.7573083e-17 -4.3694174e-17 1
-0.144742 -0.440471 0.010163 -3.446685e-17 3.9005752e-18 -1
-0.182525 0.407429 -0.010163 -9.0500957e-18 1.8410791e-18 -1
-0.105413 0.077995 -0.010163 2.0201045e-17 -1.6969478e-17 -1
-0.163478 -0.443303 -0.010163 -2.0575166e-17 -3.5655291e-17 1
-0.180382 0.172192 0.010163 -4.0628756e-17 -3.5514343e-17 1
-0.095219 0.207748 -0.010163 -5.02176e-17 1.353917e-16 -1
-0.423478 0.415457 -0.010163 3.3592357e-18 -3.599329e-17 1
-0.230712 -0.366755 -0.010163 4.7961654e-17 -9.7259163e-17 1
-0.282753 -0.133503 0.010163 2.3393383e-17 -5.6411206e-17 1
-0.092099 0.190274 -0.010163 -5.4344226e-18 1.7261803e-17 1
-0.213619 0.266684 0.010163 -2.154103e-17 1.5278156e-17 -1
-0.242315 0.401945 0.010163 7.5792117e-17 -5.6301456e-17 1
-0.496554 -0.373597 0.010163 -0.47752246 -0.0063012366 0.87859695
-0.368695 0.160591 -0.010163 -4.763095e-17 -4.4201205e-16 1
-0.441063 -0.43162 0.010163 -1.440617e-17 -8.6885996e-17 1
-0.366521 -0.475887 -0.010163 -4.1634052e-19 3.9052302e-17 1
-0.381454 -0.473111 -0.010163 -1.207356e-17 -1.0228006e-17 1
-0.257605 -0.372288 0.010163 -7.2034576e-16 -7.7611368e-17 -1
-0.123015 0.101557 -0.010163 -2.0923538e-17 2.7118194e-17 -1
-0.314817 0.257835 -0.010163 -6.5093472e-16 1.5391139e-15 1
-0.5 -0.445481 0.001196 1 4.9748739e-17 5.1451468e-15
-0.11345 -0.451404 -0.010163 -3.0415988e-17 -1.7855361e-17 -1
-0.280948 0.054954 -0.010163 2.0035952e-16 1.0635724e-16 -1
-0.496872 0.084337 0.010163 0.52791216 0.03975452 -0.84836804
-0.417779 0.194726 -0.010163 -1.1933827e-18 2.1913417e-17 1
-0.450033 0.058457 -0.010163 0 -0 1
-0.465762 -0.363687 -0.010163 2.8668596e-17 -3.7620608e-17 1
-0.24309 0.381156 -0.010163 -1.059793e-17 6.3980981e-18 -1
-0.352317 -0.278613 -0.010163 2.3895655e-17 -3.709478e-17 -1
-0.126218 -0.339439 0.010163 1.2814186e-16 -3.8428449e-17 -1
-0.471408 0.379864 -0.010163 0 -0 1
-0.224216 0.31515 -0.010163 0 0 -1
-0.265603 0.003021 -0.010163 1.5468714e-16 6.1661392e-17 -1
-0.487403 0.270095 -0.010163 -4.1037972e-17 -2.5942677e-17 -1
-0.107685 0.001021 0.010163 -1.2724275e-16 -1.5429746e-16 1
-0.368201 0.161666 -0.010163 -2.1323545e-17 -2.6903057e-16 1
-0.245083 -0.355524 0.010163 -6.7973536e-17 -2.2828262e-17 -1
-0.456525 0.308101 -0.010163 4.0970189e-17 -3.1636664e-17 1
-0.441186 -0.289984 0.010163 3.2823178e-17 5.5912409e-17 1
-0.145673 -0.148257 -0.010163 0 0 1
-0.247595 -0.2704 0.010163 0 -0 1
-0.083004 0.344273 0.010163 4.9988558e-17 -9.4963768e-18 -1
-0.473371 0.179066 -0.010163 1.5244692e-17 -4.5807326e-17 1
-0.226755 -0.491611 0.010163 0.0044992858 -0.014371714 0.9998866
-0.037931 0.251059 -0.010163 4.1363859e-17 -1.1945438e-17 -1
-0.252961 -0.222541 0.010163 5.9652928e-17 -3.7783827e-17 1
-0.081259 0.266491 0.010163 -2.6644335e-18 3.2057819e-18 -1
-0.220674 0.03527 -0.010163 4.1010252e-17 6.6544802e-17 -1
-0.20938 0.326032 -0.010163 -1.2620799e-16 9.8500829e-17 -1
-0.366275 -0.017531 0.010163 8.7039914e-17 -4.3843725e-18 -1
-0.057157 0.037669 -0.010163 1.2523446e-17 -2.4853693e-17 -1
-0.44368 0.160516 0.010163 -5.2076305e-17 2.1027203e-17 -1
-0.068803 -0.478547 -0.010163 -1.1976821e-17 -8.7782267e-17 1
-0.490491 0.444252 0.010163 2.8451379e-18 -1.3638462e-17 1
-0.285953 -0.073577 0.010163 7.7001161e-17 6.9233454e-18 -1
-0.091541 -0.26986 -0.010163 -1.3671131e-17 9.5999879e-17 -1
-0.117787 -0.432183 0.010163 0 -0 1
-0.385957 -0.251894 0.010163 8.2010823e-17 -3.3698023e-16 -1
-0.166238 -0.199968 -0.010163 5.2906144e-17 1.108202e-17 -1
-0.072716 0.139844 0.010163 -5.0142781e-18 -2.3756079e-17 -1
-0.384727 -0.410205 0.010163 8.9311419e-19 4.8633331e-17 1
-0.123548 -0.049233 -0.010163 6.2966402e-17 1.3646933e-16 1
-0.042205 0.159054 0.010163 -2.372761e-17 -8.7622852e-17 1
-0.042564 0.441094 0.010163 -5.5822658e-17 -8.3336539e-17 -1
-0.492539 0.327025 -0.010163 0.090018531 -0.018642806 0.99576559
-0.120668 0.134971 -0.010163 1.4827243e-18 3.9645512e-17 1
-0.250217 0.207058 -0.010163 0 0 -1
-0.160272 -0.25006 -0.010163 -1.4326797e-16 1.2023989e-16 -1
-0.466893 -0.451494 -0.010163 6.4421485e-17 -1.519973e-18 1
-0.22576 -0.028383 0.010163 6.8167829e-17 -3.9391004e-17 1
-0.238296 0.488453 0.010163 -0.018758636 -0.019029442 -0.99964293
-0.140711 0.213949 -0.010163 -1.7839634e-16 1.6705111e-17 -1
-0.085235 0.349377 0.010163 2.8010113e-18 2.0589754e-17 -1
-0.05946 -0.214566 0.010163 2.2271894e-17 -1.2733554e-16 1
-0.18694 0.072368 0.010163 0 0 -1
-0.356564 0.201665 -0.010163 -3.8324706e-17 1.0748706e-16 -1
-0.255842 0.210507 0.010163 -2.9927732e-18 -1.3493125e-17 1
-0.346576 -0.102868 0.010163 0 0 -1
-0.225321 0.251628 0.010163 -5.3776209e-18 -2.7144671e-17 1
-0.026194 0.133168 0.010163 3.9993311e-17 -2.987237e-17 1
-0.183469 -0.032353 0.010163 2.5955493e-17 4.018903e-17 -1
-0.155548 0.07793 0.010163 -1.4324232e-17 8.4926745e-18 -1
-0.139615 0.112658 0.010163 -1.4471931e-16 -2.1097734e-16 1
-0.487504 -0.486617 0.010163 -5.6715211e-17 -1.342358e-18 -1
-0.453989 0.011881 0.010163 0 0 -1
-0.208348 0.042989 -0.010163 0 0 -1
-0.449139 -0.07917 -0.010163 0 0 -1
-0.21376 -0.412041 0.010163 0 0 -1
-0.123308 0.159597 0.010163 -1.4007432e-17 1.1371037e-17 1
-0.373235 -0.16146 0.010163 -2.071441e-17 7.3459343e-17 -1
-0.332586 0.468577 -0.010163 1.6279351e-17 4.8933317e-17 1
-0.364307 0.496689 -0.010163 0.030138729 -0.32745753 0.9443851
-0.428395 0.028555 -0.010163 -3.2066505e-17 -1.6369344e-18 1
-0.206248 0.106106 -0.010163 3.0458581e-17 1.8365456e-18 -1
-0.452042 0.187606 0.010163 -4.1969238e-17 -1.6404497e-16 1
-0.070614 0.303014 0.010163 0 0 1
-0.318366 0.184602 -0.010163 7.0526668e-17 2.5895196e-17 -1
-0.487461 -0.026317 0.010163 -1.4682228e-17 -2.0692283e-16 1
-0.160381 0.059933 0.010163 0 0 -1
-0.010237 0.280601 0.010163 1.9410953e-18 7.4676683e-19 -1
-0.380111 -0.122004 0.010163 8.4076212e-18 7.8703141e-17 1
-0.347149 -0.280652 0.010163 -2.9352288e-17 2.6517109e-17 -1
-0.472765 -0.192765 0.010163 -4.6940652e-17 -9.0122523e-18 -1
-0.258406 -0.392121 -0.010163 0 0 1
-0.094621 0.384966 -0.010163 -1.3778602e-16 5.8998142e-17 -1
-0.014159 -0.448375 0.010163 -2.3893219e-18 -8.9022313e-18 -1
-0.410562 -0.234851 0.010163 -1.848467e-19 -3.185463e-19 1
-0.420673 0.316465 -0.010163 -3.8063153e-17 -1.8143085e-17 -1
-0.415805 0.499692 0.010163 0.004979038 -0.58878035 -0.80827774
-0.049927 -0.121496 -0.010163 2.1560768e-17 -1.6003622e-16 1
-0.302274 -0.013069 0.010163 1.2081806e-16 -1.7496358e-17 -1
-0.333769 0.030244 0.010163 0 -0 1
-0.010781 0.033431 0.010163 6.390398e-17 -5.5239595e-17 1
-0.20978 0.028101 -0.010163 0 0 1
-0.047223 -0.231619 0.010163 -1.3219652e-16 -1.090376e-16 -1
-0.04355 0.039499 0.010163 9.8174235e-17 5.6156671e-17 1
-0.302006 -0.162065 -0.010163 3.0140184e-17 -2.5818766e-17 -1
-0.433973 0.171719 -0.010163 4.6737979e-17 3.5625618e-17 1
-0.459777 -0.349319 0.010163 -9.6471955e-17 4.0356046e-17 -1
-0.245374 0.43144 0.010163 -6.2107905e-17 1.4965341e-16 1
-0.152796 0.142103 -0.010163 8.1734371e-17 4.0217444e-17 -1
-0.37982 0.248644 0.010163 -1.0337043e-17 3.478544e-17 1
-0.053008 0.071831 -0.010163 2.5005916e-17 -2.2836414e-17 1
-0.268277 -0.228277 -0.010163 -1.0472183e-16 -3.1837956e-17 -1
-0.5 -0.245347 -0.004571 -0.82119356 -0.35371277 -0.447804
-0.209368 0.143019 0.010163 0 0 -1
-0.327352 -0.01777 -0.010163 -4.9445329e-18 -5.4169026e-17 -1
-0.372079 0.361051 0.010163 -2.1397905e-17 -9.504444e-18 -1
-0.285636 0.008562 0.010163 5.9467998e-18 2.7777848e-17 -1
-0.089892 0.024703 0.010163 -5.4014308e-17 -7.730158e-18 -1
-0.474142 0.444623 0.010163 -5.8425652e-18 9.232315e-18 1
-0.24683 0.365575 -0.010163 -5.6360567e-17 -1.8352798e-16 1
-0.420082 0.302433 -0.010163 6.3361837e-17 -1.3729598e-16 -1
-0.255906 -0.223154 -0.010163 6.3834298e-17 -8.0238704e-18 1
-0.338918 0.040737 0.010163 -8.6759552e-18 -4.9027189e-17 1
-0.019804 0.465501 -0.010163 0 -0 1
-0.312663 0.301107 -0.010163 0 0 1
-0.278989 -0.381553 -0.010163 2.6072645e-17 -3.2930304e-17 1
-0.083425 0.137089 0.010163 4.8063896e-18 2.9138602e-17 1
-0.045062 -0.116284 0.010163 1.4759396e-17 3.8570189e-17 -1
-0.430485 -0.267063 0.010163 0 -0 1
-0.249474 -0.036447 0.010163 2.5498664e-17 -8.4008276e-17 -1
-0.06569 0.384441 0.010163 0 0 -1
-0.444967 -0.484231 0.010163 -7.7880558e-17 4.6788803e-17 -1
-0.077877 -0.160639 0.010163 -3.1179877e-17 -1.094469e-16 1
-0.223952 0.339088 0.010163 -5.9019716e-17 -1.7434918e-17 -1
-0.081671 -0.214836 -0.010163 6.3209001e-17 5.9470341e-17 1
-0.176804 -0.167773 0.010163 3.1907011e-17 5.0818247e-17 1
-0.146927 0.146323 -0.010163 3.4800548e-17 2.2335356e-17 1
-0.35023 -0.158716 0.010163 -7.6808995e-18 -1.3338058e-17 -1
-0.029625 0.322745 0.010163 8.2384525e-17 -2.3786363e-17 -1
-0.099202 -0.016381 -0.010163 3.3886424e-18 2.4933544e-17 -1
-0.417288 0.141194 -0.010163 5.8942579e-17 4.2181608e-17 1
-0.112229 -0.077908 0.010163 2.0478668e-17 2.8174603e-17 1
-0.134132 0.345031 0.010163 0 0 1
-0.221063 0.182286 0.010163 1.3053056e-16 -3.6579727e-17 -1
-0.200366 -0.041628 0.010163 2.6226613e-17 -1.0968535e-16 1
-0.140091 -0.31675 0.010163 -3.6848035e-17 -8.1877125e-17 1
-0.167103 -0.212003 0.010163 2.9787932e-17 2.2806146e-17 -1
-0.406483 -0.169162 -0.010163 0 0 -1
-0.461314 -0.462505 -0.010163 1.156532e-17 -5.7128128e-17 -1
-0.44318 -0.495062 -0.010163 0.1423707 0.48603727 0.86226351
-0.082908 -0.218021 0.010163 1.3051898e-18 -2.375907e-17 1
-0.5 0.401605 -0.002695 1 -4.6759739e-15 -1.2286791e-14
-0.205464 -0.250915 0.010163 6.6148884e-18 4.7782141e-17 1
-0.310294 -0.097916 0.010163 0 -0 1
-0.027635 0.309056 0.010163 1.5463711e-17 2.6738375e-17 1
-0.376736 -0.221905 -0.010163 0 0 -1
-0.116584 -0.059206 0.010163 -2.9766776e-17 4.2483999e-17 -1
-0.331348 0.087249 0.010163 3.1417372e-19 6.6516908e-18 -1
-0.460992 0.17803 0.010163 0 0 -1
-0.18589 -0.092722 0.010163 -1.6402174e-17 -6.9675024e-17 1
-0.423162 -0.379736 -0.010163 -3.5806292e-17 1.4664444e-17 -1
-0.376618 -0.234628 -0.010163 3.4962186e-17 6.0870554e-18 -1
-0.432084 -0.12798 -0.010163 1.3186761e-17 -4.8848365e-17 1
-0.129369 -0.034252 -0.010163 0 0 -1
-0.336433 0.246862 0.010163 0 0 -1
-0.070294 -0.421615 0.010163 -4.2707261e-18 -4.61683e-17 -1
-0.210207 -0.484927 0.010163 -9.3596122e-17 -4.9353022e-17 1
-0.17035 0.147798 -0.010163 -1.3007597e-16 4.8897429e-17 -1
-0.088526 -0.18548 0.010163 3.0289626e-18 -6.7888348e-19 -1
-0.209807 0.25236 0.010163 -4.1770001e-17 -9.9474376e-18 -1
-0.002171 -0.078347 -0.010163 -2.7642985e-17 -2.9788526e-17 -1
-0.339127 0.36809 0.010163 -2.7783398e-17 -1.0558165e-16 1
-0.332485 0.489044 -0.010163 0 -0 1
-0.188371 -0.229899 -0.010163 0 0 -1
-0.002058 0.339942 0.010163 4.9906797e-16 1.6823539e-17 -1
-0.317137 -0.451211 -0.010163 -1.3559838e-17 1.5108962e-17 -1
-0.424536 -0.084558 -0.010163 -2.2571617e-16 3.6407135e-16 1
-0.148521 0.319907 0.010163 2.116228e-17 3.9747834e-17 1
-0.172454 -0.318117 0.010163 7.3545017e-17 -9.5936056e-17 1
-0.080351 0.0695 0.010163 8.4843581e-17 8.5385242e-17 -1
-0.140248 0.270715 -0.010163 1.764282e-17 8.1864409e-17 1
-0.40508 -0.297408 0.010163 -8.7332434e-17 5.3300564e-17 -1
-0.417095 -0.202833 -0.010163 7.3503089e-17 2.9451712e-17 1
-0.328546 -0.365512 0.010163 0 0 -1
-0.278127 0.358293 -0.010163 -3.884185e-17 1.6826224e-17 -1
-0.337208 0.093163 0.010163 9.7337439e-17 -7.4681476e-17 -1
-0.133635 -0.139176 -0.010163 4.0452275e-18 6.8794605e-17 1
-0.392868 0.310033 0.010163 -4.9356047e-17 4.1913329e-17 -1
-0.337274 -0.15915 -0.010163 1.8971399e-19 2.2546362e-17 1
-0.443995 0.163595 0.010163 -3.791529e-17 4.2024276e-17 1
-0.203385 0.217144 -0.010163 -4.6096373e-17 -2.1964099e-17 -1
-0.354441 -0.460637 -0.010163 5.6892901e-18 -1.6615063e-17 1
-0.09478 -0.046288 -0.010163 0 -0 1
-0.331904 0.170596 0.010163 0 -0 1
-0.150332 0.191884 0.010163 0 -0 1
-0.267127 -0.145393 -0.010163 -1.8860277e-17 5.7512637e-18 -1
-0.145985 -0.334967 0.010163 -3.9265339e-18 -1.9398276e-17 1
-0.179659 0.399998 -0.010163 0 0 1
-0.390356 -0.300358 -0.010163 -2.1716026e-17 1.2518319e-17 -1
-0.220985 0.138606 0.010163 0 -0 1
-0.26458 0.5 0.00288 0.078781697 0.9968457 0.0095961571
-0.195541 0.28149 0.010163 0 -0 1
-0.161263 0.0565 -0.010163 0 -0 1
-0.492098 -0.17618 -0.010163 5.7262251e-17 -2.9936356e-17 -1
-0.142305 -0.081262 -0.010163 -1.9976659e-17 1.7249037e-17 1
-0.179844 0.334096 0.010163 -2.1171434e-17 3.5432957e-19 1
-0.315719 -0.012492 0.010163 0 0 1
-0.085754 -0.392837 0.010163 6.104772e-17 2.7937671e-17 1
-0.321321 -0.360925 -0.010163 -6.3083763e-17 4.6922397e-17 1
-0.311127 -0.055217 -0.010163 -8.2926651e-17 1.6673699e-17 -1
-0.209101 0.214554 -0.010163 2.9345058e-17 1.7375509e-17 -1
-0.5 -0.340428 0.001647 -0.99209772 -0.03924059 0.11917337
-0.420935 0.16962 0.010163 4.9010508e-18 -2.3219679e-17 -1
-0.29863 0.346143 -0.010163 -3.0452429e-17 3.8688883e-18 -1
-0.091858 0.444174 -0.010163 8.9429335e-17 1.7530929e-16 1
-0.457516 -0.159368 -0.010163 0 0 -1
-0.102608 0.115547 -0.010163 1.0323678e-16 3.1117485e-17 1
-0.090519 0.231117 -0.010163 -1.7937568e-17 7.915023e-18 1
-0.232384 0.376984 0.010163 1.1820482e-16 -6.6419145e-17 -1
-0.193852 -0.482895 -0.010163 1.0844102e-16 4.2299097e-17 -1
-0.280395 0.25558 0.010163 -5.9038543e-18 1.1938574e-16 -1
-0.37846 -0.431089 0.010163 0 0 -1
-0.349617 0.37182 0.010163 4.3658468e-18 8.1314347e-18 1
-0.062717 0.420204 0.010163 4.1748225e-18 1.0777716e-17 1
-0.130039 0.100891 0.010163 -2.4779784e-17 -1.0376527e-17 1
-0.096199 -0.006377 0.010163 -1.920835e-17 4.8160896e-17 1
-0.162645 -0.330288 -0.010163 -1.2727528e-17 1.3148161e-17 1
-0.157862 -0.477889 0.010163 -1.242468e-16 -3.0103051e-17 -1
-0.000339 0.224714 0.010163 5.633113e-17 -8.6001597e-17 -1
-0.388506 -0.158686 -0.010163 0 0 -1
-0.187378 0.303531 0.010163 1.3116345e-16 2.8834113e-17 -1
-0.338503 -0.083354 -0.010163 8.7061648e-18 -7.9630956e-18 1
-0.258896 0.248745 -0.010163 -1.1320398e-16 -2.5168978e-16 1
-0.306222 -0.17862 -0.010163 2.0191694e-17 9.0614565e-18 1
-0.134251 0.331888 -0.010163 1.027499e-17 -3.5799834e-17 -1
-0.208784 -0.460445 -0.010163 0 0 -1
-0.202205 -0.206101 -0.010163 3.0330677e-17 -3.0642145e-17 1
-0.275286 -0.129555 -0.010163 -2.9423656e-17 -2.3393325e-17 1
-0.305809 -0.054659 0.010163 -7.6180491e-17 -3.3684492e-17 -1
-0.04798 -0.311543 -0.010163 -1.2488616e-17 -2.8510803e-18 -1
-0.094391 0.075294 0.010163 -4.362384e-17 8.310382e-17 1
-0.082583 -0.067832 0.010163 -5.3821116e-17 -4.0655071e-17 1
-0.056524 -0.015828 0.010163 8.148767e-17 1.2672558e-17 -1
-0.483065 -0.464312 0.010163 -4.7380016e-17 4.3398549e-17 -1
-0.355993 -0.204968 0.010163 -4.7436246e-17 -5.0745152e-17 -1
-0.237281 0.381061 -0.010163 0 0 1
-0.047729 0.5 -0.005893 0.4100929 0.69564612 -0.58983073
-0.162266 0.088938 0.010163 0 -0 1
-0.160675 0.282578 0.010163 3.6262871e-17 4.1304444e-17 -1
-0.360136 0.163285 0.010163 1.3858587e-16 -8.1602571e-18 -1
-0.33514 -0.381264 -0.010163 2.2884297e-17 -9.2661461e-18 -1
-0.232074 0.125245 -0.010163 -7.9753369e-18 2.5476966e-17 -1
-0.256544 0.147071 -0.010163 3.2392261e-17 9.5746405e-18 -1
-0.174932 0.189532 -0.010163 3.1429451e-17 -1.45701e-17 1
-0.471148 0.483802 -0.010163 -3.1841109e-17 2.9402969e-17 1
-0.366045 0.479609 -0.010163 0 0 -1
-0.100206 0.163414 -0.010163 9.9052082e-18 7.0157245e-17 -1
-0.377572 -0.483362 0.010163 -1.1170963e-17 2.1351525e-17 -1
-0.419818 0.138829 -0.010163 0 -0 1
-0.132716 -0.11171 0.010163 0 0 -1
-0.474168 0.444946 0.010163 -1.819185e-18 8.4550724e-18 1
-0.480042 -0.444826 0.010163 -4.3487032e-20 -3.9607033e-17 1
-0.136956 0.18674 0.010163 1.3687466e-18 -2.915843e-17 -1
-0.095458 -0.481131 0.010163 -6.078747e-17 8.9521925e-17 -1
-0.169382 0.23565 -0.010163 -2.4519483e-17 -2.3978154e-17 -1
-0.41823 -0.318905 -0.010163 -3.7950262e-18 -2.5171103e-17 1
-0.446539 -0.059602 0.010163 2.1350136e-17 -2.0036072e-17 1
-0.356503 0.01481 -0.010163 0 0 -1
-0.399688 0.28138 0.010163 -2.8353642e-17 -6.6792657e-19 1
-0.293004 -0.009382 0.010163 -1.6001701e-17 3.8948065e-17 -1
-0.447879 0.481278 -0.010163 -2.8793463e-17 -1.4105586e-17 -1
-0.223187 0.295685 0.010163 0 0 1
-0.129537 -0.194545 0.010163 0 0 -1
-0.362548 0.40884 0.010163 2.5298905e-17 3.5569731e-17 -1
-0.169122 -0.458322 -0.010163 -1.818711e-17 3.8872687e-17 -1
-0.162364 0.469282 -0.010163 5.9228593e-16 -2.2231337e-16 -1
-0.173365 -0.30134 0.010163 0 0 -1
-0.446609 -0.033961 0.010163 1.0021632e-17 1.5000949e-17 1
-0.280582 0.473837 0.010163 -3.8828524e-17 -1.4177157e-17 -1
-0.330148 -0.305524 -0.010163 -2.0804302e-17 1.4404789e-16 -1
-0.203774 -0.036533 -0.010163 0 0 -1
-0.365717 0.175958 0.010163 1.2262313e-16 -6.8077061e-17 -1
-0.304976 0.083709 -0.010163 -9.0592549e-17 -5.3766724e-17 -1
-0.348898 -0.370897 0.010163 -7.9327892e-17 -2.1872893e-17 -1
-0.086007 0.141453 -0.010163 -2.4698993e-17 -5.1772706e-17 1
-0.091755 0.02211 -0.010163 -2.1588838e-17 7.8073259e-18 1
-0.184895 0.245368 -0.010163 5.4479677e-17 2.2623327e-17 -1
-0.479401 -0.21982 0.010163 5.6047578e-17 -2.332525e-17 -1
-0.190027 0.428716 -0.010163 -2.5220662e-17 2.7023686e-17 -1
-0.5 -0.397882 -0.00842 -0.7250208 -0.13454463 -0.67545732
-0.418797 -0.170119 0.010163 -1.3356533e-16 -1.2711332e-18 -1
-0.019704 -0.182251 0.010163 9.1283377e-17 -7.465215e-17 1
-0.109709 -0.025078 -0.010163 9.2344051e-17 -4.9766819e-17 1
-0.173482 0.278814 -0.010163 9.2323291e-18 4.6460989e-17 -1
-0.284482 0.136712 -0.010163 7.9257268e-18 5.2960796e-17 1
-0.119878 -0.424617 -0.010163 -3.5824872e-17 -1.6709013e-17 -1
-0.446272 -0.352205 -0.010163 2.0789286e-17 1.4139451e-17 1
-0.218696 0.058816 0.010163 -2.1947703e-17 1.5221367e-17 -1
-0.058326 0.333468 -0.010163 0 0 -1
-0.159657 0.394024 0.010163 0 0 1
-0.323368 0.035449 -0.010163 1.7435992e-16 -5.2860447e-17 -1
-0.059433 0.064513 -0.010163 4.6565211e-17 -1.4932885e-17 1
-0.035113 -0.187083 -0.010163 -3.9546704e-17 1.2598897e-16 -1
-0.332435 -0.144715 -0.010163 6.8211308e-18 2.3225077e-17 -1
-0.323348 -0.397221 -0.010163 0 -0 1
-0.388659 0.368272 -0.010163 1.841118e-18 3.0845425e-17 -1
-0.487045 -0.199035 -0.010163 2.1063157e-16 -6.5428909e-17 -1
-0.473795 0.162567 -0.010163 6.7961456e-18 3.2158637e-17 1
-0.304491 -0.247422 0.010163 -7.4765487e-17 -7.121029e-18 1
-0.046657 -0.192015 0.010163 7.8870114e-17 -3.8317537e-17 1
-0.368399 0.114806 0.010163 3.7238356e-19 -2.2165281e-17 -1
-0.185245 -0.334674 0.010163 -1.319159e-16 2.2750325e-17 -1
-0.364871 -0.061186 0.010163 6.5056134e-18 -3.9591778e-17 1
-0.272889 0.26994 0.010163 -3.3731101e-17 -1.1363866e-16 1
-0.379165 -0.049223 0.010163 1.7293542e-17 4.9990971e-17 -1
-0.038579 0.252149 -0.010163 3.5503498e-17 7.5563192e-17 -1
-0.496406 0.048625 0.010163 0.2418394 0.057169839 -0.96863064
-0.208175 0.146078 0.010163 6.0762107e-17 2.3290702e-17 1
-0.067409 -0.5 -0.005954 0.063735834 -0.8985273 -0.43426539
-0.215701 0.304165 -0.010163 6.8531285e-17 -8.7365796e-17 1
-0.266795 -0.184771 -0.010163 1.0199032e-16 1.7637303e-17 -1
-0.228549 -0.195405 -0.010163 -1.6567035e-17 7.2823952e-17 1
-0.5 -0.450749 0.006809 0.95346182 0.1946297 -0.23028207
-0.313195 0.269572 0.010163 1.4180486e-17 -3.5448508e-17 -1
-0.151515 0.476253 -0.010163 4.3752702e-18 1.0408709e-16 1
-0.136339 0.344214 0.010163 -3.7431924e-17 -1.3600525e-16 1
-0.227517 -0.378749 0.010163 9.8207263e-18 1.5843393e-17 -1
-0.044711 0.455273 0.010163 5.7995443e-18 6.8080467e-17 1
-0.320951 0.421907 -0.010163 -1.3258322e-18 8.0805332e-17 1
-0.175801 -0.001847 -0.010163 3.228646e-17 -1.4918532e-16 1
-0.029426 -0.329529 -0.010163 -3.7802149e-17 5.4266911e-17 -1
-0.084233 -0.268932 0.010163 3.9585981e-17 -7.2782496e-17 1
-0.105202 -0.485207 -0.010163 5.5764663e-17 5.4300791e-18 1
-0.0774 0.265769 -0.010163 0 -0 1
-0.495326 -0.40537 -0.010163 0.20310903 0.065050305 -0.97699293
-0.452495 0.009646 -0.010163 -4.3010204e-17 -4.48655e-17 -1
-0.348498 -0.390167 -0.010163 0 0 1
-0.396113 -0.376319 -0.010163 3.3341404e-17 -4.9861532e-17 1
-0.300402 -0.099137 -0.010163 -1.9010653e-17 6.3297098e-18 -1
-0.45144 -0.230761 -0.010163 6.8465567e-17 -1.2600737e-16 1
-0.115211 0.166024 0.010163 -1.6616586e-17 3.5045565e-17 -1
-0.440475 0.074102 -0.010163 4.1430379e-17 -2.6650187e-17 -1
-0.48987 0.20488 0.010163 -0.036354744 0.056554635 0.99773739
-0.234256 0.021381 0.010163 0 0 -1
-0.321764 -0.005602 -0.010163 -2.7329256e-17 -1.6119984e-17 -1
-0.375061 0.263344 -0.010163 5.6499245e-17 -3.2512745e-17 -1
-0.412697 -0.100846 -0.010163 0 0 -1
-0.220739 0.447389 0.010163 2.5038931e-17 -2.3552267e-17 1
-0.072624 0.491319 -0.010163 -0.15440117 0.030018764 0.9875521
-0.063863 0.072973 -0.010163 0 0 1
-0.113576 0.175609 0.010163 -2.766092e-17 -8.6589899e-18 -1
-0.487101 0.429414 0.010163 -2.2997268e-17 -1.8943688e-17 1
-0.065179 0.025633 0.010163 0 -0 1
-0.124244 -0.025052 -0.010163 9.322242e-17 2.7439541e-17 -1
-0.009676 0.294516 -0.010163 3.8541209e-17 -5.8735065e-17 1
-0.380049 -0.444788 -0.010163 -1.6982842e-17 4.3919384e-17 1
-0.2382 -0.110748 -0.010163 -8.4810072e-17 -1.6286129e-17 1
-0.172083 0.286961 0.010163 -2.3152676e-17 6.1371006e-17 -1
-0.315729 0.370701 -0.010163 -4.8536315e-17 -8.3204021e-17 -1
-0.096667 -0.002917 0.010163 1.4821467e-19 -1.1364454e-16 1
-0.268475 0.241867 0.010163 -1.7167952e-17 1.7196348e-16 -1
-0.093742 -0.385461 -0.010163 3.6915884e-17 -5.488451e-18 -1
-0.317029 -0.172168 0.010163 -1.1974803e-16 -1.928774e-17 1
-0.073003 -0.147057 0.010163 -5.5633226e-17 -2.9158871e-17 -1
-0.5 -0.398514 0.002245 -0.94936515 0.30858259 -0.059013547
-0.384981 -0.49853 -0.010163 0.086359931 0.64705734 0.75753466
-0.06247 -0.5 0.002697 -0.0098480595 -0.99931565 -0.03565443
-0.049848 0.337881 0.010163 1.2403425e-16 1.5402324e-16 1
-0.276816 0.356785 0.010163 -2.0736641e-17 3.5209772e-17 1
-0.447797 -0.366083 0.010163 5.8000973e-18 -1.0883304e-16 1
-0.244308 0.002399 0.010163 1.8486068e-17 1.3411364e-16 1
-0.42923 0.291895 -0.010163 -4.10409e-17 3.4915052e-17 1
-0.367646 0.187287 0.010163 -3.2207075e-17 -1.2643534e-17 -1
-0.394186 0.102911 -0.010163 0 0 -1
-0.289922 0.48751 0.010163 -1.5630492e-17 1.5169766e-17 -1
-0.463199 0.196984 0.010163 0 0 -1
-0.20104 -0.072681 0.010163 0 -0 1
-0.013804 0.455211 -0.010163 0 0 1
-0.282584 -0.029333 0.010163 1.0367944e-18 3.1359297e-17 1
-0.210783 -0.189367 0.010163 -3.8281344e-17 1.4361916e-16 1
-0.204164 0.277876 0.010163 0 0 1
-0.157936 0.03147 -0.010163 -1.3600286e-18 -1.3259189e-17 -1
-0.434189 -0.089342 0.010163 -5.3742544e-18 -7.1451351e-18 -1
-0.178611 0.033036 0.010163 1.8995685e-17 8.7805217e-17 -1
-0.352862 -0.211351 0.010163 -2.7908356e-17 1.3686199e-17 1
-0.385418 -0.123421 0.010163 -3.7156659e-18 -7.9684356e-17 1
-0.450266 0.171376 -0.010163 5.2935811e-17 9.0628625e-17 1
-0.260588 0.323476 0.010163 -1.1326526e-16 7.4798115e-17 -1
-0.187612 0.206238 -0.010163 -2.2182794e-17 -1.0052255e-16 1
-0.110028 -0.049397 -0.010163 -1.2403438e-16 1.7662227e-16 1
-0.455983 0.391287 -0.010163 3.8859671e-17 7.7309454e-17 1
-0.008865 0.325573 0.010163 -6.6168857e-17 1.6378179e-17 -1
-0.038959 0.059221 -0.010163 0 0 -1
-0.009908 0.242458 0.010163 -1.6433704e-17 -9.3197191e-17 1
-0.032394 -0.435966 0.010163 0 -0 1
-0.068113 -0.405362 -0.010163 4.6066384e-17 -1.5243745e-16 1
-0.37347 -0.391737 -0.010163 2.4229987e-18 -4.9257862e-17 1
-0.139505 0.469685 0.010163 -6.5902778e-17 -3.2792776e-17 1
-0.349999 -0.403028 0.010163 2.6890743e-18 1.402904e-16 1
-0.5 -0.355099 -0.001327 -0.99165437 -0.01368137 -0.12819681
-0.5 -0.158315 0.007903 0.87802777 0.12829045 -0.46109521
-0.400381 0.445483 0.010163 0 0 1
-0.191679 0.420432 0.010163 -1.9493716e-17 -7.9017917e-17 1
-0.047926 -0.437553 -0.010163 -3.393488e-17 1.2770882e-19 -1
-0.065038 0.5 -0.000136 -0.12761677 0.991625 -0.019845108
-0.016112 -0.486638 0.010163 -1.2171781e-16 -3.8280203e-17 -1
-0.151551 -0.00461 0.010163 -5.9489177e-17 2.3510666e-17 -1
-0.239332 -0.224569 -0.010163 -5.0945967e-17 2.0941383e-17 -1
-0.010615 -0.024247 0.010163 0 0 -1
-0.059855 -0.301822 -0.010163 -5.7680314e-18 -3.2346166e-17 -1
-0.084371 -0.183101 -0.010163 2.8563744e-17 -3.9309195e-17 1
-0.167159 -0.301666 -0.010163 1.6626034e-17 3.5939479e-18 1
-0.128503 -0.27759 0.010163 -5.5309844e-18 -2.746198e-17 -1
-0.100994 -0.092469 -0.010163 2.0110063e-16 3.0421023e-16 -1
-0.022146 0.329017 -0.010163 8.325092e-17 -9.7336588e-17 -1
-0.473356 -0.155929 -0.010163 7.448545e-17 1.9836151e-17 -1
-0.336922 0.028811 -0.010163 0 0 -1
-0.206379 0.217578 -0.010163 0 0 -1
-0.121513 -0.026414 -0.010163 -4.4780031e-17 -6.5789764e-17 -1
-0.480623 0.314153 0.010163 5.0451614e-17 5.3198808e-17 1
-0.329431 0.049811 -0.010163 6.7843124e-18 -1.2604419e-17 1
-0.463766 0.441871 -0.010163 1.893707e-17 7.4568061e-17 1
-0.017464 0.256471 0.010163 1.8064773e-17 -3.425231e-17 -1
-0.152757 0.495833 -0.010163 -0.10442437 -0.48895688 0.86603506
-0.179501 -0.355982 -0.010163 -5.6835424e-19 1.1736153e-17 1
-0.111937 0.373112 -0.010163 5.1579157e-17 -4.5689213e-17 1
-0.288502 -0.101833 -0.010163 2.1607876e-18 2.4893289e-17 -1
-0.132676 -0.261174 0.010163 -2.1167657e-18 4.7556313e-17 1
-0.407566 0.345023 -0.010163 0 0 1
-0.484997 -0.056857 -0.010163 0 -0 1
-0.232933 -0.21693 -0.010163 -5.5273141e-19 -3.0415126e-17 -1
-0.303347 0.192981 0.010163 -1.3694224e-17 1.1488659e-17 -1
-0.237669 0.232885 -0.010163 0 0 -1
-0.417549 0.371504 0.010163 -1.097271e-17 -4.7552131e-17 -1
-0.032524 0.182312 0.010163 7.2990556e-18 -2.344833e-17 1
-0.090916 0.310676 -0.010163 0 0 -1
-0.280404 0.48172 0.010163 0 -0 1
-0.5 -0.012232 -0.002834 -0.994236 -0.024309727 -0.10442135
-0.371895 -0.20698 -0.010163 -1.9275084e-17 1.7912368e-17 -1
-0.27977 -0.349244 0.010163 5.4597594e-17 -2.828916e-17 -1
-0.122373 0.006292 0.010163 0 0 1
-0.442157 -0.311708 0.010163 -1.4336215e-17 2.1715116e-17 -1
-0.190066 0.408963 -0.010163 4.0076982e-17 3.1374209e-17 -1
-0.431827 -0.415587 0.010163 1.8318284e-17 6.8458693e-17 1
-0.160543 -0.304543 -0.010163 4.6226175e-17 -4.2784231e-17 1
-0.27012 0.193441 0.010163 2.0628324e-17 3.678882e-18 1
-0.363133 0.240103 -0.010163 2.4574234e-16 1.7790929e-16 -1
-0.084336 -0.073256 -0.010163 4.1120457e-18 2.5198108e-18 -1
-0.489543 -0.011735 -0.010163 2.5879641e-17 1.8824438e-17 1
-0.321301 0.122292 -0.010163 -3.3214896e-17 -2.2189962e-17 -1
-0.35665 -0.5 0.006677 -0.10237073 -0.9493904 0.296948
-0.428265 0.030603 -0.010163 1.1086167e-17 5.0895133e-17 -1
-0.391644 -0.49459 0.010163 -0.047317761 0.46652807 0.88323982
-0.326738 -0.075746 -0.010163 -3.1258136e-17 -2.5361009e-17 1
-0.056326 -0.426557 0.010163 0 0 -1
-0.320144 0.329594 -0.010163 -2.9100144e-17 -1.0803745e-17 1
-0.398321 -0.171248 -0.010163 -1.7626326e-16 1.6822964e-16 1
-0.241004 0.175836 0.010163 3.7371395e-17 -1.7569968e-17 -1
-0.123982 -0.369932 0.010163 -1.2062915e-17 9.1146594e-17 1
-0.074454 -0.493992 -0.010163 0.029310105 0.25863032 0.9655316
-0.001584 -0.196596 -0.010163 5.9842428e-18 -1.9404867e-18 -1
-0.427493 -0.008873 0.010163 3.6161636e-18 -1.1301462e-16 1
-0.5 0.21782 -0.004746 0.99631052 -0.0042158835 0.085717996
-0.121251 -0.170806 -0.010163 2.7037908e-17 1.4449055e-17 -1
-0.23053 -0.036756 -0.010163 3.6707759e-17 2.5937798e-16 1
-0.012252 0.025786 0.010163 2.8457178e-18 -4.3352923e-17 -1
-0.097419 -0.149525 -0.010163 0 0 -1
-0.346981 -0.335271 -0.010163 1.0028532e-16 4.7829388e-17 1
-0.091472 -0.037622 -0.010163 -5.2623764e-17 5.4521667e-17 -1
-0.086885 0.184704 0.010163 0 0 -1
-0.091326 0.162477 -0.010163 -3.6299111e-17 5.9553266e-18 1
-0.418765 -0.467033 -0.010163 4.2674825e-17 -5.9334509e-17 1
-0.49021 0.105493 0.010163 -0.0053175096 0.0041136576 0.9999774
-0.45603 0.417652 -0.010163 -3.5959183e-17 1.289944e-17 1
-0.399909 -0.408173 0.010163 0 -0 1
-0.123193 -0.130952 -0.010163 1.6421484e-16 -1.1943747e-17 -1
-0.151579 -0.04438 0.010163 1.0385522e-17 -5.3318104e-17 1
-0.00144 0.5 0.003575 -0.059283602 0.94055429 -0.33442949
-0.109743 -0.095045 0.010163 4.3039192e-18 -3.484803e-17 1
-0.080495 0.452963 0.010163 0 0 1
-0.494169 0.312418 -0.010163 0.18587935 0.039983907 -0.9817587
-0.482667 -0.069466 0.010163 0 -0 1
-0.20076 0.457782 -0.010163 1.5658092e-17 9.6892447e-18 -1
-0.395486 0.5 -0.003497 -0.0027286727 0.99046749 -0.1377197
-0.122493 0.305329 -0.010163 3.0952694e-17 8.5042739e-17 1
-0.436388 -0.186341 0.010163 1.1615959e-17 4.857031e-19 -1
-0.403324 0.296359 0.010163 0 0 -1
-0.195364 0.399872 -0.010163 -1.3781867e-17 5.3986266e-17 -1
-0.432554 -0.027612 0.010163 3.4741722e-17 9.5830351e-17 1
-0.395533 -0.185339 -0.010163 -5.0500929e-17 -5.7258941e-18 1
-0.445148 0.360418 0.010163 -4.5579251e-17 1.4292607e-18 1
-0.199943 -0.32024 -0.010163 6.7652952e-18 -5.3427594e-18 1
-0.176366 0.213773 -0.010163 6.1194178e-18 3.6551971e-17 -1
-0.170947 -0.32238 -0.010163 3.7044467e-17 -7.8243848e-17 -1
-0.369748 0.195375 0.010163 0 -0 1
-0.259761 -0.406425 0.010163 0 -0 1
-0.126872 -0.402605 0.010163 3.7220939e-17 -8.109003e-18 1
-0.5 -0.4334 0.000833 -1 -6.261223e-15 -5.7157865e-15
-0.211337 -0.377379 0.010163 -3.0515202e-17 1.5727618e-17 -1
-0.23779 -0.434743 -0.010163 3.148351e-17 -2.8055179e-17 -1
-0.322048 -0.028269 0.010163 -4.2584456e-17 1.3175774e-16 1
-0.416654 0.423702 -0.010163 1.4097883e-17 -4.7770692e-17 -1
-0.281278 -0.075888 -0.010163 7.9499436e-17 1.6929427e-17 -1
-0.400691 0.477355 0.010163 5.5710508e-18 -3.5103683e-18 1
-0.092662 -0.473942 0.010163 0 0 -1
-0.144971 0.2165 0.010163 -1.2095201e-17 8.7864837e-17 1
-0.313473 0.371799 -0.010163 9.4883787e-18 6.342953e-17 1
-0.232572 -0.086127 -0.010163 8.6077467e-17 -6.7450112e-19 -1
-0.064735 -0.195873 0.010163 0 0 -1
-0.228616 0.0228 -0.010163 1.5438612e-16 8.872665e-18 -1
-0.092365 -0.376364 0.010163 -5.689555e-17 -3.5166016e-17 -1
-0.283733 -0.109391 -0.010163 -3.1817553e-17 1.6888438e-18 1
-0.102404 -0.5 0.002521 -0.40494638 0.89350524 -0.19407942
-0.13232 0.038199 -0.010163 0 -0 1
-0.102529 0.007418 -0.010163 -5.0673487e-17 -1.7237867e-16 1
-0.221917 0.473063 -0.010163 0 -0 1
-0.128432 -0.043027 0.010163 8.4392078e-19 5.1494228e-17 1
-0.003019 -0.019373 0.010163 4.5433613e-18 4.221432e-17 -1
-0.115929 0.488696 0.010163 -2.9182054e-17 -2.2480616e-17 1
-0.157006 0.243259 0.010163 -1.0861727e-16 1.5826772e-16 -1
-0.38569 -0.173545 -0.010163 0 0 -1
-0.425324 0.03727 -0.010163 -4.279412e-17 1.6459364e-16 -1
-0.433434 -0.002694 -0.010163 0 0 1
-0.262971 -0.321009 0.010163 7.1512181e-18 3.2609482e-17 -1
-0.142028 -0.353026 0.010163 5.1138978e-18 -1.9645782e-17 1
-0.007037 0.087893 0.010163 -3.0146897e-17 5.252671e-17 -1
-0.487217 -0.452335 -0.010163 0.050078805 0.0032791702 0.99873989
-0.290095 -0.292841 0.010163 1.3943962e-16 2.0826412e-16 1
-0.335325 -0.402557 -0.010163 0 0 -1
-0.469087 -0.301699 -0.010163 3.2822322e-17 4.4475372e-17 -1
-0.479947 0.247015 -0.010163 0 0 -1
-0.11552 -0.4197 0.010163 5.4298197e-18 4.5577733e-18 -1
-0.27608 -0.426191 0.010163 -2.0363651e-17 -3.6447979e-18 1
-0.175246 -0.04922 -0.010163 -1.0494552e-16 -3.1699504e-17 -1
-0.475056 -0.323323 -0.010163 8.1562582e-17 -2.9470875e-17 -1
-0.258775 0.432582 0.010163 6.2585864e-17 -4.5773424e-17 1
-0.191741 -0.428278 0.010163 0 0 -1
-0.043202 0.237196 0.010163 -6.4339214e-17 -6.3414879e-18 1
-0.138611 0.297676 -0.010163 0 0 -1
-0.454961 -0.172991 0.010163 5.2952006e-17 1.6841829e-16 1
-0.090414 -0.023304 0.010163 -3.0488547e-17 2.9266233e-17 -1
-0.284151 -0.144361 0.010163 5.1260533e-19 3.1894757e-17 -1
-0.033912 0.464263 -0.010163 0 0 -1
-0.375096 -0.011673 0.010163 -4.4017564e-17 9.7157765e-18 -1
-0.123596 -0.440214 -0.010163 1.4999271e-17 1.5045534e-17 -1
-0.040741 0.414547 0.010163 -1.0743997e-16 -6.4366302e-17 1
-0.100356 -0.048232 -0.010163 0 -0 1
-0.224504 0.335273 0.010163 0 0 -1
-0.302764 -0.024052 0.010163 2.1604526e-18 1.8421594e-17 1
-0.169281 0.336134 -0.010163 3.5059156e-17 1.5407795e-18 -1
-0.002848 0.002932 -0.010163 -2.4927835e-16 -9.4390948e-17 -1
-0.449282 0.488696 0.010163 0 -0 1
-0.124951 -0.326674 0.010163 0 0 1
-0.186144 0.495964 0.010163 -0.022684363 0.070329104 0.99726588
-0.234397 0.293787 0.010163 -5.8502709e-17 2.263287e-17 1
-0.221672 0.386025 0.010163 3.373899e-17 3.6768554e-17 1
-0.111375 -0.20971 -0.010163 -4.8004693e-17 -7.2019025e-17 1
-0.456774 0.25165 -0.010163 9.8273891e-18 -2.5227507e-17 -1
-0.227563 0.319504 0.010163 8.253617e-17 -1.0618767e-16 1
-0.323479 -0.317961 -0.010163 -3.8641862e-17 5.6262712e-17 -1
-0.03326 -0.233859 -0.010163 4.3226074e-18 -9.2451127e-18 -1
-0.379277 -0.301542 -0.010163 4.7721476e-17 -1.5009155e-17 1
-0.371901 0.120437 -0.010163 3.3247151e-17 -5.1654178e-17 1
-0.444853 0.317076 0.010163 2.6210438e-18 1.1681953e-17 -1
-0.5 0.193009 0.007044 0.89738768 0.045005539 -0.43894174
-0.169196 -0.308128 -0.010163 -3.401453e-17 1.0836694e-17 1
-0.229445 0.137024 0.010163 0 0 1
-0.192982 -0.5 0.005839 -0.28099456 0.84665496 -0.45190424
-0.16241 -0.320736 0.010163 2.1915442e-16 -1.7441688e-16 -1
-0.359567 0.463755 0.010163 0 0 -1
-0.288374 -0.156213 0.010163 1.155226e-16 -1.4981745e-16 -1
-0.5 0.329171 0.008713 0.74079663 -0.047561755 -0.67004346
-0.161581 -0.453061 0.010163 0 0 -1
-0.159769 0.04255 -0.010163 -1.6054857e-17 2.8092092e-17 1
-0.39392 0.347997 0.010163 2.8681925e-17 -1.6653628e-17 -1
-0.209431 -0.358064 0.010163 7.6145582e-17 8.8683677e-17 -1
-0.222929 0.284503 0.010163 5.6958671e-17 -3.952703e-18 -1
-0.471969 -0.169562 -0.010163 5.9003982e-17 2.1929666e-17 1
-0.159918 -0.358054 -0.010163 1.1818153e-18 2.2648374e-17 1
-0.006109 0.054067 0.010163 0 0 -1
-0.354551 0.264337 0.010163 -6.2225923e-17 9.887636e-17 -1
-0.009963 -0.268627 -0.010163 -2.8925979e-17 3.7385643e-17 1
-0.455203 0.296796 0.010163 -3.9682666e-17 6.3883011e-17 1
-0.200848 0.419473 0.010163 3.8364029e-17 -1.1250095e-16 1
-0.083954 0.056969 -0.010163 -8.3005556e-17 1.2038646e-16 1
-0.188988 0.146575 0.010163 -1.0333896e-16 3.8062689e-18 -1
-0.455788 -0.337266 -0.010163 -1.495207e-16 -6.343765e-17 -1
-0.450105 -0.380064 0.010163 -2.67721e-17 -1.5062239e-17 -1
-0.183931 -0.323869 0.010163 -4.7651609e-17 6.0609333e-17 1
-0.484838 0.229265 0.010163 1.6710654e-17 -3.2315755e-17 -1
-0.122579 0.109592 -0.010163 -2.6983576e-17 -2.2211661e-17 1
-0.054267 0.370365 0.010163 -8.2147567e-18 1.0978254e-16 1
-0.029073 -0.335934 0.010163 -2.81971e-18 1.0448039e-16 1
-0.387525 0.184859 0.010163 -8.5443561e-17 -4.6383028e-17 -1
-0.114291 -0.016636 0.010163 -1.4276641e-17 -1.5017682e-16 1
-0.353736 0.064942 -0.010163 0 0 -1
-0.253831 -0.438503 0.010163 4.6037873e-17 -3.1148395e-17 -1
-0.284933 -0.101468 0.010163 -1.6501933e-16 -1.8872063e-17 -1
-0.020255 0.204101 0.010163 7.3729154e-18 -1.2618597e-17 -1
-0.292522 -0.147605 0.010163 9.1297564e-18 5.3151452e-17 -1
-0.020212 -0.370718 -0.010163 -1.9941111e-17 1.815444e-17 -1
-0.437909 -0.225323 0.010163 7.2196633e-17 7.4077133e-18 -1
-0.319959 0.036398 0.010163 -1.4503729e-17 2.0350392e-17 -1
-0.346511 0.069013 -0.010163 3.6902457e-17 -2.8108665e-17 -1
-0.33474 0.239793 -0.010163 -2.0676338e-17 -1.3357707e-17 1
-0.181218 -0.199349 0.010163 -1.1507108e-17 -4.1084475e-18 1
-0.352428 -0.11223 -0.010163 0 0 -1
-0.156136 -0.241606 -0.010163 1.1887823e-16 3.1186136e-17 -1
-0.328817 -0.399552 0.010163 -1.0361972e-17 1.488709e-17 -1
-0.039005 -0.117318 -0.010163 5.7048473e-17 -1.2967154e-17 1
-0.202617 0.467285 0.010163 -5.1217782e-17 1.9889115e-17 1
-0.413047 0.300091 -0.010163 -2.8059958e-16 -1.661328e-17 -1
-0.465273 -0.169657 0.010163 -2.5676219e-17 5.6406883e-17 1
-0.12474 -0.164703 -0.010163 -8.9663924e-18 -2.2686628e-17 1
-0.150209 0.373701 0.010163 0 0 1
-0.455146 0.35629 -0.010163 -4.087977e-17 -8.6312751e-17 1
-0.5 -0.195418 -0.003678 0.98800518 -0.025624115 0.15227988
-0.332489 -0.450475 -0.010163 -3.6799678e-17 -1.7422146e-17 -1
-0.184911 -0.375305 -0.010163 -6.418919e-17 1.3724566e-18 -1
-0.144729 -0.318742 -0.010163 -2.6726803e-17 5.8568579e-17 1
-0.481902 -0.265875 -0.010163 0 0 -1
-0.300897 -0.007098 0.010163 0 -0 1
-0.035357 0.407607 0.010163 0 0 1
-0.279666 0.371087 -0.010163 0 -0 1
-0.30704 0.302755 -0.010163 -2.9556688e-17 8.474464e-17 1
-0.104984 -0.5 -0.005567 0.19826212 0.96934277 0.14514385
-0.280773 -0.093288 -0.010163 -2.2174479e-17 5.6275354e-17 1
-0.191436 0.060298 0.010163 -3.2090247e-17 -1.8161266e-17 -1
-0.099215 -0.211106 -0.010163 -4.2961176e-17 -1.483233e-17 1
-0.011641 -0.07415 -0.010163 1.6217069e-17 7.3171608e-18 -1
-0.17437 0.413102 -0.010163 7.3968902e-17 -9.8618693e-17 1
-0.297228 0.39108 -0.010163 -5.1352289e-17 4.872074e-17 1
-0.394438 0.030365 0.010163 0 0 -1
-0.172193 0.183618 -0.010163 0 0 1
-0.054756 -0.162099 -0.010163 6.228699e-17 -4.4428045e-17 -1
-0.088704 -0.470875 0.010163 1.044102e-16 6.6069922e-17 -1
-0.257877 -0.07025 0.010163 5.5239238e-17 7.4955291e-17 1
-0.408726 0.07831 0.010163 0 0 -1
-0.024941 -0.162706 -0.010163 -3.2692003e-17 -2.4158845e-17 -1
-0.329177 0.304434 -0.010163 -7.8225054e-17 -4.1144749e-17 1
-0.262148 0.299129 0.010163 1.4906305e-17 5.9865028e-17 1
-0.415663 -0.077172 0.010163 -1.4075465e-17 -1.2111846e-17 -1
-0.2039 -0.448322 0.010163 -7.8044088e-18 -7.5833494e-18 -1
-0.143121 -0.09694 0.010163 0 0 1
-0.348781 -0.43835 0.010163 9.314967e-18 2.0162829e-17 1
-0.364365 0.238151 0.010163 -7.0751521e-17 3.5197469e-17 -1
-0.247095 0.167724 0.010163 -4.0683014e-17 -4.6062661e-17 -1
-0.5 -0.016628 -0.001361 -0.99796211 0.039689468 -0.049963692
-0.049512 0.229826 0.010163 4.6259437e-17 2.5030036e-17 -1
-0.177607 -0.027969 -0.010163 -8.7315587e-17 6.7350062e-17 -1
-0.116577 -0.365277 0.010163 -4.177011e-17 1.9827609e-16 1
-0.092646 -0.163406 0.010163 -4.9830221e-17 8.6821192e-17 1
-0.374694 -0.167001 0.010163 0 0 -1
-0.158378 0.183482 0.010163 9.4190474e-19 7.2786009e-18 -1
-0.330656 0.12629 -0.010163 3.920141e-17 -4.1917918e-17 1
-0.205327 0.062669 0.010163 -4.8866636e-17 2.8789031e-17 -1
-0.015914 0.433969 0.010163 -7.6646747e-17 -3.8432631e-17 1
-0.284618 -0.263064 -0.010163 1.2181166e-16 -2.5757713e-17 -1
-0.319675 -0.359457 -0.010163 -3.2264929e-17 -1.6091495e-16 1
-0.217697 -0.326283 0.010163 8.4301413e-17 1.8900348e-17 -1
-0.366054 -0.120333 0.010163 0 0 -1
-0.212203 0.140203 -0.010163 1.888155e-17 8.9054001e-17 1
-0.168405 0.472638 0.010163 3.3444718e-17 -1.9545833e-16 -1
-0.284143 -0.109286 -0.010163 -1.6317586e-17 -7.6707147e-18 1
