0.56246895 0.85191953 0.35018697 0.00000491 -0.00001964 0.00003617
0.49962205 0.85311931 0.35018697 0.00000802 0.00001419 -0.00001617
0.52543652 0.85290086 0.35018697 -0.00000315 0.00001476 0.00000516
0.58672792 0.09297676 0.66770411 -0.00005826 0.00013821 0.00001296
0.56163824 0.85708225 0.35018697 0.00000257 -0.00002102 0.00003814
0.46684557 0.85966349 0.35018697 -0.00001545 0.00001365 0.00000633
0.85073912 0.85966349 0.35018697 0.00014881 0.00009644 0.00003635
0.37711421 0.56279886 0.57219076 -0.00002298 -0.00000763 -0.00000889
0.54782867 0.86482680 0.35018697 -0.00001929 -0.00002156 0.00004576
0.35764289 0.33046925 0.62265426 0.00000316 -0.00005754 0.00003866
0.48413351 0.37200838 0.78128737 -0.00000604 0.00013824 0.00001246
0.48929632 0.73575503 0.73629290 0.00000173 0.00001632 0.00014063
0.64676422 0.09297676 0.66612208 0.00007954 0.00005337 0.00010600
0.79510874 0.87515277 0.35018697 -0.00008970 -0.00006545 -0.00001165
0.43346035 0.88031536 0.35018697 0.00001752 -0.00004522 0.00002628
0.33699170 0.33305070 0.62132752 -0.00002007 -0.00006033 0.00004506
0.54866940 0.88547802 0.34938511 -0.00003510 0.00000418 0.00003039
0.42881963 0.88805991 0.35018697 0.00001049 -0.00003894 0.00000951
0.58480936 0.06974422 0.68448752 -0.00013070 0.00004254 0.00013340
0.57448465 0.89038187 0.34988779 0.00002706 0.00000926 -0.00002221
0.48413351 0.33013311 0.78386861 -0.00001639 -0.00018690 -0.00003177
0.35764289 0.33190680 0.62381971 0.00000272 -0.00005751 0.00004052
0.57876599 0.89626563 0.34983420 0.00002455 0.00001807 -0.00003888
0.57964611 0.89839906 0.34767067 0.00002925 0.00001637 -0.00004069
0.64934552 0.09297676 0.66354376 0.00007518 0.00005410 0.00010769
0.55621827 0.90354854 0.35018697 -0.00003420 0.00005744 0.00002145
0.53318077 0.81319785 0.71569163 0.00005284 0.00005431 0.00014890
0.55790859 0.90612984 0.35018697 -0.00002765 0.00006680 0.00001966
0.39120194 0.90871119 0.34902030 -0.00008234 -0.00008079 0.00001239
0.35699034 0.78222072 0.65479690 -0.00009415 0.00008228 0.00006855
0.45057482 0.90928179 0.35018697 0.00005661 0.00002806 0.00002798
0.44756559 0.91387391 0.35018697 0.00005071 0.00004158 0.00002526
0.44541189 0.91645521 0.34795299 0.00004475 0.00005031 0.00001999
0.62611240 0.60263485 0.57219076 0.00000514 -0.00002069 0.00000447
0.44216079 0.92161846 0.35018697 0.00003609 0.00006382 0.00002277
0.44024906 0.92387831 0.35018697 0.00002877 0.00007298 0.00002253
0.57190216 0.92424911 0.35018697 -0.00006006 0.00009012 -0.00000797
0.32666576 0.33821359 0.62323457 -0.00002986 -0.00006118 0.00006292
0.43363431 0.93194377 0.35018697 0.00001538 0.00008879 0.00001129
0.35764289 0.78436321 0.65479690 -0.00009754 0.00007993 0.00006966
0.61836839 0.08265146 0.68505639 0.00006958 0.00011097 0.00010460
0.35388649 0.61700857 0.57219076 -0.00000359 -0.00003565 0.00000183
0.63327605 0.93968832 0.35018697 0.00017156 0.00005800 0.00001550
0.65845847 0.08265146 0.65221554 0.00007413 0.00010978 0.00011412
0.64297891 0.61959046 0.57219076 0.00003916 -0.00000578 -0.00000958
0.60029793 0.94568294 0.35018697 -0.00011465 0.00015261 0.00001734
0.52801782 0.81577921 0.71591860 0.00004517 0.00005425 0.00015190
0.63220638 0.61442721 0.54637647 0.00002858 -0.00000083 -0.00000744
0.62094975 0.95259553 0.34766224 0.00005385 0.00018865 0.00000014
0.19759396 0.67730254 0.35276890 -0.00000448 -0.00007871 -0.00005742
0.64509368 0.62733442 0.57219076 0.00003916 -0.00000049 -0.00001373
0.22598977 0.68052858 0.35276890 0.00002131 -0.00002254 -0.00006550
0.23115242 0.68412602 0.35173106 0.00001415 -0.00001490 -0.00006465
0.16325232 0.68928874 0.35276890 -0.00009790 -0.00010444 0.00002557
0.23442785 0.69187063 0.35276890 0.00000677 0.00000078 -0.00006066
0.15369694 0.69445199 0.35276890 -0.00008797 -0.00013273 0.00001650
0.48671493 0.69341415 0.35276890 -0.00002046 -0.00001422 0.00005769
0.46606341 0.77970749 0.72449577 -0.00003488 0.00006096 0.00011015
0.14854634 0.69824386 0.35276890 -0.00008400 -0.00015126 0.00000527
0.22340843 0.70219594 0.35112065 0.00000291 0.00003732 -0.00004633
0.65572661 0.64798570 0.57219076 0.00000915 -0.00000550 -0.00000374
0.52116108 0.70735925 0.35276890 0.00001531 0.00000148 0.00002024
0.81040156 0.70994055 0.35276890 -0.00000044 -0.00007511 -0.00006085
0.79132462 0.71252185 0.35262924 -0.00005631 -0.00002134 -0.00001412
0.39894593 0.75382489 0.71007508 -0.00004866 0.00002329 0.00013774
0.81713903 0.71221244 0.35276890 0.00001938 -0.00008886 -0.00006992
0.52918893 0.71510315 0.35276890 0.00001159 -0.00000314 0.00001570
0.38603872 0.34198716 0.62381971 0.00002765 -0.00005076 0.00002583
0.60546118 0.09039544 0.68516898 -0.00000928 0.00015778 0.00010437
0.60804248 0.09039544 0.68487644 0.00000339 0.00015286 0.00010148
0.13149559 0.72284776 0.35276890 -0.00011860 -0.00009233 0.00000377
0.83262765 0.72087204 0.35276890 0.00007293 -0.00009578 -0.00009280
0.45913216 0.72542912 0.35276890 -0.00000234 -0.00001298 0.00001671
0.66741544 0.34337643 0.62217689 0.00006515 -0.00004018 0.00008401
0.67257810 0.65715700 0.57219076 -0.00001214 -0.00003256 0.00002266
0.60029793 0.30353978 0.60316789 -0.00002472 -0.00003590 0.00000752
0.38862002 0.34428814 0.62381971 0.00002872 -0.00004947 0.00002365
0.45315623 0.73565996 0.35276890 0.00000737 -0.00001636 0.00002093
0.62869376 0.13686174 0.68355083 0.00001035 -0.00003979 0.00015894
0.47122625 0.78222072 0.72325927 -0.00004303 0.00006155 0.00010181
0.64676422 0.63034737 0.54637647 0.00002708 0.00000433 -0.00000492
0.23969945 0.74608094 0.35276890 -0.00004897 -0.00003656 -0.00004600
0.23889703 0.74866229 0.35095572 -0.00004341 -0.00004335 -0.00004084
0.62869376 0.13944307 0.68453813 0.00000966 -0.00002759 0.00016568
0.55899507 0.74966699 0.35276890 0.00000675 -0.00001383 0.00001050
0.40164408 0.75382489 0.71158850 -0.00005218 0.00002347 0.00013358
0.85971475 0.75382489 0.35276890 0.00007652 -0.00005224 -0.00006831
0.36280614 0.79297829 0.65479690 -0.00010090 0.00006309 0.00007475
0.85844207 0.75898755 0.35092920 0.00004981 -0.00003729 -0.00005914
0.79906857 0.76156950 0.35222411 -0.00003304 0.00007149 0.00001641
0.79873627 0.76415086 0.35276890 -0.00003200 0.00007006 0.00001704
0.58739066 0.75382489 0.71012992 0.00007274 0.00003911 0.00011949
0.24405967 0.76879942 0.35276890 -0.00000508 -0.00002782 -0.00000629
0.58529216 0.75382489 0.71158850 0.00007588 0.00004121 0.00011825
0.31117719 0.35112077 0.62280780 -0.00005004 -0.00004775 0.00008915
0.25464866 0.77447617 0.35276890 0.00000670 -0.00001238 -0.00001257
0.39636460 0.35067090 0.62381971 0.00002568 -0.00004978 0.00001771
0.80164987 0.77705806 0.35125911 -0.00002135 0.00005036 -0.00000125
0.49187776 0.35976329 0.68577397 0.00000059 -0.00006183 -0.00004382
0.71129984 0.67842823 0.57219076 0.00009991 -0.00004838 0.00006474
0.24907182 0.78480196 0.35276890 0.00001561 -0.00001124 0.00000222
0.49704063 0.36144653 0.68429494 0.00000809 -0.00005810 -0.00004192
0.13655773 0.78996468 0.35276890 -0.00012290 0.00008567 -0.00004048
0.13838837 0.79254657 0.35276890 -0.00011675 0.00008719 -0.00003147
0.67257810 0.64282298 0.54600316 -0.00001636 -0.00003222 -0.00000337
0.80336916 0.79512793 0.35276890 -0.00001533 -0.00000107 -0.00002676
0.56304443 0.79770923 0.35276890 0.00001747 -0.00000762 0.00000965
0.31117719 0.68670738 0.57092720 -0.00000484 -0.00001572 0.00005012
0.46482316 0.35112077 0.82000846 -0.00015602 0.00019110 0.00001685
0.23115242 0.80518174 0.35276890 0.00002985 0.00003866 0.00001451
0.68806666 0.64224094 0.54637647 -0.00000458 -0.00006566 0.00000288
0.30601454 0.35628363 0.62296009 -0.00005617 -0.00004435 0.00010025
0.56054860 0.81061649 0.35276890 0.00001169 0.00000026 0.00001104
0.21308254 0.81107706 0.35276890 0.00002081 0.00006446 0.00000458
0.50220352 0.68412602 0.72929478 0.00000056 -0.00002051 0.00004412
0.66483414 0.64360863 0.54637647 -0.00001484 -0.00001582 -0.00000705
0.18468672 0.81836110 0.35080460 0.00000712 0.00010917 -0.00000205
0.55920333 0.81836110 0.35276890 0.00001033 -0.00000484 0.00001236
0.66741544 0.64362121 0.54637647 -0.00001699 -0.00002089 -0.00000644
0.47897059 0.36660939 0.68494505 -0.00002104 -0.00004983 -0.00003717
0.58222806 0.35637519 0.62381971 -0.00002374 -0.00002407 0.00001166
0.51769215 0.45695958 0.67406893 0.00002304 -0.00002532 0.00000628
0.86320382 0.83384973 0.35276890 0.00013586 0.00004358 0.00006959
0.56473243 0.83901238 0.35276890 0.00001231 -0.00000814 0.00001736
0.86102343 0.83935058 0.35276890 0.00013798 0.00006095 0.00006611
0.43915996 0.84675634 0.35276890 -0.00001597 0.00000451 0.00000796
0.53834367 0.84933829 0.35111827 -0.00000150 0.00000140 0.00002401
0.53834367 0.85191953 0.35164440 -0.00000336 0.00000089 0.00002634
0.85739887 0.85191953 0.35276890 0.00017143 0.00010359 0.00005953
0.47638914 0.36919081 0.68480539 -0.00002429 -0.00004574 -0.00003249
0.53318077 0.85393625 0.35276890 -0.00000374 0.00000746 0.00002049
0.85586017 0.85450089 0.35161549 0.00016886 0.00010587 0.00005346
0.48413351 0.85700822 0.35276890 0.00000195 0.00001272 -0.00000870
0.30601454 0.70219594 0.57080561 0.00000323 0.00000641 0.00006488
0.35963488 0.14460573 0.60833120 0.00008687 -0.00001911 0.00002304
0.85069752 0.85865766 0.35276890 0.00015252 0.00009399 0.00004354
0.54640812 0.86224550 0.35276890 -0.00001455 -0.00001504 0.00004679
0.41177553 0.36660939 0.62381971 0.00001729 -0.00003868 0.00001162
0.84556854 0.86348194 0.35269365 0.00012859 0.00008960 0.00002849
0.83786440 0.86725825 0.35265329 0.00006156 0.00007389 0.00000467
0.43609947 0.87257075 0.35276890 0.00000812 -0.00003612 0.00002605
0.67338955 0.36660939 0.62381971 0.00009347 -0.00002255 0.00008817
0.83520901 0.87323242 0.35276890 0.00006792 0.00008611 0.00001606
0.79692131 0.87773401 0.35276890 -0.00008035 -0.00004810 0.00000323
0.43128300 0.88289666 0.35276890 0.00001837 -0.00004486 0.00002247
0.80045849 0.88289666 0.35276890 -0.00005836 -0.00002504 0.00002700
0.39378330 0.85981166 0.54121357 -0.00006653 0.00002263 -0.00004549
0.71498823 0.71510315 0.57219076 0.00010543 0.00002409 0.00007368
0.82488304 0.88681561 0.35276890 0.00007028 0.00009743 0.00006701
0.80939448 0.89064127 0.35038501 0.00000015 0.00003075 0.00006579
0.42217910 0.89300048 0.35276890 -0.00004252 -0.00002562 0.00001388
0.41959777 0.89499366 0.35276890 -0.00006192 -0.00002286 0.00001439
0.45643377 0.89838529 0.35276890 0.00005235 0.00000129 0.00002438
0.38862002 0.90096664 0.35207903 -0.00005142 0.00000030 -0.00005128
0.31892177 0.65390682 0.54637647 -0.00001394 -0.00001614 -0.00000727
0.38603872 0.90354854 0.35025862 -0.00005410 -0.00002365 -0.00003705
0.67774135 0.20656058 0.65305227 0.00008812 -0.00002741 0.00017473
0.31117719 0.72801042 0.57088083 -0.00000086 0.00002050 0.00002470
0.71129984 0.72646153 0.57219076 0.00008752 0.00004311 0.00007860
0.35857719 0.14976899 0.60833120 0.00008623 -0.00000709 0.00002611
0.33957300 0.12653582 0.56099015 0.00003419 -0.00003422 -0.00006041
0.53576219 0.67121881 0.72578579 -0.00000286 -0.00004732 0.00007181
0.44646838 0.91645521 0.35276890 0.00004827 0.00004866 0.00003049
0.56415814 0.91656232 0.35276890 -0.00002916 0.00009213 0.00000696
0.67630017 0.20656058 0.65479690 0.00008455 -0.00002446 0.00017723
0.68323028 0.14976899 0.60833120 0.00006311 -0.00004627 -0.00005941
0.61062384 0.92678106 0.35041210 0.00000286 -0.00003235 -0.00000984
0.61578649 0.92936242 0.35088587 0.00004395 -0.00001113 -0.00000329
0.56488770 0.37951657 0.62381971 -0.00000940 -0.00002053 -0.00000313
0.62907660 0.93275768 0.35307834 0.00014410 0.00000223 0.00002998
0.58149362 0.15235031 0.60833120 -0.00006617 -0.00002111 -0.00001872
0.38603872 0.93880761 0.35276890 -0.00004141 0.00002469 0.00018766
0.29568863 0.38024116 0.62381971 -0.00009028 -0.00003822 0.00011104
0.38862002 0.94242436 0.35276890 -0.00001600 0.00005480 0.00019035
0.36299998 0.63249707 0.64963424 -0.00003409 -0.00002817 0.00002552
0.60287982 0.94659013 0.35276890 -0.00009341 0.00015923 0.00004259
0.40410921 0.95001423 0.35085940 0.00006757 0.00012496 0.00012054
0.69322991 0.74349898 0.56985086 0.00001830 0.00008088 0.00005375
0.20953500 0.67638212 0.35535023 0.00002595 -0.00005140 -0.00006537
0.18984938 0.67814106 0.35535023 -0.00003754 -0.00009008 -0.00003787
0.21824518 0.67764503 0.35535023 0.00003442 -0.00003013 -0.00006567
0.17952408 0.67997533 0.35535023 -0.00009582 -0.00009620 -0.00000708
0.17436081 0.68207932 0.35535023 -0.00010582 -0.00009478 0.00000577
0.16403550 0.68908346 0.35535023 -0.00009669 -0.00010094 0.00002163
0.50220352 0.69187063 0.35507450 -0.00000093 -0.00002206 0.00005601
0.72992176 0.66605622 0.54637647 0.00005705 -0.00003420 0.00006546
0.14997123 0.69703329 0.35535023 -0.00008188 -0.00014857 0.00000392
0.73453295 0.66605622 0.54406798 0.00003821 -0.00004016 0.00008529
0.47897059 0.69895124 0.35535023 -0.00002298 -0.00000817 0.00003984
0.32408443 0.71518326 0.61349386 -0.00007898 -0.00000817 -0.00001273
0.66763395 0.76156950 0.57219076 0.00003011 0.00002375 0.00001555
0.73453295 0.66863751 0.54570973 0.00004149 -0.00003389 0.00008638
0.46511173 0.40016803 0.68577397 -0.00004220 -0.00002101 0.00000514
0.80423176 0.70862824 0.35535023 -0.00002610 -0.00005303 -0.00003989
0.51876664 0.40274951 0.68577397 0.00005097 -0.00001538 0.00000036
0.66027403 0.77189481 0.57219076 0.00004848 0.00001579 0.00000725
0.65545094 0.71768451 0.61349386 0.00004087 0.00000107 -0.00000384
0.23373435 0.71555293 0.35535023 -0.00001974 0.00006658 -0.00004937
0.64418226 0.06716288 0.66362202 0.00003381 0.00001357 0.00006462
0.53318077 0.72026646 0.35296816 0.00000535 -0.00000913 0.00001626
0.46090049 0.72221988 0.35535023 -0.00000573 -0.00001139 0.00001495
0.27245548 0.67380011 0.54531980 -0.00006712 -0.00007844 0.00008775
0.12677722 0.72801042 0.35535023 -0.00014529 -0.00007751 0.00001696
0.79029822 0.72801042 0.35535023 -0.00006900 0.00002273 0.00002899
0.53834367 0.72973996 0.35535023 -0.00000706 -0.00001559 0.00001733
0.24018407 0.73317367 0.35535023 -0.00005447 0.00001070 -0.00005741
0.37711662 0.81577921 0.65479690 -0.00007949 0.00008800 0.00009708
0.12058336 0.73833632 0.35535023 -0.00018156 -0.00004593 0.00000522
0.79574198 0.73833632 0.35535023 -0.00006246 0.00003417 0.00003649
0.43766767 0.39287212 0.62381971 0.00001424 -0.00000651 0.00001267
0.54742396 0.74349898 0.35535023 -0.00001402 -0.00001480 0.00001806
0.54866940 0.74506778 0.35535023 -0.00001256 -0.00001322 0.00001730
0.24077761 0.74866229 0.35535023 -0.00004467 -0.00003312 -0.00004222
0.85844207 0.74785620 0.35535023 0.00009117 -0.00004906 -0.00007551
0.44024906 0.75034547 0.35535023 0.00000318 -0.00001288 0.00001759
0.85844207 0.75124359 0.35312769 0.00008026 -0.00004924 -0.00007295
0.64418226 0.80698353 0.57219076 0.00005851 0.00005430 0.00000320
0.56932080 0.75444621 0.35535023 0.00002588 -0.00001577 0.00000456
0.29052597 0.39758664 0.62149549 -0.00012547 -0.00002951 0.00010561
0.42217910 0.76093984 0.35535023 -0.00001690 -0.00001636 0.00000740
0.44283044 0.39629143 0.62381971 0.00001249 -0.00000513 0.00000865
0.44484767 0.39758664 0.62381971 0.00001224 -0.00000423 0.00000671
0.34215432 0.81348020 0.57219076 -0.00006229 0.00008957 -0.00001092
0.57300496 0.76931345 0.35535023 0.00002640 -0.00000871 -0.00000228
0.41907102 0.77189481 0.35535023 -0.00002015 -0.00000963 0.00000241
0.63385695 0.81747854 0.57219076 0.00004815 0.00006079 0.00000271
0.51511067 0.42598242 0.68432260 0.00004005 -0.00000229 0.00001671
0.60052007 0.12911716 0.66770411 -0.00009838 -0.00005295 0.00005647
0.25302932 0.78222072 0.35535023 0.00001167 -0.00000954 -0.00000292
0.25077847 0.78480196 0.35535023 0.00001468 -0.00000962 0.00000112
0.13437311 0.78738332 0.35535023 -0.00012951 0.00009347 -0.00003226
0.13563970 0.78952229 0.35535023 -0.00012579 0.00009435 -0.00002578
0.80257452 0.78996468 0.35535023 -0.00001122 0.00001234 -0.00002626
0.58035100 0.16009429 0.60833120 -0.00006866 -0.00000875 -0.00001473
0.87190616 0.79512793 0.35535023 0.00010905 -0.00000649 0.00004865
0.87135357 0.79770923 0.35535023 0.00010572 -0.00000748 0.00005605
0.52285498 0.40159473 0.62381971 0.00000726 -0.00001300 -0.00001924
0.51148003 0.43114510 0.68577397 0.00003435 0.00000080 0.00002185
0.49187776 0.82094246 0.71634477 -0.00002760 0.00004783 0.00016732
0.15112828 0.80673248 0.35535023 -0.00006297 0.00012195 0.00000858
0.56179053 0.80803519 0.35535023 0.00001061 0.00000080 0.00001232
0.21824518 0.80984116 0.35535023 0.00002923 0.00006080 0.00001419
0.86990213 0.81061649 0.35535023 0.00011733 0.00000197 0.00008573
0.21566387 0.81077909 0.35535023 0.00002724 0.00006607 0.00001361
0.16661683 0.81371015 0.35535023 -0.00002678 0.00011144 0.00001376
0.19759396 0.81577921 0.35328960 0.00000189 0.00009045 0.00000584
0.17436081 0.81669903 0.35535023 -0.00000749 0.00011677 0.00001581
0.79906857 0.81836110 0.35496616 -0.00002272 -0.00001914 -0.00002326
0.57964671 0.16223197 0.60833120 -0.00007011 -0.00000531 -0.00001372
0.56584066 0.82610512 0.35535023 0.00001475 -0.00000902 0.00000560
0.52027357 0.73575503 0.73600513 0.00001842 0.00002097 0.00014356
0.43146476 0.83384973 0.35535023 -0.00001770 -0.00000040 0.00000283
0.48671493 0.40629038 0.62381971 -0.00000999 0.00000685 -0.00001543
0.56353325 0.84159374 0.35535023 0.00000765 -0.00000543 0.00002259
0.43954587 0.84675634 0.35535023 -0.00001429 0.00000584 0.00000851
0.56157678 0.84703684 0.35535023 0.00000265 -0.00000950 0.00003398
0.50478500 0.40573218 0.62381971 -0.00000553 0.00000375 -0.00001781
0.51511067 0.85338897 0.35535023 0.00001073 0.00001487 -0.00000243
0.51511067 0.40565392 0.62381971 -0.00000243 -0.00000186 -0.00001974
0.74397814 0.69961464 0.54637647 0.00001401 0.00001146 0.00010877
0.50478500 0.85585952 0.35535023 0.00001191 0.00001556 -0.00001077
0.56048542 0.85706955 0.35520396 -0.00000313 -0.00001949 0.00004519
0.48671493 0.85830182 0.35535023 0.00000232 0.00001248 -0.00000923
0.26097736 0.70477730 0.54637647 -0.00012089 0.00000076 0.00009186
0.47897059 0.43902454 0.68577397 -0.00001471 0.00000258 0.00003761
0.25954825 0.70735925 0.54410410 -0.00012443 0.00000409 0.00008463
0.59840226 0.85966349 0.57219076 0.00006462 0.00005662 -0.00001513
0.74485886 0.70735925 0.54599059 0.00001583 0.00002951 0.00011046
0.83678073 0.86996114 0.35535082 0.00007364 0.00008847 0.00002230
0.83587295 0.87257075 0.35535023 0.00007806 0.00009701 0.00002753
0.59440565 0.31498063 0.60574925 -0.00001901 -0.00003820 0.00000846
0.79648721 0.87733257 0.35535023 -0.00008340 -0.00003739 0.00000439
0.54607213 0.88031536 0.35535023 -0.00003816 -0.00000829 0.00005264
0.28536269 0.70994055 0.56135559 -0.00001939 0.00002066 0.00011331
0.67095935 0.41565669 0.62381971 0.00012119 0.00001087 0.00008402
0.82625014 0.88547802 0.35535023 0.00007444 0.00011011 0.00006947
0.57590353 0.88797927 0.35554165 0.00000981 -0.00000163 -0.00001387
0.81950670 0.88805991 0.35535023 0.00004492 0.00008857 0.00007472
0.26370555 0.71252185 0.54637647 -0.00011175 0.00001103 0.00009001
0.29568863 0.42340094 0.62319070 -0.00013071 0.00002128 0.00009820
0.41443449 0.89536148 0.35535023 -0.00008342 -0.00001567 0.00000252
0.58559376 0.87773401 0.57219076 0.00008122 0.00008719 0.00001964
0.40261027 0.88031536 0.57219076 -0.00008673 0.00009280 0.00001004
0.41185319 0.89838529 0.35389882 -0.00009666 -0.00002094 0.00000771
0.39636460 0.90096664 0.35371706 -0.00007623 -0.00001036 -0.00003808
0.58464867 0.90130007 0.35335040 0.00001798 0.00001329 -0.00003082
0.29904470 0.43114510 0.62381971 -0.00012054 0.00003600 0.00009700
0.57964671 0.88214064 0.57219076 0.00009760 0.00007763 0.00001967
0.38345736 0.91129255 0.35431722 -0.00005988 -0.00004499 -0.00000206
0.38451087 0.91387391 0.35535023 -0.00006645 -0.00005197 0.00001517
0.42566645 0.36919081 0.61349386 0.00000769 -0.00003109 0.00001222
0.44452801 0.91903710 0.35535023 0.00004081 0.00005146 0.00002960
0.68926162 0.16525754 0.60833120 0.00010649 -0.00001636 -0.00004160
0.65667236 0.43888968 0.62381971 0.00003649 0.00005723 0.00006433
0.43775374 0.92678106 0.35535023 0.00001860 0.00006721 0.00001576
0.66999680 0.31087095 0.60316789 0.00004580 -0.00004338 0.00004860
0.48671493 0.47244814 0.68364114 -0.00000404 -0.00002028 0.00004484
0.62982124 0.93212259 0.35611114 0.00015199 -0.00000013 0.00005807
0.36280614 0.16783887 0.60658485 0.00008543 0.00003119 0.00003924
0.41701582 0.89149129 0.57219076 -0.00009138 0.00011007 0.00001176
0.62966233 0.93968832 0.35535023 0.00014035 0.00006671 0.00006261
0.42476040 0.89610434 0.57219076 -0.00007285 0.00013505 0.00001554
0.59771657 0.94380707 0.35535023 -0.00013730 0.00014866 0.00006404
0.41185319 0.94660467 0.35535023 0.00001818 0.00010855 0.00005734
0.31330702 0.44921562 0.62381971 -0.00006627 0.00006969 0.00008317
0.68976426 0.16783887 0.60833120 0.00010936 -0.00001299 -0.00003971
0.20533855 0.67530149 0.35793155 0.00001070 -0.00006943 -0.00006160
0.26431537 0.13686174 0.56186485 -0.00000170 0.00003235 -0.00002288
0.20017530 0.67678243 0.35793155 -0.00000220 -0.00007190 -0.00005606
0.17436081 0.68122751 0.35793155 -0.00011095 -0.00009429 0.00000104
0.23607549 0.68412602 0.35793155 0.00001352 -0.00001365 -0.00005063
0.23945567 0.68928874 0.35793155 0.00001280 -0.00000474 -0.00004467
0.24044351 0.69445199 0.35793155 0.00001041 0.00000581 -0.00004180
0.50736642 0.69394934 0.35793155 0.00000358 -0.00002020 0.00004606
0.48413351 0.69555545 0.35793155 -0.00001851 -0.00001400 0.00004019
0.47809431 0.69961464 0.35793155 -0.00002148 -0.00001015 0.00003320
0.48413351 0.48535541 0.68417990 -0.00000080 -0.00001986 0.00005257
0.32084513 0.73317367 0.61349386 -0.00010285 0.00000577 -0.00000913
0.23174478 0.70735925 0.35793155 -0.00000762 0.00004933 -0.00004033
0.62755477 0.45437831 0.62381971 0.00002441 0.00001497 -0.00000007
0.45573762 0.91036123 0.57219076 -0.00004884 0.00015186 0.00004454
0.81455714 0.70670605 0.35793155 0.00001264 -0.00007971 -0.00006428
0.52352023 0.70994055 0.35793155 0.00001226 -0.00000228 0.00001834
0.62477839 0.45695958 0.62381971 0.00003240 0.00000216 -0.00000086
0.49962205 0.48535541 0.68429071 -0.00000707 -0.00002194 0.00005124
0.43235090 0.71252185 0.72707707 -0.00003144 0.00001155 0.00013398
0.82746440 0.71510315 0.35616532 0.00004591 -0.00010238 -0.00007389
0.46348196 0.71666235 0.35793155 -0.00001027 -0.00001124 0.00001303
0.46606341 0.91299373 0.57219076 -0.00003242 0.00014662 0.00003029
0.12964027 0.72284776 0.35793155 -0.00013325 -0.00009743 0.00002704
0.78667843 0.72284776 0.35793155 -0.00006701 0.00002002 0.00002326
0.53576219 0.72524732 0.35793155 -0.00000036 -0.00001275 0.00001750
0.45725411 0.72801042 0.35793155 -0.00000072 -0.00001303 0.00001691
0.33182842 0.46081474 0.62381971 -0.00004145 0.00005686 0.00005337
0.12235379 0.73317367 0.35793155 -0.00017183 -0.00006762 0.00002414
0.85069752 0.73317367 0.35756314 0.00010334 -0.00006399 -0.00007888
0.38669425 0.82868648 0.65479690 -0.00008384 0.00009604 0.00009934
0.54262865 0.73833632 0.35793155 -0.00001516 -0.00001618 0.00002085
0.48155200 0.91502666 0.57219076 -0.00000227 0.00015719 0.00002673
0.44767576 0.74349898 0.35793155 0.00000959 -0.00001527 0.00002441
0.47380772 0.48793676 0.68505162 0.00000278 -0.00002596 0.00005814
0.85844207 0.74608094 0.35605815 0.00009713 -0.00004972 -0.00007729
0.70097393 0.04595843 0.57477206 -0.00001700 -0.00012538 -0.00000526
0.70613718 0.04593918 0.57477206 0.00000066 -0.00013185 0.00001119
0.86187345 0.75124359 0.35793155 0.00009471 -0.00005176 -0.00006845
0.56673944 0.75234222 0.35793155 0.00002024 -0.00001806 0.00000885
0.34606606 0.47502950 0.62381971 -0.00005274 0.00003092 0.00004169
0.42360702 0.75898755 0.35793155 -0.00001404 -0.00001800 0.00001260
0.21566387 0.04765485 0.57477206 -0.00006205 -0.00016924 0.00006836
0.22340843 0.04801483 0.57477206 -0.00002196 -0.00016029 0.00004325
0.22598977 0.04848257 0.57477206 -0.00001070 -0.00015482 0.00003373
0.79648721 0.76673216 0.35548207 -0.00003342 0.00006347 0.00002119
0.57381046 0.76931345 0.35793155 0.00002419 -0.00000839 -0.00000205
0.57372737 0.77189481 0.35793155 0.00002447 -0.00000838 -0.00000176
0.79648721 0.77447617 0.35680884 -0.00002309 0.00004100 0.00000402
0.86618608 0.77656561 0.35793155 0.00006207 -0.00000720 -0.00000968
0.32150310 0.04802928 0.57477206 -0.00002843 -0.00009168 0.00010062
0.34989890 0.13944307 0.56040263 0.00005837 -0.00002753 -0.00006494
0.41795611 0.78480196 0.35793155 -0.00002173 -0.00000170 0.00000177
0.35506156 0.48586953 0.62381971 -0.00006952 0.00001168 0.00003233
0.72162575 0.74434900 0.54637647 0.00008249 0.00008050 0.00001567
0.80053502 0.78996468 0.35793155 -0.00000509 0.00000842 -0.00003127
0.80164987 0.79254657 0.35617554 -0.00000813 0.00000467 -0.00003009
0.46090049 0.49051806 0.68484879 -0.00000632 -0.00003410 0.00006113
0.69064856 0.04819903 0.57477206 -0.00004887 -0.00009504 -0.00003349
0.14338367 0.79858994 0.35793155 -0.00009878 0.00010379 0.00000677
0.80027795 0.80029058 0.35793155 -0.00000332 -0.00000678 -0.00003086
0.56673944 0.80287194 0.35780635 0.00002088 -0.00000618 0.00000952
0.23115242 0.80387664 0.35793155 0.00003022 0.00003863 0.00001345
0.28536269 0.71252185 0.56113583 -0.00001784 0.00002500 0.00011258
0.40669051 0.76673216 0.71023881 -0.00005748 0.00007504 0.00011439
0.42555988 0.81061649 0.35793155 -0.00002446 -0.00000527 0.00000158
0.16145357 0.81221718 0.35793155 -0.00003949 0.00012084 0.00002510
0.51511067 0.82094246 0.71591622 0.00003905 0.00005503 0.00015316
0.59073412 0.10846595 0.65221554 -0.00005057 -0.00002027 0.00000428
0.19501263 0.81345975 0.35793155 0.00000510 0.00008540 0.00002294
0.17694274 0.81667739 0.35793155 -0.00000228 0.00011933 0.00002662
0.86876744 0.81836110 0.35594741 0.00013065 0.00001386 0.00009241
0.86565691 0.82094246 0.35793155 0.00011407 0.00001392 0.00009219
0.51511067 0.81908292 0.71675116 0.00003716 0.00004960 0.00015303
0.30859587 0.75382489 0.54396290 0.00003254 0.00001108 0.00001335
0.62094975 0.04946683 0.57477206 0.00002351 -0.00007519 0.00002387
0.62353110 0.05003811 0.57477206 0.00003099 -0.00007094 0.00003162
0.85986400 0.83901238 0.35793155 0.00013338 0.00005068 0.00008765
0.63385695 0.05149975 0.57477206 0.00005846 -0.00006270 0.00004853
0.37205690 0.50600725 0.62381971 -0.00004184 0.00002138 0.00001923
0.44134551 0.85191953 0.35793155 -0.00001251 0.00000431 0.00001171
0.51511067 0.85431248 0.35793155 0.00001319 0.00001400 -0.00000118
0.85106897 0.85450089 0.35793155 0.00014877 0.00008329 0.00005359
0.45057482 0.66605622 0.72634381 -0.00000070 -0.00003755 0.00008819
0.53576219 0.69187063 0.72935438 0.00002526 0.00003006 0.00010942
0.65450823 0.05160148 0.57477206 0.00001543 -0.00007773 0.00004469
0.50478500 0.85749459 0.35793155 0.00001327 0.00001512 -0.00001010
0.44120002 0.86224550 0.35793155 -0.00000806 -0.00000674 0.00001844
0.79461259 0.86224550 0.35793155 -0.00010764 -0.00005968 -0.00003286
0.70355582 0.75640625 0.54413885 0.00003561 0.00009889 -0.00000604
0.43888909 0.86740816 0.35793155 -0.00000047 -0.00001998 0.00002103
0.45573762 0.49309999 0.68442798 -0.00001308 -0.00003433 0.00006216
0.83711243 0.86999005 0.35793155 0.00008557 0.00009696 0.00003642
0.68548536 0.04912308 0.57477206 -0.00006157 -0.00008329 -0.00004400
0.83412892 0.87515277 0.35793155 0.00008147 0.00011076 0.00004424
0.59771657 0.14718704 0.66696125 -0.00012672 0.00001857 0.00006998
0.69839257 0.75898755 0.54426318 0.00002625 0.00009331 -0.00000306
0.25438559 0.05187176 0.57477206 0.00007541 -0.00009361 -0.00004809
0.42476040 0.88532811 0.35793155 -0.00000444 -0.00003895 0.00001480
0.66032821 0.11104726 0.65221554 0.00006167 -0.00007983 0.00007274
0.46111885 0.88805991 0.35793155 0.00001745 -0.00000024 0.00000825
0.81713903 0.88805991 0.35659334 0.00003218 0.00008322 0.00007645
0.39378330 0.89064127 0.35705265 -0.00003101 0.00005220 -0.00007816
0.45990679 0.89064127 0.35793155 0.00002410 -0.00000182 0.00001043
0.39378330 0.89322263 0.35627186 -0.00003829 0.00004532 -0.00007731
0.40927187 0.89238101 0.35793155 -0.00007255 0.00000127 -0.00003245
0.64418226 0.05186937 0.57477206 0.00005702 -0.00006862 0.00005815
0.64676422 0.05183504 0.57477206 0.00005064 -0.00007186 0.00005838
0.68806666 0.76024693 0.54637647 0.00001210 0.00007583 0.00000013
0.55028623 0.90096664 0.35793155 -0.00004672 0.00004073 0.00003607
0.55125082 0.90279841 0.35793155 -0.00004565 0.00004600 0.00003403
0.72207183 0.05941830 0.57477206 0.00009028 0.00000881 0.00009078
0.20565340 0.06199964 0.57477206 -0.00010580 -0.00002002 0.00011293
0.59756130 0.91123599 0.35679257 -0.00001914 -0.00009246 0.00002073
0.52801782 0.49568135 0.68467957 0.00001121 -0.00002891 0.00006106
0.60546118 0.91645521 0.35733500 -0.00001791 -0.00012507 0.00005215
0.59513527 0.83871734 0.65479690 0.00007905 0.00008358 0.00007815
0.55125082 0.68670738 0.72404182 0.00005525 -0.00000080 0.00011021
0.61836839 0.92303729 0.35793155 0.00007017 -0.00007533 0.00005848
0.43766767 0.92660826 0.35793155 0.00001891 0.00006174 0.00001335
0.20533855 0.06716288 0.57423633 -0.00010587 0.00003047 0.00010862
0.66999680 0.77104306 0.54637647 0.00002804 0.00003478 -0.00000119
0.66225278 0.14976899 0.66750365 0.00013749 -0.00000299 0.00013581
0.38510379 0.55763561 0.62381971 -0.00003551 0.00001348 0.00000609
0.39361110 0.93968832 0.35793155 -0.00001118 0.00005784 0.00016172
0.49445918 0.37435371 0.76686484 0.00005628 0.00014137 0.00001478
0.60641772 0.56279886 0.62381971 0.00003664 0.00000922 0.00000765
0.41443449 0.94485092 0.35661742 0.00000953 0.00010347 0.00004455
0.62611240 0.94485092 0.35620263 0.00010586 0.00011827 0.00007672
0.60546118 0.94600683 0.35793155 -0.00007016 0.00016109 0.00009167
0.61062384 0.94743353 0.35793155 -0.00002848 0.00016242 0.00009382
0.53834367 0.50084400 0.68432081 0.00002046 -0.00002869 0.00006606
0.66483414 0.77468503 0.54637647 0.00003535 0.00002482 -0.00000344
0.19501263 0.67748791 0.36051288 -0.00002649 -0.00007789 -0.00004346
0.23373435 0.68145806 0.36051288 0.00001726 -0.00001851 -0.00004622
0.20648474 0.07748821 0.57477206 -0.00011602 0.00011560 0.00010753
0.54350650 0.69445199 0.72812808 0.00003582 0.00001704 0.00011911
0.49187776 0.69316494 0.36051288 -0.00001140 -0.00001961 0.00003905
0.15370959 0.69523937 0.36051288 -0.00007755 -0.00013696 -0.00000390
0.51151264 0.69703329 0.36051288 0.00000439 -0.00001759 0.00003562
0.51511067 0.69905174 0.36051288 0.00000681 -0.00001593 0.00003217
0.51769215 0.70098776 0.36051288 0.00000897 -0.00001401 0.00002907
0.80164987 0.70173305 0.36051288 -0.00002937 -0.00004040 -0.00004942
0.43508634 0.69703329 0.72792405 -0.00004074 0.00002546 0.00013169
0.44283044 0.50600725 0.68408841 -0.00003334 -0.00002561 0.00006787
0.60801780 0.58345008 0.62381971 -0.00000873 -0.00001127 -0.00001207
0.23537296 0.70735925 0.36051288 -0.00000593 0.00004385 -0.00003333
0.78099871 0.70735925 0.35876349 -0.00005219 -0.00000389 -0.00002013
0.46877533 0.70994055 0.36051288 -0.00001412 -0.00001123 0.00001484
0.82746440 0.70973951 0.36051288 0.00005847 -0.00011305 -0.00007070
0.52543652 0.71112829 0.36051288 0.00001235 -0.00000351 0.00001845
0.23674549 0.71510315 0.36051288 -0.00001978 0.00005610 -0.00003836
0.13425271 0.71768451 0.36051288 -0.00011148 -0.00011371 0.00002340
0.83520901 0.71768451 0.35925654 0.00007856 -0.00010195 -0.00006798
0.53343379 0.72026646 0.36051288 0.00000707 -0.00000941 0.00001644
0.23993063 0.72284776 0.36051288 -0.00003645 0.00004617 -0.00004594
0.65354383 0.79254657 0.54637647 0.00005408 0.00002971 0.00000614
0.84553492 0.72393197 0.36051288 0.00010646 -0.00008290 -0.00006852
0.79000866 0.72801042 0.36051288 -0.00006790 0.00003392 0.00004364
0.37692216 0.60410190 0.62381971 0.00002262 -0.00001570 -0.00000413
0.69371390 0.18332745 0.60833120 0.00012097 -0.00001538 -0.00002706
0.37503552 0.60668319 0.62381971 0.00001764 -0.00001567 -0.00000293
0.79288793 0.73833632 0.36051288 -0.00007184 0.00003543 0.00005963
0.79390597 0.74091768 0.35823435 -0.00006740 0.00003676 0.00005113
0.86030531 0.74349898 0.36051288 0.00010868 -0.00005319 -0.00007532
0.61143529 0.09039544 0.57477206 -0.00003297 0.00011349 -0.00000024
0.86102343 0.74866229 0.35798934 0.00009859 -0.00005216 -0.00007217
0.54350650 0.69703329 0.72876263 0.00003246 0.00001707 0.00012424
0.43811074 0.75382489 0.36051288 0.00000357 -0.00001326 0.00002386
0.22082712 0.09136163 0.57477206 -0.00007184 0.00015320 0.00004937
0.43508634 0.75493139 0.36051288 0.00000024 -0.00001430 0.00002272
0.24322289 0.75898755 0.36051288 -0.00002693 -0.00001809 -0.00003014
0.24405967 0.76086336 0.36051288 -0.00002352 -0.00001566 -0.00002782
0.44236568 0.51116991 0.68577397 -0.00003225 -0.00001912 0.00007519
0.79390597 0.76415086 0.35841617 -0.00004062 0.00005830 0.00003215
0.40927187 0.85062230 0.65479690 -0.00007693 0.00010070 0.00009829
0.41831490 0.76931345 0.36051288 -0.00001765 -0.00001185 0.00001048
0.41792545 0.77189481 0.36051288 -0.00001832 -0.00001008 0.00001007
0.41756183 0.77447617 0.36051288 -0.00001884 -0.00000885 0.00000902
0.41738665 0.77705806 0.36051288 -0.00001924 -0.00000746 0.00000793
0.69581127 0.09536546 0.57477206 0.00004777 0.00006536 0.00002396
0.25436449 0.78222072 0.36051288 0.00000371 -0.00000270 -0.00001417
0.35935071 0.61959046 0.62381971 -0.00001880 -0.00003129 0.00001135
0.87187552 0.78480196 0.36051288 0.00011471 0.00000044 0.00001913
0.57294178 0.78738332 0.36051288 0.00002690 -0.00000765 0.00000204
0.24664101 0.78863311 0.36051288 0.00001534 -0.00000337 -0.00000079
0.69322991 0.09639484 0.57477206 0.00004045 0.00005681 0.00002293
0.87104237 0.79254657 0.36051288 0.00010510 0.00000541 0.00003768
0.86983180 0.79512793 0.36051288 0.00009468 0.00000597 0.00004189
0.79793984 0.79770923 0.36051288 0.00000711 -0.00000217 -0.00003957
0.34473568 0.80693054 0.54637647 -0.00001880 0.00003371 -0.00000647
0.67817301 0.10072134 0.57477206 0.00000262 0.00002597 0.00002236
0.68548536 0.09968954 0.57477206 0.00002075 0.00003652 0.00002086
0.56673944 0.80545384 0.35914695 0.00001815 -0.00000414 0.00000929
0.22129366 0.80803519 0.36051288 0.00003092 0.00005933 0.00001716
0.35248026 0.81155026 0.54637647 -0.00000330 0.00004011 0.00000144
0.86665744 0.81061649 0.36051288 0.00009690 0.00000383 0.00007798
0.24039899 0.10588400 0.57477206 -0.00002860 0.00005554 0.00003132
0.48929632 0.82352376 0.71499211 -0.00002306 0.00006116 0.00016818
0.17716186 0.81577921 0.36051288 -0.00000105 0.00012002 0.00003817
0.56231964 0.81577921 0.36051288 0.00000611 -0.00000476 0.00001034
0.42476040 0.81836110 0.35916260 -0.00002482 -0.00000760 0.00000133
0.34741089 0.62991571 0.62381971 -0.00005164 -0.00003910 0.00001744
0.33957300 0.10846595 0.57390463 0.00003559 -0.00005040 -0.00002486
0.44541189 0.67380011 0.72620839 -0.00003119 -0.00001667 0.00010180
0.63804144 0.63249707 0.62381971 0.00005546 -0.00000910 0.00000484
0.79402930 0.83643103 0.36051288 -0.00004876 -0.00003015 -0.00004642
0.34856671 0.63766038 0.62381971 -0.00004288 -0.00003599 0.00000932
0.56171888 0.84417498 0.36051288 0.00000146 0.00000199 0.00002512
0.64017361 0.64024168 0.62381971 0.00006278 0.00001194 0.00001150
0.85327888 0.84902763 0.36051288 0.00014494 0.00006331 0.00006578
0.62353110 0.11104726 0.57241595 -0.00001261 -0.00000253 0.00001454
0.64120126 0.64798570 0.62381971 0.00006281 0.00002731 0.00001501
0.65192688 0.10937916 0.57477206 -0.00002981 0.00002619 0.00004648
0.79441941 0.85708225 0.36051288 -0.00010871 -0.00005848 -0.00003585
0.50220352 0.85966349 0.35871893 0.00001303 0.00001638 -0.00001205
0.79453140 0.85966349 0.36051288 -0.00010921 -0.00005700 -0.00003177
0.45315623 0.46470422 0.67440605 -0.00000703 -0.00002596 0.00003005
0.50478500 0.86224550 0.35929084 0.00001506 0.00002038 -0.00001328
0.84308118 0.86044252 0.36037382 0.00010910 0.00007046 0.00004982
0.34175521 0.11362858 0.57477206 0.00003981 -0.00005860 -0.00002595
0.50804645 0.86482680 0.36051288 0.00001700 0.00002378 -0.00001339
0.47122625 0.86740816 0.36011496 -0.00001554 0.00001112 0.00000000
0.62902904 0.11362858 0.57477206 -0.00000773 -0.00000549 0.00002088
0.62094975 0.81994075 0.54637647 0.00001640 0.00003540 -0.00000994
0.83750612 0.86998940 0.36051288 0.00009688 0.00010441 0.00005075
0.59137768 0.12653582 0.65221554 -0.00009239 -0.00004789 0.00001640
0.43508634 0.70219594 0.72853506 -0.00003508 0.00001687 0.00013615
0.64260447 0.67380011 0.62381971 0.00004586 -0.00000327 -0.00000694
0.64221138 0.67638212 0.62381971 0.00004288 -0.00000878 -0.00001270
0.80145001 0.88031536 0.36051288 -0.00006099 0.00000679 0.00003347
0.54502445 0.88289666 0.36051288 -0.00003295 -0.00000623 0.00004696
0.33090860 0.68412602 0.62381971 -0.00007331 -0.00002128 0.00001788
0.62611240 0.11371527 0.57477206 -0.00000474 -0.00000913 0.00001437
0.50220352 0.82352376 0.71534312 0.00000915 0.00006346 0.00015437
0.39059097 0.88799012 0.36085904 -0.00002352 0.00005368 -0.00007315
0.61652148 0.82610512 0.54637647 0.00001750 0.00003965 -0.00001182
0.54608792 0.88805991 0.35830659 -0.00004153 0.00000579 0.00004602
0.38976744 0.88979542 0.35985613 -0.00002501 0.00005743 -0.00007798
0.32959083 0.68928874 0.62381971 -0.00007373 -0.00002271 0.00002005
0.58222806 0.89322263 0.35863587 0.00002667 0.00000780 -0.00000091
0.38603872 0.89838529 0.35881889 -0.00003605 0.00004546 -0.00007672
0.25438559 0.19623467 0.60786706 -0.00014107 -0.00001331 0.00001953
0.29826996 0.32272491 0.60238951 -0.00003888 -0.00005966 0.00003958
0.45366889 0.90612984 0.36051288 0.00004368 0.00001638 0.00001796
0.45218620 0.90871119 0.36051288 0.00004413 0.00002274 0.00002063
0.45057231 0.91129255 0.36051288 0.00004486 0.00002899 0.00002275
0.44868276 0.91387391 0.36051288 0.00004434 0.00003425 0.00002370
0.61432666 0.83384973 0.54637647 0.00002795 0.00004567 -0.00001300
0.44541189 0.91798007 0.36051288 0.00003944 0.00004259 0.00002206
0.38862002 0.92161846 0.35951778 -0.00007007 -0.00002446 0.00005973
0.62094975 0.92161781 0.35924992 0.00009489 -0.00009098 0.00007077
0.43250439 0.53698438 0.68425214 -0.00003480 -0.00002139 0.00007591
0.62790871 0.92702007 0.36077535 0.00014844 -0.00003409 0.00009220
0.62798518 0.92942321 0.35999817 0.00014551 -0.00001280 0.00008927
0.57190216 0.86224550 0.65472102 0.00007007 0.00014221 0.00007138
0.48671493 0.73833632 0.73640001 0.00000874 0.00002240 0.00014106
0.41529715 0.77447617 0.71158850 -0.00009231 0.00005930 0.00010292
0.41959777 0.93960464 0.36051288 -0.00000408 0.00008522 0.00002418
0.62280691 0.93968832 0.36051288 0.00008564 0.00008470 0.00010883
0.41701582 0.94080025 0.36051288 -0.00000584 0.00008813 0.00003090
0.40152729 0.94485092 0.35856545 0.00000408 0.00009375 0.00011459
0.60287982 0.94378853 0.36051288 -0.00009050 0.00015187 0.00011479
0.65192688 0.71768451 0.62337601 0.00005225 -0.00000327 0.00000840
0.42217910 0.86315751 0.65479690 -0.00008561 0.00012164 0.00009875
0.21824518 0.67395067 0.36309421 0.00003328 -0.00005318 -0.00005203
0.19501263 0.67664152 0.36309421 -0.00003280 -0.00008259 -0.00003964
0.23457955 0.68154472 0.36309421 0.00001867 -0.00001928 -0.00003777
0.55641365 0.53790063 0.68577397 0.00005465 -0.00004207 0.00006422
0.15525188 0.69445199 0.36309421 -0.00007839 -0.00013086 -0.00001094
0.43508634 0.54214704 0.68410891 -0.00002989 -0.00002003 0.00006610
0.38478294 0.85191953 0.54637647 -0.00005945 0.00002967 -0.00003967
0.69965976 0.20914192 0.61349386 0.00014742 -0.00002966 -0.00002501
0.25180426 0.69961464 0.36149171 0.00000468 0.00000349 -0.00003107
0.32322419 0.73059177 0.62381971 -0.00010211 0.00000610 0.00002727
0.79648721 0.69961464 0.36229658 -0.00003951 -0.00001991 -0.00005087
0.14854634 0.70219594 0.36280042 -0.00006495 -0.00014076 -0.00000569
0.47638914 0.70131403 0.36309421 -0.00001894 -0.00001301 0.00001857
0.36305597 0.14976899 0.57477206 0.00006083 -0.00002925 -0.00003080
0.14596501 0.70471650 0.36309421 -0.00007035 -0.00013946 -0.00000073
0.47393715 0.70477730 0.36309421 -0.00001734 -0.00001116 0.00001506
0.14338367 0.70649779 0.36309421 -0.00008167 -0.00013859 0.00000413
0.25438559 0.70735925 0.36228153 -0.00000382 0.00001432 -0.00002781
0.81972039 0.70649838 0.36309421 0.00002804 -0.00007421 -0.00006270
0.23879950 0.70994055 0.36309421 -0.00001034 0.00004211 -0.00002833
0.43766767 0.37867031 0.60574925 0.00000866 -0.00001750 0.00000729
0.23631568 0.71252185 0.36178249 -0.00001499 0.00005236 -0.00003360
0.43250439 0.54989159 0.68344730 -0.00003115 -0.00000155 0.00006094
0.52801782 0.71359581 0.36309421 0.00001322 -0.00000365 0.00001752
0.58920270 0.86224550 0.54637647 0.00005662 0.00001985 -0.00002954
0.64993131 0.74866229 0.62381971 0.00006966 0.00002465 0.00000416
0.84037161 0.71885478 0.36309421 0.00009130 -0.00009600 -0.00005536
0.36351770 0.15235031 0.57477206 0.00006056 -0.00002481 -0.00002933
0.53576219 0.72376037 0.36309421 0.00000337 -0.00001203 0.00001821
0.45757240 0.72801042 0.36309421 -0.00000232 -0.00000959 0.00001596
0.29568863 0.32530636 0.60197896 -0.00004247 -0.00006335 0.00004426
0.11996090 0.73317367 0.36309421 -0.00019301 -0.00007339 0.00004011
0.64934552 0.75640625 0.62267959 0.00006945 0.00003327 0.00001153
0.79132462 0.73575503 0.36299726 -0.00007375 0.00003728 0.00006684
0.79132462 0.73833632 0.36283717 -0.00007572 0.00003662 0.00007034
0.45315623 0.73884082 0.36309421 0.00000812 -0.00001033 0.00002588
0.60287982 0.15493165 0.57341522 0.00000302 -0.00002719 -0.00003717
0.24481516 0.74608094 0.36309421 -0.00004005 -0.00001885 -0.00003166
0.24465744 0.74866229 0.36309421 -0.00003716 -0.00002127 -0.00003112
0.11909703 0.75124359 0.36309421 -0.00020265 0.00001436 0.00002308
0.86360478 0.75124359 0.36058572 0.00010163 -0.00005230 -0.00007143
0.49187776 0.73833632 0.73628390 0.00000144 0.00002591 0.00013998
0.24479830 0.75640625 0.36309421 -0.00002963 -0.00001667 -0.00003152
0.56673944 0.75502646 0.36309421 0.00001444 -0.00001669 0.00001031
0.25696689 0.75898755 0.36293709 -0.00001546 -0.00000351 -0.00002475
0.36460549 0.16009429 0.57477206 0.00006130 -0.00000384 -0.00002406
0.24922292 0.76156950 0.36197633 -0.00002080 -0.00000626 -0.00002779
0.64765453 0.76673216 0.62381971 0.00007212 0.00004175 0.00002973
0.25696689 0.76415086 0.36117265 -0.00001284 0.00000085 -0.00002724
0.44024906 0.56021690 0.68554103 -0.00003485 0.00003124 0.00004181
0.25928938 0.16267563 0.57477206 -0.00006967 -0.00003220 -0.00002491
0.33699170 0.77189481 0.62351698 -0.00009095 0.00006624 0.00003820
0.86550039 0.77189481 0.36309421 0.00006539 0.00001183 -0.00002160
0.67257810 0.16267563 0.57223594 0.00001362 -0.00004267 -0.00000043
0.12435541 0.77963942 0.36309421 -0.00020735 0.00008568 0.00001243
0.12493574 0.78222072 0.36309421 -0.00020303 0.00009837 0.00001350
0.57404643 0.20397864 0.60833120 -0.00006133 -0.00001082 0.00001315
0.12789512 0.78738332 0.36280644 -0.00018003 0.00011585 0.00001443
0.64548194 0.77705806 0.62381971 0.00007948 0.00003393 0.00003665
0.57410115 0.78996468 0.36309421 0.00002574 -0.00000704 0.00000135
0.24532504 0.79254657 0.36309421 0.00001835 0.00000721 -0.00000397
0.13563970 0.79450125 0.36309421 -0.00013558 0.00011790 0.00002309
0.79438335 0.79512793 0.36309421 0.00001629 -0.00000236 -0.00004848
0.34215432 0.78244710 0.62381971 -0.00008743 0.00006394 0.00004843
0.23631568 0.79919678 0.36309421 0.00002715 0.00002388 0.00000367
0.14827122 0.80287194 0.36309421 -0.00007643 0.00012189 0.00004087
0.79548192 0.80287194 0.36309421 0.00001607 -0.00000353 -0.00004305
0.34402350 0.79254657 0.62381971 -0.00009934 0.00006532 0.00006756
0.15629092 0.80723035 0.36309421 -0.00004452 0.00012456 0.00004321
0.79458255 0.80803519 0.36309421 0.00001389 -0.00000619 -0.00004046
0.21824518 0.80945474 0.36309421 0.00002876 0.00007153 0.00002288
0.16661683 0.81174344 0.36309421 -0.00002831 0.00011642 0.00004773
0.20017530 0.81207573 0.36309421 0.00000310 0.00008333 0.00004044
0.37055013 0.17366432 0.57477206 0.00006247 -0.00000940 -0.00000469
0.34809053 0.80029058 0.62381971 -0.00010256 0.00005847 0.00007602
0.55125082 0.70477730 0.72839236 0.00004087 0.00000311 0.00013947
0.41443449 0.77963942 0.70959467 -0.00009223 0.00005150 0.00010870
0.49445918 0.33881000 0.71933246 0.00001450 -0.00010027 -0.00003697
0.63855791 0.80545384 0.62381971 0.00010867 0.00002973 0.00006321
0.86003315 0.83126783 0.36309421 0.00010985 0.00002559 0.00009994
0.44024906 0.87515277 0.65298790 -0.00006972 0.00014181 0.00009950
0.43508634 0.70735925 0.72884804 -0.00003449 0.00001158 0.00013787
0.58356142 0.18332745 0.57477206 -0.00005718 -0.00004807 -0.00002015
0.85447019 0.84417498 0.36309421 0.00013399 0.00003925 0.00007997
0.63570327 0.81061649 0.62381971 0.00011321 0.00002780 0.00006402
0.43766767 0.85191953 0.36168915 -0.00000755 0.00000487 0.00000777
0.43766767 0.85450089 0.36208826 -0.00000654 0.00000321 0.00000875
0.44024906 0.85708225 0.36156031 -0.00000871 0.00000203 0.00001144
0.35816601 0.81577921 0.62381971 -0.00010285 0.00006436 0.00007285
0.51252925 0.85966349 0.36170602 0.00001681 0.00001648 -0.00000596
0.57995069 0.19107144 0.57477206 -0.00006568 -0.00004136 -0.00000943
0.36129335 0.82094246 0.62381971 -0.00010696 0.00006823 0.00006799
0.84135884 0.86238283 0.36303461 0.00010644 0.00007735 0.00005879
0.54092503 0.86405027 0.36309421 0.00000091 -0.00000291 0.00002940
0.36315051 0.82352376 0.62381971 -0.00010798 0.00007050 0.00006448
0.44144511 0.90096664 0.54637647 -0.00008640 0.00008726 -0.00001845
0.54241705 0.86740816 0.36309421 -0.00000425 -0.00000640 0.00003328
0.43508634 0.86998940 0.36152181 0.00001110 -0.00002968 0.00001625
0.49187776 0.86902630 0.36309421 0.00000743 0.00002410 -0.00001559
0.56906974 0.87001419 0.36346745 -0.00001401 -0.00004430 0.00004453
0.36868337 0.82868648 0.62381971 -0.00009823 0.00007632 0.00005667
0.56934249 0.87260878 0.36202449 -0.00001473 -0.00004778 0.00004369
0.42992306 0.87515277 0.36174875 0.00002654 -0.00004423 0.00001530
0.83262765 0.87515277 0.36077836 0.00007515 0.00011310 0.00005352
0.62353110 0.83037734 0.62381971 0.00009762 0.00008659 0.00004473
0.69488597 0.20139736 0.57477206 0.00009478 -0.00006597 -0.00000129
0.50994778 0.73833632 0.73671490 -0.00001683 0.00002722 0.00014772
0.46606341 0.88031536 0.36306712 -0.00000882 0.00000603 -0.00000785
0.82334083 0.88031536 0.36309421 0.00003607 0.00010252 0.00006242
0.54092503 0.90523535 0.54637647 0.00002980 0.00011623 0.00001339
0.57706535 0.88057059 0.36309543 0.00000728 -0.00004012 0.00003371
0.39114717 0.88547802 0.36309421 -0.00002122 0.00004537 -0.00006345
0.44799334 0.90712744 0.54637647 -0.00007619 0.00011782 -0.00000512
0.81455714 0.88444382 0.36309421 0.00000877 0.00008385 0.00007284
0.45315623 0.87752032 0.65479690 -0.00004502 0.00014555 0.00009799
0.37391886 0.21430457 0.57477206 0.00006194 -0.00000252 0.00001305
0.69599128 0.21430457 0.57477206 0.00008757 -0.00004607 -0.00001320
0.53834367 0.87762874 0.65479690 0.00005167 0.00013038 0.00010989
0.39188462 0.90096664 0.36309421 -0.00004927 0.00003364 -0.00007479
0.53576219 0.90725803 0.54637647 0.00002403 0.00012075 0.00001900
0.55125082 0.90378332 0.36309421 -0.00003396 0.00003750 0.00002458
0.55538595 0.90871119 0.36309421 -0.00003051 0.00005333 0.00002068
0.60546118 0.90896040 0.36309421 0.00001822 -0.00011567 0.00003551
0.60804248 0.91387391 0.36075607 0.00001027 -0.00013328 0.00006184
0.58438915 0.87257075 0.54121357 0.00005306 0.00005803 -0.00002536
0.37247109 0.22463049 0.57477206 0.00005675 0.00000278 0.00001542
0.62095755 0.91903532 0.36085841 0.00009287 -0.00012060 0.00008340
0.56758404 0.92161846 0.36309421 -0.00003108 0.00008615 0.00001212
0.60546118 0.85167092 0.62381971 0.00009060 0.00010668 0.00003546
0.43508634 0.92769432 0.36309421 0.00001444 0.00006041 0.00001167
0.42992306 0.93137783 0.36309421 -0.00000113 0.00006727 0.00000823
0.39636460 0.93269503 0.36309421 -0.00004391 0.00005120 0.00009083
0.62353110 0.93452573 0.36170903 0.00010193 0.00004178 0.00011408
0.58739066 0.93570620 0.36309421 -0.00014175 0.00010334 0.00008267
0.40152729 0.93968832 0.36255002 -0.00002484 0.00008100 0.00008764
0.59513527 0.93930548 0.36309421 -0.00015666 0.00011890 0.00012989
0.37208220 0.23237447 0.57477206 0.00004980 0.00000793 0.00001499
0.55216545 0.59119469 0.68577397 0.00000404 0.00000684 -0.00001817
0.57839942 0.23237447 0.57477206 -0.00003807 0.00003863 0.00000021
0.21308254 0.67243606 0.36567613 0.00002587 -0.00007256 -0.00004668
0.19759396 0.67467964 0.36567613 -0.00002879 -0.00009104 -0.00004054
0.18726806 0.67696905 0.36567613 -0.00007837 -0.00008985 -0.00002197
