4.947920000000000011e-08 9.267769999999999619e-01 1.767769999999999897e-01 3.323795041069388390e-03 -5.577591657638549805e-01 8.299962282180786133e-01
-7.663360000000000172e-01 -2.604170000000000118e-09 -2.491970000000000018e-01 -9.990279078483581543e-01 -1.207043023896403611e-04 -4.408234730362892151e-02
4.947920000000000011e-08 -8.798740000000000450e-01 -2.132729999999999904e-01 -1.594487810507416725e-03 -9.169975519180297852e-01 3.988897204399108887e-01
4.947920000000000011e-08 -8.357710000000000417e-01 -2.345119999999999982e-01 -5.281206686049699783e-04 -9.753990769386291504e-01 2.204457223415374756e-01
1.950900000000000134e-01 9.807850000000000179e-01 6.770830000000000285e-08 -9.329746961593627930e-01 3.599391281604766846e-01 1.386161893606185913e-03
-3.938119999999999954e-01 -3.073440000000000061e-01 6.770830000000000285e-08 5.991660356521606445e-01 -8.006238937377929688e-01 1.197642879560589790e-03
-9.989679999999999671e-01 -2.604170000000000118e-09 -2.100339999999999846e-02 -4.708676338195800781e-01 5.453388094902038574e-01 6.934617757797241211e-01
4.947920000000000011e-08 -7.133620000000000516e-01 2.469959999999999933e-01 1.332086510956287384e-03 -9.712441563606262207e-01 2.380820959806442261e-01
-9.596700000000000230e-01 -2.604170000000000118e-09 -1.358870000000000078e-01 -6.915041804313659668e-01 2.148807980120182037e-03 7.223692536354064941e-01
4.947920000000000011e-08 -9.405059999999999532e-01 1.616279999999999939e-01 -1.622888958081603050e-03 -7.831549048423767090e-01 -6.218244433403015137e-01
-9.569400000000000128e-01 -2.902850000000000152e-01 6.770830000000000285e-08 -3.512604534626007080e-01 9.362772107124328613e-01 1.046495744958519936e-03
-9.807850000000000179e-01 -1.950909999999999866e-01 6.770830000000000285e-08 -2.899634838104248047e-01 9.570323824882507324e-01 3.185679437592625618e-03
-4.428679999999999839e-01 -2.316660000000000108e-01 6.770830000000000285e-08 4.398318231105804443e-01 -8.980728387832641602e-01 3.615983529016375542e-03
-3.118720000000000173e-02 9.984680000000000222e-01 6.770830000000000285e-08 5.134598016738891602e-01 8.581092953681945801e-01 2.747366204857826233e-03
4.947920000000000011e-08 5.024039999999999617e-01 -3.259329999999999866e-02 -7.037913054227828979e-02 -4.035471975803375244e-01 9.122480154037475586e-01
4.947920000000000011e-08 -6.808290000000000175e-01 -2.400869999999999949e-01 2.260267792735248804e-04 -9.303931593894958496e-01 -3.665630519390106201e-01
-7.610280000000000378e-01 6.476140000000000230e-01 6.770830000000000285e-08 6.180154085159301758e-01 7.861658930778503418e-01 7.127768913051113486e-05
4.896960000000000202e-01 8.709529999999999772e-01 6.770830000000000285e-08 -8.427594900131225586e-01 5.382902622222900391e-01 1.032094733091071248e-04
-6.707499999999999574e-01 7.400579999999999936e-01 6.770830000000000285e-08 7.148428559303283691e-01 6.992850899696350098e-01 -5.435715866042301059e-05
5.727060000000000484e-01 -8.187609999999999610e-01 6.770830000000000285e-08 8.494594097137451172e-01 5.276537537574768066e-01 2.396434865659102798e-04
-1.642029999999999879e-01 -9.853669999999999929e-01 6.770830000000000285e-08 -9.999761581420898438e-01 -6.129477173089981079e-03 -3.179405350238084793e-03
-9.137920000000000487e-01 -2.604170000000000118e-09 -1.885459999999999914e-01 -8.481740355491638184e-01 1.012302018352784216e-04 5.297176837921142578e-01
9.951959999999999695e-01 -2.604170000000000118e-09 4.877209999999999879e-02 6.941185593605041504e-01 6.704675406217575073e-02 -7.167316675186157227e-01
7.500000000000000000e-01 -2.604170000000000118e-09 2.500000000000000000e-01 9.639607071876525879e-01 2.765602432191371918e-03 2.660303413867950439e-01
5.445919999999999650e-01 -8.380499999999999616e-01 6.770830000000000285e-08 8.727677464485168457e-01 4.881355464458465576e-01 2.887592709157615900e-04
4.947920000000000011e-08 -7.581679999999999531e-01 2.495989999999999875e-01 1.299384748563170433e-03 -9.974376559257507324e-01 7.152900844812393188e-02
5.305370000000000225e-02 -4.969919999999999893e-01 6.770830000000000285e-08 -9.902802109718322754e-01 1.332240402698516846e-01 3.995646908879280090e-02
4.035560000000000258e-01 -2.942069999999999963e-01 6.770830000000000285e-08 -5.573871731758117676e-01 -8.302515745162963867e-01 1.295979600399732590e-03
1.377289999999999903e-01 9.892940000000000067e-01 6.770830000000000285e-08 -9.174418449401855469e-01 3.978699445724487305e-01 -6.854139064671471715e-05
-9.202310000000000212e-01 -3.903980000000000228e-01 6.770830000000000285e-08 -4.373674690723419189e-01 8.992825746536254883e-01 7.934967288747429848e-04
-6.665840000000000654e-02 -4.949740000000000251e-01 6.770830000000000285e-08 9.997326731681823730e-01 -1.988460682332515717e-02 -1.179444044828414917e-02
4.947920000000000011e-08 -5.119460000000000122e-01 7.587109999999999688e-02 3.384873270988464355e-02 -8.700416982173919678e-02 9.956327676773071289e-01
4.947920000000000011e-08 9.057830000000000048e-01 1.953400000000000136e-01 2.756592817604541779e-03 -6.887399554252624512e-01 7.250032424926757812e-01
-6.978280000000000038e-01 -2.604170000000000118e-09 -2.443440000000000056e-01 -9.496966600418090820e-01 7.348915678448975086e-04 -3.131703734397888184e-01
4.982489999999999974e-01 -3.564289999999999820e-02 6.770830000000000285e-08 -2.450850158929824829e-01 -9.688986539840698242e-01 -3.418694436550140381e-02
1.364879999999999982e-01 4.806380000000000097e-01 6.770830000000000285e-08 9.549987316131591797e-01 -2.965486347675323486e-01 6.024523172527551651e-03
5.864139999999999908e-01 -8.085940000000000349e-01 6.770830000000000285e-08 8.391035795211791992e-01 5.439715385437011719e-01 2.571940131019800901e-04
4.947920000000000011e-08 -6.932939999999999658e-01 2.432090000000000085e-01 1.432012766599655151e-03 -9.503583312034606934e-01 3.111542761325836182e-01
3.502480000000000038e-01 3.565490000000000048e-01 6.770830000000000285e-08 7.238619327545166016e-01 -6.899437904357910156e-01 1.171305659227073193e-03
-7.783250000000000446e-01 6.272269999999999790e-01 6.770830000000000285e-08 5.929724574089050293e-01 8.052227497100830078e-01 1.123624169849790633e-04
-3.063529999999999864e-01 -9.511899999999999800e-01 6.770830000000000285e-08 -9.716399312019348145e-01 2.364632040262222290e-01 -9.652914013713598251e-04
4.687820000000000181e-02 -9.976969999999999450e-01 6.770830000000000285e-08 7.336274385452270508e-01 -6.777871847152709961e-01 4.894231259822845459e-02
-9.873300000000000409e-01 -1.509659999999999891e-01 6.770830000000000285e-08 -2.650353610515594482e-01 9.642361998558044434e-01 2.197768772020936012e-03
9.526280000000000303e-01 -3.023359999999999936e-01 6.770830000000000285e-08 4.203220605850219727e-01 9.073600172996520996e-01 5.209459457546472549e-03
1.235070000000000057e-01 4.838899999999999868e-01 6.770830000000000285e-08 9.590070247650146484e-01 -2.832991778850555420e-01 6.875226739794015884e-03
-9.981959999999999722e-01 -2.604170000000000118e-09 2.854869999999999977e-02 -3.161804080009460449e-01 3.142554163932800293e-01 8.951388597488403320e-01
-9.368159999999999821e-01 -3.465280000000000027e-01 6.770830000000000285e-08 -4.006937742233276367e-01 9.162116646766662598e-01 8.355917525477707386e-04
4.431700000000000084e-01 -8.952710000000000390e-01 6.770830000000000285e-08 9.273024201393127441e-01 3.743127584457397461e-01 -6.439346179831773043e-05
9.797479999999999523e-01 -1.992289999999999894e-01 6.770830000000000285e-08 3.862094581127166748e-01 9.223774671554565430e-01 7.873600348830223083e-03
9.686780000000000390e-01 -2.604170000000000118e-09 1.208550000000000041e-01 7.734183073043823242e-01 3.297542920336127281e-03 -6.338874101638793945e-01
-9.298910000000000231e-01 3.658830000000000138e-01 6.770830000000000285e-08 3.133934438228607178e-01 9.496230483055114746e-01 7.541265222243964672e-04
4.947920000000000011e-08 -5.235260000000000469e-01 -1.051760000000000056e-01 1.122185681015253067e-02 -2.886988222599029541e-01 -9.573541879653930664e-01
9.821509999999999962e-01 -2.604170000000000118e-09 9.237109999999999765e-02 7.368212342262268066e-01 -4.602439701557159424e-03 -6.760719418525695801e-01
-4.241440000000000210e-01 2.637559999999999905e-01 6.770830000000000285e-08 -5.498064160346984863e-01 -8.352920413017272949e-01 4.036345635540783405e-04
1.787420000000000120e-01 4.664479999999999738e-01 6.770830000000000285e-08 9.344487190246582031e-01 -3.560783267021179199e-01 3.724010195583105087e-03
2.613130000000000175e-01 -9.641969999999999708e-01 6.770830000000000285e-08 9.910291433334350586e-01 1.336420625448226929e-01 -9.442623704671859741e-04
4.947920000000000011e-08 5.235260000000000469e-01 -1.051760000000000056e-01 -7.156369974836707115e-04 -4.915815591812133789e-01 8.708311915397644043e-01
9.972529999999999450e-01 -2.604170000000000118e-09 -3.490490000000000259e-02 9.177772402763366699e-01 1.626311540603637695e-01 3.622651696205139160e-01
-7.615490000000000315e-01 -6.470399999999999485e-01 6.770830000000000285e-08 -6.845999360084533691e-01 7.289190292358398438e-01 5.785796020063571632e-05
4.947920000000000011e-08 6.658789999999999987e-01 -2.351020000000000054e-01 4.693308437708765268e-04 -9.600893855094909668e-01 2.796928882598876953e-01
4.947920000000000011e-08 -6.543290000000000495e-01 -2.309700000000000086e-01 6.816239329054951668e-05 -8.771510124206542969e-01 -4.802146553993225098e-01
4.947920000000000011e-08 -7.324969999999999537e-01 -2.491400000000000003e-01 1.788910303730517626e-04 -9.830556511878967285e-01 -1.833072602748870850e-01
4.804570000000000229e-01 1.372089999999999976e-01 6.770830000000000285e-08 2.712469696998596191e-01 -9.625062942504882812e-01 -2.576626837253570557e-03
-1.661420000000000119e-01 4.709559999999999858e-01 6.770830000000000285e-08 -9.421178102493286133e-01 -3.352583944797515869e-01 3.998336847871541977e-03
-5.012039999999999829e-01 -2.604170000000000118e-09 2.450410000000000088e-02 2.854885756969451904e-01 -7.185999155044555664e-01 -6.341217756271362305e-01
-7.520409999999999595e-01 6.575290000000000301e-01 6.770830000000000285e-08 6.262078285217285156e-01 7.796561121940612793e-01 7.552976603619754314e-05
-1.906779999999999864e-01 -9.814399999999999791e-01 6.770830000000000285e-08 -9.989541172981262207e-01 4.562070220708847046e-02 -3.059908514842391014e-03
7.220290000000000319e-01 -2.604170000000000118e-09 -2.482820000000000027e-01 9.418177604675292969e-01 3.586777253076434135e-03 -3.361050486564636230e-01
-6.237440000000000345e-02 9.969360000000000444e-01 6.770830000000000285e-08 8.019117712974548340e-01 5.970713496208190918e-01 -2.105468325316905975e-02
7.099720000000000475e-01 7.039459999999999607e-01 6.770830000000000285e-08 -6.704156398773193359e-01 7.419856190681457520e-01 4.829671815969049931e-04
4.633180000000000076e-01 1.874919999999999920e-01 6.770830000000000285e-08 3.728015422821044922e-01 -9.279110431671142578e-01 -2.468775492161512375e-04
4.947920000000000011e-08 9.981959999999999722e-01 -2.854879999999999918e-02 -3.355799615383148193e-02 7.032439112663269043e-01 -7.101562619209289551e-01
-9.163890000000000091e-01 -2.604170000000000118e-09 1.861909999999999954e-01 6.349835991859436035e-01 7.907974650152027607e-04 7.725252509117126465e-01
4.351050000000000195e-01 8.990860000000000518e-01 6.770830000000000285e-08 -8.753349781036376953e-01 4.835168421268463135e-01 3.912868851330131292e-04
4.947920000000000011e-08 -6.642289999999999583e-01 2.345119999999999982e-01 1.978381536900997162e-03 -9.023982286453247070e-01 4.308983981609344482e-01
-6.054779999999999607e-01 -2.604170000000000118e-09 2.036910000000000109e-01 8.742141127586364746e-01 -3.174948971718549728e-03 -4.855301678180694580e-01
-4.059920000000000195e-01 -2.909220000000000139e-01 6.770830000000000285e-08 5.614264607429504395e-01 -8.275249600410461426e-01 1.714532147161662579e-03
-9.001639999999999642e-01 4.328259999999999885e-01 6.770830000000000285e-08 3.895762860774993896e-01 9.209940433502197266e-01 6.159805925562977791e-04
6.642289999999999583e-01 -2.604170000000000118e-09 2.345119999999999982e-01 8.308669924736022949e-01 4.291060380637645721e-03 5.564544796943664551e-01
9.807850000000000179e-01 1.950900000000000134e-01 6.770830000000000285e-08 -1.265450865030288696e-01 9.919576048851013184e-01 2.518890425562858582e-03
3.118730000000000113e-02 9.984680000000000222e-01 6.770830000000000285e-08 -6.521342992782592773e-01 7.581030726432800293e-01 7.592245819978415966e-04
4.947920000000000011e-08 -6.321510000000000185e-01 -2.204800000000000093e-01 3.054528206121176481e-04 -8.321880102157592773e-01 -5.544934868812561035e-01
4.947920000000000011e-08 -5.483959999999999946e-01 1.473369999999999957e-01 4.211029037833213806e-03 -5.189085602760314941e-01 8.548194169998168945e-01
-2.210519999999999985e-01 -9.742819999999999814e-01 6.770830000000000285e-08 -9.930801987648010254e-01 1.174156814813613892e-01 -2.267668722197413445e-03
2.447570000000000023e-01 -9.683439999999999825e-01 6.770830000000000285e-08 9.941366314888000488e-01 1.081251427531242371e-01 -1.127087860368192196e-03
4.947920000000000011e-08 9.361920000000000242e-01 1.663890000000000091e-01 4.154353868216276169e-03 -5.083095431327819824e-01 8.611644506454467773e-01
6.905810000000000004e-01 7.220849999999999769e-01 6.770830000000000285e-08 -6.938947439193725586e-01 7.200762629508972168e-01 4.470278508961200714e-04
-8.097050000000000081e-02 -9.960219999999999629e-01 6.770830000000000285e-08 -9.303038120269775391e-01 -3.667796254158020020e-01 -2.732826396822929382e-03
4.947920000000000011e-08 5.295199999999999907e-01 -1.178489999999999954e-01 3.290246706455945969e-03 -5.287280082702636719e-01 8.487849235534667969e-01
-4.633320000000000216e-01 -8.857350000000000501e-01 6.770830000000000285e-08 -9.065958261489868164e-01 4.219999015331268311e-01 -2.403051330475136638e-04
7.336639999999999828e-01 -2.604170000000000118e-09 2.491970000000000018e-01 9.456923604011535645e-01 2.882943721488118172e-03 3.250501751899719238e-01
-1.509659999999999891e-01 -9.873300000000000409e-01 6.770830000000000285e-08 -9.997188448905944824e-01 -2.323682606220245361e-02 -4.718802403658628464e-03
-5.589969999999999661e-01 -8.289279999999999982e-01 6.770830000000000285e-08 -8.522756099700927734e-01 5.230931639671325684e-01 -1.598084199940785766e-04
9.569400000000000128e-01 -2.902839999999999865e-01 6.770830000000000285e-08 4.158564209938049316e-01 9.094221591949462891e-01 3.855803282931447029e-03
4.947920000000000011e-08 -5.107650000000000245e-01 -7.257089999999999375e-02 1.022473070770502090e-02 -9.590418636798858643e-02 -9.953380823135375977e-01
4.947920000000000011e-08 -5.000000000000000000e-01 6.770830000000000285e-08 9.517463445663452148e-01 3.025217652320861816e-01 -5.157041549682617188e-02
-8.288130000000000219e-01 5.591530000000000111e-01 6.770830000000000285e-08 5.241287350654602051e-01 8.516389727592468262e-01 1.772100367816165090e-04
-8.357710000000000417e-01 -2.604170000000000118e-09 2.345119999999999982e-01 8.905541300773620605e-01 5.240564933046698570e-04 4.548770189285278320e-01
3.474940000000000251e-01 -3.590450000000000030e-01 6.770830000000000285e-08 -6.994308233261108398e-01 -7.147001624107360840e-01 4.641654377337545156e-04
-3.184060000000000223e-01 9.468779999999999974e-01 6.770830000000000285e-08 9.195429682731628418e-01 3.929893374443054199e-01 2.414808550383895636e-04
-9.853669999999999929e-01 -1.642039999999999889e-01 6.770830000000000285e-08 -2.833658158779144287e-01 9.590021371841430664e-01 4.322067834436893463e-03
-6.543290000000000495e-01 -2.604170000000000118e-09 -2.309700000000000086e-01 -8.742206096649169922e-01 2.143701305612921715e-03 -4.855242669582366943e-01
4.466829999999999967e-01 -2.236009999999999942e-01 6.770830000000000285e-08 -4.263910949230194092e-01 -9.045387506484985352e-01 6.165148806758224964e-04
-9.092860000000000387e-01 -4.135409999999999919e-01 6.770830000000000285e-08 -4.626904129981994629e-01 8.865197896957397461e-01 5.481105181388556957e-04
9.067140000000000200e-01 -4.189749999999999863e-01 6.770830000000000285e-08 5.018126964569091797e-01 8.649727702140808105e-01 2.471946878358721733e-03
4.947920000000000011e-08 -9.892349999999999755e-01 -7.257089999999999375e-02 -1.231648027896881104e-02 -8.473695516586303711e-01 5.308608412742614746e-01
-8.289269999999999694e-01 -5.589969999999999661e-01 6.770830000000000285e-08 -6.022517681121826172e-01 7.983062863349914551e-01 1.350329403067007661e-04
-7.866379999999999484e-01 -2.604170000000000118e-09 -2.469959999999999933e-01 -9.994761943817138672e-01 6.015294275130145252e-05 3.236119821667671204e-02
4.947920000000000011e-08 5.316220000000000390e-01 1.213560000000000055e-01 -2.420086413621902466e-03 -5.616990327835083008e-01 -8.273381590843200684e-01
-2.613130000000000175e-01 9.641969999999999708e-01 6.770830000000000285e-08 9.390115737915039062e-01 3.438850045204162598e-01 5.114687955938279629e-04
5.914019999999999833e-01 -2.604170000000000118e-09 -1.932530000000000081e-01 5.928061604499816895e-01 1.305098459124565125e-02 -8.052393794059753418e-01
5.770669999999999966e-01 8.155270000000000019e-01 6.770830000000000285e-08 -7.857787609100341797e-01 6.185076236724853516e-01 3.013376262970268726e-04
4.947920000000000011e-08 -9.926409999999999956e-01 5.897159999999999902e-02 -1.070386078208684921e-02 -7.352779507637023926e-01 -6.776812076568603516e-01
4.947920000000000011e-08 8.123709999999999543e-01 -2.417900000000000049e-01 1.544102560728788376e-04 -9.468562602996826172e-01 -3.216571211814880371e-01
4.180280000000000107e-01 2.739590000000000081e-01 6.770830000000000285e-08 5.679613947868347168e-01 -8.230549097061157227e-01 6.156523013487458229e-04
-8.048980000000000024e-01 5.913990000000000080e-01 6.770830000000000285e-08 5.584083795547485352e-01 8.295662403106689453e-01 1.585639256518334150e-04
9.735279999999999490e-01 -2.240620000000000112e-01 6.770830000000000285e-08 3.922049999237060547e-01 9.198516607284545898e-01 6.946527399122714996e-03
9.310659999999999492e-01 -3.625959999999999739e-01 6.770830000000000285e-08 4.551185667514801025e-01 8.904191255569458008e-01 4.567220341414213181e-03
8.643729999999999469e-01 -5.006739999999999524e-01 6.770830000000000285e-08 5.664191246032714844e-01 8.241146802902221680e-01 2.105611143633723259e-03
-3.746490000000000098e-01 9.267539999999999667e-01 6.770830000000000285e-08 9.011530876159667969e-01 4.335010349750518799e-01 4.196488589514046907e-05
9.382530000000000037e-01 3.425110000000000099e-01 6.770830000000000285e-08 -2.924863696098327637e-01 9.562684893608093262e-01 1.541233970783650875e-03
4.947920000000000011e-08 5.190299999999999914e-01 9.567109999999999503e-02 -1.743726199492812157e-03 -4.788119494915008545e-01 -8.779157400131225586e-01
-1.278340000000000032e-01 4.828060000000000129e-01 6.770830000000000285e-08 -9.563403725624084473e-01 -2.922200858592987061e-01 4.533837549388408661e-03
4.947920000000000011e-08 -5.057979999999999698e-01 -5.273930000000000284e-02 4.235679656267166138e-02 2.025954797863960266e-02 -9.988971352577209473e-01
3.406850000000000156e-01 -9.389070000000000471e-01 6.770830000000000285e-08 9.678205847740173340e-01 2.516402304172515869e-01 -7.758372230455279350e-04
-9.964410000000000212e-01 7.244730000000000614e-02 6.770830000000000285e-08 -1.612840294837951660e-01 9.868611097335815430e-01 -9.622163139283657074e-03
-9.686780000000000390e-01 -2.604170000000000118e-09 1.208550000000000041e-01 2.480468451976776123e-01 8.329330012202262878e-03 9.687122106552124023e-01
6.774289999999999479e-01 -2.604170000000000118e-09 -2.392350000000000032e-01 8.750222325325012207e-01 5.672757979482412338e-03 -4.840495586395263672e-01
-9.714540000000000397e-01 2.323399999999999910e-01 6.770830000000000285e-08 1.629409343004226685e-01 9.866327643394470215e-01 2.454253379255533218e-03
8.853849999999999776e-01 -2.604170000000000118e-09 -2.099689999999999890e-01 9.570060968399047852e-01 1.370613579638302326e-03 2.900646328926086426e-01
9.086220000000000407e-01 4.149430000000000063e-01 6.770830000000000285e-08 -3.750697076320648193e-01 9.269954562187194824e-01 1.443928456865251064e-03
-8.213019999999999765e-01 -5.692789999999999795e-01 6.770830000000000285e-08 -6.115322709083557129e-01 7.912194728851318359e-01 1.413617428625002503e-04
4.947920000000000011e-08 5.367269999999999541e-01 -1.298739999999999895e-01 1.126403571106493473e-03 -5.889109373092651367e-01 8.081972002983093262e-01
7.730110000000000037e-01 -6.343929999999999847e-01 6.770830000000000285e-08 6.858743429183959961e-01 7.277192473411560059e-01 1.059975940734148026e-03
4.947920000000000011e-08 -7.605020000000000113e-01 -2.494840000000000113e-01 -2.164944089599885046e-05 -9.970682859420776367e-01 -7.651730626821517944e-02
-6.509190000000000254e-01 7.580320000000000391e-01 6.770830000000000285e-08 7.242550253868103027e-01 6.895322203636169434e-01 -4.878365143667906523e-05
9.754500000000000670e-02 4.903930000000000233e-01 6.770830000000000285e-08 9.677043557167053223e-01 -2.520797550678253174e-01 2.024786546826362610e-03
8.713560000000000194e-01 -2.604170000000000118e-09 -2.183779999999999888e-01 9.701410531997680664e-01 8.312187856063246727e-04 2.425396591424942017e-01
-3.947800000000000198e-01 -9.181580000000000297e-01 6.770830000000000285e-08 -9.384998679161071777e-01 3.452790677547454834e-01 -4.372477415017783642e-04
-9.505599999999999605e-01 -2.604170000000000118e-09 -1.487449999999999883e-01 -7.244685292243957520e-01 2.398840151727199554e-03 6.893037557601928711e-01
-6.675290000000000390e-01 -2.604170000000000118e-09 -2.356930000000000136e-01 -8.973184227943420410e-01 1.758502912707626820e-03 -4.413801729679107666e-01
8.775340000000000362e-01 -4.787150000000000016e-01 6.770830000000000285e-08 5.447471141815185547e-01 8.385983109474182129e-01 1.891994732432067394e-03
-9.601920000000000455e-01 -2.773039999999999949e-01 6.770830000000000285e-08 -3.419799506664276123e-01 9.397065043449401855e-01 1.115973573178052902e-03
-4.674499999999999766e-01 -1.759419999999999873e-01 6.770830000000000285e-08 3.496064841747283936e-01 -9.368661642074584961e-01 7.551538292318582535e-03
4.947920000000000011e-08 -8.324709999999999610e-01 2.356930000000000136e-01 1.698442938504740596e-04 -9.738234877586364746e-01 -2.273055762052536011e-01
8.917070000000000274e-01 -2.604170000000000118e-09 2.057789999999999897e-01 9.576221704483032227e-01 3.663755196612328291e-04 -2.880271673202514648e-01
4.947920000000000011e-08 -9.957099999999999840e-01 -4.530590000000000311e-02 2.089599519968032837e-02 -8.344967365264892578e-01 5.506165027618408203e-01
-1.682420000000000027e-01 -4.702049999999999841e-01 6.770830000000000285e-08 9.407073855400085449e-01 -3.392024338245391846e-01 -3.380652517080307007e-03
5.017179999999999973e-01 -2.604170000000000118e-09 2.797089999999999993e-02 -1.513760983943939209e-01 -7.110086083412170410e-01 6.866965293884277344e-01
-4.157350000000000212e-01 -2.777850000000000041e-01 6.770830000000000285e-08 5.378515720367431641e-01 -8.430382013320922852e-01 1.523777726106345654e-03
-4.051060000000000216e-01 2.921170000000000155e-01 6.770830000000000285e-08 -6.031787395477294922e-01 -7.976060509681701660e-01 3.809836052823811769e-04
-9.202310000000000212e-01 3.903969999999999940e-01 6.770830000000000285e-08 3.620459139347076416e-01 9.321601390838623047e-01 5.443207919597625732e-04
-9.425660000000000149e-01 -3.304579999999999740e-01 6.770830000000000285e-08 -3.881686627864837646e-01 9.215877056121826172e-01 1.060563721694052219e-03
4.947920000000000011e-08 -6.012549999999999839e-01 -2.005599999999999883e-01 9.148699464276432991e-04 -7.471013069152832031e-01 -6.647095680236816406e-01
3.784839999999999871e-01 -9.253820000000000379e-01 6.770830000000000285e-08 9.527897834777832031e-01 3.036302924156188965e-01 -4.623300628736615181e-04
4.947920000000000011e-08 -9.982820000000000027e-01 2.797089999999999993e-02 -1.219524145126342773e-01 -7.027505636215209961e-01 -7.009060978889465332e-01
1.486649999999999916e-01 -9.876719999999999944e-01 6.770830000000000285e-08 9.913895726203918457e-01 -1.308660209178924561e-01 -4.554541781544685364e-03
4.947920000000000011e-08 -5.082100000000000506e-01 6.237150000000000333e-02 9.187799878418445587e-03 -1.236056238412857056e-01 9.922888875007629395e-01
-6.138299999999999867e-01 7.882599999999999607e-01 6.770830000000000285e-08 7.605301737785339355e-01 6.493025422096252441e-01 -1.044957934936974198e-05
4.947920000000000011e-08 -5.006880000000000219e-01 -1.400219999999999937e-02 -6.505065411329269409e-02 2.353818118572235107e-01 -9.697235226631164551e-01
-3.867160000000000042e-01 9.219720000000000137e-01 6.770830000000000285e-08 9.071936607360839844e-01 4.207132160663604736e-01 8.236240682890638709e-05
8.952710000000000390e-01 4.431700000000000084e-01 6.770830000000000285e-08 -4.045435786247253418e-01 9.145177602767944336e-01 1.313026994466781616e-03
4.947920000000000011e-08 -5.883720000000000061e-01 -1.905070000000000097e-01 5.282743950374424458e-04 -6.883267760276794434e-01 -7.254005074501037598e-01
4.947920000000000011e-08 8.302709999999999813e-01 -2.364799999999999958e-01 -1.419855980202555656e-04 -9.052547812461853027e-01 -4.248692095279693604e-01
4.769669999999999743e-01 -1.493420000000000025e-01 6.770830000000000285e-08 -2.878144383430480957e-01 -9.576860666275024414e-01 -6.174060981720685959e-04
-4.795539999999999803e-01 -1.408149999999999957e-01 6.770830000000000285e-08 2.858875989913940430e-01 -9.581772685050964355e-01 1.282949745655059814e-02
-9.801700000000000690e-02 -9.951849999999999863e-01 6.770830000000000285e-08 -9.811927676200866699e-01 -1.929116249084472656e-01 -6.761786062270402908e-03
-9.056370000000000253e-01 4.212540000000000173e-01 6.770830000000000285e-08 3.769726455211639404e-01 9.262240529060363770e-01 7.494593737646937370e-04
4.947920000000000011e-08 5.048040000000000305e-01 -4.877189999999999998e-02 -2.052883245050907135e-02 -3.806701600551605225e-01 9.244829416275024414e-01
-8.928669999999999662e-01 -4.482539999999999858e-01 6.770830000000000285e-08 -4.926483035087585449e-01 8.702283501625061035e-01 4.853184218518435955e-04
-9.281920000000000170e-01 -3.706320000000000170e-01 6.770830000000000285e-08 -4.230261147022247314e-01 9.061171412467956543e-01 8.412793977186083794e-04
-7.336639999999999828e-01 -2.604170000000000118e-09 2.491970000000000018e-01 9.993448257446289062e-01 2.181341114919632673e-04 3.619233146309852600e-02
-3.563000000000000056e-01 3.505240000000000022e-01 6.770830000000000285e-08 -7.135207056999206543e-01 -7.006338238716125488e-01 7.319162250496447086e-04
-9.967169999999999641e-01 -6.682979999999999476e-02 6.770830000000000285e-08 -2.728695571422576904e-01 9.617414474487304688e-01 -2.440177835524082184e-02
1.759419999999999873e-01 -4.674499999999999766e-01 6.770830000000000285e-08 -9.384639859199523926e-01 -3.453581333160400391e-01 -3.596782451495528221e-03
4.947920000000000011e-08 8.456709999999999505e-01 2.309700000000000086e-01 2.109325490891933441e-03 -8.716006875038146973e-01 4.902120232582092285e-01
-9.943440000000000056e-01 -2.604170000000000118e-09 -5.217259999999999953e-02 -5.669945478439331055e-01 3.271278738975524902e-02 8.230717182159423828e-01
-4.915930000000000022e-01 -8.945569999999999911e-02 6.770830000000000285e-08 2.413188219070434570e-01 -9.680775403976440430e-01 6.775733083486557007e-02
-6.893280000000000518e-01 -2.604170000000000118e-09 2.422159999999999869e-01 9.894278049468994141e-01 -8.941949636209756136e-05 -1.450260430574417114e-01
-8.643729999999999469e-01 5.006749999999999812e-01 6.770830000000000285e-08 4.732236564159393311e-01 8.809422850608825684e-01 3.986556548625230789e-04
-2.450449999999999851e-02 -4.987960000000000171e-01 6.770830000000000285e-08 9.824592471122741699e-01 1.818963438272476196e-01 -4.108007997274398804e-02
-1.730279999999999874e-01 9.840579999999999883e-01 6.770830000000000285e-08 9.395193457603454590e-01 3.424948155879974365e-01 8.588359341956675053e-04
4.787159999999999749e-01 8.775340000000000362e-01 6.770830000000000285e-08 -8.536645770072937012e-01 5.208231210708618164e-01 2.092126087518408895e-04
-4.900850000000000345e-02 9.975920000000000343e-01 6.770830000000000285e-08 7.693504691123962402e-01 6.387886404991149902e-01 -6.998306605964899063e-03
7.987720000000000375e-01 -2.604170000000000118e-09 2.451959999999999973e-01 9.973356127738952637e-01 4.205344594083726406e-04 7.294892519712448120e-02
-1.200790000000000052e-01 9.919120000000000159e-01 6.770830000000000285e-08 9.168264865875244141e-01 3.992848694324493408e-01 -8.523987489752471447e-04
2.643229999999999746e-01 9.634430000000000494e-01 6.770830000000000285e-08 -9.378210306167602539e-01 3.471192121505737305e-01 4.088198693352751434e-05
3.658830000000000138e-01 9.298910000000000231e-01 6.770830000000000285e-08 -9.014162421226501465e-01 4.329534173011779785e-01 2.683422353584319353e-04
-4.702049999999999841e-01 1.682420000000000027e-01 6.770830000000000285e-08 -3.395159840583801270e-01 -9.405928850173950195e-01 -3.749901428818702698e-03
4.947920000000000011e-08 -9.137920000000000487e-01 1.885449999999999904e-01 -9.273485047742724419e-04 -8.448346257209777832e-01 -5.350266695022583008e-01
6.164789999999999992e-01 7.862970000000000237e-01 6.770830000000000285e-08 -7.598363161087036133e-01 6.501142382621765137e-01 3.524349303916096687e-04
4.947920000000000011e-08 7.987729999999999553e-01 2.451959999999999973e-01 1.772831776179373264e-03 -9.589425921440124512e-01 2.835949063301086426e-01
4.947920000000000011e-08 -9.993119999999999781e-01 1.400239999999999992e-02 -5.461082607507705688e-02 -9.291288256645202637e-01 -3.657010495662689209e-01
7.836400000000000032e-01 -6.200620000000000021e-01 6.770830000000000285e-08 6.671378612518310547e-01 7.449333667755126953e-01 1.181043218821287155e-03
9.868740000000000290e-01 -2.604170000000000118e-09 -7.917090000000000238e-02 7.918382287025451660e-01 -2.457599854096770287e-03 6.107259392738342285e-01
-9.745650000000000146e-01 2.199230000000000074e-01 6.770830000000000285e-08 1.348159611225128174e-01 9.908677339553833008e-01 2.398496959358453751e-03
9.892940000000000067e-01 -1.377289999999999903e-01 6.770830000000000285e-08 3.968185484409332275e-01 9.178807735443115234e-01 5.476919468492269516e-03
4.947920000000000011e-08 -9.809700000000000086e-01 -9.567090000000000316e-02 -2.852143719792366028e-02 -7.485838532447814941e-01 6.624264121055603027e-01
9.143430000000000168e-01 4.028459999999999819e-01 6.770830000000000285e-08 -3.686935901641845703e-01 9.295501112937927246e-01 1.289111445657908916e-03
-9.857939999999999481e-01 1.613249999999999962e-01 6.770830000000000285e-08 4.617352411150932312e-02 9.989253282546997070e-01 4.025132395327091217e-03
8.424369999999999914e-01 -5.372710000000000541e-01 6.770830000000000285e-08 6.004919409751892090e-01 7.996290326118469238e-01 1.667667529545724392e-03
-4.871409999999999907e-01 1.105259999999999992e-01 6.770830000000000285e-08 -2.075977027416229248e-01 -9.782035350799560547e-01 -4.590264055877923965e-03
4.947920000000000011e-08 9.823469999999999702e-01 -9.182089999999999697e-02 4.816522821784019470e-03 3.387394174933433533e-02 -9.994145035743713379e-01
-8.357710000000000417e-01 -2.604170000000000118e-09 -2.345119999999999982e-01 -9.749827980995178223e-01 -1.586484431754797697e-04 2.222798168659210205e-01
4.947920000000000011e-08 -5.166690000000000449e-01 8.907110000000000027e-02 2.126499451696872711e-02 -1.904337108135223389e-01 9.814697504043579102e-01
9.943440000000000056e-01 -2.604170000000000118e-09 -5.217259999999999953e-02 8.474181294441223145e-01 -1.358294580131769180e-02 5.307523608207702637e-01
4.249080000000000079e-01 2.624810000000000199e-01 6.770830000000000285e-08 5.444367527961730957e-01 -8.388016819953918457e-01 5.542184226214885712e-04
-5.173090000000000188e-01 8.544019999999999948e-01 6.770830000000000285e-08 8.305324912071228027e-01 5.569702982902526855e-01 7.192393240984529257e-05
4.947920000000000011e-08 9.951959999999999695e-01 -4.877290000000000098e-02 -1.905685476958751678e-02 5.800267457962036133e-01 -8.143745660781860352e-01
7.849049999999999638e-01 -2.604170000000000118e-09 -2.472530000000000006e-01 9.952881336212158203e-01 2.328222850337624550e-03 -9.693304449319839478e-02
-9.974880000000000413e-01 5.113929999999999865e-02 6.770830000000000285e-08 -1.926741302013397217e-01 9.806814193725585938e-01 3.377307206392288208e-02
1.866500000000000103e-01 -9.820370000000000488e-01 6.770830000000000285e-08 9.992965459823608398e-01 -3.711456060409545898e-02 -5.373595748096704483e-03
4.947920000000000011e-08 -9.578670000000000240e-01 1.388919999999999877e-01 -9.273777715861797333e-03 -7.649289965629577637e-01 -6.440479159355163574e-01
4.028459999999999819e-01 -9.143430000000000168e-01 6.770830000000000285e-08 9.404666423797607422e-01 3.398857414722442627e-01 -3.403372247703373432e-04
-5.020050000000000345e-01 -8.635749999999999815e-01 6.770830000000000285e-08 -8.904601335525512695e-01 4.550612866878509521e-01 -2.376156917307525873e-04
8.512110000000000509e-01 -5.226319999999999855e-01 6.770830000000000285e-08 5.817023515701293945e-01 8.133998513221740723e-01 1.751679345034062862e-03
7.220849999999999769e-01 -6.905799999999999716e-01 6.770830000000000285e-08 7.326672077178955078e-01 6.805867552757263184e-01 6.419983110390603542e-04
-9.809700000000000086e-01 -2.604170000000000118e-09 9.567109999999999503e-02 8.067589998245239258e-02 1.903166621923446655e-02 9.965586662292480469e-01
-3.224230000000000151e-01 -9.454409999999999759e-01 6.770830000000000285e-08 -9.667204022407531738e-01 2.558341622352600098e-01 -8.106180466711521149e-04
3.364840000000000053e-01 9.404099999999999682e-01 6.770830000000000285e-08 -9.108659625053405762e-01 4.127021729946136475e-01 3.937652800232172012e-04
4.947920000000000011e-08 -8.186050000000000271e-01 2.402289999999999981e-01 5.567889893427491188e-04 -9.877842068672180176e-01 -1.558261811733245850e-01
4.947920000000000011e-08 -5.470049999999999635e-01 -1.454610000000000070e-01 1.869974425062537193e-03 -4.694238603115081787e-01 -8.829710483551025391e-01
-1.213430000000000064e-01 -4.844319999999999737e-01 6.770830000000000285e-08 9.771195650100708008e-01 -2.125083059072494507e-01 -8.804732933640480042e-03
9.408980000000000121e-01 -2.604170000000000118e-09 -1.611950000000000049e-01 8.689060807228088379e-01 -4.137565265409648418e-04 4.949768483638763428e-01
-8.446310000000000207e-01 5.336119999999999752e-01 6.770830000000000285e-08 4.901256561279296875e-01 8.716517090797424316e-01 2.311836869921535254e-04
-4.189749999999999863e-01 -9.067150000000000487e-01 6.770830000000000285e-08 -9.282486438751220703e-01 3.719600439071655273e-01 -3.567412204574793577e-04
-2.157850000000000046e-01 9.756010000000000515e-01 6.770830000000000285e-08 9.416230916976928711e-01 3.366676867008209229e-01 9.209588170051574707e-04
4.947920000000000011e-08 -8.641529999999999490e-01 2.222280000000000089e-01 1.368449738947674632e-04 -9.405011534690856934e-01 -3.397905528545379639e-01
9.917899999999999494e-01 -2.604170000000000118e-09 6.237150000000000333e-02 6.742808222770690918e-01 -2.623327076435089111e-02 -7.380089759826660156e-01
7.701449999999999685e-01 6.375539999999999541e-01 6.770830000000000285e-08 -6.076709628105163574e-01 7.941887378692626953e-01 5.769937415607273579e-04
-3.505440000000000222e-01 -9.353789999999999605e-01 6.770830000000000285e-08 -9.585484862327575684e-01 2.849286794662475586e-01 -6.441990844905376434e-04
9.860210000000000363e-01 1.597909999999999886e-01 6.770830000000000285e-08 -6.353758275508880615e-02 9.979754090309143066e-01 2.868594368919730186e-03
3.865049999999999875e-01 -3.171970000000000067e-01 6.770830000000000285e-08 -6.085523366928100586e-01 -7.935137748718261719e-01 1.528612192487344146e-04
4.947920000000000011e-08 6.893280000000000518e-01 -2.422150000000000136e-01 4.118813376408070326e-04 -9.842853546142578125e-01 1.765845865011215210e-01
4.947920000000000011e-08 5.077840000000000131e-01 -6.067140000000000033e-02 -1.049205288290977478e-02 -4.121343791484832764e-01 9.110626578330993652e-01
5.823129999999999695e-01 -2.604170000000000118e-09 -1.850150000000000128e-01 5.683249235153198242e-01 1.218573469668626785e-02 -8.227140307426452637e-01
-3.700289999999999968e-01 3.353749999999999787e-01 6.770830000000000285e-08 -6.917132735252380371e-01 -7.221719622611999512e-01 6.569332908838987350e-04
5.116540000000000532e-01 8.577919999999999989e-01 6.770830000000000285e-08 -8.309678435325622559e-01 5.563203096389770508e-01 2.226128708571195602e-04
4.947920000000000011e-08 -9.704800000000000093e-01 -1.178489999999999954e-01 -7.620799355208873749e-03 -7.266557812690734863e-01 6.869595050811767578e-01
9.641739999999999755e-01 -2.604170000000000118e-09 -1.283710000000000129e-01 8.153298497200012207e-01 1.526732929050922394e-02 5.787955522537231445e-01
2.210519999999999985e-01 9.742819999999999814e-01 6.770830000000000285e-08 -9.366901516914367676e-01 3.501574397087097168e-01 1.150639262050390244e-03
3.938130000000000241e-01 -3.073440000000000061e-01 6.770830000000000285e-08 -5.848918557167053223e-01 -8.111112713813781738e-01 -1.695033861324191093e-04
-9.827489999999999837e-01 -1.818539999999999879e-01 6.770830000000000285e-08 -2.601801455020904541e-01 9.655534029006958008e-01 3.606869140639901161e-03
9.673070000000000279e-01 -2.488950000000000051e-01 6.770830000000000285e-08 3.723534941673278809e-01 9.280788898468017578e-01 4.741506185382604599e-03
4.860360000000000236e-01 -8.731470000000000065e-01 6.770830000000000285e-08 9.055592417716979980e-01 4.242195785045623779e-01 3.943963965866714716e-04
-9.943440000000000056e-01 -2.604170000000000118e-09 5.217190000000000022e-02 -1.404181569814682007e-01 -2.470469102263450623e-02 9.897840023040771484e-01
-3.891620000000000079e-01 3.136140000000000039e-01 6.770830000000000285e-08 -6.463145613670349121e-01 -7.630709409713745117e-01 4.076844488736242056e-04
-6.001220000000000443e-01 7.984269999999999978e-01 6.770830000000000285e-08 7.751185297966003418e-01 6.318158507347106934e-01 -6.558087079611141235e-06
-5.190299999999999914e-01 -2.604170000000000118e-09 -9.567090000000000316e-02 -1.964240968227386475e-01 7.494542747735977173e-02 -9.776505827903747559e-01
4.757149999999999990e-01 1.528420000000000056e-01 6.770830000000000285e-08 3.045360743999481201e-01 -9.525002241134643555e-01 -1.071167876943945885e-03
9.495160000000000267e-01 -2.604170000000000118e-09 1.501530000000000087e-01 8.457518815994262695e-01 -3.251543967053294182e-03 -5.335665345191955566e-01
4.947920000000000011e-08 -9.962250000000000272e-01 4.183839999999999781e-02 -4.308064468204975128e-03 -7.338762283325195312e-01 -6.792696118354797363e-01
3.139129999999999976e-01 -3.889409999999999812e-01 6.770830000000000285e-08 -7.588906884193420410e-01 -6.512179970741271973e-01 -3.011413500644266605e-04
5.242750000000000465e-01 -2.604170000000000118e-09 -1.067599999999999938e-01 1.100896745920181274e-01 1.549566816538572311e-02 -9.938008189201354980e-01
3.073440000000000061e-01 3.938119999999999954e-01 6.770830000000000285e-08 7.980762124061584473e-01 -6.025552153587341309e-01 1.228651381097733974e-03
-9.753659999999999553e-01 -2.167260000000000020e-01 6.770830000000000285e-08 -2.959469556808471680e-01 9.552012085914611816e-01 2.479437505826354027e-03
6.021469999999999878e-01 7.969260000000000232e-01 6.770830000000000285e-08 -7.673094272613525391e-01 6.412769556045532227e-01 3.201492072548717260e-04
9.962790000000000257e-01 7.574039999999999939e-02 6.770830000000000285e-08 1.056003421545028687e-01 9.943987131118774414e-01 4.447552375495433807e-03
-2.777850000000000041e-01 -4.157350000000000212e-01 6.770830000000000285e-08 8.197492957115173340e-01 -5.727213621139526367e-01 -1.155913923867046833e-03
3.403329999999999966e-01 3.655360000000000276e-01 6.770830000000000285e-08 7.505170106887817383e-01 -6.608493328094482422e-01 1.469868700951337814e-03
2.510020000000000029e-01 4.317880000000000051e-01 6.770830000000000285e-08 8.719717264175415039e-01 -4.895438551902770996e-01 3.495875978842377663e-03
9.956230000000000357e-01 8.910640000000000227e-02 6.770830000000000285e-08 7.691937685012817383e-02 9.970353841781616211e-01 1.919210655614733696e-03
9.801700000000000690e-02 9.951849999999999863e-01 6.770830000000000285e-08 -8.523412346839904785e-01 5.229764580726623535e-01 3.181753447279334068e-03
2.236009999999999942e-01 4.466829999999999967e-01 6.770830000000000285e-08 9.009017348289489746e-01 -4.340165555477142334e-01 2.386295935139060020e-03
-1.782140000000000113e-02 4.991240000000000121e-01 6.770830000000000285e-08 -9.039120674133300781e-01 -3.710323274135589600e-01 2.127861529588699341e-01
-5.364400000000000279e-01 -8.429360000000000186e-01 6.770830000000000285e-08 -8.700571656227111816e-01 4.929507076740264893e-01 -2.248758682981133461e-04
9.973739999999999828e-01 -5.346379999999999882e-02 6.770830000000000285e-08 5.776816606521606445e-01 8.162615895271301270e-01 9.304042323492467403e-04
4.930109999999999770e-01 -7.989549999999999430e-02 6.770830000000000285e-08 -2.409470081329345703e-01 -9.704664349555969238e-01 -1.180583890527486801e-02
6.642289999999999583e-01 -2.604170000000000118e-09 -2.345119999999999982e-01 8.252889513969421387e-01 7.457486819475889206e-03 -5.646613836288452148e-01
8.857350000000000501e-01 -4.633309999999999929e-01 6.770830000000000285e-08 5.375910401344299316e-01 8.432019948959350586e-01 2.509350888431072235e-03
-5.295199999999999907e-01 -2.604170000000000118e-09 1.178489999999999954e-01 5.540537834167480469e-01 -1.594030670821666718e-02 -8.323282599449157715e-01
8.577919999999999989e-01 -5.116530000000000244e-01 6.770830000000000285e-08 5.775390863418579102e-01 8.163608312606811523e-01 1.911746920086443424e-03
-1.054780000000000023e-01 -4.884060000000000068e-01 6.770830000000000285e-08 9.856064915657043457e-01 -1.688755154609680176e-01 -7.808033376932144165e-03
4.068780000000000174e-01 9.124370000000000536e-01 6.770830000000000285e-08 -8.862817287445068359e-01 4.631463885307312012e-01 2.887432056013494730e-04
-5.661620000000000541e-01 -2.604170000000000118e-09 1.689859999999999973e-01 7.490469813346862793e-01 -4.836815875023603439e-03 -6.624993085861206055e-01
3.196840000000000237e-01 9.464209999999999567e-01 6.770830000000000285e-08 -9.174584150314331055e-01 3.978316187858581543e-01 2.927262685261666775e-04
4.947920000000000011e-08 -5.732230000000000381e-01 1.767769999999999897e-01 3.358550136908888817e-03 -6.390820145606994629e-01 7.691313028335571289e-01
4.947920000000000011e-08 7.336639999999999828e-01 -2.491970000000000018e-01 2.962787693832069635e-04 -9.999943971633911133e-01 -3.337123896926641464e-03
9.724909999999999943e-01 2.282009999999999872e-01 6.770830000000000285e-08 -1.852691769599914551e-01 9.826845526695251465e-01 2.513111568987369537e-03
5.260230000000000183e-01 -2.604170000000000118e-09 1.104559999999999986e-01 2.067062109708786011e-01 1.344680879265069962e-02 9.783106446266174316e-01
4.947920000000000011e-08 9.295229999999999881e-01 -1.737470000000000125e-01 1.155760255642235279e-03 -5.784971714019775391e-01 -8.156836032867431641e-01
-8.358560000000000434e-01 -5.482510000000000439e-01 6.770830000000000285e-08 -5.773729681968688965e-01 8.164805173873901367e-01 2.348554698983207345e-04
4.947920000000000011e-08 -8.678489999999999815e-01 -2.204800000000000093e-01 -2.443850462441332638e-05 -9.434827566146850586e-01 3.314217329025268555e-01
4.947920000000000011e-08 -9.116279999999999939e-01 -1.905070000000000097e-01 -2.778136637061834335e-03 -8.692855834960937500e-01 4.943024516105651855e-01
4.947920000000000011e-08 5.567480000000000206e-01 1.585979999999999890e-01 -8.268996607512235641e-04 -6.937162280082702637e-01 -7.202478647232055664e-01
4.947920000000000011e-08 5.400310000000000388e-01 1.353850000000000053e-01 -2.882760250940918922e-03 -6.130315065383911133e-01 -7.900532484054565430e-01
-9.776749999999999607e-01 2.075069999999999970e-01 6.770830000000000285e-08 1.272235363721847534e-01 9.918701648712158203e-01 2.785376505926251411e-03
4.947920000000000011e-08 9.878569999999999851e-01 7.642110000000000569e-02 2.008311077952384949e-02 1.361903399229049683e-01 9.904790520668029785e-01
-7.271640000000000326e-01 -6.849769999999999470e-01 6.770830000000000285e-08 -7.215533256530761719e-01 6.923587918281555176e-01 5.188384420762304217e-06
4.947920000000000011e-08 5.862079999999999513e-01 1.885449999999999904e-01 3.114160790573805571e-04 -7.938809394836425781e-01 -6.080731749534606934e-01
-3.971339999999999870e-01 3.028649999999999953e-01 6.770830000000000285e-08 -6.268854141235351562e-01 -7.791113853454589844e-01 3.898326540365815163e-04
-3.465280000000000027e-01 9.368159999999999821e-01 6.770830000000000285e-08 9.110774397850036621e-01 4.122352898120880127e-01 1.293133100261911750e-04
9.009930000000000438e-01 4.310729999999999840e-01 6.770830000000000285e-08 -3.917036354541778564e-01 9.200904369354248047e-01 1.350517384707927704e-03
4.947920000000000011e-08 6.111069999999999558e-01 -2.078679999999999972e-01 1.015757210552692413e-03 -8.694158792495727539e-01 4.940800368785858154e-01
-2.586550000000000238e-01 4.272009999999999974e-01 6.770830000000000285e-08 -8.627578616142272949e-01 -5.056156516075134277e-01 1.311444677412509918e-03
-5.421329999999999760e-01 -2.604170000000000118e-09 -1.388929999999999887e-01 -4.490424096584320068e-01 1.596701703965663910e-02 -8.933678269386291504e-01
9.578670000000000240e-01 -2.604170000000000118e-09 1.388919999999999877e-01 8.101297616958618164e-01 -1.543555641546845436e-03 -5.862485766410827637e-01
9.693810000000000482e-01 2.406179999999999986e-01 6.770830000000000285e-08 -1.835225671529769897e-01 9.830129742622375488e-01 2.228097058832645416e-03
5.445910000000000473e-01 8.380509999999999904e-01 6.770830000000000285e-08 -8.127965927124023438e-01 5.825475454330444336e-01 2.969020279124379158e-04
5.589979999999999949e-01 -8.289269999999999694e-01 6.770830000000000285e-08 8.616378307342529297e-01 5.075236558914184570e-01 2.595176920294761658e-04
9.993429999999999813e-01 1.336599999999999941e-02 6.770830000000000285e-08 3.013763725757598877e-01 9.532887339591979980e-01 -2.031499333679676056e-02
4.947920000000000011e-08 5.032609999999999584e-01 3.837209999999999926e-02 7.464491762220859528e-03 -4.047749638557434082e-01 -9.143858551979064941e-01
-9.956230000000000357e-01 -8.910640000000000227e-02 6.770830000000000285e-08 -2.761871218681335449e-01 9.611036777496337891e-01 6.399392732419073582e-04
6.682979999999999476e-02 9.967169999999999641e-01 6.770830000000000285e-08 -7.819532752037048340e-01 6.233369708061218262e-01 -3.529429377522319555e-04
5.119460000000000122e-01 -2.604170000000000118e-09 -7.587090000000000500e-02 -1.224526092410087585e-01 2.088947445154190063e-01 -9.702414274215698242e-01
5.591530000000000111e-01 8.288130000000000219e-01 6.770830000000000285e-08 -7.977483868598937988e-01 6.029903292655944824e-01 2.956053649540990591e-04
4.975919999999999788e-01 4.900800000000000295e-02 6.770830000000000285e-08 3.876541554927825928e-02 -9.989558458328247070e-01 2.417364716529846191e-02
-9.479239999999999888e-01 3.154839999999999867e-01 6.770830000000000285e-08 2.533894479274749756e-01 9.673635959625244141e-01 1.206756802275776863e-03
4.947920000000000011e-08 -5.295199999999999907e-01 -1.178489999999999954e-01 -2.068351604975759983e-04 -3.412451148033142090e-01 -9.399743080139160156e-01
7.710029999999999939e-01 -2.604170000000000118e-09 2.489679999999999949e-01 9.806866049766540527e-01 1.580972690135240555e-03 1.955795288085937500e-01
8.819209999999999550e-01 4.713970000000000105e-01 6.770830000000000285e-08 -4.099902510643005371e-01 9.120892882347106934e-01 1.095339190214872360e-03
-7.548309999999999742e-02 4.936650000000000205e-01 6.770830000000000285e-08 -9.729663729667663574e-01 -2.307848632335662842e-01 -8.650832809507846832e-03
-8.225710000000000521e-01 -2.604170000000000118e-09 2.392350000000000032e-01 9.126592874526977539e-01 -3.889120125677436590e-05 4.087212681770324707e-01
-5.898409999999999487e-01 8.060519999999999907e-01 6.770830000000000285e-08 7.757106423377990723e-01 6.310887336730957031e-01 2.991379687955486588e-06
