7.420050000000000257e-01 -6.135249999999999870e-01 1.303839999999999999e-01 -6.357321143150329590e-01 -7.621169686317443848e-01 1.225662901997566223e-01
5.095100000000000323e-02 9.603439999999999754e-01 -1.305850000000000066e-01 -9.900673627853393555e-01 1.331797242164611816e-01 -4.505367204546928406e-02
2.915679999999999938e-01 4.097370000000000179e-01 -3.928799999999999654e-02 -7.466051578521728516e-01 6.112313866615295410e-01 -2.626345455646514893e-01
-4.546919999999999851e-01 8.590189999999999770e-01 -1.143799999999999956e-01 8.002656102180480957e-01 5.919461250305175781e-01 -9.578438848257064819e-02
7.188330000000000553e-01 5.293309999999999960e-01 2.042499999999999871e-01 9.294314980506896973e-01 -2.854823470115661621e-01 -2.337881624698638916e-01
3.816289999999999960e-01 -3.455690000000000150e-01 8.568900000000000128e-02 -9.695894271135330200e-02 7.237616181373596191e-01 6.832043528556823730e-01
9.269030000000000324e-01 -3.178130000000000122e-01 -9.567100000000000604e-02 4.120544195175170898e-01 -3.428141176700592041e-01 8.442094326019287109e-01
-8.244029999999999969e-01 9.990400000000000669e-02 -2.361689999999999900e-01 -9.455063343048095703e-01 2.584729492664337158e-01 1.980137825012207031e-01
-6.004600000000000215e-02 -8.488329999999999487e-01 -2.280790000000000040e-01 1.379734575748443604e-01 -9.637181758880615234e-01 2.284962683916091919e-01
-9.912260000000000515e-01 -9.762700000000000544e-02 4.320800000000000335e-02 1.066059619188308716e-02 -9.826291203498840332e-01 1.852739900350570679e-01
-8.981949999999999656e-01 1.438689999999999969e-01 -1.913660000000000083e-01 -7.065870165824890137e-01 5.285012125968933105e-01 4.705542027950286865e-01
5.558999999999999497e-01 1.529490000000000016e-01 -1.802900000000000058e-01 -7.043395042419433594e-01 5.339025259017944336e-01 4.678183495998382568e-01
6.133760000000000323e-01 -7.254169999999999785e-01 1.487439999999999873e-01 -7.411417961120605469e-01 -6.623544692993164062e-01 1.095238253474235535e-01
-2.909499999999999933e-02 5.050320000000000364e-01 -5.539199999999999680e-02 -8.011744618415832520e-01 -5.206306576728820801e-01 -2.950651347637176514e-01
9.714100000000000512e-02 4.965890000000000026e-01 -5.385899999999999715e-02 -9.738018512725830078e-01 1.899169236421585083e-01 -1.250662058591842651e-01
-1.312280000000000113e-01 7.562330000000000441e-01 -2.491049999999999931e-01 -7.959438860416412354e-02 -7.875256538391113281e-01 -6.111204624176025391e-01
-3.458780000000000188e-01 -3.840350000000000152e-01 9.126099999999999490e-02 8.704867959022521973e-01 -1.870761215686798096e-01 -4.552529156208038330e-01
3.284070000000000045e-01 7.928439999999999932e-01 2.250590000000000090e-01 9.990180730819702148e-01 6.599156185984611511e-03 -4.381062090396881104e-02
-1.190380000000000049e-01 6.400979999999999448e-01 -2.295939999999999925e-01 1.635502874851226807e-01 -9.494052529335021973e-01 2.681063413619995117e-01
-3.588350000000000151e-01 -3.799649999999999972e-01 1.043700000000000044e-01 2.560766041278839111e-01 6.814934015274047852e-01 -6.855592131614685059e-01
7.252200000000000313e-02 9.593920000000000226e-01 -1.304049999999999931e-01 -9.878945350646972656e-01 1.483586132526397705e-01 -4.532198607921600342e-02
1.936299999999999827e-02 8.143519999999999648e-01 2.410559999999999925e-01 -8.517495393753051758e-01 8.729761838912963867e-02 5.166254043579101562e-01
3.044560000000000044e-01 -4.210369999999999946e-01 9.808400000000000452e-02 6.921020746231079102e-01 7.138153910636901855e-01 -1.070620790123939514e-01
6.402520000000000433e-01 1.054169999999999968e-01 -2.287210000000000076e-01 -9.222058653831481934e-01 3.193138241767883301e-01 2.181166857481002808e-01
-2.358560000000000101e-01 9.347400000000000153e-01 -1.266629999999999978e-01 9.356690049171447754e-01 3.484027683734893799e-01 -5.602720007300376892e-02
4.111980000000000079e-01 8.784060000000000201e-01 -1.166470000000000007e-01 -8.743596673011779785e-01 4.783837199211120605e-01 -8.151187002658843994e-02
5.385100000000000442e-01 -7.751379999999999937e-01 1.568839999999999957e-01 -7.928740978240966797e-01 -6.010121107101440430e-01 1.006733626127243042e-01
3.221829999999999972e-01 9.114419999999999744e-01 -1.222059999999999952e-01 -9.193223714828491211e-01 3.875800073146820068e-01 -6.802954524755477905e-02
-5.218279999999999585e-01 -2.789229999999999765e-01 -1.934690000000000021e-01 -7.642623782157897949e-01 1.365129351615905762e-01 -6.302914619445800781e-01
-7.238400000000000389e-02 7.733670000000000266e-01 -2.484369999999999912e-01 9.761680960655212402e-01 -6.128968298435211182e-02 -2.081811279058456421e-01
-9.396860000000000213e-01 -3.315910000000000246e-01 -3.211499999999999772e-02 -1.272507905960083008e-01 -3.725964128971099854e-01 9.192274808883666992e-01
-9.591220000000000301e-01 -2.428069999999999951e-01 6.724600000000000022e-02 1.382926553487777710e-01 -9.639617204666137695e-01 2.272727936506271362e-01
5.976949999999999763e-01 1.258910000000000029e-01 -2.078679999999999972e-01 -8.247757554054260254e-01 4.303023517131805420e-01 3.668580949306488037e-01
8.231319999999999748e-01 -5.154339999999999478e-01 1.142529999999999935e-01 -4.585123956203460693e-01 -8.782506585121154785e-01 1.358019411563873291e-01
-1.222960000000000019e-01 6.572989999999999666e-01 -2.361949999999999883e-01 1.342976689338684082e-01 -9.765414595603942871e-01 1.683178246021270752e-01
-2.224900000000000141e-02 -5.192520000000000469e-01 -9.845099999999999685e-02 -3.114903271198272705e-01 -2.900080084800720215e-01 -9.049138426780700684e-01
-4.058510000000000173e-01 -3.133199999999999874e-01 7.950400000000000522e-02 -5.841490030288696289e-01 8.046349883079528809e-01 1.064545512199401855e-01
5.560910000000000020e-01 -7.638089999999999602e-01 1.550300000000000011e-01 -7.996429204940795898e-01 -5.922538638114929199e-01 9.902805835008621216e-02
1.122640000000000027e-01 9.560290000000000177e-01 -1.298050000000000037e-01 -9.682469367980957031e-01 2.429914027452468872e-01 -5.876235663890838623e-02
-3.549999999999999684e-02 -5.264999999999999680e-01 1.151520000000000044e-01 8.004364967346191406e-01 2.580515444278717041e-01 5.410274267196655273e-01
-8.587139999999999773e-01 4.486399999999999832e-01 1.198960000000000026e-01 -8.093543052673339844e-01 -4.499646723270416260e-01 -3.774618506431579590e-01
4.001939999999999942e-01 7.868680000000000119e-01 2.111059999999999881e-01 9.969518184661865234e-01 4.868441075086593628e-02 -6.096597015857696533e-02
-9.657740000000000213e-01 -2.201180000000000081e-01 6.348800000000000276e-02 1.891275495290756226e-01 -9.613288640975952148e-01 2.001938670873641968e-01
-7.565730000000000510e-01 -5.985800000000000010e-01 1.262890000000000124e-01 5.365308523178100586e-01 -8.337941765785217285e-01 1.300842165946960449e-01
1.091369999999999979e-01 -8.921489999999999698e-01 1.999329999999999996e-01 3.233199417591094971e-01 3.903452455997467041e-01 8.620294332504272461e-01
3.983639999999999959e-01 3.037259999999999960e-01 -2.652099999999999944e-02 -5.876492261886596680e-01 7.902147769927978516e-01 1.738648861646652222e-01
9.341779999999999529e-01 -3.527500000000000080e-01 7.908000000000000099e-03 -3.270626440644264221e-02 -3.845297992229461670e-01 9.225329756736755371e-01
9.347459999999999658e-01 -3.299750000000000183e-01 -5.967599999999999988e-02 2.340250611305236816e-01 -3.572147786617279053e-01 9.042288661003112793e-01
8.281279999999999752e-01 9.914900000000000102e-02 -2.348889999999999867e-01 -7.720075249671936035e-01 -3.930218517780303955e-01 -4.995381236076354980e-01
4.816819999999999991e-01 5.744219999999999882e-01 2.500000000000000000e-01 9.915505647659301758e-01 2.843501605093479156e-02 1.265654265880584717e-01
9.946989999999999998e-01 9.426800000000000457e-02 1.363299999999999929e-02 1.627712249755859375e-01 -9.705725908279418945e-01 1.774668693542480469e-01
3.443060000000000009e-01 -8.649820000000000286e-01 1.715280000000000138e-01 -9.282433390617370605e-01 -3.660475313663482666e-01 6.613223254680633545e-02
3.888039999999999830e-01 -3.268510000000000026e-01 -6.231699999999999739e-02 4.625898897647857666e-01 2.439754456281661987e-01 -8.523417711257934570e-01
-9.387600000000000111e-02 5.615639999999999521e-01 -1.731620000000000104e-01 3.029386699199676514e-01 -7.287951707839965820e-01 6.140731573104858398e-01
-1.097399999999999938e-02 5.018829999999999680e-01 3.271299999999999902e-02 2.896827757358551025e-01 -2.870979718863964081e-02 9.566920399665832520e-01
5.424170000000000380e-01 8.117849999999999788e-01 -1.054900000000000004e-01 -7.425572872161865234e-01 6.569285392761230469e-01 -1.305896937847137451e-01
-7.461050000000000182e-01 5.193309999999999871e-01 1.922200000000000020e-01 -8.997305035591125488e-01 -3.220196664333343506e-01 -2.945986092090606689e-01
-2.916449999999999876e-01 4.364770000000000039e-01 1.081789999999999974e-01 4.404321312904357910e-01 5.189620852470397949e-01 7.325966954231262207e-01
9.710290000000000310e-01 -2.003459999999999963e-01 6.231699999999999739e-02 -1.536353677511215210e-01 -9.686585664749145508e-01 1.951842606067657471e-01
4.572829999999999950e-01 5.736860000000000293e-01 2.492169999999999941e-01 9.777950644493103027e-01 7.776624709367752075e-02 1.946002542972564697e-01
-7.663400000000000212e-01 -2.614890000000000270e-01 -2.422310000000000019e-01 -9.897421002388000488e-01 -8.805137872695922852e-02 1.125060096383094788e-01
-4.676690000000000014e-01 1.755309999999999926e-01 -1.387999999999999911e-03 3.223874270915985107e-01 9.433938860893249512e-01 -7.793885469436645508e-02
4.842799999999999883e-02 5.890229999999999633e-01 1.932520000000000071e-01 2.150948196649551392e-01 6.617123484611511230e-01 7.182416319847106934e-01
5.789450000000000429e-01 7.871160000000000379e-01 -1.013720000000000038e-01 -5.915749669075012207e-01 7.863988280296325684e-01 -1.778087615966796875e-01
-8.619229999999999947e-01 -4.607069999999999776e-01 1.033789999999999987e-01 3.110670447349548340e-01 -9.421378970146179199e-01 1.249536499381065369e-01
-9.958700000000000330e-01 -3.458100000000000063e-02 3.277900000000000258e-02 -2.054419927299022675e-02 -9.830837249755859375e-01 1.820012480020523071e-01
-5.004499999999999504e-01 -4.929000000000000048e-02 3.574800000000000200e-02 -1.481208503246307373e-01 9.829629063606262207e-01 -1.088308095932006836e-01
-3.569330000000000003e-01 -8.617139999999999800e-01 1.702279999999999904e-01 8.273125290870666504e-01 -5.480337738990783691e-01 1.233410686254501343e-01
-7.438580000000000192e-01 -6.129949999999999566e-01 1.286859999999999948e-01 4.999101161956787109e-01 -8.558027744293212891e-01 1.330096423625946045e-01
-4.086000000000000187e-01 2.929189999999999849e-01 -3.855700000000000099e-02 -3.113220036029815674e-01 -1.224567294120788574e-01 -9.423815608024597168e-01
4.975979999999999848e-01 -7.367899999999999450e-02 4.086200000000000249e-02 2.305386960506439209e-01 9.688504934310913086e-01 -9.044725447893142700e-02
4.893179999999999752e-01 -1.215799999999999936e-01 4.877200000000000285e-02 3.304356634616851807e-01 9.431098699569702148e-01 -3.682250902056694031e-02
9.591900000000000426e-02 7.624300000000000521e-01 -2.490580000000000016e-01 9.960683584213256836e-01 -4.088714346289634705e-02 -7.858775556087493896e-02
-2.437599999999999836e-02 4.988929999999999754e-01 -1.833999999999999910e-03 1.651367694139480591e-01 -3.070608973503112793e-01 9.372531771659851074e-01
3.465909999999999824e-01 9.035549999999999971e-01 -1.208759999999999973e-01 -9.188271164894104004e-01 3.887663483619689941e-01 -6.795089691877365112e-02
-2.838209999999999900e-01 4.478690000000000171e-01 1.198219999999999980e-01 4.187731444835662842e-01 5.573013424873352051e-01 7.169688344001770020e-01
9.528200000000000003e-01 -2.624830000000000219e-01 7.257099999999999662e-02 -1.551304012537002563e-01 -9.615197777748107910e-01 2.267472892999649048e-01
-3.743239999999999901e-01 3.306370000000000142e-01 -0.000000000000000000e+00 2.607184052467346191e-01 3.170132040977478027e-01 9.118819236755371094e-01
-8.179920000000000524e-01 4.789320000000000244e-01 1.508780000000000121e-01 -8.070775866508483887e-01 -4.304887950420379639e-01 -4.041102528572082520e-01
6.344490000000000407e-01 7.584490000000000398e-01 7.257099999999999662e-02 6.257873177528381348e-01 -2.288530208170413971e-02 -7.796579003334045410e-01
1.683080000000000132e-01 -4.978799999999999892e-01 1.106410000000000032e-01 9.049413204193115234e-01 4.253833889961242676e-01 1.140803750604391098e-02
4.608650000000000246e-01 1.940089999999999870e-01 -3.436999999999999951e-03 -3.491329252719879150e-01 9.353256225585937500e-01 -5.720354244112968445e-02
1.984070000000000000e-01 8.024329999999999519e-01 2.374390000000000112e-01 9.960793852806091309e-01 1.948948018252849579e-02 8.629124611616134644e-02
3.524039999999999950e-01 7.469430000000000236e-01 -2.376870000000000094e-01 9.991067051887512207e-01 -2.992158196866512299e-02 2.984194643795490265e-02
6.675330000000000430e-01 -2.654799999999999938e-01 -2.478049999999999975e-01 9.732214808464050293e-01 2.145536430180072784e-02 -2.288659214973449707e-01
-9.862480000000000135e-01 1.579389999999999961e-01 9.590000000000000000e-04 -2.340171188116073608e-01 -9.547663331031799316e-01 1.834590733051300049e-01
-9.064990000000000547e-01 4.109769999999999812e-01 -4.079200000000000187e-02 3.246618509292602539e-01 9.262897968292236328e-01 -1.912637948989868164e-01
2.469619999999999871e-01 7.529569999999999874e-01 -2.460380000000000067e-01 9.984577894210815430e-01 -4.090274497866630554e-02 -3.753709793090820312e-02
3.124199999999999894e-02 5.450749999999999762e-01 1.449280000000000013e-01 2.804684042930603027e-01 4.566860795021057129e-01 8.442601561546325684e-01
4.889200000000000212e-01 8.411440000000000028e-01 -1.104030000000000011e-01 -8.132648468017578125e-01 5.730710029602050781e-01 -1.009451746940612793e-01
4.520520000000000094e-01 -2.343550000000000078e-01 6.737799999999999345e-02 4.913309812545776367e-01 8.680683970451354980e-01 7.107120752334594727e-02
-3.788009999999999988e-01 -3.310339999999999949e-01 -4.057999999999999802e-02 -3.409416675567626953e-01 2.320244759321212769e-01 -9.110013246536254883e-01
-2.146280000000000132e-01 7.832109999999999905e-01 -2.416649999999999909e-01 9.719390273094177246e-01 -4.486345872282981873e-02 -2.309152334928512573e-01
6.617180000000000284e-01 5.489389999999999548e-01 2.242010000000000114e-01 9.619206786155700684e-01 -2.198327034711837769e-01 -1.624257415533065796e-01
5.935660000000000380e-01 7.396549999999999514e-01 -1.510829999999999951e-01 9.179042577743530273e-01 1.836333274841308594e-01 3.517535626888275146e-01
8.724239999999999773e-01 4.341880000000000184e-01 1.072860000000000064e-01 7.191787958145141602e-01 -5.153984427452087402e-01 -4.659895896911621094e-01
9.124609999999999665e-01 3.885850000000000137e-01 6.076899999999999663e-02 6.828106045722961426e-01 -5.433661341667175293e-01 -4.883880019187927246e-01
-5.055939999999999879e-01 -2.826449999999999796e-01 -1.826200000000000045e-01 -7.504457831382751465e-01 1.544585078954696655e-01 -6.426303386688232422e-01
-4.264850000000000030e-01 2.613300000000000067e-01 -1.552899999999999940e-02 4.752595722675323486e-01 8.607527017593383789e-01 1.822993308305740356e-01
2.466849999999999876e-01 -4.615159999999999818e-01 1.047140000000000015e-01 8.595615029335021973e-01 5.102658271789550781e-01 -2.797759696841239929e-02
-7.422069999999999501e-01 6.484790000000000276e-01 -7.988199999999999468e-02 6.526210904121398926e-01 7.446901798248291016e-01 -1.397221237421035767e-01
-3.168560000000000265e-01 7.911610000000000031e-01 -2.276519999999999933e-01 9.457017779350280762e-01 -6.137698516249656677e-02 -3.191882073879241943e-01
8.749099999999999655e-01 -2.888660000000000116e-01 -1.809310000000000085e-01 7.603675723075866699e-01 -2.480754256248474121e-01 6.002496480941772461e-01
-7.383399999999999685e-02 8.201600000000000001e-01 2.388000000000000123e-01 -9.925218224525451660e-01 1.050138995051383972e-01 6.222933903336524963e-02
3.342339999999999756e-01 3.775390000000000135e-01 4.877200000000000285e-02 -4.030564725399017334e-01 5.447086095809936523e-01 7.354168891906738281e-01
2.831389999999999740e-01 7.963139999999999663e-01 2.307339999999999947e-01 9.993334412574768066e-01 3.068314492702484131e-02 1.978420279920101166e-02
3.308619999999999894e-01 3.776289999999999925e-01 -3.393700000000000189e-02 -5.626718997955322266e-01 6.216901540756225586e-01 -5.448868870735168457e-01
-9.981510000000000105e-01 -3.605000000000000131e-03 2.765499999999999903e-02 -7.920683175325393677e-02 -9.798305630683898926e-01 1.834622919559478760e-01
8.966899999999999871e-01 1.398399999999999921e-01 -1.932530000000000081e-01 -5.177783966064453125e-01 -5.628870129585266113e-01 -6.442543864250183105e-01
9.214700000000000113e-01 3.816860000000000253e-01 -3.396799999999999820e-02 6.181669831275939941e-01 -7.844882607460021973e-01 4.947552829980850220e-02
1.106500000000000018e-02 -5.000160000000000160e-01 -1.139000000000000082e-02 -3.266392648220062256e-01 4.719852283596992493e-02 -9.439698457717895508e-01
-4.239220000000000210e-01 8.724309999999999565e-01 -1.165640000000000009e-01 8.549118041992187500e-01 5.125679969787597656e-01 -7.999891042709350586e-02
-4.009789999999999743e-01 -3.185680000000000178e-01 -7.729999999999999372e-02 -4.589074552059173584e-01 2.311210483312606812e-01 -8.578968644142150879e-01
9.352819999999999467e-01 3.457080000000000153e-01 -2.800400000000000111e-02 8.126444816589355469e-01 -5.819654464721679688e-01 3.041519410908222198e-02
-3.245950000000000224e-01 5.497490000000000432e-01 2.238050000000000039e-01 -6.929476857185363770e-01 4.203086495399475098e-01 5.858021974563598633e-01
-4.414520000000000111e-01 2.359610000000000041e-01 -1.135099999999999998e-02 4.424447417259216309e-01 8.866517543792724609e-01 1.345037817955017090e-01
5.850999999999999951e-02 -5.211620000000000141e-01 1.077400000000000024e-01 5.845634639263153076e-02 9.656963944435119629e-01 2.530083954334259033e-01
8.075400000000000356e-01 -2.729449999999999932e-01 -2.273550000000000015e-01 9.578332901000976562e-01 -1.473399847745895386e-01 2.466704994440078735e-01
8.518250000000000544e-01 -4.738519999999999954e-01 1.074090000000000045e-01 -4.508173465728759766e-01 -8.831945657730102539e-01 1.293489634990692139e-01
-8.858019999999999783e-01 1.334970000000000045e-01 -2.019410000000000094e-01 -7.595462203025817871e-01 4.865537285804748535e-01 4.316885471343994141e-01
9.773589999999999778e-01 2.077289999999999970e-01 -5.146000000000000400e-03 4.170462489128112793e-01 -8.877089023590087891e-01 1.950521320104598999e-01
-7.691249999999999476e-01 -5.840790000000000148e-01 1.238770000000000010e-01 4.810423254966735840e-01 -8.669267296791076660e-01 1.305234432220458984e-01
-8.769000000000000405e-02 5.491540000000000310e-01 -1.585979999999999890e-01 3.270865380764007568e-01 -6.751834750175476074e-01 6.611669063568115234e-01
-3.949949999999999850e-01 -3.289070000000000049e-01 8.209299999999999931e-02 -5.707953572273254395e-01 8.208577632904052734e-01 1.962702162563800812e-02
-2.771440000000000015e-01 4.204879999999999729e-01 -4.168299999999999783e-02 -8.467844724655151367e-01 -5.281597375869750977e-01 -6.327214092016220093e-02
-9.832920000000000549e-01 1.774360000000000104e-01 -2.260999999999999989e-03 -2.508365213871002197e-01 -9.508268833160400391e-01 1.816847473382949829e-01
-6.556800000000000128e-02 -8.193500000000000227e-01 -2.392350000000000032e-01 8.474421501159667969e-02 -9.934698343276977539e-01 7.639438658952713013e-02
4.932400000000000118e-01 -1.041730000000000017e-01 4.589900000000000230e-02 2.427822053432464600e-01 9.641242623329162598e-01 -1.073371395468711853e-01
8.934050000000000047e-01 4.377989999999999937e-01 -4.327600000000000197e-02 5.444062352180480957e-01 -8.328513503074645996e-01 9.990292042493820190e-02
-6.668739999999999668e-01 -4.264919999999999822e-01 2.461689999999999989e-01 9.691325426101684570e-01 -8.367437869310379028e-02 2.319063991308212280e-01
-8.673290000000000166e-01 -2.784809999999999786e-01 -1.905830000000000024e-01 -7.971699833869934082e-01 -2.268889099359512329e-01 5.595010519027709961e-01
9.946120000000000516e-01 -4.732100000000000195e-02 3.704199999999999854e-02 1.305677145719528198e-01 -9.706647396087646484e-01 2.018964141607284546e-01
-9.432030000000000136e-01 -2.935010000000000119e-01 7.564600000000000490e-02 2.504131495952606201e-01 -9.399503469467163086e-01 2.319190055131912231e-01
3.709540000000000060e-01 7.459860000000000380e-01 -2.351560000000000039e-01 9.994553327560424805e-01 -2.736932784318923950e-02 1.843704469501972198e-02
-1.364360000000000017e-01 9.526210000000000511e-01 -1.295109999999999872e-01 9.464931488037109375e-01 3.226922452449798584e-01 -4.511530976742506027e-03
-9.422549999999999537e-01 3.313269999999999826e-01 -0.000000000000000000e+00 -5.556925535202026367e-01 -2.094393223524093628e-01 -8.045750260353088379e-01
3.984989999999999921e-01 -8.441440000000000055e-01 1.681410000000000127e-01 -8.965628147125244141e-01 -4.362290501594543457e-01 7.667623460292816162e-02
6.579690000000000261e-01 9.904000000000000303e-02 -2.352110000000000034e-01 -9.400044679641723633e-01 2.758269608020782471e-01 2.007759511470794678e-01
9.363200000000000411e-01 -3.462589999999999835e-01 -1.137699999999999996e-02 5.337249115109443665e-02 -3.886838257312774658e-01 9.198240041732788086e-01
9.790720000000000534e-01 -1.617220000000000046e-01 5.593999999999999667e-02 -5.173071473836898804e-02 -9.784855842590332031e-01 1.997246444225311279e-01
3.625000000000000184e-03 9.706979999999999498e-01 1.170130000000000059e-01 3.502555489540100098e-01 -3.370761573314666748e-01 8.738996982574462891e-01
8.634760000000000213e-01 -3.991060000000000163e-01 1.463180000000000036e-01 -4.689221084117889404e-01 -2.093742489814758301e-01 8.580643534660339355e-01
9.972250000000000281e-01 -1.183000000000000024e-02 3.117699999999999985e-02 7.283804565668106079e-02 -9.799671769142150879e-01 1.853618025779724121e-01
3.670959999999999779e-01 3.393269999999999897e-01 9.794000000000000622e-03 -3.554191291332244873e-01 4.941848218441009521e-01 7.933842539787292480e-01
1.137110000000000065e-01 -8.707260000000000000e-01 2.137689999999999868e-01 1.299243420362472534e-01 7.143345475196838379e-01 6.876378655433654785e-01
4.268299999999999872e-02 5.711260000000000225e-01 1.767769999999999897e-01 2.435376495122909546e-01 5.881451368331909180e-01 7.712163925170898438e-01
-8.421579999999999622e-01 -4.893170000000000019e-01 1.081310000000000049e-01 2.864123284816741943e-01 -9.512888193130493164e-01 1.140945330262184143e-01
-0.000000000000000000e+00 5.079590000000000494e-01 6.136699999999999794e-02 3.074841201305389404e-01 8.226502686738967896e-02 9.479905366897583008e-01
1.213950000000000029e-01 -8.125630000000000353e-01 2.392350000000000032e-01 7.904028147459030151e-02 9.153286814689636230e-01 3.948747813701629639e-01
-4.496620000000000061e-01 2.182699999999999918e-01 -8.434999999999999790e-03 3.991251289844512939e-01 9.168236255645751953e-01 -1.155926473438739777e-02
-2.597400000000000056e-02 9.946620000000000461e-01 4.377500000000000141e-02 3.609274923801422119e-01 -5.977647379040718079e-02 9.306761622428894043e-01
-9.879930000000000101e-01 -1.163030000000000036e-01 4.629899999999999988e-02 3.544415906071662903e-02 -9.804932475090026855e-01 1.933303326368331909e-01
5.467999999999999770e-03 -5.281240000000000379e-01 1.154649999999999982e-01 8.779374882578849792e-03 6.592122912406921387e-01 7.519055604934692383e-01
-3.538250000000000006e-01 3.550119999999999942e-01 2.491600000000000065e-02 3.947451412677764893e-01 4.703459739685058594e-01 7.892723679542541504e-01
2.617889999999999939e-01 9.291479999999999739e-01 -1.251990000000000047e-01 -9.519906044006347656e-01 3.010624051094055176e-01 -5.545552074909210205e-02
3.987519999999999953e-01 -3.217439999999999745e-01 -7.759099999999999331e-02 4.631303846836090088e-01 2.317641526460647583e-01 -8.554505705833435059e-01
4.969500000000000306e-02 8.589299999999999713e-01 2.235439999999999927e-01 2.294688522815704346e-01 -7.281160950660705566e-01 6.459032297134399414e-01
7.633750000000000258e-01 5.100710000000000521e-01 1.846379999999999966e-01 9.236993193626403809e-01 -3.076925575733184814e-01 -2.282652109861373901e-01
9.216180000000000483e-01 3.754020000000000135e-01 4.731899999999999995e-02 6.394803524017333984e-01 -5.652552247047424316e-01 -5.211060047149658203e-01
2.729559999999999764e-01 4.910450000000000093e-01 1.646019999999999983e-01 -7.259745895862579346e-02 6.254886984825134277e-01 7.768483757972717285e-01
4.362969999999999904e-01 7.429299999999999793e-01 -2.229760000000000075e-01 9.938702583312988281e-01 -1.121686585247516632e-02 1.099817678332328796e-01
4.749349999999999961e-01 -1.759229999999999960e-01 5.774200000000000166e-02 3.523459136486053467e-01 9.322723150253295898e-01 -8.197988569736480713e-02
9.755120000000000458e-01 -1.804489999999999983e-01 5.903200000000000114e-02 -1.115138977766036987e-01 -9.759566783905029297e-01 1.872783899307250977e-01
4.892099999999999782e-01 -8.022920000000000051e-01 1.613189999999999902e-01 -8.471493721008300781e-01 -5.237722396850585938e-01 8.944576233625411987e-02
-3.068420000000000036e-01 4.125219999999999998e-01 8.369999999999999662e-02 4.622056782245635986e-01 5.224909186363220215e-01 7.164977788925170898e-01
3.714699999999999946e-02 5.573230000000000128e-01 1.612460000000000004e-01 2.624810636043548584e-01 5.005183815956115723e-01 8.249757885932922363e-01
7.461839999999999584e-01 -2.664059999999999762e-01 -2.460120000000000084e-01 9.974255561828613281e-01 -7.028509676456451416e-02 1.422381028532981873e-02
-7.929749999999999854e-01 -5.565250000000000474e-01 1.192959999999999993e-01 3.777926862239837646e-01 -9.171506166458129883e-01 1.269152760505676270e-01
5.276999999999999746e-02 -9.930489999999999595e-01 4.577200000000000019e-02 3.618869483470916748e-01 6.090816482901573181e-02 9.302300810813903809e-01
-4.729459999999999775e-01 2.255359999999999865e-01 -1.074449999999999988e-01 -5.530354976654052734e-01 -5.014263987541198730e-01 -6.653745174407958984e-01
6.567169999999999952e-01 7.516650000000000276e-01 1.680500000000000049e-02 3.883516490459442139e-01 5.753370001912117004e-02 -9.197134375572204590e-01
7.033009999999999540e-01 -6.507760000000000211e-01 1.365000000000000102e-01 -6.571175456047058105e-01 -7.440299391746520996e-01 1.208958551287651062e-01
4.944540000000000046e-01 -2.887089999999999934e-01 -1.767769999999999897e-01 7.609120607376098633e-01 1.738717705011367798e-01 -6.251250505447387695e-01
-6.286370000000000013e-01 -2.627240000000000131e-01 -2.402380000000000071e-01 -9.221022129058837891e-01 5.633892863988876343e-02 -3.828229904174804688e-01
-2.634219999999999895e-01 7.868730000000000446e-01 -2.363550000000000095e-01 9.602420330047607422e-01 -5.339609831571578979e-02 -2.740145623683929443e-01
-6.217500000000000110e-02 5.153839999999999533e-01 -9.678000000000000491e-02 4.575311243534088135e-01 -5.809566974639892578e-01 6.731675863265991211e-01
2.711399999999999921e-02 9.289939999999999864e-01 1.728609999999999869e-01 3.097178637981414795e-01 -5.806804895401000977e-01 7.529176473617553711e-01
3.873900000000000121e-01 8.886910000000000087e-01 -1.183730000000000060e-01 -8.748785853385925293e-01 4.774433970451354980e-01 -8.145667612552642822e-02
-9.049599999999999311e-02 -9.188209999999999988e-01 1.799580000000000068e-01 -9.981728792190551758e-01 -4.070168361067771912e-02 4.465741291642189026e-02
6.433410000000000517e-01 7.562189999999999745e-01 5.530600000000000099e-02 5.569065213203430176e-01 4.285739269107580185e-04 -8.305750489234924316e-01
-2.906920000000000059e-01 5.286640000000000228e-01 2.023169999999999968e-01 -4.068704545497894287e-01 5.557313561439514160e-01 7.249959111213684082e-01
9.247450000000000392e-01 1.713149999999999951e-01 -1.610769999999999980e-01 -3.053511679172515869e-01 -6.179510951042175293e-01 -7.244977951049804688e-01
1.228910000000000002e-01 -7.472969999999999891e-01 2.495989999999999875e-01 -1.867705397307872772e-02 9.933473467826843262e-01 1.136321648955345154e-01
2.009440000000000115e-01 7.557859999999999578e-01 -2.475499999999999923e-01 9.978946447372436523e-01 -4.244866222143173218e-02 -4.903528094291687012e-02
-3.158219999999999916e-01 4.005730000000000124e-01 7.148599999999999399e-02 4.525852203369140625e-01 5.273410677909851074e-01 7.190813422203063965e-01
-7.947530000000000427e-01 4.936530000000000085e-01 1.659400000000000042e-01 -8.240836262702941895e-01 -4.127216041088104248e-01 -3.880038559436798096e-01
3.067340000000000066e-01 3.981319999999999859e-01 -3.735299999999999732e-02 -7.256275415420532227e-01 6.204797625541687012e-01 -2.974384725093841553e-01
8.619930000000000092e-01 -2.846609999999999974e-01 -1.932530000000000081e-01 8.139563202857971191e-01 -2.294476032257080078e-01 5.336937308311462402e-01
8.428799999999999626e-01 -2.796569999999999889e-01 -2.078669999999999962e-01 8.878555893898010254e-01 -1.985017359256744385e-01 4.151017665863037109e-01
-2.735879999999999979e-01 4.731349999999999723e-01 1.456340000000000134e-01 2.976391911506652832e-01 5.917756557464599609e-01 7.491411566734313965e-01
-8.353660000000000529e-01 4.672149999999999914e-01 1.388919999999999877e-01 -7.700189352035522461e-01 -4.613088965415954590e-01 -4.407550394535064697e-01
9.121129999999999516e-01 -3.061180000000000012e-01 -1.301910000000000012e-01 5.799387097358703613e-01 -3.125212192535400391e-01 7.523307204246520996e-01
3.808380000000000098e-01 7.885090000000000154e-01 2.151820000000000122e-01 9.925163984298706055e-01 -6.355168297886848450e-03 -1.219455301761627197e-01
-5.424849999999999950e-01 1.645610000000000128e-01 -1.697950000000000015e-01 -6.351352334022521973e-01 -4.817678332328796387e-01 -6.037407517433166504e-01
3.260700000000000265e-01 3.888269999999999782e-01 6.028900000000000231e-02 -4.362149536609649658e-01 5.613535046577453613e-01 7.032772302627563477e-01
-5.973309999999999453e-01 1.273430000000000117e-01 -2.078679999999999972e-01 -7.222143411636352539e-01 -4.356631338596343994e-01 -5.372189283370971680e-01
7.242400000000000226e-02 5.004229999999999512e-01 -5.451999999999999902e-02 -9.806247949600219727e-01 1.325818151235580444e-01 -1.442118883132934570e-01
4.840670000000000250e-01 -1.468399999999999983e-01 5.294299999999999701e-02 3.135835528373718262e-01 9.483183026313781738e-01 -4.855563119053840637e-02
4.228060000000000151e-01 2.775070000000000037e-01 -5.326399999999999885e-02 -5.364963412284851074e-01 7.105473875999450684e-01 4.552956521511077881e-01
-7.415540000000000465e-01 -4.199039999999999995e-01 2.275260000000000060e-01 8.995621204376220703e-01 -1.388442069292068481e-01 4.141379892826080322e-01
5.531660000000000466e-01 5.701899999999999746e-01 2.457670000000000132e-01 9.970364570617675781e-01 -7.514620572328567505e-02 1.647582091391086578e-02
-5.009190000000000031e-01 -3.022599999999999940e-02 3.259599999999999997e-02 -9.023345261812210083e-02 9.882144927978515625e-01 -1.236529648303985596e-01
-3.234890000000000265e-01 -8.720090000000000341e-01 1.719660000000000077e-01 -9.901630282402038574e-01 1.399158686399459839e-01 -7.875202572904527187e-04
-6.144800000000000262e-02 -6.073800000000000310e-01 -2.074600000000000055e-01 -2.003832310438156128e-01 -7.290498018264770508e-01 -6.544713973999023438e-01
4.703419999999999823e-01 8.513399999999999856e-01 -1.121090000000000003e-01 -8.323748111724853516e-01 5.463177561759948730e-01 -9.321521222591400146e-02
7.541550000000000198e-01 -5.999659999999999993e-01 1.281549999999999911e-01 -5.742982625961303711e-01 -8.083713650703430176e-01 1.292952448129653931e-01
9.917639999999999789e-01 -8.599400000000000099e-02 4.343299999999999939e-02 7.020486146211624146e-02 -9.777251482009887695e-01 1.978000253438949585e-01
2.626249999999999973e-01 -4.510149999999999992e-01 1.029950000000000032e-01 8.373321294784545898e-01 5.434871315956115723e-01 -5.913358926773071289e-02
3.245040000000000147e-01 -8.711130000000000262e-01 1.725200000000000067e-01 -9.313908219337463379e-01 -3.579511344432830811e-01 6.619868427515029907e-02
6.081280000000000019e-01 7.398679999999999701e-01 -1.390460000000000029e-01 9.201846122741699219e-01 3.772127032279968262e-01 1.047419607639312744e-01
-6.481099999999999639e-01 7.356399999999999606e-01 -9.419099999999999695e-02 7.031401991844177246e-01 6.963104009628295898e-01 -1.440332978963851929e-01
-1.991179999999999894e-01 9.431119999999999504e-01 -1.280080000000000107e-01 9.471369981765747070e-01 3.167100250720977783e-01 -5.124649032950401306e-02
-6.155190000000000383e-01 -7.248919999999999808e-01 1.473250000000000115e-01 7.094683051109313965e-01 -6.939715147018432617e-01 1.227117702364921570e-01
-3.849020000000000219e-01 -8.503910000000000080e-01 1.683250000000000024e-01 -9.659467935562133789e-01 2.575590312480926514e-01 -2.470321580767631531e-02
3.614829999999999988e-01 7.901510000000000478e-01 2.192570000000000074e-01 9.953461289405822754e-01 9.605574421584606171e-03 -9.588346630334854126e-02
2.401199999999999862e-02 -9.970790000000000486e-01 -2.812500000000000069e-02 3.656014502048492432e-01 -2.157870680093765259e-01 9.054123759269714355e-01
-6.456709999999999949e-01 -4.274649999999999839e-01 2.487959999999999894e-01 9.857029318809509277e-01 -5.876800417900085449e-02 1.579117923974990845e-01
-9.792910000000000226e-01 -1.633920000000000095e-01 5.409400000000000319e-02 8.938249945640563965e-02 -9.775183200836181641e-01 1.909676790237426758e-01
7.266409999999999814e-01 -2.653880000000000128e-01 -2.487959999999999894e-01 9.990500211715698242e-01 -4.135499522089958191e-02 -1.374152209609746933e-02
-8.476559999999999651e-01 -3.983050000000000201e-01 1.647260000000000113e-01 6.393087506294250488e-01 -2.276410609483718872e-01 7.344820499420166016e-01
8.621189999999999687e-01 -4.586120000000000196e-01 1.049009999999999942e-01 -3.740354776382446289e-01 -9.182493090629577637e-01 1.300603747367858887e-01
-8.972210000000000463e-01 -3.969869999999999788e-01 9.280499999999999861e-02 -7.914739102125167847e-02 -9.949776530265808105e-01 6.127917766571044922e-02
-4.885860000000000203e-01 -2.869030000000000191e-01 -1.701920000000000099e-01 -7.265098094940185547e-01 1.652802079916000366e-01 -6.669826507568359375e-01
4.313279999999999892e-01 8.696530000000000094e-01 -1.151790000000000036e-01 -8.785915374755859375e-01 4.708235263824462891e-01 -8.001358062028884888e-02
-4.798209999999999975e-01 -1.594830000000000136e-01 5.398900000000000227e-02 -3.576677739620208740e-01 9.293258786201477051e-01 -9.179951995611190796e-02
3.705189999999999872e-01 3.372229999999999950e-01 -2.721300000000000108e-02 -5.018182396888732910e-01 7.026795148849487305e-01 -5.044006705284118652e-01
1.915700000000000042e-02 -4.995180000000000176e-01 9.339000000000000079e-03 -3.081929981708526611e-01 1.882429271936416626e-01 -9.325137138366699219e-01
-7.013099999999999890e-02 -7.820780000000000509e-01 -2.471619999999999928e-01 2.225427329540252686e-02 -9.954758882522583008e-01 -9.237159043550491333e-02
6.329360000000000541e-01 -4.328210000000000113e-01 2.491579999999999906e-01 -9.771251678466796875e-01 -5.820878967642784119e-02 2.045437395572662354e-01
-6.092389999999999750e-01 7.659500000000000197e-01 -9.915999999999999814e-02 7.638305425643920898e-01 6.283503174781799316e-01 -1.474410444498062134e-01
-6.870700000000000418e-02 -6.487709999999999866e-01 -2.301600000000000035e-01 -1.366711705923080444e-01 -8.664736747741699219e-01 -4.801504909992218018e-01
2.238839999999999997e-01 -4.733049999999999757e-01 1.066379999999999967e-01 8.827195763587951660e-01 4.690969288349151611e-01 -2.746422216296195984e-02
-1.210600000000000009e-01 7.766560000000000130e-01 -2.469480000000000008e-01 7.113570570945739746e-01 -5.729151368141174316e-01 -4.071109890937805176e-01
-5.278030000000000221e-01 1.755079999999999973e-01 -1.585979999999999890e-01 -5.966395735740661621e-01 -4.637020230293273926e-01 -6.549821496009826660e-01
-3.555389999999999939e-01 -3.533220000000000249e-01 2.527300000000000033e-02 3.220287337899208069e-02 2.552482783794403076e-01 -9.663391113281250000e-01
-3.446500000000000258e-02 -9.304240000000000288e-01 -1.708840000000000081e-01 2.674396038055419922e-01 -7.628632783889770508e-01 5.886559486389160156e-01
5.020379999999999843e-01 7.405610000000000248e-01 -2.033629999999999882e-01 9.657968282699584961e-01 2.209145575761795044e-03 2.592905461788177490e-01
-9.287090000000000067e-01 3.620050000000000212e-01 -3.271899999999999809e-02 2.566567994654178619e-02 9.934152960777282715e-01 -1.116568520665168762e-01
-9.248629999999999907e-01 -3.610280000000000156e-01 5.505299999999999777e-02 9.497722238302230835e-02 -4.591547846794128418e-01 8.832644820213317871e-01
4.388619999999999743e-01 -4.167839999999999878e-01 2.039320000000000022e-01 -8.940367698669433594e-01 1.588740944862365723e-01 -4.188761413097381592e-01
6.128820000000000379e-01 -2.690540000000000154e-01 -2.365339999999999943e-01 9.324315190315246582e-01 7.295605540275573730e-02 -3.539051115512847900e-01
-5.558799999999999852e-02 -5.250070000000000014e-01 1.148840000000000000e-01 8.944385051727294922e-01 8.368926495313644409e-02 4.392901659011840820e-01
-3.217140000000000000e-01 8.328780000000000072e-01 2.043389999999999929e-01 -9.808270335197448730e-01 1.115412637591362000e-01 -1.598025560379028320e-01
-5.043600000000000305e-01 8.351189999999999447e-01 1.045419999999999960e-01 -7.532257437705993652e-01 4.233622178435325623e-02 -6.563981771469116211e-01
-4.721259999999999901e-01 8.498440000000000438e-01 -1.128819999999999962e-01 7.679007649421691895e-01 6.326689124107360840e-01 -1.002924665808677673e-01
7.662750000000000394e-01 -4.221849999999999770e-01 2.159800000000000053e-01 -8.319298624992370605e-01 -1.535926759243011475e-01 5.331997871398925781e-01
-5.742900000000000088e-02 -5.917780000000000262e-01 -1.956249999999999933e-01 -2.214978039264678955e-01 -6.912462115287780762e-01 -6.878353357315063477e-01
7.447660000000000391e-01 8.445099999999999829e-02 -2.500000000000000000e-01 -9.881849884986877441e-01 -5.455386266112327576e-02 -1.432285159826278687e-01
2.424709999999999921e-01 7.993209999999999482e-01 2.346850000000000047e-01 9.976557493209838867e-01 3.285964950919151306e-02 6.002668291330337524e-02
2.829200000000000048e-01 5.190909999999999691e-01 1.932520000000000071e-01 3.616415560245513916e-01 5.927278995513916016e-01 7.196450829505920410e-01
3.538240000000000274e-01 -3.810629999999999851e-01 9.896800000000000042e-02 -3.497569561004638672e-01 7.996678948402404785e-01 -4.880586564540863037e-01
-4.058220000000000161e-01 8.803199999999999914e-01 -1.178489999999999954e-01 8.690170645713806152e-01 4.888906180858612061e-01 -7.612675428390502930e-02
-3.237600000000000200e-02 7.707370000000000054e-01 -2.489030000000000131e-01 9.931105971336364746e-01 -3.751876205205917358e-02 -1.110115796327590942e-01
4.591839999999999811e-01 -2.176659999999999984e-01 6.462600000000000289e-02 4.277431368827819824e-01 9.002432823181152344e-01 -8.122751116752624512e-02
1.559929999999999928e-01 4.803020000000000067e-01 -5.110300000000000259e-02 -9.369477033615112305e-01 3.228782713413238525e-01 -1.337105929851531982e-01
-3.056999999999999822e-03 -9.808200000000000252e-01 -9.567100000000000604e-02 3.398341238498687744e-01 -4.800390005111694336e-01 8.087491989135742188e-01
9.973950000000000315e-01 2.852999999999999980e-02 2.450400000000000147e-02 1.537773162126541138e-01 -9.709212779998779297e-01 1.834786087274551392e-01
6.858149999999999524e-01 -2.650480000000000058e-01 -2.493080000000000018e-01 9.819761514663696289e-01 2.521559945307672024e-04 -1.890045404434204102e-01
9.844530000000000225e-01 -1.334140000000000048e-01 5.126499999999999807e-02 -9.013356268405914307e-02 -9.785372018814086914e-01 1.853126138448715210e-01
-4.739720000000000044e-01 -2.908709999999999907e-01 -1.585979999999999890e-01 -6.934811472892761230e-01 1.796433180570602417e-01 -6.977192163467407227e-01
6.241659999999999986e-01 7.605480000000000018e-01 8.754199999999999482e-02 7.150398492813110352e-01 -3.159829229116439819e-02 -6.983692049980163574e-01
-5.923929999999999474e-01 -2.666370000000000129e-01 -2.290649999999999908e-01 -8.814187049865722656e-01 8.029330521821975708e-02 -4.654610157012939453e-01
-8.245200000000000307e-01 -2.685810000000000142e-01 -2.204800000000000093e-01 -9.207854270935058594e-01 -1.636905670166015625e-01 3.540614545345306396e-01
1.128610000000000030e-01 -5.147720000000000073e-01 1.133740000000000026e-01 5.941706299781799316e-01 7.760062813758850098e-01 2.116022109985351562e-01
3.472950000000000204e-01 3.626679999999999904e-01 3.360400000000000192e-02 -4.278071820735931396e-01 5.021912455558776855e-01 7.515217065811157227e-01
6.578129999999999811e-01 7.453089999999999993e-01 -4.877299999999999691e-02 2.541064023971557617e-01 4.673385918140411377e-01 -8.467730283737182617e-01
9.635340000000000016e-01 2.611359999999999792e-01 -1.399099999999999996e-02 5.945906639099121094e-01 -7.699546217918395996e-01 2.315856814384460449e-01
-9.063620000000000010e-01 3.974840000000000040e-01 6.759999999999999343e-02 -5.842716097831726074e-01 -5.831420421600341797e-01 -5.644217729568481445e-01
-1.916199999999999848e-02 9.912320000000000020e-01 6.083800000000000319e-02 3.608207106590270996e-01 -1.126950308680534363e-01 9.258014559745788574e-01
5.240420000000000078e-01 1.778619999999999923e-01 -1.548879999999999979e-01 -6.730816364288330078e-01 5.564653277397155762e-01 4.871420562267303467e-01
1.338739999999999930e-01 7.599920000000000009e-01 -2.489030000000000131e-01 9.955265522003173828e-01 -3.949914127588272095e-02 -8.582887798547744751e-02
-8.773379999999999512e-01 4.689470000000000027e-01 -5.034500000000000086e-02 4.294847846031188965e-01 8.869015574455261230e-01 -1.701427996158599854e-01
8.727799999999999447e-02 -5.658509999999999929e-01 1.767769999999999897e-01 -3.545817434787750244e-01 8.078403472900390625e-01 -4.708139598369598389e-01
-3.402950000000000141e-01 8.335869999999999669e-01 1.991960000000000119e-01 -9.763773679733276367e-01 1.031917333602905273e-01 -1.898384839296340942e-01
5.750199999999999756e-02 6.293260000000000520e-01 2.204800000000000093e-01 1.571376770734786987e-01 7.880519628524780273e-01 5.952157974243164062e-01
-3.798389999999999822e-01 8.347470000000000168e-01 1.846319999999999906e-01 -9.551568627357482910e-01 1.035686507821083069e-01 -2.773965895175933838e-01
4.105349999999999833e-01 -3.068989999999999774e-01 7.932699999999999474e-02 4.654007554054260254e-01 8.825843930244445801e-01 6.668554246425628662e-02
5.545940000000000314e-01 -2.766080000000000205e-01 -2.134119999999999906e-01 8.508012890815734863e-01 1.293174475431442261e-01 -5.093271136283874512e-01
-9.919430000000000192e-01 1.173109999999999986e-01 7.669999999999999735e-03 -2.280202507972717285e-01 -9.571319818496704102e-01 1.786198765039443970e-01
-4.186599999999999766e-01 2.822049999999999836e-01 -4.951099999999999945e-02 -4.114364683628082275e-01 -2.524724006652832031e-01 -8.757726550102233887e-01
3.852860000000000174e-01 -4.012870000000000048e-01 1.585979999999999890e-01 -6.932705640792846680e-01 3.149863183498382568e-01 -6.481970548629760742e-01
-5.230200000000000127e-02 -8.803480000000000194e-01 -2.114489999999999981e-01 1.864711344242095947e-01 -9.145472049713134766e-01 3.589315712451934814e-01
7.627180000000000071e-01 6.284760000000000346e-01 -7.494399999999999673e-02 7.809574007987976074e-01 -6.221748590469360352e-01 5.480897426605224609e-02
-9.321180000000000021e-01 1.854099999999999915e-01 -1.489890000000000103e-01 -4.727773070335388184e-01 6.501441001892089844e-01 5.948061347007751465e-01
-9.451720000000000121e-01 2.159210000000000018e-01 -1.178489999999999954e-01 -3.317861258983612061e-01 6.990615129470825195e-01 6.334279775619506836e-01
-1.199360000000000009e-01 8.797449999999999992e-01 -2.078669999999999962e-01 -1.762856841087341309e-01 -7.299290299415588379e-01 -6.603991389274597168e-01
4.430330000000000101e-01 2.324430000000000107e-01 -9.811000000000000276e-03 -4.130519628524780273e-01 9.103519320487976074e-01 2.544416300952434540e-02
-9.362319999999999531e-01 -3.464300000000000157e-01 1.187700000000000040e-02 3.665992990136146545e-02 -3.983731567859649658e-01 9.164905548095703125e-01
5.733960000000000168e-01 -2.736709999999999976e-01 -2.223569999999999991e-01 8.657922148704528809e-01 1.086015105247497559e-01 -4.884767830371856689e-01
7.254709999999999770e-01 6.662289999999999601e-01 -8.122600000000000653e-02 8.438838720321655273e-01 -5.361087322235107422e-01 2.115397155284881592e-02
9.511100000000000110e-01 2.353359999999999896e-01 -9.567100000000000604e-02 6.660050153732299805e-02 -6.145684123039245605e-01 -7.860470414161682129e-01
9.958300000000000485e-02 -5.983300000000000285e-01 2.049670000000000103e-01 -2.651159167289733887e-01 8.457643985748291016e-01 -4.630293548107147217e-01
-3.470349999999999824e-01 3.626210000000000266e-01 -3.219000000000000333e-02 -7.208031415939331055e-01 -6.363043189048767090e-01 -2.748813033103942871e-01
-4.824800000000000200e-01 -8.066719999999999446e-01 1.609909999999999952e-01 -9.986656308174133301e-01 3.463669121265411377e-02 3.830437362194061279e-02
-9.536080000000000112e-01 2.784579999999999833e-01 -5.400100000000000039e-02 -2.820536494255065918e-01 8.186004161834716797e-01 5.003390312194824219e-01
1.445869999999999933e-01 -9.118049999999999766e-01 1.790529999999999899e-01 -9.163596034049987793e-01 -3.393254578113555908e-01 2.124698907136917114e-01
4.521530000000000271e-01 -3.008430000000000271e-01 -1.402549999999999908e-01 6.552981734275817871e-01 1.989631205797195435e-01 -7.286960482597351074e-01
4.039229999999999765e-01 -4.077489999999999726e-01 1.775460000000000094e-01 -7.837855219841003418e-01 2.460335344076156616e-01 -5.702172517776489258e-01
-9.690349999999999797e-01 2.394739999999999924e-01 -1.250300000000000022e-02 -4.616760313510894775e-01 -8.616817593574523926e-01 2.106175571680068970e-01
-9.388520000000000199e-01 -3.254659999999999775e-01 -5.029700000000000143e-02 -2.160132080316543579e-01 -3.673026859760284424e-01 9.046695828437805176e-01
5.555210000000000425e-01 7.707730000000000414e-01 1.479360000000000119e-01 8.828123211860656738e-01 -2.240709587931632996e-02 -4.691911041736602783e-01
-8.961209999999999454e-01 4.317320000000000046e-01 -4.421200000000000130e-02 3.704794049263000488e-01 9.110540151596069336e-01 -1.809022277593612671e-01
3.363940000000000263e-01 -3.937640000000000029e-01 9.360899999999999777e-02 1.642816066741943359e-01 9.755073785781860352e-01 -1.462768465280532837e-01
-1.918930000000000080e-01 8.268560000000000354e-01 2.290520000000000056e-01 -9.922257661819458008e-01 1.219922974705696106e-01 -2.461178973317146301e-02
9.149350000000000538e-01 -3.747770000000000268e-01 7.350399999999999989e-02 -1.599271148443222046e-01 -2.088198065757751465e-01 9.647889137268066406e-01
-3.317300000000000249e-01 -3.979779999999999984e-01 9.358199999999999852e-02 9.929658174514770508e-01 7.521802932024002075e-02 9.143936634063720703e-02
-7.037170000000000369e-01 -4.240050000000000208e-01 2.392350000000000032e-01 9.386744499206542969e-01 -1.129181459546089172e-01 3.257911205291748047e-01
-6.961000000000000174e-03 -5.068080000000000362e-01 -5.813700000000000118e-02 -3.292072415351867676e-01 -1.365185081958770752e-01 -9.343368411064147949e-01
-7.236569999999999947e-01 -4.219840000000000257e-01 2.334799999999999931e-01 9.183940887451171875e-01 -1.262153983116149902e-01 3.749958574771881104e-01
4.214089999999999780e-01 -3.116570000000000173e-01 -1.077970000000000039e-01 5.674782395362854004e-01 2.152547985315322876e-01 -7.947538495063781738e-01
-1.295280000000000042e-01 8.113559999999999661e-01 -2.392350000000000032e-01 -1.833577752113342285e-01 -8.613535165786743164e-01 -4.737616181373596191e-01
6.749579999999999469e-01 7.137440000000000451e-01 -8.913699999999999402e-02 9.581834673881530762e-01 1.932070553302764893e-01 -2.110819667577743530e-01
3.161599999999999966e-01 7.489109999999999934e-01 -2.415920000000000012e-01 9.993346333503723145e-01 -3.608534485101699829e-02 -5.304649937897920609e-03
-4.269490000000000229e-01 -2.810889999999999778e-01 7.415299999999999669e-02 -5.484671592712402344e-01 8.361660838127136230e-01 3.179940162226557732e-03
