0.43234092 0.13604161 0.60852534 -0.00093249 -0.01044396 0.02794891
0.38549721 0.30309987 0.53984845 0.00724256 0.01085169 0.00596235
0.37847307 0.70007724 0.50323349 0.00793891 -0.01009574 0.00066437
0.28999129 0.10402629 0.51351100 -0.01201673 -0.03143881 0.00168901
0.74658531 0.80316752 0.39316061 0.01031154 0.00829329 -0.02716468
0.22778650 0.46072000 0.59453559 0.00455346 -0.00022558 0.01979011
0.79278702 0.30483609 0.38629374 0.00947301 -0.00378853 -0.02357693
0.90228361 0.72650522 0.51568526 0.02609396 0.01792341 0.00319317
0.49299443 0.13646917 0.38950929 -0.00153083 -0.00707315 -0.02868068
0.82764930 0.63803667 0.61391973 0.00175634 -0.00103253 0.02898042
0.07925001 0.66428256 0.53541917 -0.02932973 0.01147616 0.01082475
0.13096820 0.58581364 0.39181620 -0.00802010 0.00385896 -0.02890762
0.19926700 0.63244605 0.61314100 0.00072343 0.00014434 0.02621743
0.84613442 0.21750157 0.53884441 0.02674215 -0.01992694 0.00436851
0.95454544 0.55280894 0.52451110 0.03263495 0.00115418 0.00835820
0.17841959 0.19885959 0.45506072 -0.01984363 -0.02388383 -0.01427388
0.73988032 0.89435911 0.52572578 0.02086619 0.02365881 0.00752506
0.66940445 0.23355314 0.38771954 -0.00272704 -0.00283426 -0.02306915
0.14373609 0.79061222 0.50609624 -0.02481965 0.02216224 -0.00034036
0.70761722 0.40724087 0.50577772 -0.01058022 0.00750101 0.00157672
0.30186704 0.20929267 0.61293477 -0.00692869 -0.00034793 0.02884755
0.29840142 0.39534727 0.46904388 0.01149219 0.00509871 -0.00752854
0.60455990 0.78522420 0.39589599 -0.00676031 -0.00356542 -0.02019839
0.21951403 0.70346797 0.38571620 -0.00248571 0.00041498 -0.02555420
0.65430677 0.74691135 0.59748864 -0.00189237 -0.00617389 0.01994506
0.54467613 0.27098209 0.44885886 -0.00333408 0.01380639 -0.00753468
0.04545452 0.51355159 0.50337732 -0.03159066 0.00124255 0.00606594
0.60608900 0.94237429 0.54650205 0.00271684 0.02982367 0.00952260
0.87737656 0.61115468 0.39565271 0.01168145 0.00571428 -0.02699245
0.44193262 0.94902164 0.54962432 -0.00376836 0.02930156 0.01543873
0.28937352 0.83642060 0.39674878 -0.00890494 0.01068702 -0.02688754
0.71271116 0.63892329 0.43610010 -0.00865591 -0.00837665 -0.01065474
0.51853782 0.84093529 0.61385113 -0.00180484 -0.00410077 0.02764152
0.50015384 0.05097835 0.50578189 -0.00094442 -0.03423090 0.00273142
0.79356068 0.32807964 0.61428374 0.00119128 0.00473350 0.02647519
0.45609975 0.90067214 0.39867434 0.00203977 0.01473315 -0.02557178
0.88246274 0.46840283 0.39279661 0.01169877 -0.00420351 -0.02507362
0.55056858 0.23476948 0.59363157 0.00026163 0.00824012 0.01735283
0.26903915 0.80272484 0.60934061 -0.00446058 0.00555522 0.02889253
0.52517509 0.73577315 0.50909454 -0.00407302 -0.01298307 0.00073076
0.68074429 0.08718273 0.49736053 0.01234396 -0.02934767 -0.00486120
0.10919800 0.29072291 0.54160517 -0.02388604 -0.01390504 0.02079384
0.93884188 0.37938765 0.52112746 0.02964626 -0.00951883 0.00498234
0.30146328 0.23200621 0.38572812 0.00243237 -0.00237876 -0.02704381
0.29599202 0.91347116 0.51997453 -0.01659428 0.03030777 0.00565054
0.77270871 0.50785911 0.58834779 -0.01265950 -0.00232949 0.01367679
0.86053795 0.47061950 0.61283827 0.00514788 0.00037340 0.02834826
0.71836948 0.17768615 0.60177964 0.00513712 -0.00982603 0.02969258
0.27247921 0.58060259 0.44814277 0.01343919 -0.00414801 -0.00903598
0.09431934 0.38177413 0.42280221 -0.01851315 -0.00559182 -0.02521045
