27.0738 64.533 14.6015 0.825442 0.524837 0.207825
44.4882 65.3907 -4.08296 -0.0693596 0.977289 0.200236
-41.2754 65.5307 -3.83766 -0.302037 0.952265 0.0443346
-40.8466 65.6317 -3.83766 -0.30033 0.953817 0.00596159
-31.4126 65.7682 -3.83766 0.0425162 0.862889 -0.503602
-30.9838 65.6806 -3.83766 -0.0242314 0.83879 -0.543915
20.9032 39.3701 22.7491 0.541493 -0.826349 0.154702
23.2446 65.8195 -3.83766 0.872795 0.272946 -0.404634
-37.8449 65.982 -3.83766 -0.20488 0.917063 -0.342083
-37.4161 66.1365 -3.83766 -0.21463 0.91661 -0.337283
-32.2702 65.8735 -3.83766 0.0047174 0.868497 -0.495672
-20.4374 40.0904 22.7491 -0.571044 -0.761 0.307877
-36.9872 66.2977 -3.83766 -0.218443 0.937164 -0.27204
-36.5584 66.3546 -3.83766 -0.19223 0.944045 -0.268005
45.7747 66.6771 -3.99752 -0.182279 0.771812 0.609163
-20.6922 40.407 22.7491 -0.396993 -0.891823 0.216909
31.6237 -53.2786 7.31161 0.438318 -0.888522 -0.135668
50.0628 66.6771 -3.99861 0.214663 0.717498 0.662659
-14.2599 29.7988 28.5136 -0.613899 0.122597 0.779807
-28.9298 67.9636 14.6015 -0.976735 0.195459 0.0882266
46.6323 66.9547 -3.83766 0.0552908 0.744523 0.665303
-21.5498 40.8841 22.7491 0.0715367 -0.997326 -0.0149245
51.7781 66.891 -3.83766 -0.0786004 0.848159 0.523878
-21.121 40.7022 22.7491 -0.091763 -0.992138 0.0850955
-28.4467 69.25 14.6015 -0.935448 0.351501 0.0372166
22.0474 67.5348 -3.83766 0.526715 0.789038 -0.316214
57.3528 67.5348 -4.11089 0.537338 0.470187 0.700137
7.18103 61.1025 38.3934 0.287761 0.00712583 0.957676
-0.108879 -2.54953 33.0407 0.30388 -0.948363 0.0909054
34.1408 3.21204 9.02688 0.959623 0.278638 0.0385329
-2.68178 -1.93378 32.7248 -0.497585 -0.862592 0.0913509
21.332 68.1382 -3.83766 0.326243 0.921276 -0.211698
-7.8276 12.2172 28.0914 -0.0245707 -0.884883 0.465164
19.9847 68.8212 -3.83766 0.508579 0.817433 0.270466
-25.1581 69.6788 -3.83766 -0.693229 0.541559 -0.47555
-9.54287 61.5313 38.2029 -0.294647 -0.146144 0.944365
-24.1227 70.3404 -3.83766 -0.349869 0.588534 -0.728848
-23.6939 70.4387 -3.83766 -0.328555 0.578391 -0.74667
2.89286 84.8321 26.1796 0.331262 0.831469 0.446011
-22.4074 71.3545 -3.83766 -0.48791 -0.0606708 -0.870783
16.8991 71.8229 -3.83766 0.532079 0.230874 -0.81461
0.319946 -2.3578 33.0407 0.388347 -0.910903 0.139436
0.838417 -1.93378 33.0407 0.492484 -0.838403 0.233539
3.7505 84.7658 26.1796 0.333917 0.834935 0.437474
16.615 73.5382 -3.99304 0.0286699 -0.658837 -0.751739
1.17758 -1.62106 33.0407 0.544738 -0.802344 0.243936
-22.2621 74.3959 -3.83766 -0.697829 0.159439 -0.698294
17.0439 74.3959 -4.23253 0.042089 -0.540194 -0.840487
-21.9786 75.2153 -3.83766 -0.694514 0.502351 -0.515067
21.1656 43.0921 22.7491 0.843003 -0.319346 0.432855
-21.1981 76.1111 -3.83766 -0.672056 0.646905 -0.360353
-9.11406 61.5313 38.3049 -0.118714 -0.129702 0.984421
17.9015 76.12 -3.83766 0.617271 0.238162 -0.749837
-20.6922 76.5546 -3.83766 -0.679123 0.656049 -0.329228
-8.68524 4.06968 8.82403 0.188083 -0.907685 -0.375143
16.7079 77.3976 -3.83766 0.681558 0.387834 -0.620534
16.4004 78.2552 -3.83766 0.735061 0.569227 -0.368328
-19.8054 80.3993 17.1744 -0.730554 0.676725 0.0912936
2.3835 4.06968 9.02688 -0.401076 -0.913924 0.0623039
16.0141 79.1128 -3.83766 0.717771 0.645608 -0.260758
23.7995 72.6806 14.6015 0.907485 0.41889 -0.0316433
-16.404 80.3993 -3.99896 -0.641698 0.763464 0.0731186
-12.9734 47.5102 35.6136 -0.0646143 -0.259729 0.963517
23.4761 73.1094 14.4884 0.892351 0.424497 -0.153338
23.3044 73.5382 14.6015 0.889597 0.419904 -0.179715
-14.9679 81.6858 -3.83766 -0.867623 0.496702 0.0227268
12.9543 82.5434 -3.83766 0.799863 0.578787 -0.158822
-13.8311 82.8093 -3.83766 -0.642732 0.740362 -0.196874
-12.9889 83.8299 -3.83766 -0.813553 0.570689 -0.111561
8.03867 52.9549 37.4739 0.394064 -0.222254 0.891805
10.6116 84.5892 -3.83766 0.52652 0.82538 0.203777
22.6185 44.8074 22.3275 0.763569 -0.465371 0.447652
-5.25469 0.0481834 33.0407 -0.604247 -0.794751 0.0570631
-18.5481 17.363 25.0389 -0.641579 -0.221866 0.73427
-5.83916 0.639133 33.0407 -0.754886 -0.655839 -0.00478886
22.9102 74.3959 14.6015 0.87422 0.445502 -0.193048
3.17062 1.06795 33.0407 0.823917 -0.542622 0.163468
-18.1192 17.363 25.2014 -0.629051 -0.358025 0.69001
-24.5515 75.0348 14.6015 -0.856399 0.504265 -0.110894
6.75221 87.4195 -3.83766 0.371593 0.913204 0.167263
4.17931 87.9103 -3.83766 0.464958 0.852995 0.237095
22.6185 74.9731 14.6015 0.844195 0.513767 -0.152899
22.4449 75.2535 14.6015 0.822642 0.550558 -0.141933
-6.96997 88.5448 -3.83766 -0.351645 0.930559 -0.102006
-5.25469 88.7296 -3.83766 0.240862 0.961474 -0.132485
-4.82588 88.683 -3.83766 0.173227 0.984787 0.013714
14.4709 17.363 25.0755 0.464324 -0.118108 0.877755
23.0473 46.0938 22.3594 0.853762 -0.305773 0.421418
3.32168 88.9757 -4.2368 0.354682 0.88572 0.299502
-2.68178 89.0438 -3.83766 -0.176722 0.880097 0.44068
0.748764 88.9844 -3.83766 0.126357 0.991217 0.0390315
22.8558 46.0938 22.7491 0.81133 -0.30727 0.497322
-51.1382 -53.5747 -3.40884 -0.569174 -0.813576 0.118889
-50.7094 -53.6479 -3.40884 -0.316014 -0.94855 -0.0196995
-7.39879 4.65164 9.02688 0.262028 -0.941239 -0.213098
21.7608 76.2571 14.6015 0.766159 0.634776 -0.1003
-41.7042 -53.2246 -3.40884 -0.474398 -0.739183 -0.478075
-25.5127 46.9515 22.7491 -0.860663 -0.177429 0.47726
-10.4005 12.646 28.0191 -0.243439 -0.311764 0.918445
-47.7077 -52.8744 -3.40884 0.229741 -0.67492 -0.701215
4.50967 10.0731 27.0372 0.321742 -0.946264 -0.0326645
26.9067 -52.6022 -3.40884 -0.201233 -0.88249 -0.425109
26.9067 -12.6542 18.6164 0.534906 -0.257947 0.804574
-42.9986 -52.1954 -3.59381 -0.750557 -0.12626 -0.648631
-21.847 77.8264 14.6015 -0.585541 0.783153 -0.209316
28.9176 -52.1055 -3.40905 0.920869 -0.386985 0.047367
25.6202 -51.6767 -3.45131 -0.573815 -0.368126 -0.731587
23.2853 47.8091 22.7491 0.867799 -0.231617 0.439634
-42.8182 -51.4238 -3.4007 -0.53134 0.392723 -0.750631
-42.9163 -51.536 -3.26741 -0.518334 0.327072 -0.79016
29.0105 -51.6376 -3.40734 0.979585 0.187356 -0.0728825
-51.3177 -50.819 -3.40884 -0.943581 0.327699 -0.0476332
28.6273 -51.2452 -3.41015 0.891775 0.441263 -0.10012
28.3679 -50.819 -3.40886 0.786924 0.597332 -0.154742
23.7218 49.5244 22.7491 0.93233 -0.0466569 0.358587
-9.11406 12.646 28.3061 -0.23808 -0.378907 0.894286
-26.8415 50.8109 22.7491 -0.834905 -0.305785 0.457635
-37.5594 -49.9614 -3.40884 0.4361 0.245399 -0.865792
-8.68524 12.3699 28.3237 -0.124595 -0.590022 0.797715
-41.6521 -49.8304 -3.42341 -0.810471 0.339911 -0.477072
27.3355 -49.5871 -3.40884 0.281321 0.825314 -0.489606
27.7643 -49.8155 -3.40884 0.477718 0.778057 -0.407938
-47.7077 -49.4979 -3.40884 0.14605 0.167814 -0.97494
-41.2754 -49.4109 -3.40884 -0.856483 0.363284 -0.366689
-48.9941 -48.8644 -3.40884 -0.220506 0.518022 -0.826456
-19.7357 79.5417 14.6015 -0.628452 0.668277 -0.398064
-39.1313 -48.3832 -3.40884 -0.211968 0.75552 -0.619887
-38.7025 -48.5981 -3.40884 -0.00627337 0.720015 -0.693931
-1.82415 11.7884 -3.53685 0.021716 -0.502155 -0.864505
0.748764 5.23036 9.02688 -0.813586 -0.522325 0.255449
-3.96824 12.1981 -3.40884 -0.298678 -0.385135 -0.873191
-3.53941 11.8963 -3.40884 -0.189684 -0.499006 -0.845584
15.4903 -44.3868 18.4609 -0.838546 0.292908 -0.459397
17.7695 79.9705 14.6015 0.579326 0.814793 0.0222203
-1.39533 12.646 -3.7153 0.0753027 -0.246645 -0.966176
-0.966515 12.646 -3.69256 0.139635 -0.25182 -0.957648
-3.1106 13.0749 -3.57631 -0.130932 -0.110892 -0.98517
-2.68178 13.0749 -3.61654 -0.072377 -0.117465 -0.990436
23.7439 52.0973 22.7491 0.984744 0.0251857 0.172176
-3.53941 13.5037 -3.44937 -0.222527 -0.134483 -0.965606
18.3303 79.6759 14.6015 0.523282 0.852071 -0.012279
0.00356293 13.5037 -3.40884 0.292475 -0.195384 -0.9361
-0.537697 13.9325 -3.46486 0.217941 -0.339125 -0.915148
-9.97169 47.2251 36.9001 -0.39961 -0.233554 0.886433
-1.39533 14.3613 -3.58314 0.0336735 -0.460707 -0.886913
-0.966515 14.3613 -3.55522 0.111422 -0.474211 -0.873332
-4.39706 14.7901 -3.57318 -0.353725 -0.500573 -0.79013
-3.96824 14.4265 -3.40884 -0.285283 -0.527483 -0.800234
-18.1493 81.2569 14.6015 -0.833971 0.547322 -0.0702221
0.748764 14.7901 -3.62882 0.281709 -0.525171 -0.803016
14.4709 -53.3134 26.6084 0.203118 -0.977615 -0.0548805
1.17758 15.2189 -3.7856 0.336343 -0.460853 -0.821272
-5.68351 15.6478 -3.68629 -0.534168 -0.325532 -0.780188
-5.25469 15.6478 -3.81812 -0.472452 -0.318235 -0.821898
-4.88626 5.78495 9.02688 0.208318 -0.964524 0.162164
2.46403 16.0766 -3.58197 0.57738 -0.272158 -0.76978
-6.34676 16.9342 -3.40884 -0.687702 -0.177641 -0.703925
-2.25296 5.78495 8.90064 0.0603659 -0.796892 0.601098
-27.8139 54.2414 22.7491 -0.897628 -0.0431981 0.438631
-6.15365 17.7919 -3.40884 -0.731068 -0.205037 -0.650768
-27.7285 54.6702 22.7491 -0.900858 -0.0331248 0.432847
-17.1621 82.5434 14.6015 -0.774436 0.454936 0.43964
-1.39533 -6.52074 42.9035 0.121715 -0.843357 0.523388
-6.98716 19.0783 -3.40884 -0.741631 -0.459056 -0.489133
-27.5532 55.099 22.7401 -0.884766 -0.0620185 0.46189
-7.37468 20.3648 -3.40884 -0.877097 -0.222537 -0.425649
-7.29703 21.6512 -3.40884 -0.939885 -0.196875 -0.279026
-2.68178 -4.9355 55.3943 0.302984 0.0855495 0.949148
-7.60187 22.9377 -3.40884 -0.925857 -0.353158 -0.134422
-3.53941 5.97782 9.02688 0.00697003 -0.885094 0.465359
15.7574 -53.1569 26.6084 0.532844 -0.827879 -0.175194
-8.12661 24.2241 -3.40884 -0.952587 -0.283617 -0.110179
-8.48509 25.5106 -3.40884 -0.951475 -0.202765 -0.231477
-2.68178 5.8703 9.02688 0.0446295 -0.802501 0.594979
1.08137 7.50022 33.0407 0.470579 0.0817297 0.878564
6.58976 26.797 -3.40884 0.931732 -0.362019 0.0285877
-3.53941 7.66492 33.0407 -0.43636 0.129446 0.890412
-9.11406 28.0404 -3.40884 -0.840131 -0.344619 -0.41883
-0.966515 6.0028 9.02688 -0.0711942 -0.768209 0.636228
0.748764 7.92904 32.9353 0.382933 0.140854 0.912974
25.0362 56.8143 22.7491 0.966532 -0.223623 -0.125731
-28.4109 57.2431 22.6835 -0.856572 -0.19449 0.477972
25.0978 57.2431 22.7491 0.975809 -0.186594 -0.113928
9.3724 30.2276 -3.40884 0.772291 -0.375567 -0.512362
-12.2733 31.514 -3.40884 -0.563649 -0.247816 -0.787964
-15.5463 84.6875 14.3935 -0.715308 0.622371 0.317787
6.3234 61.5313 38.4961 0.201176 0.0420749 0.978651
6.75221 61.5313 38.4327 0.254402 0.0584401 0.965331
33.1036 6.21378 9.02688 0.989234 0.123636 -0.0782916
13.4057 84.6875 14.6015 0.474498 0.831874 0.287816
13.6133 32.9225 -3.40884 0.376571 -0.925738 -0.034682
14.0421 33.171 -3.40884 0.48574 -0.867555 -0.106794
0.319946 8.35785 32.8759 0.30481 0.162038 0.938528
-15.5278 34.0869 -3.40884 -0.534177 -0.843906 -0.0497712
2.77526 -0.64732 37.7577 0.893784 -0.151179 0.422251
15.3286 34.5158 -3.64749 0.716704 -0.647793 -0.258264
-11.2582 13.0749 27.958 -0.0933453 -0.243756 0.965334
16.1862 35.3734 -3.52472 0.741483 -0.582388 -0.333207
-18.5481 36.1356 -3.40884 -0.655911 -0.705221 -0.269154
16.615 35.8522 -3.40884 0.792341 -0.492526 -0.36002
17.2245 37.0887 -3.40884 0.855198 -0.444668 -0.266282
-19.6631 37.5175 -3.40884 -0.622425 -0.585479 -0.519424
17.9015 38.124 -3.40884 0.752769 -0.579491 -0.312298
-0.051651 8.35785 33.0407 0.190605 0.171476 0.966574
18.9835 39.2328 -3.40884 0.812253 -0.462882 -0.354943
-21.4801 39.6616 -3.40884 -0.855459 -0.459717 -0.238433
-6.08269 -2.36259 39.9018 -0.835515 -0.316338 0.449271
19.6993 40.5192 -3.40884 0.841279 -0.492102 -0.223796
-22.9058 41.8057 -3.40884 -0.952267 -0.244772 -0.182413
10.3242 85.974 14.6015 0.582273 0.782473 0.220668
25.0322 61.1025 22.7491 0.976661 0.12377 0.175538
21.3864 42.6633 -3.40884 0.931621 -0.30436 -0.198611
21.7911 43.9498 -3.40884 0.981993 0.0897869 -0.166215
-23.8939 44.3786 -3.40884 -0.93608 0.269069 -0.226621
34.6254 45.2362 -3.69567 0.0836892 -0.958257 -0.273385
-28.4109 61.9601 22.6622 -0.935241 0.149232 0.321021
-0.108879 8.78667 32.757 0.22128 0.149028 0.963756
-4.39706 -8.79487 57.542 0.0757038 0.0858944 0.993424
32.4813 7.77267 9.02688 0.927565 0.347521 -0.137304
32.9101 45.665 -3.59728 0.0938342 -0.892054 -0.442079
38.0559 45.5267 -3.40884 0.146148 -0.977035 -0.155058
38.4848 45.5443 -3.40884 0.16699 -0.974451 -0.150199
-33.5567 46.0572 -3.40884 -0.174075 -0.953074 -0.247684
-33.1279 46.0839 -3.40884 -0.0167305 -0.974327 -0.224516
28.4264 46.0938 -3.40884 -0.180619 -0.813643 -0.552595
32.2284 8.35785 9.02688 0.883988 0.450336 -0.125551
40.2 45.9313 -3.40884 0.439295 -0.852571 -0.283094
40.6289 46.071 -3.40884 0.554547 -0.778733 -0.293347
-32.6991 46.1601 -3.40884 0.108038 -0.968046 -0.226305
-32.2702 46.1965 -3.40884 0.258804 -0.936129 -0.238083
23.9049 -25.09 27.2688 0.0462471 0.185008 0.981648
-27.9935 63.6754 22.7491 -0.880127 0.330593 0.340713
9.75394 86.66 14.6015 0.656234 0.72635 0.204384
27.7643 46.4615 -3.40884 -0.194287 -0.601926 -0.774557
24.5324 64.1042 22.7491 0.840341 0.400325 0.365469
0.150238 47.8091 35.1848 -0.508541 -0.779782 0.365139
25.1914 46.8825 -3.40884 0.454168 -0.546549 -0.703574
-8.68524 61.9601 38.3872 0.0498305 -0.081621 0.995417
20.0456 -53.5264 10.7422 0.0139735 -0.989045 -0.14695
41.4865 46.9515 -3.64874 0.736017 -0.575634 -0.356264
-27.1244 47.127 -3.40884 -0.371228 -0.728719 -0.575463
-26.6956 46.9515 -3.40884 -0.39029 -0.717265 -0.577239
-39.1313 47.4921 -3.40884 -0.42153 -0.881965 -0.21083
42.3441 47.5678 -3.40884 0.643703 -0.737617 -0.20388
8.8405 87.2604 14.6015 0.509995 0.793864 0.331188
-42.4358 48.6668 -3.40884 -0.528015 -0.849235 -0.000123358
44.917 48.8396 -3.40884 0.617604 -0.775725 0.129678
-1.39533 27.2259 32.6309 -0.193878 -0.325105 0.925591
-0.108879 27.2259 32.7074 0.146313 -0.229993 0.962131
45.7747 49.4766 -3.40884 0.786424 -0.570964 0.235664
-1.82415 27.6547 32.718 -0.248252 -0.285943 0.925531
-1.39533 27.6547 32.7968 -0.10359 -0.216202 0.970838
20.0456 -53.1039 26.6084 -0.53467 -0.818754 -0.209212
-35.7008 10.5019 8.77275 -0.83983 0.533385 -0.100926
6.62124 88.118 14.6015 0.355136 0.762446 0.540883
-47.2789 51.0146 -3.40884 -0.523261 -0.692871 0.496113
-18.1192 18.2207 25.082 -0.77964 -0.0459244 0.624542
47.9188 52.0973 -3.72462 0.882722 -0.325877 0.338534
-0.108879 27.6547 32.6988 0.139659 -0.0505275 0.98891
0.319946 27.6547 32.7283 0.124677 -0.0939978 0.987735
48.8364 54.2414 -3.40884 0.929382 -0.0685471 0.362699
49.2052 54.2414 -3.80955 0.890222 -0.125235 0.437975
49.2052 54.746 -3.40884 0.884403 -0.0167358 0.466425
-3.1106 47.205 36.9001 0.714736 -0.698735 0.0303437
32.046 -11.3678 10.3133 0.94961 -0.265589 0.166441
-26.3872 67.1059 22.7491 -0.740004 0.639037 0.209825
51.7781 56.3855 -3.68335 0.452148 -0.341577 0.823946
52.2069 56.3855 -3.64545 0.418871 -0.408785 0.810828
6.3234 88.2094 14.6015 0.339177 0.760832 0.553256
-9.11406 88.6994 14.6015 -0.383635 0.834133 0.39629
51.7781 56.8826 -3.40884 0.397237 -0.326307 0.857745
-25.1571 68.3924 22.7491 -0.734624 0.491655 0.46755
55.2087 57.6719 -3.51288 0.462314 -0.463658 0.755835
-11.687 13.5037 27.9725 -0.132847 -0.222745 0.965783
-48.7262 58.9584 -3.40884 -0.94282 0.277289 -0.184935
-38.6616 -51.6767 19.3185 -0.804819 -0.0865305 0.587179
-48.4129 59.816 -3.40884 -0.922593 0.33405 -0.192956
-24.7993 69.25 22.7491 -0.727265 0.287802 0.623101
56.4951 60.6737 -3.49179 0.725667 -0.0987282 0.680926
5.03695 88.657 14.6015 0.355909 0.774795 0.522515
56.4951 61.1228 -3.40884 0.728573 -0.0943314 0.678442
56.6191 61.5313 -3.40884 0.75456 -0.0535651 0.654042
36.3407 61.9601 -3.78583 0.526217 0.641475 -0.558217
36.7695 61.9601 -3.41992 0.475203 0.706407 -0.524568
-7.39879 89.27 14.6015 -0.324521 0.862942 0.38732
14.4709 18.2207 25.0765 0.435869 0.0727704 0.897064
-1.82415 1.2418 43.7612 0.0889853 0.550949 0.829781
31.1948 62.389 -3.70487 0.219376 0.662596 -0.716129
35.9118 62.2145 -3.40884 0.614104 0.667813 -0.420597
36.3407 62.0834 -3.40884 0.54489 0.68053 -0.48987
23.0282 70.1077 22.7491 0.782358 0.333934 0.525742
-47.5101 62.8178 -3.40884 -0.815715 0.576853 0.0429979
32.4813 62.6475 -3.40884 0.35095 0.711017 -0.609334
32.9101 62.6007 -3.40884 0.465135 0.678112 -0.569046
-3.1106 1.04074 44.19 -0.198212 0.544853 0.814768
-47.2789 63.1327 -3.40884 -0.757129 0.646047 0.0968402
57.3528 63.2466 -3.7618 0.722549 0.0245894 0.690882
4.60813 13.5037 28.1151 0.456943 -0.664408 0.59141
40.6289 63.3433 -3.40884 -0.381305 0.806182 -0.452413
41.0577 63.6594 -3.40884 -0.356708 0.841652 -0.405441
36.7695 -52.9631 7.23932 0.299854 -0.245145 -0.92195
41.4865 63.9167 -3.40884 -0.340079 0.880089 -0.331346
-45.5817 64.533 -3.40884 -0.571027 0.742248 0.350708
6.75221 61.9601 38.368 0.271879 0.108167 0.956233
3.32168 89.2241 14.6015 0.34396 0.854814 0.388567
43.6306 64.4049 -3.40884 0.158267 0.987208 0.0193066
-44.2771 64.9619 -3.4341 -0.340559 0.835025 0.432149
2.03521 28.5123 32.9232 0.0314999 -0.145043 0.988924
-23.4677 72.6806 22.7491 -0.716748 0.429252 0.549559
44.4882 64.9019 -3.40884 -0.0498356 0.952354 0.300895
-6.11233 89.5607 14.6015 -0.10851 0.90453 0.412373
-42.5619 65.2761 -3.40884 -0.289953 0.916687 0.274975
-2.68178 28.9411 33.0094 -0.124452 -0.272061 0.954198
-23.189 73.1094 22.7491 -0.67193 0.47435 0.568772
-39.1313 65.8195 -3.78864 -0.215848 0.96661 -0.138113
-39.1313 65.6957 -3.40884 -0.273403 0.943873 -0.18535
-30.9838 65.7013 -3.40884 -0.0280587 0.899796 -0.435407
-30.555 65.6528 -3.40884 -0.0600346 0.875292 -0.479855
45.3458 65.4247 -3.40884 -0.0369179 0.844761 0.533869
20.9032 73.6875 22.7491 0.885465 0.371266 0.279486
-21.9786 74.3959 22.5107 -0.60286 0.598944 0.527092
56.9239 65.8195 -3.43159 0.586534 0.0963784 0.80417
1.60639 89.584 14.6015 0.0271827 0.975442 0.218575
1.60639 28.9411 32.9536 -0.138421 0.0830298 0.986887
-27.9821 66.2483 -3.78585 -0.859283 0.149574 -0.489142
23.0473 66.2483 -3.81799 0.877758 0.333278 -0.344189
47.9188 66.2303 -3.40884 0.427738 0.55054 0.7169
2.89286 28.9411 32.8429 0.126269 -0.277163 0.95249
50.4917 66.2483 -3.67795 0.0702835 0.784464 0.616179
2.46403 89.4415 14.6015 0.190848 0.930586 0.312389
-35.7008 66.3407 -3.40884 -0.149283 0.980702 -0.126249
-35.272 66.3125 -3.40884 -0.112839 0.978569 -0.172253
47.0611 66.6771 -3.59342 0.198829 0.659786 0.724672
47.4899 66.6771 -3.60211 0.296132 0.635591 0.712973
56.75 66.6771 -3.40884 0.470083 0.316028 0.824104
-3.53941 29.3699 32.8188 -0.340823 -0.407117 0.847405
-8.25642 62.389 38.4532 0.0739678 -0.0650993 0.995134
53.4934 67.0344 -3.40884 -0.0645748 0.846506 0.528449
22.2153 67.5348 -3.40884 0.566657 0.792811 -0.224388
-18.1192 18.6495 25.1295 -0.789317 -0.00404429 0.613973
15.3286 82.0461 17.1744 0.846255 0.532724 -0.00760769
56.0663 67.3367 -3.40884 0.206006 0.577471 0.789992
3.32168 29.3699 32.8371 0.151732 -0.29542 0.943241
-43.8483 -53.392 14.8649 -0.183506 -0.941677 0.282082
-26.1226 68.8212 -3.40884 -0.901531 0.322547 -0.288455
-42.9907 -53.5059 15.0303 -0.032606 -0.99144 0.126427
30.7672 7.50022 17.6032 0.855464 0.131412 0.500912
-25.4091 69.6011 -3.40884 -0.842521 0.382861 -0.378914
18.1549 70.1077 -3.40884 0.407968 0.908246 0.0930141
-32.6991 13.8293 9.02688 -0.748547 0.631642 -0.201754
-28.4109 -53.5852 15.0303 -0.288528 -0.924685 0.248412
19.4405 76.5399 22.7491 0.806903 0.48805 0.332738
-27.5532 -53.6584 15.0303 0.0132076 -0.999872 -0.00900633
17.0439 71.8229 -3.61649 0.541612 0.0492616 -0.839184
17.0439 72.6806 -3.53257 0.0433386 -0.494383 -0.868163
-26.578 -53.392 15.0303 0.503234 -0.806691 -0.309847
-22.8362 73.1785 -3.40884 -0.619732 -0.193209 -0.760659
28.0994 13.9325 9.02688 0.810075 0.551848 -0.198098
-22.5406 73.967 -3.40884 -0.717063 -0.0396671 -0.695878
17.9015 73.967 -3.77862 0.0696763 -0.524849 -0.848339
18.6711 74.8247 -3.40884 0.532016 -0.0663733 -0.844129
34.2031 -53.7134 15.0293 0.405089 -0.914226 -0.00964733
27.7643 14.1864 9.02688 0.834207 0.511647 -0.205708
18.2102 76.1111 -3.40884 0.718406 0.378691 -0.583511
17.9015 76.5552 -3.40884 0.732069 0.49202 -0.471159
-45.1348 -52.9631 14.7735 -0.472677 -0.604152 0.641542
8.8963 64.533 37.4396 0.419875 0.0682787 0.90501
-18.9769 77.9689 -3.40884 -0.626425 0.771889 -0.108529
-17.2616 78.8994 -3.40884 -0.761766 0.611231 -0.214731
-17.0919 79.1128 -3.40884 -0.732362 0.658588 -0.172937
3.7505 29.7988 32.8746 0.239669 -0.308668 0.92048
18.4906 77.8264 22.7491 0.680478 0.612545 0.402167
-15.5463 80.8281 -3.57119 -0.676907 0.729115 0.100933
-44.2771 -53.1244 15.0303 -0.342326 -0.754446 0.560022
13.3413 81.2569 -3.40884 0.939011 0.303487 -0.161723
-14.7954 81.6858 -3.40884 -0.938446 0.345398 0.00443778
-14.2599 82.5434 -3.74852 -0.771478 0.624128 -0.123639
-14.3415 82.5434 -3.40884 -0.784119 0.60174 -0.151878
1.0738 47.8091 35.6136 -0.746055 -0.630796 -0.213304
-39.5601 -53.0109 15.0303 0.287167 -0.847496 -0.446415
11.4692 83.7141 -3.40884 0.557228 0.828196 0.059903
24.3776 -51.6767 26.6084 0.656715 -0.18811 0.730301
-31.4126 -53.0789 15.0303 -0.193232 -0.971269 0.138916
-30.9838 -53.1136 15.0303 -0.252594 -0.943566 0.214193
4.17931 30.2276 32.8382 0.391207 -0.317796 0.863692
9.32512 84.9414 -3.40884 0.687721 0.702171 0.184381
-26.2668 -52.9631 14.8105 0.703499 -0.582057 -0.407797
-10.8293 85.9694 -3.40884 -0.582177 0.760266 -0.288212
17.0439 79.5417 22.5608 0.527871 0.732976 0.429066
16.8539 -52.9631 15.0303 -0.661849 -0.676599 -0.322752
17.4727 -53.2927 15.0303 -0.298685 -0.937674 -0.177637
-30.1261 15.8735 9.02688 -0.609474 0.691545 -0.387695
4.55792 87.6892 -3.40884 0.36058 0.932349 0.0266097
5.03695 87.6892 -3.48644 0.163386 0.986535 -0.00736331
19.6168 -53.0781 15.0303 0.317819 -0.931671 0.176009
2.46403 30.6564 32.8114 -0.467464 0.265388 0.843236
20.4744 -52.9663 15.0303 0.242154 -0.958146 0.152701
24.522 -51.2479 26.6084 0.670697 -0.154489 0.725465
26.049 -52.9794 15.0303 -0.064588 -0.997845 0.0115547
-5.25469 88.8624 -3.40884 0.260522 0.957199 -0.126089
27.3355 -53.0378 15.0303 0.00673458 -0.999551 -0.0291939
-0.966515 88.9431 -3.40884 0.115367 0.983703 -0.13791
26.1439 16.0766 9.02688 0.779747 0.606551 -0.155213
1.60639 88.7484 -3.40884 0.325109 0.926123 -0.19131
28.6219 -53.1041 15.0303 0.0188855 -0.997246 -0.0717254
35.9118 -54.0249 -2.98003 -0.138583 -0.610045 -0.780154
-49.423 -53.6269 -2.98003 -0.0222352 -0.890282 -0.454867
-48.9941 -53.5329 -2.98003 0.0231826 -0.845708 -0.533142
-3.53941 -6.15808 42.9035 -0.468256 -0.726963 0.502257
2.89286 15.337 29.6102 0.341437 -0.513196 0.787433
-47.7077 -53.0844 -2.98003 0.227607 -0.755442 -0.614412
-16.8328 80.6449 22.7491 -0.603927 0.667021 0.436297
35.483 -52.9631 -3.04468 -0.400028 -0.041863 -0.915546
35.0903 -53.2516 15.0118 0.762743 -0.609806 0.215313
-45.1348 -52.5343 14.6944 -0.560466 -0.379115 0.736308
-38.2737 -52.9292 -2.98003 0.207507 -0.710078 -0.672852
-2.03826 31.0852 33.0407 0.506571 0.197617 0.839246
-3.96824 -0.957695 50.1934 -0.230302 0.532131 0.814738
-42.7754 -52.1931 -3.01163 -0.715926 -0.0857468 -0.692891
2.89286 31.0852 33.0344 -0.430905 0.228841 0.872899
-37.8449 -52.871 15.0303 0.216253 -0.940366 -0.262576
-51.3355 -51.6767 -2.98003 -0.998588 0.0344572 0.0404258
4.17931 30.9499 33.0407 0.200855 -0.122179 0.971972
28.9061 -51.8065 -2.95969 0.983033 -0.142683 -0.11527
5.03695 14.2602 28.3237 0.38145 -0.628391 0.677953
28.784 -51.3021 -2.99965 0.923831 0.341197 -0.173553
-37.064 -50.819 -2.98003 0.494218 -0.0519449 -0.867785
25.2414 -50.819 -2.98003 -0.621669 0.134054 -0.771724
-35.272 -52.7502 15.0303 -0.0529715 -0.998569 -0.00730031
-16.3587 82.9722 17.1744 -0.72427 0.685693 -0.0725129
-46.7938 -49.9614 -2.98003 0.207404 -0.0464384 -0.977153
-41.7002 -50.0529 -2.98998 -0.752881 0.3185 -0.575959
-50.4792 -49.5326 -2.98003 -0.803101 0.491907 -0.33624
-33.1279 -52.9069 15.0303 -0.141831 -0.98923 0.0361786
14.0421 81.3328 22.7491 0.596907 0.782523 0.177086
27.5363 -49.5326 -2.98003 0.433511 0.776936 -0.456551
-5.25469 31.514 32.8132 -0.476395 -0.446179 0.757609
20.9032 -52.9153 15.0303 0.219789 -0.96928 0.110408
21.332 -52.8894 15.0303 0.190824 -0.978858 0.0736449
-14.5949 82.1146 22.7491 -0.492506 0.741816 0.455133
9.71783 0.639133 18.8897 -0.711163 -0.700463 0.0599952
-48.9941 -48.6084 -2.98003 -0.322537 0.605654 -0.727429
-38.2737 -48.6313 -2.98003 0.0774814 0.688309 -0.721268
23.4761 -52.8265 15.0303 0.0202178 -0.999522 0.0233686
5.46576 31.514 32.7883 0.428985 -0.445316 0.785917
24.7626 -52.8363 15.0303 -0.0544256 -0.998064 0.0300958
-38.2737 -9.22369 -3.0458 -0.291476 -0.153124 -0.944243
25.1914 16.747 9.02688 0.684853 0.695025 -0.218896
-37.4161 -8.79487 -3.18536 -0.124828 -0.0700429 -0.989703
-36.9872 -8.79487 -3.201 -0.0162638 -0.0751697 -0.997038
-14.2599 82.6766 22.7491 -0.443726 0.798484 0.406856
-36.1296 -8.36605 -3.01632 0.206097 -0.0115315 -0.978464
-45.1348 -52.1055 14.7018 -0.600169 -0.0250785 0.79948
-37.8449 -7.82147 -2.98003 -0.189476 0.138252 -0.972103
6.3234 47.3803 36.4946 0.174606 -0.19986 0.964141
-22.4191 -51.2479 19.3185 0.96856 -0.192923 -0.157071
-3.1106 11.3596 -3.20636 -0.11447 -0.64331 -0.757
-2.68178 11.0661 -2.98003 -0.090305 -0.680868 -0.726817
-0.966515 11.3596 -3.25402 0.13392 -0.62186 -0.771593
14.0421 19.0783 25.1337 0.363637 0.148428 0.91964
-4.39706 11.7884 -3.15016 -0.393001 -0.508553 -0.766109
-3.96824 11.7884 -3.28498 -0.293067 -0.51124 -0.807926
0.319946 12.2172 -3.32854 0.319072 -0.393172 -0.862328
0.748764 11.7937 -2.98003 0.395756 -0.529702 -0.750195
14.8998 82.9874 17.1744 0.798552 0.590597 0.116234
37.1968 -53.6586 10.7362 0.654494 -0.746126 0.122201
-4.39706 13.5037 -3.21373 -0.488763 -0.172358 -0.855222
-3.96824 13.5037 -3.33048 -0.358727 -0.159058 -0.919791
-0.108879 13.9325 -3.37231 0.235074 -0.352119 -0.905954
0.319946 13.9325 -3.24785 0.310135 -0.377889 -0.872362
24.8593 -40.9562 27.4661 0.542847 -0.38376 0.747025
0.748764 14.3613 -3.29855 0.252754 -0.547428 -0.797771
23.1029 17.7919 9.02688 0.875219 0.339442 -0.344632
9.06724 84.2587 22.7491 0.530915 0.48341 0.69602
2.46403 15.2189 -3.35726 0.492945 -0.381063 -0.782174
2.89286 14.7924 -2.98003 0.550494 -0.472858 -0.688013
8.8963 84.6875 22.6652 0.515946 0.488268 0.703842
-6.54115 16.0766 -3.33388 -0.686558 -0.267519 -0.676071
5.42247 31.9429 33.0407 0.25289 -0.41022 0.876223
16.615 39.6616 28.3317 0.424215 -0.661741 0.618176
-38.4927 -41.8139 18.4609 -0.846327 -0.0349767 0.531514
3.3742 17.363 -2.98003 0.768093 -0.463876 -0.44142
-2.25296 32.3717 32.6723 0.709297 0.0944745 0.69855
-5.49098 -4.50669 45.0476 -0.559991 -0.592328 0.579273
4.72491 19.5071 -2.98003 0.825977 -0.452542 -0.336108
-7.39879 19.9359 -3.1319 -0.843856 -0.395251 -0.362883
4.92763 20.7936 -2.98003 0.934293 -0.116176 -0.337045
-24.5419 -41.8139 18.4609 0.729217 -0.566753 0.383451
3.70025 32.3717 33.0407 -0.462948 0.266479 0.845381
-36.5584 4.4985 17.5136 -0.854746 0.0832323 0.51233
5.84773 23.3665 -2.98003 0.804295 -0.5408 -0.246263
-8.25642 23.7953 -3.03122 -0.916092 -0.320585 -0.240835
-8.25642 24.6529 -3.32155 -0.930123 -0.351631 -0.105961
-8.55875 24.6529 -2.98003 -0.899459 -0.357183 -0.251783
-8.93726 25.5106 -2.98003 -0.757005 -0.188121 -0.625743
6.48499 25.5106 -2.98003 0.982923 -0.180885 -0.0338149
-9.11406 26.797 -3.16966 -0.805969 -0.250332 -0.536422
16.2061 -41.8139 18.4609 -0.75361 -0.42123 -0.504616
-6.11233 32.57 33.0407 -0.498315 -0.400044 0.769186
6.95964 27.6547 -2.98003 0.590984 -0.778186 0.212521
8.03867 28.1516 -2.98003 0.415204 -0.888009 -0.1976
8.46749 28.3095 -2.98003 0.49501 -0.817157 -0.29533
24.6986 -49.9614 26.6084 0.655565 -0.1734 0.734961
-11.7794 29.3699 -2.98003 -0.422025 -0.560892 -0.712246
-11.687 30.2276 -3.4078 -0.420947 -0.512036 -0.748747
-2.68178 32.8005 33.0226 0.651705 0.0578662 0.756262
7.60985 85.622 22.7491 0.28376 0.677945 0.678138
-8.25642 85.9963 22.7491 -0.295704 0.763275 0.574431
10.6116 31.514 -3.07164 0.391684 -0.594889 -0.701919
-38.7025 -41.385 18.2093 -0.862498 -0.0188909 0.505707
-3.96824 -7.0796 50.3506 -0.255663 -0.77201 0.581925
11.4692 32.0326 -2.98003 0.119465 -0.885695 -0.448633
24.688 -49.5326 26.6084 0.634843 -0.17735 0.752012
12.7557 32.5199 -2.98003 0.254545 -0.965386 -0.0568838
-14.8533 33.6581 -2.98003 -0.684305 -0.718463 -0.124653
-24.526 -41.385 18.4609 0.697994 -0.591274 0.403979
-15.9751 34.3522 -2.98003 -0.54398 -0.820179 0.177178
-15.5463 34.1119 -2.98003 -0.654398 -0.75443 0.0509752
-39.989 -10.5101 10.2099 -0.841879 0.0929231 0.531605
16.1862 35.1429 -2.98003 0.738512 -0.641778 -0.20669
-18.5481 36.0641 -2.98003 -0.491828 -0.826892 -0.272681
-18.1192 35.8024 -2.98003 -0.497516 -0.86676 -0.0347271
1.31279 4.4985 36.0424 0.518787 0.202395 0.8306
17.3826 37.0887 -2.98003 0.850316 -0.475284 -0.22598
-4.82588 86.7476 22.7491 -0.352775 0.830906 0.430285
12.769 -49.1038 26.6084 -0.974745 0.176657 0.136621
18.9232 38.804 -2.98003 0.783116 -0.536456 -0.314554
-21.2633 39.2328 -2.98003 -0.846939 -0.437496 -0.302146
19.3878 40.0904 -2.98003 0.885085 -0.429005 -0.180498
6.75221 32.8005 32.9254 0.422623 -0.555981 0.715734
-4.39706 86.9201 22.7491 -0.316779 0.860128 0.399789
20.4744 40.9948 -2.98003 0.849167 -0.495583 -0.182517
-23.2651 42.593 -2.98003 -0.96757 -0.136685 -0.212429
21.332 42.3297 -2.98003 0.929731 -0.314092 -0.192215
12.8872 -48.675 26.6084 -0.975233 0.17118 0.140064
21.907 43.9498 -2.98003 0.982524 0.093127 -0.161165
-2.68178 87.0757 22.7491 0.00666237 0.951045 0.308981
7.18103 32.8005 32.7346 0.504667 -0.546444 0.668364
36.3407 45.0878 -2.98003 0.105652 -0.963308 -0.246731
36.6302 45.2362 -2.98003 0.0661653 -0.974224 -0.21566
32.0525 45.3606 -2.98003 -0.0486308 -0.902076 -0.428829
32.4813 45.2835 -2.98003 0.0227867 -0.911581 -0.410489
-23.7154 21.6512 9.02688 -0.901638 0.323656 -0.286874
-1.82415 87.1518 22.7491 -0.0415382 0.943415 0.329002
6.3234 15.6478 28.176 0.222998 -0.672375 0.705822
-0.108879 87.2604 22.6681 -0.048093 0.882985 0.466931
23.0473 45.8731 -2.98003 0.727688 -0.438314 -0.52759
23.0473 46.0938 -3.31793 0.747283 -0.365031 -0.555266
29.4796 45.7475 -2.98003 -0.197522 -0.928978 -0.313027
29.9084 45.7759 -2.98003 -0.169228 -0.937957 -0.302652
41.1053 46.0938 -2.98003 0.621291 -0.745631 -0.240899
-18.6734 -6.22196 17.6032 0.328656 -0.918119 0.221456
-32.2702 46.2149 -2.98003 0.261943 -0.943288 -0.203946
-31.8414 46.1436 -2.98003 0.289002 -0.946917 -0.140805
24.3338 46.5227 -3.25726 0.380538 -0.642393 -0.665223
24.7482 46.5227 -2.98003 0.386807 -0.643765 -0.660263
-15.5463 84.4088 17.1744 -0.714902 0.674099 0.185756
-37.8449 46.6227 -2.98003 -0.306781 -0.933734 -0.184463
-26.6956 46.7477 -2.98003 -0.522294 -0.703743 -0.481617
20.0456 22.08 8.72045 0.783275 0.343015 -0.51848
-2.87211 33.2293 33.0407 0.684525 0.121881 0.718728
41.7718 46.9515 -2.98003 0.778407 -0.565628 -0.272301
-39.5601 47.7136 -2.98003 -0.457888 -0.865327 -0.203834
-22.8362 22.4157 9.02688 -0.891537 0.391049 -0.228566
43.2018 48.0004 -2.98003 0.585273 -0.810413 0.0261842
-2.43837 47.8091 36.9001 0.605825 -0.764676 -0.219651
-42.5619 48.7622 -2.98003 -0.586456 -0.806875 0.0708698
44.917 48.9232 -2.98003 0.649927 -0.730551 0.209499
4.17931 33.2293 32.9808 -0.557454 0.333371 0.760334
-32.2702 -53.4603 23.1779 0.101249 -0.987067 -0.124285
-45.5586 50.382 -2.98003 -0.368558 -0.731968 0.573052
-45.1348 50.124 -2.98003 -0.404458 -0.725344 0.557037
-31.8414 -53.4579 23.1779 0.173503 -0.947842 -0.267379
-47.2789 51.2397 -3.21886 -0.548735 -0.638279 0.539898
-47.2789 51.4893 -2.98003 -0.572808 -0.572168 0.586954
35.0542 -47.3885 14.6811 0.788997 0.529217 0.312113
-31.4126 -53.392 22.9862 0.243999 -0.847037 -0.472221
47.8007 52.5261 -2.98003 0.859265 -0.323986 0.395849
-21.5814 23.3665 9.02688 -0.801639 0.427602 -0.417769
48.389 53.8126 -2.98003 0.922035 -0.177633 0.343944
48.7764 54.8294 -2.98003 0.939904 0.00839954 0.341335
48.9561 55.099 -2.98003 0.92202 -0.00475325 0.387114
-49.156 55.9567 -2.98003 -0.992377 -0.106082 0.0627298
-1.62274 47.8447 35.7559 0.634708 -0.768004 -0.0855327
-24.9522 -46.9597 15.0303 0.877455 -0.308897 -0.366954
-28.4109 -53.7266 23.1779 -0.0380096 -0.918822 -0.392838
51.3493 57.2431 -3.13889 0.400624 -0.205192 0.892971
51.7781 57.2431 -3.16142 0.365471 -0.325878 0.871915
-48.9941 57.6719 -3.12534 -0.978131 0.197925 -0.0639188
16.7812 -46.9597 15.0303 -0.804359 -0.0305096 -0.593359
54.7799 57.6719 -3.26183 0.373382 -0.48244 0.792362
-48.9941 58.1008 -3.03336 -0.978751 0.204426 -0.0160061
-43.4195 -46.5309 14.6927 -0.898399 0.161703 0.408327
55.2087 58.5296 -3.17052 0.506644 -0.246732 0.826096
-48.5653 59.6997 -2.98003 -0.940149 0.339907 0.0241514
-46.8501 -53.3758 10.7422 0.369224 -0.852053 -0.371052
55.7286 60.6737 -2.98003 0.582602 -0.101471 0.806399
56.0663 60.6737 -3.22201 0.65661 -0.108165 0.746434
-47.9134 61.9601 -2.98003 -0.906818 0.400294 0.132085
-8.68524 34.0869 32.735 -0.238789 -0.37017 0.89775
2.67445 0.210316 37.7577 0.842141 -0.0469367 0.537212
28.1931 62.389 -3.15412 0.52632 0.526091 -0.667994
26.049 -53.5351 23.1779 0.319164 -0.937386 0.139437
-43.0395 -46.1021 15.0303 -0.849906 0.213912 0.481562
38.9222 62.389 -2.98003 0.0650615 0.824062 -0.562751
56.4951 62.389 -3.15839 0.73224 0.0358519 0.680102
29.0508 62.5706 -2.98003 0.184326 0.6487 -0.738385
29.4796 62.5917 -2.98003 0.226972 0.646358 -0.728496
32.8677 62.8178 -2.98003 0.470488 0.688289 -0.552176
-3.24705 34.0869 33.0407 0.665577 0.34013 0.664318
6.75221 47.8091 36.6664 0.173848 -0.256788 0.950703
56.4951 62.8178 -3.09696 0.72341 0.0786518 0.685924
-34.3135 -52.9631 23.1779 -0.480081 -0.598975 0.640899
-33.9855 -53.2301 23.1779 -0.386856 -0.751527 0.534368
26.049 63.6754 -3.27393 0.529151 0.340669 -0.777138
-24.1227 -53.1074 23.1779 0.420953 -0.827353 0.371869
-42.9907 -45.6732 14.8982 -0.8354 0.268578 0.479555
-46.4212 64.1042 -3.40852 -0.657475 0.708081 0.25758
17.1127 -45.6732 15.0303 -0.745426 0.171554 -0.644135
25.2109 -47.3885 26.6084 0.752087 -0.145421 0.64282
43.2018 64.1042 -3.0667 0.12707 0.988465 -0.0824025
26.3257 -11.7966 18.8897 0.516816 -0.194228 0.833772
17.3051 24.6529 9.02688 0.935238 -0.118233 -0.333692
-44.706 64.533 -3.17492 -0.403775 0.766677 0.499172
14.8998 -53.142 23.1779 0.21049 -0.972003 0.104425
15.3286 -53.0661 23.1779 0.356169 -0.925012 0.132272
15.9265 -52.9631 23.1779 0.386192 -0.908743 0.158245
-12.9734 32.1769 29.1813 -0.557429 -0.548483 0.623249
47.9188 64.8481 -2.98003 0.486862 0.536357 0.689411
22.1897 -53.0402 23.1779 -0.380236 -0.899286 -0.216115
24.3338 -53.3074 23.1779 -0.262427 -0.901262 -0.344758
-42.5619 65.0144 -2.98003 -0.347316 0.881019 0.321211
45.7747 65.0718 -2.98003 0.19447 0.784808 0.588437
46.2035 65.3907 -3.16745 0.199905 0.70396 0.681526
48.3476 65.3907 -3.24011 0.49165 0.542326 0.681295
48.7764 65.3907 -3.21211 0.435832 0.596625 0.673861
-42.5619 -45.07 15.0303 -0.777485 0.365274 0.511949
-41.2754 65.4988 -2.98003 -0.358731 0.921942 0.146064
-42.5619 -44.8156 14.835 -0.783088 0.426024 0.453075
-0.108879 48.238 35.2196 -0.136577 -0.971401 0.194234
23.6083 65.8195 -2.98003 0.888259 0.272249 -0.369968
46.2035 65.8195 -3.37836 0.0792895 0.662386 0.744955
50.4917 65.8195 -3.31508 0.000985995 0.804991 0.593286
2.46403 -1.93378 39.8311 0.823218 -0.233316 0.517567
7.60985 47.8091 36.5596 0.302225 -0.250905 0.919623
-36.5584 66.1865 -2.98003 -0.138889 0.97275 -0.185656
-32.6991 66.1583 -2.98003 -0.0841366 0.957184 -0.276985
-32.2702 66.0359 -2.98003 0.0289451 0.96442 -0.262786
-42.1331 -44.3868 14.943 -0.758704 0.478676 0.441856
13.4214 -46.9597 26.6084 -0.935085 0.308867 0.17383
-34.8431 66.2833 -2.98003 -0.0143858 0.978353 -0.206443
-34.4143 66.3057 -2.98003 0.00478573 0.981527 -0.191266
29.6607 -44.3868 15.0303 0.445467 0.716711 -0.536549
17.0439 25.5137 9.02688 0.89126 -0.073902 -0.447431
54.351 66.6725 -2.98003 0.0615949 0.734235 0.676095
16.1862 -52.922 23.1779 0.382282 -0.909738 0.161977
17.9015 -52.8208 23.1779 0.0280417 -0.991215 0.129251
22.7875 67.1059 -2.98003 0.722185 0.673278 -0.158569
-27.5532 67.2253 -2.98003 -0.901004 0.34474 -0.263335
-27.3677 67.5348 -2.98003 -0.89091 0.404799 -0.205952
-26.4577 68.3924 -2.98003 -0.932866 0.265729 -0.243207
-20.6922 26.7721 9.02688 -0.966027 -0.033804 -0.256222
19.6168 -52.8246 23.1779 -0.175174 -0.984522 0.00550538
20.0456 -52.8859 23.1779 -0.165287 -0.985863 -0.027448
-24.9803 70.0049 -2.98003 -0.781297 0.316163 -0.53816
29.0508 -44.1576 15.0303 0.291701 0.647349 -0.704166
-23.2651 70.9653 -3.26107 -0.34668 0.0452727 -0.93689
-23.6835 70.9653 -2.98003 -0.162564 -0.0423004 -0.985791
-23.2651 71.8229 -3.06037 -0.394339 -0.217422 -0.892874
-23.6675 71.8229 -2.98003 -0.331089 -0.105097 -0.937728
17.4727 72.2518 -3.19569 -0.026816 -0.371151 -0.928185
-22.8253 -52.1055 23.1779 0.907505 -0.185327 0.376945
17.9015 72.6806 -3.1675 -0.118682 -0.58472 -0.802507
18.3303 72.5274 -2.98003 -0.290598 -0.586102 -0.756332
17.9015 73.1094 -3.3921 -0.120418 -0.625738 -0.770682
18.3303 73.1094 -3.29836 -0.144154 -0.579602 -0.802048
21.7608 66.2483 26.858 0.882452 0.279066 0.378683
18.7591 73.5382 -3.32501 0.110347 -0.457357 -0.882411
19.1879 73.967 -3.08454 0.444327 -0.201897 -0.872818
-41.2754 -43.48 15.0303 -0.853663 0.35989 0.376481
-22.4074 74.4087 -2.98003 -0.747247 0.274511 -0.605198
-21.9786 74.8247 -3.06081 -0.71174 0.578623 -0.398273
-2.09163 48.238 36.9001 0.50955 -0.781992 -0.358954
-21.3969 75.6823 -2.98003 -0.62108 0.783448 0.0216417
18.0737 76.5399 -2.98003 0.761512 0.592518 -0.26272
-20.6922 76.5959 -2.98003 -0.685533 0.72498 0.0666999
17.0439 77.2306 -2.98003 0.714769 0.687232 -0.129681
16.8264 77.3976 -2.98003 0.727562 0.677285 -0.109265
1.17758 48.0298 36.9001 -0.494711 -0.811051 -0.312182
16.3429 78.2552 -2.98003 0.727341 0.682096 0.0756331
5.89458 48.1986 36.9001 0.0353038 -0.26925 0.962423
15.9328 79.1128 -2.98003 0.718318 0.692683 0.0648912
-3.67024 35.3734 33.0407 0.565024 0.264709 0.781458
14.8852 79.9705 -2.98003 0.713808 0.695898 0.0787665
14.4709 80.0607 -2.98003 0.718897 0.693527 0.0469899
7.18103 16.0766 28.2595 0.332763 -0.59724 0.729776
13.1845 81.3559 -2.98003 0.96354 0.134386 -0.231369
13.0575 81.6858 -2.98003 0.944634 0.236706 -0.227236
-14.3522 82.9722 -2.98003 -0.748932 0.644805 -0.152734
12.3268 82.8482 -2.98003 0.682035 0.720813 -0.123518
11.4692 83.589 -2.98003 0.498303 0.866728 0.0218297
11.1322 83.8299 -2.98003 0.462907 0.880258 0.104229
9.75394 84.5344 -2.98003 0.616559 0.756295 0.218798
9.55397 84.6875 -2.98003 0.704696 0.706741 0.062624
12.5369 -50.3902 23.1779 -0.967381 -0.0144567 -0.252912
8.8963 85.5451 -3.25372 0.746469 0.657599 0.101722
-35.272 -49.9614 23.0365 -0.573711 -0.149961 0.805212
-11.2582 86.0925 -2.98003 -0.579646 0.768619 -0.270619
12.5683 -49.9614 23.1779 -0.962753 0.0848836 -0.256713
28.1931 -49.9614 22.9864 0.759506 -0.309058 0.572392
6.75221 86.9421 -2.98003 0.463064 0.87642 -0.132139
-9.97169 87.3711 -2.98003 -0.703709 0.649939 -0.287008
22.1897 18.6403 10.3133 0.993159 0.0424816 -0.108769
26.5716 -42.2427 15.0303 0.264474 -0.304055 -0.915207
2.3633 88.5469 -2.98003 0.513897 0.800068 -0.309517
2.89286 88.3682 -2.98003 0.499025 0.838606 -0.218438
-5.68351 88.9757 -3.30988 0.186123 0.973637 -0.131872
16.7276 30.2276 9.02688 0.623091 -0.355323 -0.696781
16.743 30.6564 9.02688 0.653302 -0.413859 -0.63397
-0.537697 88.9757 -3.27845 0.106118 0.970455 -0.216693
-6.54115 89.0983 -2.98003 -0.165249 0.966003 -0.198823
-6.11233 89.1557 -2.98003 0.0151277 0.982438 -0.185973
-0.108879 89.1698 -2.98003 0.048733 0.922605 -0.382656
20.0456 -41.8139 14.9078 0.398735 0.125508 -0.908437
36.8108 -53.8208 -2.55121 0.623734 -0.586542 -0.516647
-1.39533 35.3734 32.6856 0.103847 -0.103078 0.989237
-41.0578 -53.392 -2.55121 -0.398778 -0.753396 -0.522849
16.8974 31.514 9.02688 0.554808 -0.565741 -0.61002
36.7695 -53.392 -2.87558 0.560854 -0.203626 -0.802483
37.0669 -53.392 -2.55121 0.833423 -0.214869 -0.509154
-41.7042 -53.115 -2.55121 -0.628155 -0.605486 -0.48868
19.1879 -15.656 19.1996 -0.454125 -0.403725 0.794214
37.0137 -52.9631 -2.55121 0.840927 0.0870977 -0.534094
-51.2801 -52.5343 -2.55121 -0.948845 -0.314993 -0.0217348
26.7507 -52.5343 -2.55121 0.0565856 -0.906141 -0.419175
20.0456 -41.385 14.942 0.445192 -0.182736 -0.876591
-34.4143 -52.9755 10.7422 -0.173563 -0.984256 0.033403
-51.2191 -52.1055 -2.55121 -0.988472 -0.146076 -0.0398169
25.4981 -52.1055 -2.55121 -0.405331 -0.648419 -0.644406
-0.966515 6.28696 18.8897 -0.161543 -0.795978 -0.583372
35.9118 -52.1055 -2.85844 0.0151968 0.504663 -0.863183
36.3407 -52.1055 -2.81821 0.324853 0.545824 -0.772365
6.3234 62.8178 38.3733 0.171033 0.169938 0.970499
-36.9386 -51.6767 -2.55121 0.514596 -0.411325 -0.752332
36.0093 -51.6767 -2.55121 0.200974 0.700492 -0.684778
36.3407 -51.7737 -2.55121 0.401846 0.685484 -0.60715
-36.9872 -51.2479 -2.80754 0.509504 -0.231786 -0.828662
-36.8254 -51.2479 -2.55121 0.549506 -0.240569 -0.800106
-23.8466 -40.9562 15.0303 0.55956 -0.813755 -0.157146
17.7561 32.3717 9.02688 0.722861 -0.609999 -0.324614
-19.8763 32.8005 9.02688 -0.987762 -0.121797 -0.0974303
-50.9 -50.3902 -2.55121 -0.965362 0.241685 -0.0983063
28.2508 -50.4165 -2.54003 0.751557 0.562881 -0.343987
-50.7094 -50.0297 -2.55121 -0.93234 0.318008 -0.172083
25.1914 -49.9614 -2.6539 -0.48658 0.480201 -0.729827
20.4744 -40.9562 14.7406 0.412746 -0.424933 -0.80565
-41.2482 -49.5327 -2.54956 -0.811086 0.296243 -0.504361
26.4778 -40.9562 14.9842 0.130429 -0.808841 -0.57338
-47.2789 -49.1038 -2.87701 0.174316 0.23714 -0.955709
-8.68524 63.2466 38.26 -0.0993262 0.0751322 0.992214
18.7591 -40.5274 14.905 0.141467 -0.777242 -0.613093
-34.3579 -46.9597 23.1779 -0.582797 0.106156 0.805654
-47.2789 -48.675 -2.58384 0.117646 0.421226 -0.899293
-7.8276 63.2466 38.443 -0.0769998 -0.0661 0.994838
19.1879 -40.8134 15.0303 0.264642 -0.655531 -0.707279
-48.9941 -48.4134 -2.55121 -0.426437 0.682221 -0.593907
-38.7025 -48.2461 -2.69498 -0.184769 0.759178 -0.624107
7.60985 16.5054 28.285 0.426951 -0.521808 0.738532
-38.2737 -12.2538 -2.55121 -0.171523 -0.256753 -0.951135
-37.8449 -12.2454 -2.55121 -0.0667042 -0.296758 -0.95262
-1.39533 35.8022 32.7341 0.0874186 -0.111758 0.989883
-0.966515 35.8022 32.6931 0.115744 -0.111371 0.987016
-37.4161 -11.3678 -2.64352 -0.0257154 -0.198373 -0.979789
-37.0452 -11.3678 -2.55121 0.10992 -0.252705 -0.961279
-36.9872 -10.939 -2.68432 0.0534497 -0.219934 -0.974049
-2.25296 -7.0796 50.2452 -0.235519 -0.809684 0.537534
-1.82415 -7.15095 50.6222 -0.165697 -0.865118 0.473408
-36.5584 -10.5101 -2.70797 0.163493 -0.233146 -0.958599
-36.5584 -10.0813 -2.8771 0.13602 -0.205614 -0.969134
7.18103 35.8022 32.8032 0.486344 0.582095 0.65164
-21.121 -10.594 10.3133 0.0283923 -0.807275 -0.589492
-35.7008 -9.6525 -2.6161 0.383467 -0.222274 -0.896408
-35.5854 -9.22369 -2.55121 0.399846 -0.213491 -0.891373
-8.25642 36.231 32.7881 -0.295057 0.459493 0.83774
-39.1313 -8.36605 -2.75378 -0.323217 -0.00805787 -0.94629
-7.8276 36.231 32.9592 -0.226493 0.401763 0.887292
8.03867 48.238 36.5575 0.358759 -0.222789 0.906453
-35.7008 -7.93724 -2.83066 0.275084 0.0619827 -0.95942
-35.7008 -7.50842 -2.80344 0.235596 0.153203 -0.9597
-3.96824 35.8635 33.0407 0.391739 0.308067 0.866969
-36.1296 -7.0796 -2.91049 0.109104 0.241264 -0.964307
-35.7008 -7.0796 -2.69407 0.199273 0.223867 -0.95403
14.6977 -39.6698 18.4609 -0.592225 -0.717505 -0.366683
-38.7025 -6.80161 -2.55121 -0.296582 0.288797 -0.910294
18.3303 -40.4654 15.0303 0.0378866 -0.792279 -0.608982
26.4778 -6.65078 -2.58493 0.0230314 -0.200908 -0.979339
26.9067 -40.4941 15.0303 0.108761 -0.865292 -0.489326
26.4778 -6.22196 -2.58008 0.00765819 -0.1489 -0.988822
-10.7699 16.9342 28.3237 -0.341971 -0.564552 0.751224
-39.7657 -39.6698 15.0303 -0.92269 -0.38349 -0.039725
25.6202 -4.9355 -2.55388 -0.000116605 -0.154224 -0.988036
17.9015 -39.6698 14.7214 -0.0347907 -0.847816 -0.529147
-38.9408 -49.9614 19.3185 -0.840024 -0.0673344 0.538354
19.6168 -12.2254 19.1196 -0.350146 -0.568372 0.744548
26.4778 -4.50669 -2.61131 0.0830881 -0.123124 -0.988907
6.3234 35.9685 33.0407 0.0158834 0.703621 0.710398
-33.9855 -45.2444 23.0815 -0.471682 0.265422 0.840873
24.7626 -4.07787 -2.59563 -0.0379305 -0.201327 -0.978789
27.3355 -4.07787 -2.58949 0.173424 -0.144124 -0.974245
-23.6939 -39.241 18.0655 0.815734 -0.311117 0.487631
22.5997 -3.64905 -2.55121 0.0113028 -0.12394 -0.992225
-7.39879 36.6599 32.8602 -0.239309 0.462027 0.853969
24.7626 -3.64905 -2.65585 -0.0478864 -0.167104 -0.984776
25.1914 -3.64905 -2.72401 0.0047826 -0.187818 -0.982192
-32.6991 -3.34742 -2.55121 -0.207923 -0.201422 -0.957182
-39.6709 -38.8121 15.0303 -0.833919 -0.543344 -0.096731
25.1914 -3.22023 -2.75849 -0.00433869 -0.109101 -0.994021
25.6202 -3.22023 -2.76063 0.0406221 -0.103901 -0.993758
23.4761 -2.79141 -2.56283 -0.0914685 -0.052 -0.994449
23.9049 -2.79141 -2.6071 -0.139053 -0.0286604 -0.98987
27.4754 -2.79141 -2.55121 0.207319 0.0380471 -0.977533
15.1249 -42.2427 25.7508 -0.96449 -0.215797 0.152288
-26.6956 -44.9518 23.1779 0.580998 0.368751 0.725579
-30.1261 -2.36259 -2.58679 0.0444046 -0.204753 -0.977806
25.1914 -2.36259 -2.74862 0.00537658 0.023771 -0.999703
25.6202 -2.36259 -2.7335 0.0497471 0.0246684 -0.998457
-30.9838 -1.93378 -2.70903 -0.0479759 -0.10371 -0.99345
-30.555 -1.93378 -2.6784 -0.00269929 -0.128852 -0.99166
26.049 -1.93378 -2.67102 0.129666 0.0723165 -0.988917
26.4778 -1.93378 -2.64184 0.174523 0.0970663 -0.979857
-29.9916 -1.50496 -2.55121 0.048641 -0.0866923 -0.995047
7.68376 16.9342 28.3237 0.449285 -0.452622 0.770245
-31.8414 -1.07614 -2.61445 -0.0955208 0.0244059 -0.995128
0.761375 48.238 35.6136 -0.663241 -0.715999 -0.217848
-13.8311 85.6678 17.1744 -0.584633 0.802346 0.120192
-4.39706 36.6599 32.9452 0.162099 0.259308 0.952094
23.9049 -0.218502 -2.58204 0.0549336 -0.0767197 -0.995538
7.60985 48.6668 36.7986 0.288402 -0.218345 0.932282
-29.2685 0.210316 -2.60662 -0.00135517 -0.00677509 -0.999976
-27.9821 -44.4291 23.1779 0.353657 0.231649 0.906237
-27.5532 -44.3868 22.9783 0.49285 0.171674 0.853011
-3.53941 36.6599 32.6989 0.441051 0.0834727 0.893592
14.6672 -44.3868 23.1779 -0.903596 0.378222 -0.20115
24.3917 0.639133 -2.55121 0.150448 0.0252849 -0.988294
-2.25296 36.6599 32.696 -0.00385667 -0.17163 0.985154
-31.4126 -43.958 22.8615 -0.038477 0.0752626 0.996421
-1.39533 10.6777 -2.55121 0.130651 -0.734944 -0.665423
-1.39533 10.9308 -2.89687 0.108435 -0.682443 -0.722851
-30.555 -43.958 23.0247 -0.0659523 0.114971 0.991177
-5.25469 11.3596 -2.642 -0.48816 -0.543411 -0.682938
15.7574 -37.5257 14.8639 -0.506617 -0.737714 -0.446224
0.748764 11.3596 -2.74071 0.403587 -0.632321 -0.661277
-22.1016 37.0887 9.02688 -0.75428 -0.655942 0.0283303
-5.68351 12.2172 -2.76432 -0.614059 -0.341411 -0.711597
1.17758 12.646 -2.93267 0.542938 -0.299438 -0.784573
-22.4735 -37.0969 15.0303 0.962486 -0.254089 0.0951787
7.73698 17.363 28.3237 0.463158 -0.426731 0.776779
-5.25469 13.5037 -2.86086 -0.629832 -0.224289 -0.743644
-28.4109 -43.958 23.0366 0.241205 0.0968373 0.965631
2.03521 13.9325 -2.5934 0.534645 -0.575422 -0.618906
3.02865 14.3613 -2.55121 0.554126 -0.594807 -0.582364
-6.11233 14.7901 -2.90204 -0.615631 -0.472298 -0.630819
-15.1175 48.6668 35.3407 -0.489411 -0.201366 0.848486
3.32168 15.2189 -2.84294 0.643874 -0.330286 -0.690172
-7.05957 16.5054 -2.55121 -0.811714 -0.23963 -0.532633
-13.3741 85.974 17.1744 -0.529118 0.842913 0.0976323
3.7505 17.4314 -2.55121 0.774759 -0.414174 -0.477711
14.2399 -38.8121 18.4609 -0.728084 -0.582362 -0.361592
-40.0282 -36.2392 15.0303 -0.967501 -0.154536 -0.200149
4.6085 18.6495 -2.55121 0.725378 -0.50919 -0.463197
5.03695 19.7724 -2.55121 0.783649 -0.355927 -0.509127
20.301 37.9463 9.02688 0.771724 -0.564288 -0.293294
-28.4109 -43.5291 22.9332 0.212368 -0.0210838 0.976962
-6.54115 37.0887 32.9374 -0.156247 0.28497 0.945716
5.03695 22.08 -2.84687 0.866775 -0.43584 -0.242374
5.28429 22.08 -2.55121 0.761373 -0.48729 -0.42762
14.9565 -43.5291 23.1779 -0.979864 0.0137371 -0.199195
5.89458 22.9377 -2.6549 0.71372 -0.526836 -0.46157
-17.2616 20.6979 25.322 -0.593874 0.129793 0.79402
18.9283 -10.939 18.8897 -0.425825 -0.775498 0.466128
-23.3423 38.804 9.02688 -0.803494 -0.586987 0.0992153
-9.33365 24.6529 -2.55121 -0.516001 -0.280036 -0.809521
-9.54287 25.1033 -2.55121 -0.530471 -0.211708 -0.820841
-5.46387 -4.07787 44.19 -0.589383 -0.611839 0.527523
-10.0422 26.3682 -2.55121 -0.617952 -0.108425 -0.778704
-3.1106 37.0887 32.8191 0.237925 -0.266202 0.934092
-9.97169 27.2259 -2.65591 -0.639083 -0.336922 -0.691416
-38.7025 -38.5456 18.4609 -0.746553 -0.511498 0.425476
-9.97169 28.0835 -2.80511 -0.580745 -0.446298 -0.680847
-28.4109 -43.1003 22.8767 0.199383 -0.10404 0.974383
8.8963 28.3321 -2.55121 0.476126 -0.769507 -0.425634
27.9012 -43.1003 23.1779 0.912045 -0.257771 0.318948
-2.25296 37.0887 32.8256 -0.012294 -0.316062 0.948659
