-16.874701 133.291 -33.690201 -0.68156534 0.50578846 -0.52881634
22.4021 30.0256 -32.678398 -0.57487521 -0.13988514 0.80619516
44.654202 32.114799 10.2023 0.99455429 -0.04443748 -0.094271334
-9.07934 97.775101 0.651014 0.036059564 -0.90877163 -0.41573288
1.11463 0.963437 -3.26897 -0.043239001 0.99905819 0.0036226505
-42.959301 0.993576 -5.36449 -0.023478794 -0.999642 0.012830472
10.6339 7.64137 -44.8801 0.20576033 -0.086474775 0.97477423
-35.763599 37.012798 -22.427999 0.30374184 -0.73626958 0.60468835
-21.1341 112.996 -11.3517 0.59576468 -0.25803399 -0.76058063
37.939301 88.821404 -15.2434 -0.77033702 -0.56515935 -0.29525546
32.146099 88.523003 -32.3069 0.57989851 -0.17802827 -0.79499915
-44.1586 9.05604 -10.4536 -0.94255789 0.30999945 -0.12443863
14.6067 79.207497 -40.688999 0.1832578 -0.74442884 -0.64206097
36.193901 19.9802 -21.2306 0.20670189 0.95867962 -0.19546796
-37.262699 21.0256 -17.0396 0.20201022 -0.97653902 0.074588359
-34.564301 8.74326 40.138302 0.66184161 -0.26066043 -0.70286686
-15.0758 83.449203 13.0504 -0.46134881 0.80946937 0.36320328
28.698299 96.879799 -34.116501 0.70021427 0.15377099 -0.69717606
-35.926701 4.6568 39.839001 0.63999056 0.063475255 -0.76575647
-2.48324 86.131203 13.4952 0.0059624521 -0.94595231 -0.32425094
-19.872999 19.878099 40.026001 0.060860571 0.99658493 -0.055807344
-7.28041 89.234703 8.10674 0.408675 -0.35224242 0.84196795
-15.0758 71.511002 23.582899 0.68933106 -0.097420956 -0.71786617
-4.88182 20.2586 29.6607 -0.01756601 0.99829171 0.055723402
0.215167 115.384 -42.146099 0.0040300564 -0.68191305 0.73142215
-27.068701 57.185101 27.7645 -0.65344596 -0.16406925 -0.73897879
-21.0723 16.2966 43.499599 -0.31091483 0.23048299 0.92206809
-22.2715 43.1576 31.357 -0.17640511 0.014986884 0.98420355
-30.9664 10.6259 42.816601 0.38757618 -0.13729213 -0.91155668
16.4056 24.951799 29.421 -0.22604931 -0.65108413 0.72456274
37.3932 63.452702 15.0876 -0.3313066 0.9417393 -0.057991587
-48.641201 46.440701 16.7882 0.98232702 0.14169139 -0.12229956
42.331699 38.0839 -14.6447 0.75263802 -0.3265373 -0.57175992
46.987499 17.4904 22.1045 0.8465583 0.27659258 0.45479181
16.7054 61.064999 -38.459099 0.54304696 0.032046155 -0.83909061
-16.275101 0.707725 -21.8293 -0.014820802 0.99973823 0.017430434
15.806 1.12413 6.60993 0.046672632 0.99806768 -0.041019046
-12.9096 44.948399 21.577999 0.30018817 0.55096843 0.77866607
-29.767099 1.0029 1.82016 9.7980854e-05 0.99949178 0.031877392
-33.7416 10.029 -33.205002 -0.55679637 0.409084 -0.72293021
-30.9664 76.584702 26.8682 0.28854994 -0.3264855 -0.90008119
-21.372101 78.004303 11.9984 0.20311612 0.85127381 0.48381478
36.323399 93.298302 -23.9249 0.92998628 0.0034312573 -0.36757822
24.176001 57.483501 25.1703 0.74960897 0.024165979 0.66143964
38.8923 79.569298 -26.5816 -0.75762385 -0.14172938 0.63711764
4.41269 138.96201 -11.4328 -0.47420237 -0.81028132 -0.3443491
2.0141 101.038 -2.96961 -0.12687634 0.51614822 -0.84704983
-25.4555 80.166199 5.41249 -0.68968819 0.63034175 0.35636986
37.992901 82.255402 -24.2502 -0.86654343 0.013557603 0.4989175
36.271999 75.092499 -28.4153 0.60693674 -0.24969003 -0.75450824
-41.1604 1.30572 22.176701 0.073158128 0.99725946 0.011021031
-18.2845 121.353 -9.8549 0.85367841 -0.21649522 -0.47366971
-18.973499 2.56761 45.6287 -0.062870034 -0.27159355 0.96035634
-40.144901 75.6894 -17.3389 0.85784155 0.13890054 0.49478734
-11.1781 96.581299 -37.494999 -0.17433079 0.15594862 -0.97225964
13.613 81.956902 18.883699 -0.29781286 -0.82213811 -0.4851767
-38.525902 32.114799 -17.6383 0.97231372 0.21216123 0.097947167
-42.777302 1.07533 -14.046 -0.2851504 -0.95501677 -0.081438392
42.117699 37.188499 21.577999 0.70075872 0.66369095 0.26163247
-41.1604 78.07 13.7946 -0.67634189 0.72334231 0.13905953
-21.971701 101.492 -9.55554 0.72769353 0.079944315 -0.6812276
-30.0669 20.597601 -34.4025 0.068927379 -0.99730011 0.025328093
19.9282 40.1731 31.756201 -0.21414695 0.016116051 0.9766685
-35.163898 0.901611 -6.56193 0.020366329 0.99968442 -0.014705912
-26.469101 104.308 -29.9121 0.43736046 -0.68320401 0.5847633
-42.359699 81.0616 -1.07291 0.66443672 -0.40741631 -0.62652677
-18.373899 96.792 -36.498001 -0.25522419 0.12739453 -0.95845253
47.099098 20.475 7.50802 -0.17651081 0.98286949 0.053023618
-23.171 0.692032 -9.8549 0.0095185826 0.99990836 -0.0096265702
-26.469101 56.8866 27.382299 -0.55473567 -0.11668832 -0.82380348
-24.969999 1.10556 37.444099 0.063218219 -0.99795503 0.0094454797
-8.77952 71.040001 -39.1922 0.22119717 -0.031110113 0.97473277
-41.460201 68.227997 -13.3491 -0.86655089 -0.013801326 -0.49889787
-45.660198 15.1028 23.9729 0.96118074 0.038008341 -0.27328915
-39.3615 46.543301 -1.17344 -0.11002905 -0.76114729 -0.63917791
-1.78166 105.833 0.922081 -0.22025624 -0.51740752 0.82690788
41.890499 20.662001 -11.3517 0.013519306 0.99967477 -0.021623435
48.5121 57.185101 8.10674 0.91035096 0.17354502 0.37569037
14.4481 115.981 -34.701801 0.67803621 0.32064831 -0.66140121
42.4902 46.440701 -17.045799 -0.8082544 0.15792727 0.56725991
8.15816 116.578 -39.1922 -0.36362499 -0.58895003 0.72174423
-18.973499 0.998011 24.5716 0.0092686451 -0.99988488 0.012013067
-39.492802 10.6259 -25.122299 0.73211966 0.013663106 0.68103901
-12.0776 105.776 -38.593498 -0.28934466 -0.25691311 -0.92210375
-25.2698 101.357 -32.762299 -0.4441521 0.38989495 -0.8066665
-30.0669 58.378899 -26.1947 0.90334603 -0.28488565 0.32063393
6.51145 107.326 -2.29915 0.3488642 -0.55355784 0.75621921
-25.2698 94.790604 -33.882301 -0.4078289 -0.015095175 -0.91293358
-21.8566 127.919 -22.427999 0.96934803 -0.22616139 -0.095996994
-2.48324 0.880033 -9.8549 -0.013873299 0.99989296 -0.0046479679
-38.200001 42.8592 -5.36449 0.97133566 -0.1934035 -0.13821042
-9.97881 134.784 -37.561001 0.30015547 -0.56592489 0.76787741
-8.17987 21.934401 28.7626 0.29152467 -0.54988737 0.78271147
-44.560299 9.73056 -9.25618 -0.97021052 -0.059975362 -0.23472219
0.696121 32.7117 32.3549 0.83404242 -0.076794748 -0.5463294
13.4074 85.538399 9.92314 -0.2089399 -0.94884979 -0.23670275
47.781799 10.3275 -2.37089 -0.99503642 0.051497658 0.085149943
-29.922199 66.437202 -22.1287 -0.91714665 0.0013384044 -0.39854766
14.3068 100.687 -7.16066 -0.24793551 -0.88753086 -0.38835159
-42.100399 4.05989 -19.733801 -0.92005716 0.20225666 -0.33553996
-23.898399 73.600197 -32.905701 0.74473917 0.063809987 0.66429801
-35.463799 2.56761 39.536701 -0.53704429 -0.52071944 0.66365254
-40.380798 8.53673 -21.530001 0.98130476 0.066631287 0.18055811
-8.77952 66.138802 -39.3629 -0.15183224 0.11616482 -0.98155627
-0.084656 0.74056 23.3741 0.019050845 -0.99978628 -0.008028867
20.0035 53.535 28.1639 -0.52650593 0.16098575 -0.83479045
14.007 0.758968 25.768999 -0.01097023 0.9998672 0.012051392
-32.3186 105.535 -19.135099 -0.46228543 0.87872748 -0.11887053
0.215167 116.421 -40.688999 -0.11507689 0.89500469 -0.43095698
10.9961 62.258801 28.463301 0.25836734 -0.17135455 0.95072811
-8.17987 83.079903 18.883699 0.20243043 -0.82514893 -0.52740038
-40.260899 29.130199 25.2938 0.84739132 -0.0057038647 -0.53093824
5.31216 121.781 -1.77216 0.21038692 0.63187024 0.74597409
0.215167 86.4338 12.6193 0.0091959185 -0.94971119 -0.31299216
-27.3685 20.6954 38.042801 0.0014753236 0.97864587 0.20554826
-13.4528 70.0187 -37.994801 -0.27395648 0.11543584 -0.9547892
-37.5625 0.749058 -19.733801 0.013777728 0.99989042 0.0054153626
-27.6684 47.335999 29.853399 0.52657005 0.2367152 -0.81651081
-1.58377 34.8009 25.3965 -0.88522554 -0.39537845 0.24505434
17.6049 22.564199 27.589899 0.45662902 0.32529509 -0.82805377
-10.5785 87.030701 -39.067799 0.14738103 -0.004916284 0.98906757
-18.073999 42.262299 30.9114 0.34266529 0.34101233 0.87538054
-21.6719 81.238899 5.11313 -0.22269443 0.89657369 0.38283523
7.71074 137.071 -23.326099 -0.7439293 -0.66050936 0.10147204
35.8941 52.111301 25.371 0.088655816 0.59325649 0.80011679
26.5996 93.919197 -5.66385 0.36433657 0.37040446 0.85443514
-42.6595 42.333199 4.51441 -0.49699959 -0.52675926 -0.68957675
-46.856998 16.138901 16.7882 0.89864606 -0.14732572 0.41319533
-31.8659 5.69376 -34.701801 0.6858501 0.14811733 0.71251028
-21.372101 27.7561 38.042801 -0.18849838 0.54373253 0.81781618
-16.5749 132.323 -11.3517 0.85278775 -0.3317262 -0.40337424
-3.98235 130.59399 -3.26897 0.021626221 -0.28235783 -0.95906536
26.1756 75.092499 8.70546 -0.93856401 -0.27976494 -0.20206233
-19.573099 36.436699 32.055599 -0.40799993 -0.88730121 -0.21501771
-9.37917 117.411 -37.6954 0.18531384 0.67222032 0.71678353
11.3086 0.996718 -31.408899 0.0079599624 0.99970253 0.023054069
-31.566099 35.3978 -28.107401 -0.81606097 -0.066693112 -0.57410497
-39.961102 72.704803 -16.722601 0.80830878 0.16201998 0.5660269
44.289101 16.2966 27.7162 0.84583115 0.13589944 0.51584979
-29.8964 72.406303 -24.224199 0.23470498 0.54034228 0.80804938
14.007 97.775101 -1.0804 0.19073537 0.83717801 0.51259438
-12.0776 132.396 -5.4004 -0.47550907 0.23974251 0.84641282
-36.662998 8.38367 -29.313299 0.81749577 -0.038776693 0.57462774
43.389702 1.06328 3.01761 -0.031254108 0.99950353 -0.0039838356
27.4991 27.936399 33.953602 0.3459214 0.035776088 0.93758117
-45.695301 70.914101 20.679899 -0.74185172 0.36016442 0.56563028
-35.763599 81.131302 15.2914 0.2075669 -0.92815795 0.30893172
-41.1604 87.627602 -2.23648 0.49101386 -0.10031807 -0.86535638
5.31216 19.695601 40.437698 -0.0015120116 0.99966771 0.025733009
3.2134 44.265099 -44.281399 -0.066003316 0.16751032 0.9836584
-1.12479 43.4561 25.4697 0.82866755 -0.3924857 -0.39908027
-43.099998 20.773399 26.068399 -0.097279263 -0.99125977 0.089111204
4.41269 19.579599 41.1833 0.0053410242 0.95518502 0.29596123
32.036999 29.7271 -22.427999 -0.96468946 0.15443136 0.21336637
26.299801 85.601196 -37.096699 -0.47101648 0.10114082 0.87630703
-12.3774 1.29534 27.2658 0.037994846 0.99889836 -0.027540014
-4.88182 0.818854 38.342201 0.026813332 0.99963097 0.0043557302
3.81304 135.381 -34.174099 0.57311309 0.55562996 -0.6023427
-9.67899 80.7631 21.4158 0.31486059 -0.72387065 -0.61390072
-11.1781 59.572701 23.291 0.10246163 0.083261529 0.99124625
29.597799 1.96534 -33.205002 0.25109991 -0.93300648 -0.25777458
-42.225201 35.696201 18.285 0.97185323 0.062305687 -0.22719881
34.694801 7.93982 37.571301 -0.57165901 0.094803945 -0.81499582
-23.171 91.806 1.37709 0.8381611 -0.30884593 -0.44955552
-37.709801 44.351501 -2.37089 0.9836993 -0.14294423 -0.10909921
-9.07934 122.845 -39.849602 0.15123705 0.16313553 0.97494315
47.887001 67.631104 -9.12789 -0.69643588 0.058775288 -0.71520803
-41.1604 50.149101 22.176701 -0.95411414 -0.023325407 0.29853331
-35.356499 46.739101 -22.427999 0.98630648 -0.071534334 0.14860134
-33.365002 76.742798 -25.4217 -0.69427742 -0.1823893 -0.69621334
-43.6264 76.883202 -12.5491 0.85731779 -0.014300096 0.51458889
19.198299 112.698 -17.0396 -0.49378103 -0.70323477 -0.51150871
-44.458401 1.39918 8.10674 -0.10637867 -0.99408619 0.021822811
-40.544701 57.782001 -12.2498 0.70450108 0.28671251 0.64921042
-26.7689 108.258 -23.9249 -0.86718444 -0.34953063 -0.35471043
-36.9702 96.581299 -6.56193 0.70593966 -0.4032106 -0.58229753
34.0952 63.832901 17.087601 -0.49304779 0.86148075 0.12146928
-33.4767 60.468102 28.7626 -0.50723835 -0.10207652 0.85573924
48.548698 43.4561 -2.96961 -0.99538488 0.095963218 -2.0488014e-05
6.21163 124.338 -4.66658 0.08888446 0.5824699 0.80797795
-34.782299 40.77 -22.1287 0.99315502 0.010192708 0.1163581
16.4056 1.43248 -39.1922 -0.10699508 0.97533542 0.19306185
-17.4744 41.665401 30.8867 -0.38223677 -0.31876206 -0.86734411
44.466202 5.25372 27.2658 0.83495544 -0.13552622 0.53336859
-47.361198 53.006699 9.60354 -0.934108 -0.044040771 -0.35426353
-7.88005 84.643097 16.259001 0.18266324 -0.88468781 -0.42890747
-43.415199 20.475 21.278601 -0.11713099 0.99277792 0.025929264
-9.67899 86.4338 -39.0275 -0.037673479 -0.0072226904 -0.999264
11.9083 131.37399 -18.5364 0.91990285 0.38983033 0.042556494
25.7001 0.782986 33.252998 0.0048209028 -0.99995315 0.0083942367
-23.4708 34.203999 34.274899 -0.12465715 0.20262424 0.97128987
33.7953 92.032204 -11.3517 -0.59095171 -0.10084998 -0.80037826
-33.664799 43.4561 -28.002399 0.86217396 0.030326276 0.50570384
-46.257401 70.0187 10.5543 0.85642126 -0.27525839 0.43677848
-38.762402 30.323999 0.32336 0.90276999 -0.33266753 0.27265116
-0.384479 42.262299 26.848101 0.60554816 0.44062617 -0.66269149
-28.867701 73.003304 -24.796801 0.7425342 0.14669424 0.65354706
0.51499 61.9604 -41.846901 -0.063009831 0.17354528 -0.98280812
-37.262699 40.1731 27.996401 0.41642251 0.0045141877 -0.90916001
-42.959301 20.120501 -2.07153 0.33884193 -0.93946874 0.050839319
-17.7742 83.377502 9.30418 -0.2384706 0.66209765 0.71046356
-41.169701 91.209099 -18.5364 0.92729408 -0.12717461 0.35206861
-37.754902 66.138802 27.2658 -0.33933781 -0.18802095 -0.92168214
-5.18164 33.607101 -42.4156 0.11796046 0.087809239 0.98912834
-39.661301 21.1446 20.0812 -0.30843764 0.95124446 0.00044797766
-24.594 90.313698 -0.874083 0.93440772 -0.078416141 -0.34746672
20.1084 96.282799 -4.76577 0.70602569 0.6422812 0.29833301
35.188301 97.775101 -23.0268 0.85165781 0.50048769 -0.15553471
-35.377899 20.475 -29.9121 -0.40045469 0.85084891 -0.34013552
31.996401 88.821404 -8.94861 -0.41510558 -0.41652848 -0.80882098
-35.763599 20.455999 -25.122299 -0.23297778 0.96741239 -0.099169659
44.589001 48.8283 22.1784 0.75060937 0.12002839 0.64975284
28.3985 102.758 -16.4408 -0.31993741 -0.75500588 -0.57236892
43.389702 74.793999 -18.3508 -0.93430221 0.12280833 0.33466026
4.71251 1.17528 -3.26897 0.021487549 -0.99780311 0.062667612
14.007 28.693899 -39.4916 0.41800047 -0.41771256 -0.80671669
-15.9753 60.468102 27.0117 0.36243278 -0.080887571 -0.92849323
-1.58377 78.060699 25.4697 0.061304835 0.60037674 0.79736409
11.3086 5.85063 -45.3825 -0.17080152 -0.011942322 0.98523308
-44.508999 15.1028 -8.05874 0.9911037 -0.13286002 0.007853182
-2.18342 0.875015 7.20865 -0.023761383 -0.99970045 -0.0058657462
32.895901 26.145599 -18.618601 -0.89761033 0.13896419 0.41831167
-9.61693 103.446 -4.46641 -0.5231854 -0.17134524 0.83481605
25.296301 51.812901 -29.9121 0.83672381 0.19176707 -0.51295093
-1.88359 7.04445 -46.514 0.16177402 -0.3315732 -0.92945596
3.51322 19.9685 35.348598 0.0030350555 0.99966599 0.025665081
-4.28218 96.581299 2.87611 -0.028307282 -0.84199043 -0.5387493
27.1992 37.188499 -31.0114 0.80850677 -0.43074301 -0.4009704
-26.7689 73.363098 23.6735 0.53628483 0.62466321 0.56762176
-1.28395 21.071899 -42.824501 0.10746457 0.93043662 -0.35034134
-9.67899 128.218 -39.962799 -0.22063921 0.079927471 -0.97207507
-36.221802 69.421799 -20.9312 0.72434731 0.11901712 0.6790846
14.9065 126.89 -25.4217 0.37723749 0.85599315 -0.35350757
-23.7707 101.058 -9.1514 0.79979536 0.33268391 0.49964867
-17.7742 47.634499 -40.221901 0.3278968 -0.14998062 0.93273228
42.163502 17.191999 30.259399 0.7468662 0.17088591 0.64264212
-13.2769 117.175 -35.801701 0.44685027 0.081128347 0.89092257
26.299801 0.816076 39.2402 -0.035798584 0.99422406 -0.10117793
-18.6737 35.3568 33.552399 0.27733386 0.76136293 0.586014
-34.564301 61.064999 -18.115999 -0.15987103 -0.40532428 -0.90008527
-34.564301 78.832298 25.4697 -0.17086056 0.97363695 0.15112165
-0.384479 82.255402 21.0683 -0.020508746 -0.80416508 -0.59405211
-18.973499 19.878099 39.432598 0.044252013 0.9902764 0.13188786
-24.070499 1.11121 -35.8993 -0.0011410543 -0.99962758 -0.027265347
-39.961102 41.366901 4.92545 0.14707451 -0.74015013 -0.65616071
-2.48324 0.690401 24.2722 -0.0019726559 0.99998673 0.0047585826
-42.6595 7.34291 31.6071 0.81960175 0.00031301369 -0.57293357
11.6084 0.809582 20.0812 0.011314201 -0.99984495 -0.013493089
-18.973499 7.34291 -43.707298 -0.62729966 0.21290365 -0.74911093
-18.373899 1.9707 45.450298 -0.062131641 -0.56675136 0.82154279
39.9729 78.375504 -25.122299 0.81825062 -0.14911448 -0.55518538
-30.7281 55.692799 29.6607 0.43189877 0.016618875 -0.90176896
-35.323299 10.3275 -31.408899 0.79565428 -0.083273217 0.59999987
-10.5785 13.756 -45.179501 0.34582543 -0.33763711 0.87544615
-36.5294 100.461 -10.4536 -0.65397134 0.64458873 0.39601371
-32.165699 27.0184 31.756201 0.97167107 -0.1477074 -0.18449352
25.1005 83.150803 -37.104099 0.44100235 -0.16481352 -0.88224341
8.91003 84.274002 16.7882 0.14261526 0.89023275 0.43260436
22.1022 88.523003 -39.280399 0.46129402 -0.086067826 -0.88306294
13.4074 69.123299 28.228001 -0.28021427 -0.11843277 -0.95260361
-46.668098 64.049599 9.30418 0.98653045 -0.08718055 0.13840963
-39.661301 11.2228 35.6479 0.79897508 0.14705327 -0.58310732
-7.58023 126.725 -5.59462 0.035642362 0.016936909 -0.99922108
25.400299 35.994701 -33.637199 -0.72882121 0.48681679 0.48148631
0.814813 0.630852 44.329399 0.012797395 -0.98395175 0.1779752
-5.78129 0.893486 5.41249 0.0038799283 -0.99999219 -0.00075162913
1.11424 40.4715 30.259399 0.80054757 -0.31417782 -0.5103096
-45.575001 6.44754 23.9729 0.9646829 0.08475332 -0.24940687
-37.714699 45.8438 -8.65746 -0.95768078 0.244771 0.15144198
-13.9217 12.1182 -45.179501 -0.32741946 -0.059030847 -0.94303333
20.902901 1.16706 13.1959 0.036279074 0.99932948 -0.0049409282
-22.788099 103.744 -32.6063 0.35600338 -0.57879472 0.73366086
31.996401 87.926102 -8.48394 0.32143615 0.46296299 0.8260412
-7.58023 21.6688 -39.847301 -0.17255068 0.79525809 -0.58119775
-1.28395 24.3549 27.348101 0.31820752 0.54265159 0.77735013
31.3967 20.773399 29.1735 0.30403076 0.58898194 0.74877605
6.51145 44.948399 -43.881001 -0.19742282 0.01418789 0.98021576
-15.3756 26.444099 38.459499 -0.63926979 -0.31229046 -0.70271531
-26.469101 20.7199 37.444099 0.010296546 -0.87561861 -0.48289339
41.060902 73.301697 -22.1287 0.80040339 -0.12631345 -0.58600283
5.9118 117.563 -34.701801 -0.39234776 -0.56404695 0.72657709
-5.48147 38.382401 26.6341 -0.46895053 -0.041435718 -0.88225194
-15.3756 99.753403 -6.26257 0.021558027 -0.95930552 -0.28154602
35.215599 27.936399 31.157499 -0.67838593 -0.042863638 -0.73345432
-29.4673 7.64137 42.736401 -0.46079771 0.25667414 0.84957863
-18.6737 7.34291 44.710899 0.0219183 -0.18807084 -0.98191087
-42.0154 61.9604 21.8773 0.86822197 0.020312009 -0.49576005
-46.257401 70.914101 10.936 -0.82370358 0.29211073 -0.48598738
42.477901 15.4012 29.9601 -0.7307642 0.36472159 -0.57702846
22.9132 90.313698 -6.56193 -0.72988415 -0.16648864 -0.66298617
-34.864101 13.5078 -30.510799 -0.50315883 0.32818409 -0.79945381
14.007 49.126801 -41.593102 0.45077958 0.059368689 -0.89065882
-4.88182 53.9021 -43.052299 0.087130882 -0.15952724 0.98334087
-23.7707 0.996445 30.5588 0.038158393 -0.99927165 -0.00032618692
14.007 84.332603 13.7946 -0.29124815 -0.89617257 -0.33473757
-46.868301 62.258801 1.22144 0.95654962 0.14986215 0.25010831
-32.4655 3.76144 42.087799 -0.47264599 -0.20173034 0.85785234
4.71251 30.622499 -42.3694 -0.10367847 0.21489025 0.97111943
-38.761799 60.468102 27.6842 0.60789739 0.0075306796 -0.79397988
-26.169201 78.959602 10.801 -0.52741311 0.84544143 0.084048801
-41.460201 20.25 -17.3389 -0.53081788 0.83727563 -0.13115599
6.81127 0.912686 -14.6447 0.0013073477 -0.99982454 0.018686492
-6.38094 84.133797 17.6863 0.11502456 -0.86474433 -0.48886255
-46.856998 38.528301 12.8965 0.89520193 0.2981565 0.33123436
24.201 68.824898 -34.807701 0.085783784 0.42100082 0.90299471
-35.163898 0.993138 2.11952 0.016986636 0.99976424 -0.013524722
-28.4443 6.746 -37.994801 -0.40818537 -0.48158782 -0.77553716
15.0231 113.593 -11.9504 -0.98035969 0.10396479 -0.16758939
27.4991 98.285896 -11.9504 0.41931131 0.78187304 0.46135949
-12.6772 115.812 -39.4916 0.011268474 -0.91852192 0.39520944
-21.971701 127.577 -24.224199 -0.97875153 0.20421126 -0.018525771
14.3068 95.984398 1.70092 -0.19967965 -0.8312707 -0.51876494
31.6966 21.1889 -25.122299 -0.18150613 -0.97764179 0.10616991
-40.260899 1.07509 1.5208 -0.018052639 -0.99946434 0.027297307
9.8095 1.72643 5.11313 0.16211269 -0.9722585 0.16862052
-25.8694 106.046 -27.8165 0.27553641 -0.86503933 0.41926918
-44.471298 19.878099 -3.26897 0.29146033 -0.95581866 0.038230557
-6.68076 19.579599 -46.035099 -0.12021994 0.25924463 -0.95830026
-2.32891 52.409801 25.1703 0.02703334 0.57674531 0.8164766
-18.6737 56.5182 -37.6954 -0.39878691 0.30018362 -0.86652109
-12.6772 0.776874 -20.825701 0.02889323 -0.99903158 -0.033182718
1.71428 61.6619 29.2274 -0.057211196 -0.18883917 0.98034007
46.637798 67.631104 -0.275361 -0.72626708 -0.6824438 0.082502063
18.2045 110.609 -29.787901 -0.79197654 0.2716533 0.54678848
35.294399 58.080502 21.461 0.022378269 0.16926933 0.98531574
-23.7707 4.05989 45.096901 -0.16833635 0.061090367 0.98383476
12.5079 99.864304 -4.28536 -0.12518463 -0.89052218 -0.43737747
28.698299 0.824519 34.1511 -0.035135492 0.99932047 -0.011139917
-26.8897 71.511002 -28.4153 0.85297829 -0.0099191807 0.52185213
31.996401 32.099098 29.6607 -0.32017955 0.17424643 -0.93119452
-41.134899 50.9175 22.176701 -0.96282127 0.01137855 0.2698995
48.717499 19.878099 3.61633 -0.85043976 -0.50295144 0.15424679
-19.573099 0.656637 -12.8485 -0.0058370629 -0.99988115 0.014269288
-28.026501 104.64 -8.65746 0.66410318 -0.35488759 -0.65804389
-31.7682 60.468102 29.6607 -0.16468355 0.05729169 0.98468116
0.215167 32.4132 31.4877 0.92081225 0.039140158 -0.38803717
-14.4762 84.941498 -38.209099 -0.24710453 -0.021264232 -0.96875548
-9.67899 134.187 -38.076401 0.26639526 -0.50694454 0.81978094
-26.469101 1.03233 35.049198 -0.046410638 0.99886439 -0.010769725
32.407398 38.382401 -20.9312 -0.91322849 0.10325241 0.39414802
-34.864101 1.14883 12.8965 -0.013301052 -0.99939114 0.03225582
-48.590801 60.169601 14.094 0.98296957 -0.015181259 -0.18314027
-8.17987 133.59 -4.82233 -0.10721704 0.57829438 0.8087522
-42.696701 89.716797 -12.5491 0.99762336 -0.032916946 0.060531843
-30.9664 0.744304 -23.6255 -0.0064471089 -0.99996679 -0.0049861706
0.814813 0.920501 -25.122299 -0.00069095353 -0.99996893 -0.0078529751
-41.077 27.637899 22.7754 0.9972369 -0.018862821 0.071852282
-13.5767 0.872428 -26.619101 -0.014742105 0.99962118 0.023241676
-41.759998 10.9149 -18.237 0.78178833 -0.45704349 0.42416773
-46.3312 71.212502 8.70546 0.5648099 -0.14269365 -0.81279044
12.8077 94.675003 -41.2878 0.039522816 -0.22419447 0.97374267
11.9083 32.4132 -40.914398 0.33549969 -0.049978305 -0.94071363
38.292702 43.1576 26.4965 0.44072316 -0.056232704 0.89588
11.9083 46.739101 -42.3936 -0.29248697 -0.00070108128 0.95626925
-33.576302 92.1045 -28.7146 -0.60469035 0.037117727 -0.79559528
-45.6577 18.9827 -3.33838 -0.9095023 0.37887448 -0.17105468
-2.64601 1.07533 -39.1922 0.0081611833 -0.99978143 -0.019248056
-15.3756 0.720458 -2.67025 0.003486054 -0.99987465 0.015444736
-40.8606 85.836899 -2.64985 -0.14660738 -0.59355857 0.79132452
33.8395 29.7271 -17.937599 0.86286822 -0.19373526 -0.46682447
-15.9753 63.154202 26.0896 0.45707898 0.49985628 0.73567827
41.290901 70.3172 2.88335 -0.43515087 -0.79604129 -0.4206685
5.31216 0.580475 41.635101 -0.0011016234 0.9995284 0.030688158
-25.2698 104.04 -31.109501 0.41579624 -0.57749454 0.70257636
-22.0998 78.077003 13.4952 -0.87666472 -0.46215603 -0.13368158
-35.4739 62.557301 27.565201 0.4350151 -0.0046496085 -0.90041115
1.11463 61.363499 -41.969398 0.067700869 -0.13825293 0.98808032
-11.7777 125.577 -5.36449 -0.17546032 0.54989119 0.81659865
-12.5813 26.444099 32.953701 0.10482717 -0.3735798 0.92165579
16.3668 5.25372 43.730701 -0.24292694 -0.24294561 -0.93912935
-45.1689 71.212502 21.278601 0.55576853 -0.23632783 -0.79703858
20.0035 39.576199 -36.613499 -0.4801186 -0.010956277 0.87713516
37.302101 50.320599 -25.4217 0.76725027 -0.053624247 -0.63910208
5.61198 137.035 -30.211399 0.64914534 0.64859354 -0.39741257
-8.09122 136.276 -6.56193 0.22585978 -0.55318209 -0.80185842
-24.969999 55.692799 -34.838299 -0.59174894 0.1690618 -0.78819496
33.7953 0.857299 -1.17344 0.0095648848 0.99994686 -0.0038465449
-38.462002 21.3969 20.0812 -0.45717831 0.88828131 -0.044094288
-13.5767 48.737999 24.2722 -0.70601086 -0.39962256 0.58467981
-9.97881 122.845 -39.6908 0.18594042 0.15472495 0.9703022
-46.965401 10.9244 1.82016 -0.99463106 -0.030099229 -0.099010582
39.492001 61.9604 -22.26 0.74193851 0.0022501984 -0.67046416
-19.872999 86.126297 9.00482 -0.47838278 0.59246876 0.64817489
-34.2645 85.010696 4.21505 0.029420177 -0.7796207 -0.62556056
-28.268 36.370998 33.552399 0.035417532 0.35828456 0.93294039
33.195702 69.7202 4.08687 0.38265941 -0.82348637 -0.41885793
-25.6103 4.05989 -40.090302 -0.57788793 0.007196435 -0.8160844
-42.059898 87.145699 -7.75938 -0.92174222 0.37802814 0.086521728
37.3932 1.38749 -21.530001 -0.2975363 0.94086714 0.16199126
-45.187302 3.16452 -10.1543 0.934713 -0.24535014 0.25712823
40.9911 8.32113 -19.135099 -0.92204223 0.00059818089 0.38708884
-2.48324 121.626 -39.4916 -0.17500534 0.24008606 0.95484649
39.8078 85.538399 -22.427999 0.90586486 -0.13639387 -0.4010057
1.11463 84.305702 17.6863 -0.022483158 -0.89498645 -0.4455264
4.41269 1.00408 -30.810101 0.000330948 -0.99993037 -0.011796005
31.6966 73.301697 -0.214974 -0.58518787 -0.61131002 -0.53278065
-40.714401 89.716797 -19.434401 -0.90444094 -0.15322594 -0.39813113
4.41269 56.7775 27.8645 -0.0070838095 0.410073 -0.91202519
-39.0616 28.8318 26.332001 0.40924661 0.071165064 -0.9096443
-32.5993 1.07533 12.2978 -0.0043702027 -0.99972531 0.023026295
-4.28218 92.561501 -39.4916 -0.19144485 0.18623439 -0.96367298
-29.805901 106.132 -23.6255 -0.41932037 0.86748812 -0.26764675
35.594299 20.5725 26.966499 0.34562901 0.86471651 0.3644255
36.193901 55.095901 22.9646 -0.07401841 0.68565845 0.72415038
39.098 86.732201 -24.224199 0.9016196 -0.151552 -0.40510997
39.2654 47.037601 -21.2306 -0.84101008 0.087503375 0.53389624
0.061239 63.452702 29.3613 -0.092211413 -0.10342044 0.99035411
15.806 23.052099 -37.096699 0.44220416 -0.3147025 -0.83989155
-40.342499 24.056499 22.7754 -0.83859949 -0.50579484 0.20229305
8.91003 19.9527 35.049198 0.10934885 0.99117291 0.074960651
23.322201 46.739101 -33.504398 0.72384286 0.074942075 -0.68588279
-15.3756 0.674262 -15.2434 -0.012563849 0.99991055 -0.0045860473
0.814813 98.670502 -39.229 0.23338307 -0.26097104 0.93671045
-37.697201 41.366901 0.622721 -0.99358545 -0.023756198 0.11056041
11.3086 75.048599 26.667101 0.20786018 0.48727348 0.84815016
31.6966 27.244699 -20.9312 -0.89044338 0.18955331 0.4137392
48.636299 40.77 7.50802 0.15577556 -0.071588639 0.98519493
35.4091 83.150803 -28.4153 0.81788641 -0.0047486617 -0.57536013
-32.8396 4.95526 41.934502 0.47561502 0.0021958878 -0.8796508
-30.9664 45.708099 -29.6127 -0.71955684 0.35225185 -0.59846185
-27.6684 1.24507 -35.300598 0.090118186 0.98430624 0.15172321
10.4599 25.8472 -40.090302 0.27030304 -0.28699733 -0.91900424
24.500799 104.341 -32.557999 0.50971421 0.64663601 -0.5674974
-35.163898 1.22849 14.6927 -0.005433279 -0.99957418 0.028669294
1.11463 102.448 -37.994801 -0.012903139 0.1390067 0.99020737
-10.8783 64.049599 -39.414799 -0.22120003 0.10109758 -0.96997414
-35.770901 8.83519 -30.810101 0.82422404 0.012718291 0.56612098
-26.169201 69.421799 25.2985 -0.54734968 -0.30204309 -0.78049875
-19.573099 1.11014 -36.498001 0.018314378 0.99918447 0.035985758
-41.759998 86.296097 -2.67025 -0.3801471 -0.29544093 0.87647181
-48.454102 63.452702 19.1831 -0.98574629 0.1490687 0.077992116
15.2063 116.876 -14.5256 -0.99948378 -0.0089530854 -0.030854843
49.249901 15.1028 3.91569 0.98283394 -0.040743447 -0.17993726
-42.359699 2.76173 29.9601 0.76825157 0.54074879 -0.34260805
47.2477 38.680801 -6.56193 -0.90647161 0.3996619 0.13630698
-24.070499 115.981 -34.389301 0.6324626 -0.52510757 0.56943226
-29.1675 0.653951 -13.1479 0.00033144748 0.99995598 0.009377181
-43.259201 53.751301 -3.56833 0.90811272 0.28610918 0.30573326
29.441999 76.286301 -33.205002 0.45134786 -0.17880937 -0.87424957
49.295799 48.5299 6.01121 0.9995582 0.003346179 -0.029533325
-37.763302 59.2743 28.1639 -0.27534635 0.17741339 0.94483272
47.287399 71.373001 -8.65746 0.86331141 0.40342993 0.30321231
-26.469101 97.1782 -4.08936 -0.0047638927 0.33153119 0.94343223
-29.954 57.483501 -27.8165 0.86727992 -0.28519139 0.40803358
41.7659 62.557301 -19.733801 0.76857729 0.024894805 -0.6392724
-6.02179 23.1611 29.6607 0.23043049 -0.58516122 0.77748835
36.193901 35.276901 -15.5428 0.063170424 -0.79821302 -0.59905382
-36.250198 58.9758 27.8645 0.43167222 0.17075939 0.88572023
6.21163 34.895199 35.348598 -0.39231784 -0.85828453 -0.33080867
-22.2715 41.963799 31.207899 -0.27215501 -0.17219004 0.94672184
15.2063 48.3423 28.463301 0.46127823 -0.49678852 0.73513506
37.6759 63.452702 -24.5236 -0.82775565 0.11546841 0.5490789
-15.0854 61.064999 26.966499 0.1778166 0.44492808 0.87773587
15.5061 56.429001 28.1639 0.08904853 0.38946691 0.91672563
48.5546 49.723701 -8.05874 0.90738658 -0.11710463 -0.40365344
49.386101 51.5144 -6.75098 -0.94813182 0.14333019 0.28372965
-41.730499 16.893499 -18.5364 0.95172585 -0.16706391 0.25750253
-8.37139 78.673897 23.9729 -0.28320113 0.59551429 0.75177114
-22.2715 1.04841 31.4569 0.034985063 -0.99934191 0.0095811323
-38.162201 12.1182 37.8536 0.69322606 -0.25739037 -0.67319227
20.303301 0.765225 41.635101 0.074697397 -0.98146971 0.17645823
-3.38271 90.910599 6.53663 -0.3860954 0.10301989 -0.91668819
-40.106098 23.459499 20.380501 -0.76540703 -0.63854653 -0.080064937
-41.360298 55.692799 -9.8549 0.78469336 0.41087613 0.46415206
49.8825 58.378899 -4.46641 0.99808785 -0.041252313 0.046031509
-34.5942 41.366901 -21.2306 -0.98520764 0.039768375 -0.16668649
11.3086 0.697888 32.953701 0.0071328617 0.99996665 0.0039772481
-19.714701 78.077003 -35.8993 -0.43417866 -0.13495454 -0.89066052
-35.163898 81.647903 15.8901 0.13210354 -0.94561172 0.2972661
43.689499 73.505997 -2.67025 0.40668098 0.88507122 0.22640564
43.1591 36.591599 20.0812 0.75314711 0.65004839 0.10102734
14.007 0.897384 -23.9249 0.021161021 -0.9997415 0.0083148033
-47.911701 61.363499 11.3997 0.89897812 -0.0085680958 0.43790972
-21.971701 1.00371 17.3869 -0.007488125 -0.99995417 -0.00596567
-33.376701 2.26916 40.737 0.43377379 0.59376612 -0.67770354
-38.162201 46.135601 -0.574722 -0.29799048 -0.67127437 -0.67866957
-24.969999 0.953154 1.5208 0.019296326 0.99930646 -0.031847306
-24.785 37.487 33.252998 -0.060808865 0.3088433 0.94916705
-37.5625 34.9832 -0.574722 -0.99744435 0.069224428 0.017684843
15.806 114.989 -14.944 -0.77247259 -0.49821385 -0.3937881
-18.973499 58.9758 22.976101 0.36623961 0.23496371 -0.90036693
-44.458401 78.9655 -0.574722 -0.76266027 0.64678259 0.0046463917
-22.193501 118.966 -23.326099 0.80230057 -0.035147046 0.59588462
-28.268 32.114799 34.558998 0.11846888 -0.32847879 0.93705219
-9.37917 45.5453 25.891199 0.40160129 0.2899221 -0.8687126
17.575001 44.649899 28.1639 -0.27735807 0.69415739 0.66424244
-1.28395 42.560699 -44.1707 0.02635602 -0.096399986 -0.99499367
30.6115 95.984398 -32.3069 0.74264941 0.21131983 -0.63546502
34.782101 15.1028 -31.7082 0.70781829 0.23250053 -0.66703581
36.793598 20.3011 29.9601 0.087600584 0.98499637 0.14868859
-18.6737 0.745779 -25.721001 -0.0091644931 0.99971351 0.022111245
-20.7724 0.652712 -8.05874 -0.0029816146 0.99998328 -0.0049538985
43.389702 2.14352 26.068399 -0.55780696 0.77612871 -0.29406738
32.2962 98.001503 -14.6447 -0.5993229 -0.50522849 -0.62093174
-28.567801 1.01348 0.023999 -0.030849435 -0.99923257 0.024136852
42.4902 9.13365 -16.813299 0.90592751 -0.087531828 -0.41428676
41.680099 78.077003 -8.95682 0.78251021 0.12326383 0.61031451
19.104 1.08139 -34.1031 -0.0075733929 0.99977911 0.019605658
-41.6241 72.704803 -14.3453 0.79615131 0.24762151 0.55211111
1.11463 121.055 1.60112 -0.54151875 -0.19850392 -0.81691716
-30.3668 98.968903 -5.94258 0.15271106 0.61796792 0.77122952
-36.962898 0.776874 -14.0466 -0.042009073 -0.99870585 0.028668086
41.890499 80.538002 -16.1415 -0.0094274912 -0.99948379 -0.030712856
30.497299 0.881099 -2.96961 0.0047045142 0.9999823 0.003641729
-13.8765 129.411 -6.39733 0.56068708 0.17310961 -0.80973024
9.0964 126.128 -32.6063 0.81535019 0.0022373465 -0.57896378
29.298 43.6012 -26.918501 -0.92509898 -0.12884327 0.35719922
-6.68076 15.6443 42.8326 -0.21114712 0.37685691 0.90188456
42.790001 2.93505 28.463301 -0.70821031 0.52673544 -0.47009353
-11.1781 92.1045 -38.497799 -0.031243874 0.13567147 -0.99026111
15.5061 65.541901 -38.7584 0.47080423 0.079715333 -0.87862895
16.105801 0.970322 -12.5491 -0.0090186446 0.99939415 -0.033615479
48.486698 64.049599 -0.572474 0.95492565 0.17146276 0.24231699
-39.688202 95.685898 -12.2498 -0.85721211 0.50527915 0.099400135
-11.1781 90.015297 -38.643398 0.060580558 -0.030243166 0.99770504
-19.872999 0.872628 3.31697 0.0008570448 0.99991052 -0.013350074
0.814813 83.678101 18.883699 0.015627278 0.86687634 0.49827823
-30.9664 1.09525 14.992 -0.03016834 -0.99951585 -0.0076112836
-25.569599 0.684636 -4.46641 0.00011583528 0.99932194 -0.036819165
14.9065 72.878403 26.667101 0.33384967 0.38246977 0.86154586
0.215167 99.565903 -38.886398 0.23167166 -0.13826454 0.96291804
-44.1586 9.73056 -12.1784 -0.91414986 0.39434692 0.09391773
1.71428 0.849585 -15.8421 0.0021430604 0.99994149 0.01060326
1.11463 75.092499 -41.326698 -0.081130431 -0.039427092 -0.99592337
3.17013 111.504 -41.2878 -0.43047363 0.53671149 0.72569499
-29.2465 10.9244 43.431301 0.27576976 -0.092348006 -0.95677734
10.4091 1.06832 -34.1031 -0.0038677878 0.99979976 0.019633632
49.685902 57.483501 -7.35461 -0.95697137 0.035383206 0.28801705
-47.156799 10.9244 17.538 0.98863651 0.15032535 0.00036580041
-0.684302 20.773399 -45.016998 -0.0043002278 -0.97401143 0.22645806
33.195702 21.071899 -23.063299 0.16025488 0.98475479 -0.067648958
32.9114 12.4167 -33.803799 0.75033663 0.084830789 -0.65559033
-0.984125 109.415 1.65239 0.026652756 0.20305688 0.97880413
-18.073999 57.185101 -38.1712 -0.37643514 0.041762033 -0.92550122
3.50346 138.664 -9.8549 0.40237337 0.78523107 0.47064619
-43.1367 76.883202 20.0812 -0.66578009 0.55284245 0.5011009
4.41269 19.678101 40.437698 -0.0061691882 0.99976371 0.02084368
33.7953 6.29385 38.042801 0.55092764 0.13374093 0.82376702
45.373402 72.704803 -12.8485 -0.88142563 -0.42434399 0.20741511
-42.6595 20.4631 -1.4728 -0.39809097 0.9147104 -0.069487174
-21.372101 0.963464 13.4952 -0.0020551457 0.9999095 -0.013295703
-3.38271 1.00149 -29.313299 -0.00069024048 0.99998356 0.0056917427
-6.68076 0.876272 4.51441 0.016985714 -0.99980226 0.010340701
1.71428 45.246799 -44.423401 -0.031696825 -0.027934178 -0.9991071
25.1005 0.776874 24.667299 -0.021503221 -0.99867781 -0.0466931
-13.2769 2.56761 -44.511299 0.17363132 0.61662165 0.76787362
-25.243099 51.216 29.6607 0.73462403 0.50992519 0.44755316
22.7019 61.643101 22.476 -0.364522 0.87805743 0.31006267
-42.059898 77.580704 11.3997 -0.68991725 0.66341116 -0.28965465
14.007 0.985087 -29.9121 -0.00046624345 0.99993103 0.011735547
30.7971 97.1782 -12.9785 -0.39479053 -0.77545841 -0.49275216
40.691299 14.2074 31.6423 -0.78915589 0.53858623 -0.29522509
-5.48147 53.318401 25.1703 -0.38438926 -0.84778609 -0.36538151
-20.3216 78.077003 13.4952 -0.69603831 0.5208768 0.49418421
-1.58377 28.8318 -42.159801 0.0043823554 -0.21502714 -0.97659824
-11.4779 84.344597 14.7105 0.29656443 -0.86454844 -0.40571608
-18.373899 125.356 -11.3517 0.85706229 -0.14796138 -0.49350953
-6.13183 38.680801 -43.0839 0.12749634 0.26260465 0.95644314
-45.172798 80.166199 -2.37089 0.51753365 -0.22968714 -0.8242589
10.3218 56.5882 26.667101 0.16619661 -0.46646203 0.86878758
-42.513 33.308601 15.5908 -0.98176047 -0.12710827 0.14138556
-24.3703 0.79449 -28.7146 -0.0025910803 -0.99941734 -0.034033366
42.488499 70.3172 0.023999 0.38997753 0.90512175 -0.1693285
-12.0776 137.702 -9.8549 0.4962242 -0.71441187 -0.49333277
47.427898 60.766602 3.91569 -0.93171163 -0.25398042 0.25962931
-38.473099 30.323999 -4.76577 0.99623166 0.0099123937 -0.086163899
-37.738701 84.046097 -22.427999 0.76973958 0.19831405 0.60677221
-6.68076 80.464699 22.872999 -0.17133454 0.71910809 0.6734449
32.895901 21.9673 28.446699 -0.46761779 0.32129135 -0.8234716
13.7072 20.773399 28.311199 0.43631441 0.47452312 0.76449823
-9.67899 133.291 -4.94462 -0.25447935 0.5297204 0.80909613
33.195702 59.2743 16.8668 0.91938103 -0.073845738 -0.38637461
14.9065 0.752519 27.2658 -0.015234755 0.99987537 0.0041411136
-10.5785 120.868 -39.1922 -0.21948386 -0.24580763 -0.9441427
33.1726 100.76 -23.0268 0.82783356 0.56067362 0.01834903
-25.8694 35.3978 33.859001 0.082898672 0.20708529 0.97480434
-38.162201 99.403503 -15.5428 -0.89871705 0.36352713 -0.24526658
49.677898 39.277699 2.41888 -0.91562072 -0.041201048 0.39992645
-36.962898 46.031502 -1.77216 0.97006596 -0.23253527 0.069995617
32.596001 0.899579 18.285 -0.018068989 -0.99794832 -0.061421989
-45.769199 76.286301 7.50802 -0.801403 0.59570467 0.05375106
17.305099 66.735703 -37.544102 0.59449396 0.15454027 -0.78910978
31.996401 52.409801 -29.712099 0.19850514 -0.20155062 -0.95915226
-20.1728 25.5487 -36.676601 0.31771424 0.39483436 0.86206931
-15.6754 135.66901 -32.6063 0.61678548 -0.59464022 0.5157312
18.804199 61.6619 24.0616 -0.6536289 0.28433732 -0.70137119
7.41092 83.377098 18.883699 -0.10528935 -0.86294127 -0.49421304
34.694801 38.0839 -19.787701 0.035046936 -0.8136108 -0.58035264
-16.275101 0.841351 3.61633 0.0089811138 0.99988924 -0.011868318
-34.864101 51.7048 -18.237 0.95328082 -0.29273979 0.074559373
11.3633 129.71001 -12.2498 0.88608343 0.35431367 0.29886113
-47.973499 41.665401 15.5908 0.98580036 0.15655675 -0.060725825
20.303301 23.1611 31.981199 -0.31784152 -0.47576993 0.82013398
-21.0723 104.587 -32.3069 0.42630897 -0.47938277 0.76710679
-22.5714 0.638011 -12.5491 -0.0037670845 0.99998775 -0.0032105121
-39.0812 24.056499 23.9729 -0.70413453 -0.6553937 0.27322822
-1.58377 0.702907 40.138302 -0.035426511 -0.99936481 0.0038656524
-10.2786 0.986043 -29.014 -0.011793022 0.99981538 0.015170071
-11.4779 132.09801 -5.06555 -0.4132394 0.16508141 0.8955341
-5.48147 0.802933 -4.46641 0.019702062 -0.99964926 0.017696807
48.411598 47.037601 -7.75938 -0.92600956 0.13038891 0.35426688
-37.385101 39.277699 4.21505 -0.99885001 -0.024052105 -0.041474727
-45.058102 83.2519 -8.65746 0.75092503 -0.35013918 0.55992335
15.806 0.776874 25.9599 0.0043208828 0.99998828 0.0021860333
49.476002 12.1182 9.60354 -0.98927841 0.084251262 0.1192894
-31.266199 61.6619 29.4685 0.040836899 0.060456994 0.9973351
19.403799 0.955768 3.61633 0.014077608 0.99970815 -0.019632742
43.689499 4.05989 -12.3312 -0.93742484 0.094254829 0.33518754
25.1005 69.123299 16.099501 -0.91367749 -0.067787373 -0.40074721
32.596001 0.986143 30.259399 -0.085047525 0.99599972 -0.027413132
-42.059898 87.732697 -14.944 0.93956671 0.13136556 0.31616054
-3.68253 138.365 -8.04488 -0.012881364 -0.76373221 -0.64540466
17.6049 82.255402 15.0272 0.44294838 0.80837676 0.38771605
-35.463799 57.782001 -15.2972 0.0070494586 -0.68089377 -0.73234826
-0.384479 0.889278 -23.0268 -0.0028794507 0.99969293 0.024611905
2.0141 77.181602 -41.4571 0.083941115 0.04649558 0.99538538
-20.366301 15.9981 -42.784599 -0.33951008 0.10744359 -0.93444571
36.612999 15.9981 -28.4153 0.87513797 0.13477279 -0.46472553
-15.0758 138.452 -27.8165 -0.585111 0.79804732 -0.14410272
-0.084656 79.867798 23.737301 0.10054014 0.68109155 0.7252627
40.824402 38.0839 22.7754 -0.82654706 0.16468843 -0.5382357
-42.565102 70.0187 25.768999 0.8190991 0.43181987 -0.37763509
-9.97881 91.5075 -38.538101 -0.17202915 0.14280579 -0.97468583
45.266201 6.746 26.068399 0.87710716 -0.0019611978 0.48029073
-18.073999 135.94299 -23.326099 -0.7881994 0.61483536 0.026817764
-36.962898 95.387497 -23.394899 0.81079377 -0.31007482 0.4964545
-40.560699 53.9021 24.416401 0.84386898 0.091933689 -0.52861456
-43.858799 19.7134 -10.753 0.69201085 -0.70425041 0.15859488
-12.0168 135.978 -8.05874 0.5041326 -0.50591443 -0.69992922
-25.569599 0.911375 -1.17344 -0.034723933 -0.99884744 0.033136676
34.994598 21.4897 -14.046 0.56538124 0.76776429 -0.30146648
-11.1781 37.487 28.585899 -0.40880704 0.026721142 -0.91222957
49.685902 11.2479 9.00482 0.99554763 -0.091811793 -0.021342671
45.7882 18.493 -5.66385 0.92174949 -0.18052961 -0.34320103
-18.073999 62.258801 -37.377102 -0.37977553 0.15630821 -0.91177754
-38.371201 29.130199 -14.944 -0.9659896 -0.23445171 -0.10907101
-33.664799 1.02278 25.1703 -0.0092778661 -0.99980409 -0.017484412
43.389702 20.475 -10.1859 -0.54413145 -0.81121543 0.2141273
-16.275101 65.9963 23.0748 0.62825131 0.44275732 0.63973921
-32.7654 37.487 -26.9149 0.85119748 0.1418627 0.50530964
13.1076 0.746526 26.068399 0.010752334 -0.9998415 -0.014190178
25.1005 0.935247 0.622721 0.0002114359 0.99996497 -0.0083669176
-36.8349 23.459499 -12.8485 -0.92430647 -0.28618909 -0.25249427
-10.2786 88.523003 9.05994 -0.26637947 0.29198096 -0.91857993
-5.48147 20.0616 34.749802 0.0017260098 0.99861562 0.052572534
-41.6497 29.7271 4.21505 -0.96744683 0.10048429 -0.23227039
-21.372101 0.822078 -0.574722 0.023134864 0.99917006 -0.033525511
-9.07934 33.905499 -41.946701 0.11314042 0.046580088 0.99248654
-16.874701 43.754601 -40.7649 -0.27065098 -0.031908323 -0.96214859
-18.973499 2.47633 -42.784599 -0.28180157 -0.60890159 -0.74150302
-10.8783 28.2045 33.552399 -0.32487606 0.18224715 -0.92803099
30.1975 100.615 -29.6127 0.72587437 0.42109823 -0.54385907
-11.4779 23.1611 30.892599 0.11778623 -0.59626466 0.79410003
27.585501 105.237 -27.2178 0.57939487 0.77098143 -0.26436569
28.6759 87.627602 -5.66385 0.88439938 0.11826757 -0.45149808
-47.156799 13.3671 5.71185 0.9852072 0.1607234 -0.059453795
-46.160099 62.258801 -0.874083 0.92374878 0.17757627 0.33934476
17.6049 110.864 -13.4472 -0.58345115 -0.6031908 -0.54382498
-11.4779 98.073601 -37.452499 -0.16893797 0.070457705 -0.98310512
-1.28395 22.186501 -40.090302 0.026628794 -0.49702577 0.8673271
31.238199 42.8592 28.7626 -0.19890151 0.05224802 -0.97862574
30.1499 26.145599 32.953701 -0.42041151 0.2550381 -0.87075239
-28.867701 88.158997 -0.574722 0.27224578 0.54380513 0.79382505
-21.3375 58.080502 24.870899 -0.62840356 -0.10351378 -0.77096943
34.994598 59.2743 -27.3386 0.66161733 0.064920978 -0.74702596
-24.3703 86.1353 -34.779202 -0.48844277 -0.053123278 -0.87097737
-33.664799 0.961706 1.22144 0.0042397432 -0.99994287 -0.0098127545
-17.7742 45.0159 25.1703 0.57085189 0.75067707 0.3325839
0.215167 32.114799 24.5702 -0.8932268 -0.27247745 0.35763379
-40.437199 15.9981 35.6479 0.735413 0.025237798 -0.677149
-6.08111 105.535 -2.2376 0.54101396 0.48687213 -0.68575464
46.0881 51.216 15.9499 0.64341116 0.68296742 0.34579993
-33.065201 0.932742 -29.6127 -0.045815265 -0.99764905 -0.050964008
28.0987 83.449203 -2.03245 0.5988566 -0.14347774 -0.78789905
-26.854 14.8043 -39.4916 -0.70629848 -0.044997639 -0.7064826
46.931 20.475 14.992 -0.1574607 0.98675286 -0.039050305
-22.2715 98.073601 -5.44072 -0.45468646 0.77960918 0.43066199
-31.566099 1.07533 9.45376 -0.0025037221 -0.99994084 -0.010585094
30.7971 0.937497 36.845402 -0.16352339 0.98467988 -0.06054448
-22.0168 77.778603 14.3933 -0.86575322 -0.49215007 -0.090882693
-15.1351 135.679 -33.205002 -0.56490025 0.61353881 -0.55177698
25.7215 79.867798 1.82016 -0.8885214 -0.41088071 -0.20422233
-14.1763 0.94369 14.992 0.024751408 0.99963902 -0.010449667
-26.469101 4.6568 -39.253399 -0.60422394 0.31788269 -0.73066
-39.5313 25.250299 25.4697 0.58632103 0.53729897 -0.60624868
-33.614201 104.341 -13.7466 0.49609776 -0.83750642 -0.22906333
44.088501 45.246799 22.7754 0.78566689 -0.095227465 0.61127675
-3.38271 53.9021 24.9408 -0.31537952 -0.44409175 0.83864073
-30.9664 0.91612 28.1639 -0.018882692 -0.99972656 0.013793211
45.4884 1.14427 1.22144 0.25424499 -0.96696637 -0.018317177
30.1348 58.080502 17.9856 -0.74501374 -0.067416323 -0.66363361
-3.38271 125.451 -2.37089 -0.23920604 0.50003341 0.83231428
6.21163 49.126801 -43.984501 -0.1676868 -0.018711782 0.98566272
-34.2645 2.56761 40.398602 0.47965289 0.52494227 -0.70311358
-27.068701 10.9244 -38.7691 0.90245471 -0.21377061 0.37400218
14.007 9.02026 -44.5807 0.35428085 -0.097453926 -0.93004721
26.299801 84.643097 -36.889 0.49360826 -0.19379053 -0.84781845
10.709 1.42515 8.10674 0.027026061 -0.92821384 -0.37106423
-7.28041 129.411 -40.252399 0.12797607 -0.15253173 0.97997765
10.0253 21.3703 31.756201 -0.91021412 0.15217066 -0.38516795
-16.275101 98.073601 -1.38488 0.11928973 -0.91584346 -0.38340674
-21.761499 115.682 -14.046 -0.86589598 0.41709522 0.27614441
38.099201 58.9758 -23.9249 -0.81078417 0.0066290809 0.58530769
-4.28218 57.156399 26.667101 0.27265734 0.38448502 -0.88194628
23.6014 0.91877 0.32336 -0.0020145499 0.99998816 -0.0044307172
-15.6754 121.652 -36.869499 -0.59951646 -0.27765889 -0.75065675
23.3015 1.77532 -37.6954 -0.16003866 0.94248802 0.29343476
-30.9664 33.607101 34.9137 -0.116956 -0.28093884 -0.95257265
-41.460201 21.0273 9.9029 -0.1365146 0.99058557 -0.010197327
-30.0669 24.5249 -29.014 -0.61278156 -0.49279002 -0.61778375
44.033199 33.308601 20.0812 -0.86155748 0.40634242 -0.30430994
43.147202 78.673897 -19.733801 -0.93208322 -0.020901834 0.36164068
-42.359699 32.4132 11.7397 -0.9969927 -0.060200354 0.048800372
-41.759998 81.656601 0.32336 -0.71631656 0.69613609 -0.047803054
6.51145 42.758801 31.756201 -0.029197919 -0.9496037 -0.31209021
-15.0758 51.216 24.5072 -0.60720588 -0.37861161 0.69853723
14.007 118.369 -20.8913 0.87871172 -0.23521836 0.41537698
-22.2715 22.564199 -33.990501 0.50643666 -0.094775349 0.85705282
-15.3756 28.2348 36.9263 -0.63368275 -0.5201121 -0.57265135
24.201 36.7262 31.756201 -0.059863303 -0.33857102 0.93903464
-1.58377 0.835804 8.4061 -0.013194781 -0.9998372 -0.012307691
12.2081 37.865299 35.9473 0.264912 0.45316021 0.85115654
-40.560699 1.32634 13.4952 -0.034561102 -0.99939919 -0.0026047172
28.698299 20.2701 34.1511 0.031733318 0.98696725 0.15776137
20.303301 110.012 -14.7101 0.83947971 0.40500476 0.36227747
48.186798 47.335999 -8.45345 -0.90838782 0.08227951 0.40995323
-41.2966 78.673897 -15.8421 0.79544399 -0.11886212 0.59425639
22.7019 8.53673 -41.18 0.43675914 -0.089558621 -0.89510933
-15.3684 24.3549 37.743401 -0.67956077 0.48349472 -0.55175178
-30.939699 91.5075 -30.211399 -0.5580761 0.065663477 -0.82718763
5.31216 99.864304 -39.9888 -0.14291753 0.21699803 -0.96565337
16.7054 85.538399 -41.228199 0.22727718 -0.002370682 -0.97382722
-38.046001 38.979301 -2.37089 -0.99517308 -0.0073145106 0.097862332
11.9083 59.572701 27.6304 0.29415631 -0.24361307 0.92418869
-9.67899 4.35835 -45.8908 -0.13668175 -0.18589531 -0.97301646
-16.021 58.378899 26.667101 0.67218504 0.22838076 -0.70427942
-13.8765 70.615601 -37.855598 0.28474272 -0.13900865 0.9484715
-9.67899 115.682 -37.540298 0.091647318 -0.90299485 0.41976312
37.992901 89.214699 -24.5236 0.42997802 0.89995847 -0.072067075
-40.974201 20.773399 -5.36449 0.38318853 -0.91885483 0.094193124
-4.28218 25.748199 29.062 0.66188205 0.43171458 0.61280884
15.806 1.06139 -8.05874 0.0019883412 -0.99999763 -0.00088773176
2.91357 139.582 -11.3517 -0.28420501 -0.90346122 -0.32091328
-29.351 57.782001 -28.7146 -0.86570839 0.27258869 -0.41981472
5.9118 86.884399 10.801 0.052899117 0.96399214 0.26061626
41.290901 80.6558 -17.0396 -0.10694982 -0.97815553 -0.17825124
-1.28395 53.9021 25.765499 -0.18837528 -0.54524095 0.81683968
-25.392799 70.3172 -30.810101 0.84130118 -0.19422062 0.50447068
41.290901 0.948964 -8.3581 0.014772787 0.99985757 0.0081611295
15.4093 121.652 -18.237 0.89350367 0.44672612 0.04568335
-39.3615 68.227997 26.5474 0.4582555 -0.081456713 -0.88508006
6.51145 50.619099 -43.889198 -0.14897913 -0.054274709 0.98734972
-47.757801 70.3172 8.10674 0.82113891 -0.11488016 -0.5590469
-39.0616 30.0256 26.694401 0.43640053 0.15831583 -0.88571478
-41.4925 60.766602 23.3741 -0.94215528 -0.12652524 0.31037846
-3.98235 141.157 -17.0396 0.019131771 -0.99673018 -0.07850433
-21.5977 84.941498 1.82016 -0.90898392 -0.19128303 0.37034988
13.8878 62.557301 27.565201 -0.36652479 0.19001007 -0.91079951
20.0035 44.351501 -36.695599 0.70961777 -0.02183212 -0.70424852
-12.0776 25.8472 -39.422001 -0.31856498 -0.40356297 -0.85770233
36.052898 81.956902 -28.4153 -0.71846745 -0.62494346 0.30536895
4.41269 31.5179 -42.510201 0.11172404 -0.0064700365 -0.99371821
-47.283199 8.83519 11.6991 0.97055282 0.23627296 -0.046928739
38.592499 67.929497 10.6003 0.1580678 0.70009455 0.69633482
-19.872999 40.283798 31.4569 0.13628178 0.16066054 -0.97755586
17.6049 101.058 -38.4333 -0.2496276 -0.42890645 0.86817355
-29.1675 0.905236 29.6607 0.0074174094 0.99996544 0.0037544862
-28.1479 29.428699 34.1511 -0.44131958 0.88297035 0.16000119
