-0.0577 0.161621 -0.006335 -0.273155 -0.892388 -0.359207
-0.046728 0.060075 0.023162 0.764988 0.643118 -0.0345339
-0.072273 0.139875 -0.015585 0.0422357 -0.947848 0.315912
0.037627 0.077225 -0.034472 -0.24996 -0.733475 -0.632087
-0.067351 0.143813 -0.015574 0.600101 -0.0405682 0.798895
0.040285 0.062525 -0.045088 0.791966 0.0732723 -0.606152
-0.081723 0.065325 -0.038743 -0.315334 0.650521 -0.690932
-0.024673 0.157555 -0.014638 0.686848 0.526116 -0.50144
0.041161 0.062456 -0.00394899 -0.270365 0.934827 -0.23022
-0.049873 0.131125 0.00101001 -0.427802 0.424422 0.79803
0.015227 0.119575 -0.028034 0.815692 -0.572167 -0.0852768
0.082692 0.081075 0.010562 0.946448 -0.270282 -0.176591
0.035177 0.066204 -0.031087 -0.201885 -0.95168 -0.231405
-0.084784 0.151043 -0.006401 0.549819 0.823804 0.138005
-0.019443 0.149069 -0.01 -0.520813 -0.248806 -0.816608
-0.064223 0.127518 -0.015337 -0.704087 0.706652 0.0700241
-0.00507301 0.105225 0.002094 0.211458 0.0595421 0.975572
-0.078024 0.090175 -0.020938 -0.519083 0.0727581 -0.851621
-0.015596 0.060425 -0.018488 0.633242 -0.650485 -0.419373
-0.060373 0.053292 -0.008687 0.0508145 -0.988845 0.14001
0.015612 0.063225 -0.009037 -0.833247 -0.267963 0.483628
0.054777 0.110125 -0.029695 0.694835 -0.260036 -0.670511
0.020827 0.096125 -0.027609 -0.703745 0.700352 -0.119369
0.037767 0.107675 -0.00238701 0.0320978 0.196922 0.979894
-0.026773 0.086675 -0.031151 -0.953073 0.179301 -0.243931
-0.098873 0.150912 0.000762999 -0.598594 0.696819 -0.395131
-0.047423 0.164478 0.00426201 0.16451 -0.547623 0.820393
-0.084873 0.060775 -0.034052 -0.488439 0.353964 0.797582
0.020077 0.153525 -0.008687 -0.147803 0.793703 0.590076
0.067829 0.056225 0.010562 0.787957 -0.615703 0.00570004
-0.036223 0.129725 -0.027707 0.310367 -0.414233 -0.855619
0.081907 0.139175 -0.006938 0.0242949 -0.319983 0.947112
0.070877 0.077925 0.023687 0.030605 0.301141 0.953089
0.046808 0.102425 -0.00448801 0.302665 -0.213904 0.928784
0.040654 0.118875 0.009863 0.649949 0.49767 0.574362
0.025377 0.106275 -0.021678 -0.571199 0.798078 0.191842
-0.033773 0.177325 -0.00285699 0.892432 0.0756129 -0.444801
0.022927 0.125875 -0.012272 0.579305 -0.761485 0.290767
-0.062152 0.089825 0.016863 -0.545556 0.218474 0.809097
0.044204 0.074075 0.016162 -0.556036 0.753263 -0.351309
-0.055473 0.060128 -0.025837 -0.160373 -0.828843 0.536003
0.031617 0.077575 0.024913 -0.822177 0.472148 0.317965
-0.00122301 0.111506 -0.034238 0.0466911 -0.0997978 -0.993912
-0.008573 0.103475 -0.033702 -0.0619945 0.0196303 -0.997883
0.029227 0.053032 -0.013938 0.15071 -0.953065 0.262591
-0.056523 0.056831 0.010913 -0.0415868 -0.256221 0.965723
-0.011639 0.123425 -0.028988 -0.795341 0.313571 -0.518754
-0.039439 0.179775 -0.023737 -0.103398 -0.587765 -0.802397
0.019082 0.064275 -0.026538 -0.518301 -0.520935 -0.678226
0.054427 0.053898 0.000413008 -0.30677 -0.8738 0.377312
-0.065623 0.12439 -0.017088 -0.737988 0.60511 -0.298689
-0.023623 0.078275 0.010443 -0.101103 -0.928454 0.357422
-0.021202 0.068475 -0.035988 0.62371 -0.145785 -0.76794
-0.030891 0.177675 -0.005187 -0.823616 -0.174099 -0.539764
-0.064261 0.155972 -0.020781 0.598822 0.160386 0.784658
-0.097823 0.14287 -0.000987001 0.602754 -0.22389 0.765872
-0.012073 0.11869 -0.002038 -0.485944 0.348431 0.801533
0.023112 0.063386 0.00691099 0.57733 0.815372 0.0431027
-0.068423 0.142745 -0.009037 0.810191 -0.489621 -0.322276
-0.04301 0.076875 0.028763 0.528636 0.562424 0.635786
-0.028523 0.053406 -0.012187 -0.341183 -0.925531 0.164276
-0.016273 0.082475 -0.031768 0.271086 -0.0861961 -0.958688
-0.028173 0.053728 -0.009037 -0.423275 -0.901805 0.0870931
0.023977 0.144075 -0.035483 0.0140311 0.055432 -0.998364
0.001227 0.13261 -0.002038 -0.0600765 0.161222 0.985088
-0.054073 0.053266 -0.014638 0.0332848 -0.998931 -0.0320682
0.039377 0.159125 -0.021872 0.101551 0.37394 -0.921877
0.056877 0.103993 -0.019887 0.825722 -0.55563 -0.097256
-0.035523 0.086675 -0.026551 -0.505787 0.548883 -0.665513
0.091527 0.139241 -0.008687 -0.373325 0.523756 0.765707
-0.088333 0.148811 -0.002433 0.270677 0.509796 0.816604
-0.077523 0.061994 -0.012888 -0.797402 -0.437071 -0.416075
0.021877 0.055525 -0.00296 -0.795043 -0.51964 0.31286
-0.00017301 0.080917 -0.009037 0.827969 0.450458 0.333998
0.015577 0.150725 -0.007178 -0.125557 0.606839 0.784845
-0.042565 0.097525 -0.006938 -0.452026 -0.0117316 0.891927
-0.021457 0.084925 -0.034938 0.573881 0.168908 -0.80133
0.017327 0.134625 -0.003026 0.301395 -0.310023 0.901691
-0.039723 0.053392 -0.017787 0.119449 -0.991461 0.0523114
0.029927 0.054264 -0.00238701 0.636024 -0.688892 -0.347708
0.051977 0.095775 -0.009643 -0.437157 0.338894 0.833093
-0.085573 0.152369 0.00741299 -0.482208 0.712696 0.509451
-0.059323 0.161648 -0.002738 -0.0119561 -0.349837 -0.936734
0.016207 0.083175 -0.027937 -0.948429 0.233575 -0.214304
0.046377 0.053297 -0.009037 -0.209189 -0.945749 0.248595
-0.039023 0.1093 -0.014988 -0.170824 -0.955991 0.238537
-0.076473 0.063225 0.00887199 -0.593292 -0.581777 0.556364
0.00262701 0.111525 -0.000611 0.619109 -0.104371 0.778339
-0.082219 0.175925 0.00776299 -0.0803426 0.0116192 0.9967
-0.086623 0.164025 -0.00504 0.286956 0.45206 0.84457
-0.015573 0.185725 -0.030052 0.134606 -0.303669 -0.943221
-0.023687 0.053075 0.013713 -0.119664 -0.992751 -0.011183
-0.051993 0.140225 -0.006237 -0.824416 0.056432 -0.563163
0.028527 0.161225 -0.022934 0.0933654 0.559444 -0.823593
-0.036573 0.060775 0.019229 -0.871585 -0.344461 -0.348834
0.00787701 0.152475 -0.024667 -0.0405726 0.223025 -0.973968
-0.013885 0.188525 -0.030388 -0.246349 0.170731 -0.954025
-0.003673 0.104525 -0.033822 0.109481 -0.0820874 -0.990594
0.064794 0.094375 0.003913 -0.868774 0.312905 0.383825
-0.018723 0.055101 -0.011838 0.490874 -0.865823 -0.0969169
-0.056873 0.068125 0.037068 0.701832 -0.147712 0.69686
-0.020632 0.155625 -0.022688 -0.135862 0.413961 0.900099
0.016977 0.070925 0.00732501 -0.456447 -0.577157 0.67716
0.072277 0.107675 -0.013257 -0.00726835 -0.678317 -0.734733
0.010327 0.155625 -0.022738 0.332791 -0.481452 -0.810835
0.083844 0.094375 0.002512 0.952271 -0.0734824 -0.296277
-0.04576 0.063925 0.023162 0.931435 -0.345564 -0.114078
0.060027 0.138957 -0.014638 -0.0782588 -0.115844 0.99018
0.038677 0.115025 -0.002227 -0.261025 0.101719 0.959958
-0.075773 0.173825 0.000402004 0.241603 -0.368135 0.897833
-0.048123 0.064275 0.033533 0.0959257 0.442721 0.891514
0.077527 0.146525 -0.012888 0.120462 0.379553 -0.917294
-0.060723 0.057275 -0.020244 -0.262184 -0.360586 -0.895118
0.003327 0.148275 -0.011715 -0.517097 0.778359 0.356045
-0.063873 0.167875 0.009854 0.284433 0.857674 0.428362
-0.069473 0.160525 -0.023473 -0.489299 0.0164933 -0.87196
-0.089773 0.179655 0.009162 0.277877 0.906294 0.318457
0.020477 0.124572 -0.027587 0.727072 -0.682866 0.0711342
-0.040782 0.141965 -0.001445 -0.771784 -0.460529 -0.438478
-0.047073 0.070575 -0.036017 0.214464 -0.0857982 -0.972956
-0.065494 0.119575 0.00461201 -0.330687 0.557983 0.761118
-0.080323 0.058254 -0.024788 0.0148893 -0.925439 -0.378603
0.001227 0.122375 -0.034535 -0.060134 -0.0143239 -0.998088
-0.048823 0.15891 -0.030738 -0.700333 -0.551113 -0.453661
0.059677 0.083482 0.014763 -0.644634 0.562332 -0.517908
-0.045714 0.177675 -0.028988 0.911805 0.154154 0.380588
-0.067135 0.144075 0.003563 0.961653 -0.274227 -0.00471019
-0.050223 0.137963 -0.024788 -0.931443 0.220624 -0.289376
0.00822701 0.129025 -0.034952 0.0659478 -0.0683622 -0.995479
0.051627 0.071625 -0.026353 0.827406 0.224836 -0.514633
-0.04395 0.055875 -0.025837 -0.291499 -0.949499 -0.116104
-0.003673 0.073725 -0.006097 0.798266 -0.112009 0.591799
0.008063 0.098575 -0.014638 0.678257 0.613893 0.403861
0.044209 0.053775 0.010562 0.237387 -0.853822 -0.463287
-0.030273 0.054878 -0.00588801 -0.596854 -0.801545 -0.0359427
0.050286 0.146875 -0.027937 0.5602 0.706803 -0.431978
-0.034473 0.059375 0.020348 -0.791081 -0.573845 -0.211879
0.036927 0.05304 0.009863 -0.15749 -0.960473 0.229538
-0.050923 0.123425 -0.025802 -0.278352 -0.161605 -0.946786
-0.045673 0.084225 -0.026487 -0.266746 0.648948 -0.71254
0.086277 0.141275 -0.005931 -0.127261 -0.52579 0.841041
-0.055108 0.070925 -0.034587 -0.303092 -0.362645 -0.881263
-0.035325 0.169625 -0.038787 0.400675 0.7883 -0.466949
0.061427 0.116425 -0.011237 0.378694 0.102691 0.919807
0.040427 0.094025 -0.033495 0.45639 -0.162975 -0.874727
-0.062123 0.158425 -0.0247 0.0446278 -0.960179 -0.275798
0.036562 0.093675 0.027013 -0.930195 0.345391 0.124268
0.018377 0.081921 0.00111199 -0.106285 0.95681 -0.27059
0.009517 0.104175 -0.021288 0.918024 -0.0612642 0.391764
-0.044273 0.088386 -0.020588 -0.519636 0.849386 0.0923095
0.029577 0.157725 -0.024213 0.135144 -0.261694 -0.955642
-0.079273 0.140575 -0.012343 -0.246572 -0.853055 -0.45989
-0.085687 0.065675 -0.030738 -0.487805 0.406356 -0.772607
0.044627 0.100675 -0.00389101 0.198641 -0.129615 0.971464
-0.028977 0.161225 -0.027937 0.0209506 0.290924 -0.956517
0.082077 0.135763 -0.008337 0.0179588 -0.217515 0.975892
-0.024093 0.154575 -0.015337 0.430099 0.902312 -0.0291146
-0.055123 0.053386 0.029112 0.0754198 -0.985425 0.152479
-0.086623 0.141069 0.003563 -0.501673 -0.786816 0.359507
-0.028873 0.089784 -0.028638 -0.582182 0.282716 -0.762323
-0.077173 0.170325 0.016161 0.248587 0.393326 0.885155
0.001577 0.087725 -0.005427 0.857809 -0.107967 0.5025
0.044006 0.057577 0.000309996 -0.334049 0.915967 0.222297
-0.019773 0.113524 -0.023737 -0.904908 0.295779 -0.306034
-0.04111 0.101966 -0.009884 -0.433704 -0.0708677 0.898264
-0.037623 0.174318 -0.035988 0.287688 0.956607 0.0462338
-0.091173 0.163675 -0.011649 -0.675126 -0.62042 -0.399105
-0.063063 0.162414 -0.005939 0.531775 -0.547492 -0.646117
0.041682 0.073186 0.0157 -0.790483 0.416543 -0.44903
0.040008 0.055456 -0.002547 -0.75294 -0.628399 -0.195439
0.046727 0.074666 0.016863 -0.316212 0.848983 -0.423364
0.055477 0.102605 -0.022338 0.833634 -0.54255 -0.103406
0.072781 0.055175 -0.006588 0.743851 -0.666767 0.0459147
0.082315 0.101025 -0.003437 0.89023 -0.0753523 -0.449236
0.068131 0.109425 -0.013237 -0.602078 -0.764508 -0.230284
-0.056523 0.16119 0.00776299 0.179863 -0.741633 0.646242
-0.018023 0.104875 0.000216998 -0.588176 0.337519 0.734935
-0.039023 0.071625 -0.031131 0.816572 0.535843 -0.214668
0.023277 0.083175 0.012206 -0.598844 0.680574 0.422143
-0.059395 0.099975 0.012312 0.154596 0.393199 0.906364
0.031677 0.106625 -0.031103 -0.588026 0.562902 -0.580832
-0.064573 0.110825 0.009226 -0.108476 0.285853 0.952114
0.043998 0.079325 0.023162 0.764673 0.188217 -0.61632
-0.049873 0.160822 0.003913 -0.09171 -0.945756 -0.311664
0.030524 0.118073 -0.017155 -0.539198 0.810208 0.229845
-0.082773 0.058704 -0.023387 0.224198 -0.872527 -0.434087
0.06487 0.10747 -0.005903 -0.275501 -0.043134 0.960332
-0.00301399 0.130075 -0.032837 -0.422992 0.193303 -0.885275
0.018481 0.095775 -0.022688 -0.616512 0.743818 0.25816
-0.066673 0.077575 -0.032157 -0.608647 -0.536073 -0.584957
0.070448 0.068825 -0.00588801 0.499035 0.617562 -0.607932
0.020127 0.056575 -0.017964 -0.615495 -0.740433 -0.270045
0.042877 0.096125 -0.0045 0.253476 -0.0391255 0.96655
0.046012 0.084225 0.023162 0.616968 0.115808 -0.778421
0.053377 0.078898 0.00776299 0.0179835 0.699094 0.714803
-0.063895 0.062175 -0.027587 0.152852 -0.496377 0.854544
-0.066406 0.143025 -0.00588801 0.803052 -0.425214 -0.417493
-0.036573 0.068825 -0.035317 -0.611808 0.756822 -0.230027
0.022565 0.055175 -0.018488 -0.455157 -0.841646 -0.290628
-0.020473 0.157725 -0.011508 -0.319503 0.247357 -0.914731
0.059083 0.137775 -0.024788 0.646049 0.407898 -0.645167
-0.043223 0.092975 -0.013739 -0.597651 -0.190857 -0.778708
-0.028859 0.184675 -0.018488 0.0826362 0.466215 0.880804
-0.013123 0.077225 -0.029295 0.176096 -0.35333 -0.918775
0.047922 0.089125 0.022813 0.697224 -0.17336 -0.695576
-0.018489 0.117825 -0.022688 -0.86618 0.252324 -0.431353
0.044277 0.122025 -0.00164101 -0.317974 -0.24451 0.916028
0.013827 0.149675 -0.031586 -0.325484 0.673837 -0.663328
0.018639 0.089125 -0.029687 -0.788269 0.371039 -0.490879
0.066327 0.084783 0.021762 -0.453702 0.560103 0.693137
0.05235 0.154925 -0.019887 0.65476 0.75394 -0.0535168
0.043788 0.085275 -0.007637 -0.626304 0.00310193 0.779573
0.073327 0.062247 0.003563 0.81318 -0.580079 -0.0474047
0.033427 0.132875 -0.00408401 -0.428771 -0.575121 0.696701
-0.086677 0.150337 -0.00418301 0.145048 0.297264 0.943713
-0.050921 0.147225 0.00706299 0.432433 0.245635 0.867563
0.052505 0.107325 -0.030738 0.599436 -0.277967 -0.750607
0.049177 0.052878 -0.007988 -0.0386573 -0.999103 0.0172731
-0.026367 0.186775 -0.023387 -0.275127 0.95622 -0.0997461
0.089777 0.137075 -0.007368 -0.349032 0.0896401 0.932814
-0.021873 0.171375 -0.011305 -0.248107 -0.359999 -0.899357
-0.023973 0.061825 0.025286 0.440855 0.44193 0.781246
0.027827 0.073725 0.015975 0.874081 -0.469622 0.12425
-0.073673 0.056575 -0.006417 -0.477882 -0.872705 -0.100071
0.038677 0.151775 -0.030282 0.300073 0.803821 -0.513642
-0.014523 0.134275 -0.020882 0.686401 -0.468363 -0.556318
-0.034138 0.146006 -0.03408 0.837254 -0.543935 -0.0560441
-0.093623 0.143537 0.019312 -0.255448 -0.941184 -0.221174
-0.081758 0.098925 0.006713 -0.80776 0.323624 0.492738
-0.082423 0.180346 -0.000987001 0.481623 0.844554 -0.234027
-0.059673 0.178072 -0.021288 -0.206917 0.933721 -0.292146
0.047077 0.083613 -0.010788 0.181806 -0.919423 -0.348722
-0.019423 0.106625 -0.00156101 -0.752284 0.367836 0.546595
0.061346 0.131825 -0.013237 0.382823 -0.0782512 0.920502
0.020827 0.057526 -0.020938 -0.562661 -0.738523 -0.371477
-0.023973 0.158775 -0.00280901 0.51931 0.142865 0.84256
-0.070173 0.104525 0.010715 -0.0767647 0.30184 0.950263
-0.026697 0.103475 -0.019537 -0.923034 0.272749 -0.271324
-0.055004 0.137425 -0.009037 -0.937818 0.346496 -0.0209065
0.083811 0.099275 0.00181299 0.984082 0.0690178 -0.163767
0.018377 0.096801 -0.020237 -0.525853 0.822548 0.216549
-0.02639 0.163325 -0.015337 0.856838 0.515426 0.0128147
0.016815 0.075125 -0.029337 -0.707117 -0.20288 -0.677367
-0.00752301 0.105925 -0.033911 -0.0672863 -0.000148864 -0.997734
-0.041969 0.118175 -0.000637002 0.632969 -0.563516 0.530848
-0.079273 0.083175 0.01194 -0.413031 -0.020093 0.910495
-0.075073 0.172425 0.003766 -0.0419942 -0.182889 0.982236
-0.073355 0.148975 -0.014988 -0.37587 0.90679 -0.190926
-0.027473 0.053775 -0.006083 -0.397924 -0.917183 0.0207673
0.036577 0.095775 -0.003009 0.231085 0.0191319 0.972745
-0.070884 0.149119 -0.011851 0.464891 0.50529 0.72702
0.082742 0.088775 0.00146199 0.78669 -0.238505 -0.569415
0.049527 0.119225 -0.00206701 -0.00253577 -0.219469 0.975616
-0.030273 0.056225 -0.024507 0.0834969 -0.175766 -0.980884
-0.070173 0.10579 -0.021288 -0.257453 -0.0160457 -0.966158
0.070177 0.053622 -0.008687 0.165869 -0.985962 -0.0191304
-0.01911 0.066725 -0.027587 0.00378457 -0.85022 -0.526415
-0.029223 0.172075 -0.011496 -0.292585 0.0813921 -0.952769
-0.023623 0.166475 -0.024022 0.319958 0.528148 -0.786567
0.048127 0.096907 -0.007637 -0.0435089 0.148265 0.98799
-0.006987 0.145825 -0.021288 -0.296207 -0.597554 -0.745111
0.083311 0.083875 0.010562 0.97246 -0.204287 -0.112194
-0.01882 0.158425 -0.005187 0.632871 0.0730703 0.770802
0.026077 0.053245 -0.017088 -0.186376 -0.975696 -0.115244
-0.023584 0.070225 0.018963 0.758997 -0.190942 0.622467
-0.026442 0.144963 -0.004575 0.475631 -0.749708 0.460122
-0.064223 0.122559 -0.020237 -0.666545 0.369718 -0.647323
-0.03191 0.080375 0.017562 0.72679 0.586369 0.357699
-0.041473 0.167875 -0.036418 -0.0438451 0.728611 -0.683523
-0.009273 0.099311 -0.033537 -0.0451132 -0.0723888 -0.996356
-0.050223 0.17685 -0.024788 0.586293 0.784903 -0.20047
-0.028873 0.174828 -0.041588 -0.404331 0.611889 -0.679786
0.031677 0.131762 -0.032488 -0.164512 -0.709421 -0.685315
-0.098873 0.153175 0.011324 0.213458 -0.91242 0.349177
-0.056873 0.122375 0.004928 -0.0805448 0.462577 0.882913
-0.030273 0.085975 0.009565 0.176966 0.188919 0.965916
-0.074373 0.064975 -0.037354 0.192137 0.411059 -0.891131
-0.068049 0.16184 -0.011291 0.626942 -0.363691 0.688965
-0.077873 0.114325 -0.003705 -0.82605 0.558097 0.0785455
-0.006473 0.137425 -0.009279 -0.765613 0.516137 0.383979
-0.020014 0.164025 -0.005187 0.447784 0.447371 0.774176
-0.040773 0.174175 -0.02809 0.520599 0.788909 -0.326495
-0.00595301 0.080025 0.00181299 0.43458 -0.390074 0.811777
-0.056873 0.075122 0.029812 -0.847353 0.529069 0.0456015
0.068077 0.065066 -0.010437 0.3041 0.573279 -0.760838
-0.074556 0.060425 -0.035287 0.332994 -0.921019 -0.202087
-0.066317 0.057975 0.023862 -0.913623 -0.217472 -0.343509
0.071933 0.123425 -0.007287 -0.115687 0.558833 0.821171
-0.005863 0.123775 -0.032837 -0.384064 0.157369 -0.909797
-0.099457 0.171375 -0.007287 -0.827896 -0.16568 -0.535852
-0.081981 0.071275 0.00706299 -0.838271 -0.355673 0.413278
-0.00033401 0.082475 -0.00588801 0.875447 0.170329 0.452305
-0.083037 0.077925 -0.015337 -0.686646 -0.150539 -0.711235
-0.081023 0.163965 -0.006237 0.192072 -0.237486 0.952213
0.058977 0.054116 -0.013938 -0.164105 -0.966645 0.19664
-0.069084 0.155984 -0.018405 0.504642 -0.00573279 0.86331
-0.031323 0.066025 0.026169 0.323373 0.0607059 0.944322
0.026378 0.155625 -0.011487 0.0861548 0.970424 0.225509
0.034153 0.064477 0.000250004 0.948901 0.175551 -0.262238
0.032377 0.052795 -0.018488 -0.0177684 -0.993806 -0.1097
0.071577 0.131475 -0.010309 -0.314535 -0.00299266 0.949241
-0.081577 0.162275 0.011262 -0.819543 -0.571414 -0.042836
-0.05412 0.139525 -0.018488 0.0934401 0.53604 0.839005
-0.065973 0.054623 0.00461201 -0.172742 -0.943801 0.281781
-0.068423 0.150634 0.003913 -0.501967 0.652194 -0.568043
-0.056222 0.159526 -0.012925 -0.843333 0.0860348 0.530459
0.004917 0.150725 -0.014988 -0.320008 0.591872 0.739786
-0.043923 0.132875 -0.028053 -0.283015 -0.0398812 -0.958286
-0.040423 0.120275 -0.001562 0.619925 -0.581642 0.526673
-0.084885 0.061125 -0.024788 0.669292 0.199533 -0.715706
0.00248 0.106625 -0.000987001 0.733779 -0.128325 0.667159
-0.042173 0.187623 -0.021637 -0.451627 0.337202 -0.826032
0.00402699 0.122725 -0.034553 0.026319 -0.0856191 -0.99598
0.007177 0.110125 -0.029822 0.838425 -0.446456 -0.312604
-0.081258 0.172425 0.014763 0.273257 0.834969 0.477658
0.057227 0.139873 -0.025138 0.646831 0.533645 -0.544824
-0.017673 0.054811 0.025612 0.267808 -0.493715 0.82736
0.004912 0.059725 0.014062 -0.563827 0.210384 0.798647
-0.09114 0.144425 0.016162 0.101343 -0.65672 -0.747294
-0.074723 0.142325 0.01275 0.0300584 -0.98538 0.1677
-0.031673 0.054825 -0.028208 0.4558 -0.697344 0.553135
-0.053038 0.144047 -0.021763 0.118426 -0.317068 0.94098
0.063877 0.069867 -0.008337 -0.920816 0.263742 -0.287295
0.041956 0.076014 0.019931 0.310347 0.500379 -0.808273
0.040712 0.128675 -0.033888 -0.260252 -0.0446464 -0.964508
0.069827 0.053572 -0.00588801 0.065421 -0.983805 0.166879
0.062358 0.135325 -0.021288 0.678193 -0.0728272 -0.731266
0.044626 0.077575 -0.032837 0.52398 -0.358119 -0.772784
-0.093623 0.164725 -0.010627 -0.745698 -0.488064 -0.453571
0.076827 0.073375 -0.000161 0.573179 -0.160646 -0.803529
-0.028523 0.173825 -0.03761 0.0765282 0.0646747 0.994968
-0.011723 0.113234 0.000413008 -0.292198 0.275587 0.91579
-0.077523 0.075125 0.012775 -0.287887 -0.0815622 0.954185
-0.001573 0.106275 -0.033859 0.196443 -0.13737 -0.970845
0.058257 0.106625 -0.020237 0.862243 -0.494867 -0.107909
0.015471 0.070225 0.003563 -0.580997 -0.780619 0.230383
0.066327 0.05379 -0.008687 -0.38424 -0.918712 0.0912614
-0.059673 0.118875 0.00660099 -0.0989431 0.368446 0.924369
-0.036223 0.147925 -0.036636 0.171499 -0.416739 -0.892702
-0.022573 0.10101 -0.000637002 -0.754177 0.522349 0.397956
-0.014868 0.127791 -0.011498 -0.605142 0.366642 0.706666
-0.064223 0.071869 0.038213 -0.858568 0.396548 0.324977
-0.010323 0.096125 -0.032939 -0.0433739 -0.135944 -0.989767
-0.05259 0.094375 0.016863 0.194351 0.856014 0.479027
-0.023623 0.053868 -0.017438 0.325178 -0.918244 -0.226025
-0.089773 0.142971 0.00776299 -0.418835 -0.554938 0.718763
-0.022573 0.05349 -0.008687 0.199427 -0.9792 -0.0373705
-0.045875 0.161225 -0.033888 -0.503573 0.0273827 -0.863518
-0.056523 0.149325 0.00811101 0.183563 0.640406 0.745778
0.043065 0.108375 0.016863 0.740636 0.493569 0.455903
-0.060532 0.130425 -0.017438 -0.72608 0.625562 0.285447
-0.019834 0.126614 -0.018101 0.63979 -0.638118 0.42834
-0.081723 0.087725 0.009596 -0.692448 0.151692 0.705341
-0.079973 0.141879 0.009863 -0.444277 -0.893764 0.0616819
-0.061366 0.154528 -0.012279 0.442451 0.871711 -0.210609
-0.024673 0.153875 -0.0029 0.528147 -0.158434 0.834242
-0.067332 0.153384 0.000322998 0.0931409 0.983202 -0.15697
-0.056503 0.143204 -0.022613 0.519076 -0.108055 0.847871
-0.049682 0.090525 -0.019537 0.137455 0.677747 -0.722333
-0.080054 0.095775 -0.018137 -0.527895 0.155283 -0.834994
0.052788 0.108375 -0.005187 0.532187 -0.410572 0.74041
-0.082423 0.058515 -0.034238 0.174859 -0.913676 0.366907
0.021527 0.082759 -0.032837 -0.380481 -0.0344427 -0.924147
0.029577 0.056526 0.013012 0.664618 -0.747151 -0.00695793
-0.061423 0.165075 -0.026152 -0.557611 0.129159 -0.819993
0.065977 0.074075 0.000595994 -0.288622 0.928615 -0.233179
-0.058973 0.144425 0.006577 -0.313035 -0.21932 -0.924071
0.031677 0.14845 -0.00413801 0.0829275 0.363934 0.927726
-0.090123 0.149909 0.018613 0.269167 0.654271 0.706738
-0.024323 0.053856 0.010212 -0.228754 -0.934374 -0.273161
0.014177 0.128675 -0.034189 0.297355 -0.302648 -0.90553
-0.072973 0.151417 -0.006938 -0.0736631 0.993631 0.0852764
0.021733 0.131475 -0.033188 0.37277 -0.551545 -0.746218
0.027477 0.056225 -0.024143 -0.0985022 -0.73648 -0.669249
-0.062123 0.125163 0.00146199 -0.437716 0.700869 0.563194
0.047095 0.098925 0.024913 0.779011 0.400314 0.482587
0.041379 0.116075 0.010562 0.951795 0.191121 0.239913
-0.009973 0.125525 -0.00332899 -0.548898 0.301583 0.779589
0.065277 0.123425 -0.018606 -0.883826 -0.0835197 0.460299
-0.023623 0.073375 0.011924 0.759527 0.591583 -0.270459
-0.011639 0.059375 0.009863 0.693586 -0.211635 -0.688585
0.043446 0.081306 0.019245 0.401741 0.707369 -0.581578
-0.05061 0.153525 0.00461201 0.261983 0.815662 0.51581
-0.079623 0.099625 -0.017793 -0.554291 0.204501 -0.806809
-0.101673 0.148122 0.00111199 -0.243143 0.878329 -0.411606
-0.047073 0.124125 0.00285899 0.235088 0.0878768 0.967993
-0.083473 0.063225 -0.018917 -0.272548 0.693869 0.666531
0.086627 0.128645 -0.012187 0.313511 -0.850193 -0.422946
0.052677 0.102075 -0.027712 0.761757 -0.449554 -0.466506
0.088014 0.147225 -0.00588801 -0.591917 0.302435 0.747106
0.077065 0.115375 -0.002738 0.433039 0.613886 0.660016
-0.033456 0.053425 -0.039837 0.15336 -0.789197 -0.594683
-0.038323 0.152125 0.000357002 0.297604 0.123403 0.94668
0.065155 0.096825 0.002512 -0.741621 0.241545 0.625823
-0.042523 0.055888 0.031912 0.409953 -0.903241 0.126861
0.069127 0.075125 0.024373 -0.0424159 0.31035 0.949676
-0.032723 0.171859 -0.023737 -0.480569 -0.0720823 -0.87399
-0.060023 0.063225 -0.035289 -0.27818 -0.085598 -0.956707
-0.028873 0.05435 0.019312 -0.466267 -0.882174 0.0660555
-0.051804 0.146748 0.000271991 -0.30609 -0.464094 -0.83122
0.044627 0.05301 -0.011138 -0.127929 -0.98129 0.143887
-0.00122301 0.117825 0.000336006 0.144837 0.0859446 0.985716
0.046089 0.072674 -0.000998005 -0.270417 -0.90184 -0.336985
-0.041123 0.112474 -0.007637 0.349166 -0.636837 0.687402
-0.085635 0.171088 0.00328699 -0.44773 -0.889627 0.090008
-0.077084 0.113975 -0.010788 -0.806029 0.549409 -0.220151
-0.036223 0.192725 -0.018687 0.325661 0.00373075 0.945479
0.064095 0.091575 0.00566199 -0.901424 0.285203 0.325721
-0.068369 0.151054 -0.018282 -0.217855 0.975789 0.0193668
-0.074723 0.063575 0.010827 -0.420066 -0.509435 0.751013
0.047777 0.119575 -0.034005 0.11142 -0.00749297 -0.993745
0.032377 0.061398 -0.027237 0.412044 -0.116203 -0.903724
0.029927 0.123075 -0.014992 -0.867833 -0.1695 0.467049
0.022485 0.065254 -0.043419 -0.975533 -0.131478 0.176207
-0.012423 0.164375 -0.011597 -0.0601458 0.654325 -0.753818
0.016972 0.063925 -0.00588801 -0.781936 -0.177573 0.597531
-0.044186 0.185025 -0.020588 -0.567939 0.343534 -0.74795
-0.027422 0.166125 -0.015337 0.863079 0.367691 0.346263
-0.041258 0.135675 -0.000637002 -0.167593 0.0999871 0.980773
0.042527 0.117475 -0.03388 -0.23562 -0.000554784 -0.971845
-0.018373 0.056973 -0.016738 0.61227 -0.687593 -0.390309
-0.088373 0.145825 0.020341 0.379454 0.719919 0.581146
-0.037973 0.077575 0.021402 -0.161992 -0.12463 0.97889
-0.00017301 0.135217 -0.032837 -0.376374 0.300326 -0.87644
-0.011023 0.120732 -0.031087 -0.637721 0.245083 -0.730237
-0.080673 0.062525 -0.001798 -0.786149 -0.594393 0.169311
0.076127 0.084925 0.020846 0.263451 0.390614 0.882051
-0.045323 0.178025 -0.034498 0.733022 -0.576908 0.360355
-0.044273 0.13571 -0.027937 -0.414046 -0.0307632 -0.909736
0.015227 0.136375 -0.03538 0.0781001 -0.0520184 -0.995587
-0.062123 0.087375 -0.034274 0.0769762 0.474792 -0.876725
0.083339 0.098575 0.006713 0.911922 0.300541 0.279416
-0.031668 0.165075 -0.040537 0.46255 -0.0438277 -0.885509
-0.046561 0.139875 -0.026888 -0.7367 -0.57202 -0.360647
-0.070173 0.170459 0.00776299 -0.100142 0.970476 -0.219428
0.047777 0.05333 0.016513 -0.150092 -0.924787 0.349631
-0.058623 0.057975 0.012857 0.0411642 -0.486436 0.872746
-0.028101 0.169625 -0.037388 0.230583 -0.334455 0.913768
-0.050923 0.162931 -0.031787 -0.541296 -0.122651 -0.831839
-0.08235 0.102425 -0.012187 -0.876524 0.352985 -0.327274
-0.031673 0.125362 -0.011138 0.453257 -0.796178 0.400824
-0.043223 0.133925 0.000146002 -0.0903736 0.211157 0.973265
-0.065281 0.063575 0.034013 -0.770661 0.274523 0.575082
0.041804 0.059229 -0.00684 -0.277766 0.90916 0.310281
-0.023973 0.108512 -0.011138 -0.249405 -0.154919 0.955927
0.081377 0.124462 -0.011487 0.330864 -0.810146 0.483935
0.045221 0.084925 -0.021637 0.677606 0.0189071 0.735182
-0.047773 0.177399 -0.023737 0.582936 0.49332 -0.645617
0.054427 0.152125 -0.020459 0.528493 0.673443 -0.516884
0.012077 0.146175 -0.004923 -0.0912579 0.374958 0.922539
-0.053417 0.108725 0.00776299 0.340783 0.0745684 0.93718
-0.016623 0.164725 -0.006111 0.316846 0.540073 0.779699
-0.032723 0.125525 -0.008382 0.632438 -0.755168 0.172464
0.075077 0.076175 0.022982 0.324312 0.192482 0.92616
-0.026073 0.080375 0.010452 0.369697 -0.741305 0.560171
-0.019603 0.083525 -0.033188 0.888007 0.0999344 -0.44884
-0.030623 0.091669 -0.026187 -0.647356 0.527228 -0.550418
-0.067373 0.143301 -0.002038 0.947415 -0.187864 0.259062
0.039403 0.077784 0.016481 0.802128 0.232898 -0.549862
0.041127 0.123425 -0.033876 -0.356096 -0.0365779 -0.933733
-0.061557 0.152152 -0.014981 0.475488 0.843185 0.250898
-0.033423 0.055875 -0.026414 0.684285 -0.721862 0.103295
0.079352 0.081425 0.019662 0.7004 0.149952 0.697821
0.072627 0.139175 -0.008418 -0.295634 -0.195465 0.93509
0.076827 0.077575 -0.00117001 0.251394 0.00402867 -0.967877
-0.031694 0.134275 -0.027587 0.514773 -0.333491 -0.789805
-0.040084 0.180475 -0.035988 0.833388 -0.167211 -0.526787
0.046249 0.100052 0.015551 0.417942 -0.481691 -0.770258
-0.031323 0.056225 0.019217 -0.758574 -0.650559 -0.0365762
0.026777 0.132525 -0.032812 0.213446 -0.664074 -0.716552
0.001577 0.130509 -0.034238 -0.192612 0.0882401 -0.9773
-0.00122301 0.097525 -0.031526 0.552876 -0.344179 -0.75886
-0.056523 0.148238 -0.026187 -0.559415 -0.0187468 -0.828676
-0.018373 0.172985 -0.011138 -0.547256 -0.0318485 -0.836359
-0.033423 0.172425 -0.039831 -0.360367 0.435752 -0.824776
0.008927 0.120275 -0.033457 0.458005 -0.324316 -0.827678
0.036582 0.08265 -0.000936009 0.411876 -0.0959937 0.90617
-0.041823 0.052996 -0.036688 -0.199589 -0.960862 -0.192115
-0.057938 0.143014 0.009625 0.191505 -0.640758 0.743475
0.041827 0.106625 -0.034331 0.0355058 0.0814889 -0.996042
-0.024673 0.172775 -0.010503 -0.35322 -0.0772344 -0.932347
-0.058623 0.092975 -0.023226 0.755737 0.365364 -0.543479
0.051277 0.110825 -0.032352 0.431748 -0.166746 -0.886448
-0.023169 0.149675 -0.00413801 0.537228 -0.418111 0.732509
-0.047262 0.062525 0.018613 0.898528 0.365897 0.242419
-0.075423 0.160502 -0.020588 -0.468042 0.0719914 -0.880769
-0.033773 0.0932 -0.020588 -0.8558 0.516746 0.0240796
-0.027473 0.132772 -0.013237 0.737659 -0.609633 0.290184
-0.061773 0.175925 -0.0244 -0.420652 0.653871 -0.628892
-0.032723 0.142675 -0.00449301 0.225507 -0.845319 0.484337
0.082378 0.081075 0.00741299 0.896014 -0.297593 -0.329541
-0.062473 0.175544 0.00531301 -0.12014 0.498796 0.858352
-0.022223 0.146525 -0.01947 -0.128374 0.405758 0.90492
0.062009 0.065675 -0.016738 0.650809 0.730634 -0.206448
-0.019073 0.053356 0.023512 0.132557 -0.925419 0.355005
-0.056173 0.156325 -0.024692 -0.365376 0.197585 0.909649
-0.013098 0.060775 0.008113 0.154263 0.0142132 -0.987928
-0.021331 0.074075 0.010212 -0.847677 0.027302 0.52981
-0.058623 0.071275 -0.03344 -0.431333 -0.0674879 -0.899665
0.082427 0.082797 0.00531301 0.861771 -0.304441 -0.405792
0.012342 0.114675 -0.011838 0.967693 -0.144029 0.206945
0.018372 0.057625 -0.009037 -0.820353 -0.52219 0.233108
-0.037273 0.094058 -0.005187 -0.503194 0.855323 0.123363
-0.046393 0.113275 -0.023387 0.294973 -0.59556 -0.747194
-0.014275 0.111175 -0.031438 -0.610467 0.201747 -0.765917
-0.003673 0.143114 -0.013237 -0.471092 0.717357 0.513295
0.015227 0.161006 -0.019887 -0.0903387 0.855635 0.509634
-0.082423 0.084575 -0.017281 -0.63439 -0.063482 -0.770402
-0.054668 0.161117 -0.006076 -0.80119 -0.598389 -0.00490513
0.081377 0.077328 0.009863 0.908764 -0.326467 -0.259938
-0.093623 0.170101 -0.009037 -0.0716372 0.741175 -0.667479
-0.052673 0.053745 -0.018137 -0.134189 -0.870575 -0.473383
-0.068423 0.087638 -0.032488 -0.459736 0.222764 -0.859662
0.035633 0.055308 -0.008314 -0.0101649 -0.851988 0.523463
0.023627 0.085328 0.00706299 0.0670912 0.976433 -0.20513
0.071577 0.133225 -0.020025 -0.285761 0.152584 -0.946075
-0.061073 0.127945 -0.019887 -0.781327 0.518997 -0.346657
-0.072973 0.084575 -0.028773 -0.84363 -0.179724 -0.505952
0.047427 0.140575 -0.004028 0.286542 0.294846 0.91157
-0.083688 0.150242 -0.00205101 -0.17926 0.583227 0.792283
-0.025723 0.053265 0.000762999 0.130919 -0.958041 0.254985
0.024677 0.069582 -0.038438 0.356152 -0.901014 0.247649
-0.049122 0.175575 0.00111199 0.314671 0.590343 0.743288
-0.064223 0.081775 -0.034855 -0.363198 -0.0710113 -0.929002
-0.060723 0.131573 -0.014988 -0.492719 0.464343 0.735944
0.055827 0.07289 0.023862 -0.422668 0.493089 0.760404
0.067314 0.134275 -0.014638 -0.685448 -0.353553 0.636523
0.054077 0.131125 -0.031858 0.448533 0.163057 -0.878767
0.078233 0.114325 -0.011138 0.905956 -0.102989 -0.410655
-0.032373 0.177245 -0.017438 -0.243698 -0.842981 0.479577
0.014717 0.114586 -0.018711 0.770167 0.0370737 0.636765
-0.074023 0.068056 -0.033888 -0.421314 0.904096 -0.0714455
0.032655 0.152475 -0.031438 0.152326 0.808481 -0.568468
0.033077 0.149325 -0.033605 0.165315 0.532034 -0.830428
-0.045323 0.170325 0.002115 0.298955 0.411019 0.861214
-0.072973 0.106172 -0.020237 -0.404885 0.0904572 -0.909882
-0.021873 0.099275 0.00124401 -0.517785 0.523662 0.676519
-0.049827 0.156675 0.003913 -0.0473612 0.99882 -0.0107886
0.077527 0.068453 0.011613 0.872348 -0.438429 -0.216309
0.056527 0.131125 -0.030176 0.659468 0.180594 -0.729718
0.013477 0.154962 -0.014287 -0.220956 0.932917 0.284333
0.029577 0.086675 0.00656201 0.843503 0.426086 -0.327038
0.043227 0.084575 0.029232 0.630608 -0.235222 0.739597
-0.028873 0.063225 -0.040332 -0.28824 0.213041 -0.933559
0.0339 0.095775 0.019312 -0.657211 0.195004 0.728043
-0.083823 0.169052 0.016162 -0.176681 -0.430585 0.885088
0.061077 0.053992 -0.021288 0.246175 -0.898367 -0.363778
0.008577 0.126925 -0.001769 0.377354 -0.119005 0.918391
-0.020557 0.150025 -0.024438 0.651252 0.149418 -0.744006
-0.072973 0.085275 0.014754 -0.116885 0.0154708 0.993025
-0.080472 0.078625 0.011613 -0.563686 -0.00644596 0.825964
0.015782 0.067418 0.00355301 0.650601 0.754556 0.0858143
-0.013333 0.057275 0.009512 0.524847 -0.318424 -0.789393
-0.082756 0.106625 -0.005538 -0.920609 0.39045 -0.00522031
0.072627 0.099108 -0.007988 -0.46569 -0.674597 -0.572757
0.048653 0.092275 0.023512 0.968086 -0.14328 -0.205622
0.056177 0.069124 -0.009037 0.854167 0.389971 0.343979
0.037806 0.072675 -0.036688 -0.348641 0.591236 -0.727248
-0.083823 0.166475 -0.00386501 -0.295863 -0.0536308 0.953724
0.050227 0.077795 0.006713 0.24155 0.56133 0.791557
-0.057573 0.053425 0.02225 0.052606 -0.989668 -0.133379
0.069029 0.068475 0.024913 0.127963 -0.0499316 0.990521
-0.032401 0.058675 0.022463 -0.692216 -0.671478 0.264489
0.074727 0.080725 -0.001605 -0.523317 0.214126 -0.824796
-0.057223 0.073457 -0.035287 -0.315035 -0.433951 -0.844061
0.070877 0.129025 -0.020271 -0.37479 0.0507145 -0.925722
-0.045901 0.110475 0.000413008 0.797089 -0.575826 0.181861
-0.011047 0.130075 -0.007988 -0.803787 0.501319 0.32032
0.046027 0.146175 -0.006118 0.311971 0.534591 0.785421
-0.062823 0.179744 -0.013938 -0.194778 0.903265 -0.382328
-0.097945 0.168575 -0.008687 -0.746553 -0.270002 -0.608077
-0.035523 0.155625 -0.039365 -0.0383993 -0.19359 -0.980331
0.069719 0.062525 -0.011138 0.453504 0.673249 -0.584011
-0.022223 0.173722 -0.009037 -0.149057 0.398986 -0.904761
0.038677 0.063575 -0.027738 -0.192999 -0.639904 -0.743824
0.011293 0.151775 -0.027937 -0.366718 0.835057 -0.410119
-0.022573 0.054072 0.000762999 0.363016 -0.815747 0.450307
-0.008573 0.077372 0.003563 0.317513 -0.618677 0.718626
0.074027 0.087725 0.020551 0.124591 0.467977 0.874914
-0.018023 0.053004 0.014062 0.0238177 -0.998231 0.0544702
-0.049873 0.081425 0.020837 -0.113292 -0.481314 0.869196
-0.068073 0.118411 0.00461201 -0.362062 0.57398 0.734478
0.042877 0.092975 0.030181 0.334919 0.173038 0.926222
-0.063873 0.176794 -0.018488 -0.308158 0.910557 -0.275543
-0.062701 0.154771 -0.006974 0.383527 0.91437 -0.129752
-0.077272 0.059025 -0.030037 -0.0650874 -0.977154 -0.202319
-0.039373 0.059025 -0.03985 -0.168191 0.512216 -0.842227
0.00262701 0.085957 -0.012187 0.624656 0.317981 0.713227
-0.082773 0.066222 -0.002738 -0.889722 -0.442271 0.1131
0.019777 0.062875 0.02238 0.0089219 0.864917 0.501835
0.026777 0.064969 0.021063 -0.620633 0.641314 0.451143
-0.050223 0.133225 -0.025663 -0.579486 0.209897 -0.787489
-0.066673 0.080725 -0.033298 -0.557639 -0.265781 -0.786383
0.082077 0.125873 -0.014638 0.510129 -0.565081 -0.648422
-0.059177 0.143126 -0.021141 0.559777 0.00708393 0.828613
-0.05571 0.173125 -0.029687 -0.648932 0.401906 -0.646033
0.044977 0.145825 -0.031768 0.346256 0.474724 -0.809162
-0.074233 0.167525 -0.011487 0.595559 -0.427776 0.679939
-0.056757 0.180125 -0.005538 0.0956827 0.927828 0.360527
-0.018263 0.118525 -0.008337 -0.796542 0.298295 0.525871
0.066327 0.060995 0.022463 0.175331 -0.681281 0.710714
0.046377 0.085256 0.026313 0.974794 -0.195032 0.10835
-0.025097 0.119016 -0.015605 0.141654 -0.603743 0.784492
0.006127 0.143725 -0.005095 -0.160219 0.476577 0.86441
0.020477 0.126414 -0.029687 0.627853 -0.751509 -0.20257
-0.047073 0.054535 -0.034238 -0.306078 -0.947917 0.0881526
-0.075773 0.073025 0.013287 -0.216003 -0.123482 0.968553
-0.100973 0.149651 0.003563 -0.271137 0.931997 -0.240556
-0.039553 0.131825 -0.000637002 0.259074 0.0167011 0.965713
-0.047324 0.097875 0.00426201 0.906126 0.421252 0.0385032
-0.070173 0.094163 -0.026888 -0.370187 0.828303 -0.420566
-0.027384 0.167175 -0.012888 0.429466 0.265224 -0.863259
-0.039373 0.162275 0.000719011 0.0382237 -0.184984 0.981998
-0.045673 0.0565 0.011262 0.0251169 -0.0959486 0.995069
0.051977 0.079108 -0.000637002 0.808652 -0.106907 0.578491
0.022927 0.053139 -0.009037 -0.313612 -0.94952 0.00770356
0.050577 0.100284 -0.007988 -0.041302 0.122044 0.991665
-0.032723 0.055283 -0.004837 -0.530151 -0.832198 -0.162438
-0.081874 0.080375 -0.017088 -0.562832 -0.134825 -0.815501
-0.080323 0.068952 -0.026888 0.559796 0.828616 -0.00488995
-0.059655 0.107675 0.009863 0.157627 0.252331 0.954716
0.072277 0.055524 -0.00378801 0.582856 -0.679193 0.446066
-0.050757 0.065325 0.035413 0.354733 0.3838 0.852562
0.075553 0.065675 0.00741299 0.895221 -0.44093 -0.0644998
-0.072266 0.079325 -0.026888 -0.709157 -0.701397 -0.0716872
-0.054773 0.145232 -0.00588801 0.945469 -0.289815 -0.148644
-0.042173 0.177325 -0.035454 0.689249 -0.686928 -0.23036
-0.061423 0.072325 0.041123 -0.0917886 0.384908 0.918379
0.064227 0.066681 -0.010437 -0.553882 0.709882 -0.435066
0.048793 0.068125 -0.033188 0.835332 0.423649 -0.350346
-0.056523 0.144025 -0.013333 0.942262 -0.259261 -0.211957
-0.015223 0.074775 -0.029357 0.32052 -0.405764 -0.855933
0.012777 0.074425 -0.020969 -0.985712 0.152096 0.0723747
-0.058623 0.177904 0.000413008 0.0231485 0.944563 0.327514
0.071577 0.087725 -0.001166 -0.810102 -0.215084 -0.545411
-0.063873 0.156859 -0.023387 0.146132 -0.944618 -0.29384
0.028527 0.096125 -0.004794 0.0995309 0.218837 0.970672
-0.046723 0.053607 0.00706299 -0.00397928 -0.950743 0.309954
0.03233 0.075475 -0.035638 0.67711 -0.410027 0.611065
-0.012229 0.130425 -0.023387 -0.815429 0.23835 -0.527508
0.006127 0.056524 0.013362 -0.000925634 -0.928861 0.370428
0.055923 0.138825 -0.027587 0.705038 0.467908 -0.5329
-0.088373 0.171366 0.00111199 0.0963241 -0.864747 0.492883
-0.068423 0.110475 0.008738 -0.141821 0.336588 0.930911
-0.021523 0.060775 0.025648 0.205116 0.551633 0.808473
0.045481 0.087375 -0.023737 0.758092 -0.240415 0.606216
-0.049523 0.066025 -0.036583 0.130005 0.505382 -0.853046
-0.064806 0.143725 -0.002738 0.989415 -0.140671 0.0356346
0.065277 0.088927 0.00111199 0.848734 -0.371005 -0.376837
0.049877 0.122025 -0.00203 0.0803582 -0.0895601 0.992734
0.052327 0.053775 -0.002059 -0.344305 -0.890986 0.295968
-0.022572 0.163675 -0.040188 0.816846 0.135542 0.560706
-0.022923 0.065325 0.022731 0.770469 0.514541 0.376332
0.064577 0.08709 0.019312 -0.762806 0.594245 0.254949
0.0275 0.111675 -0.018587 -0.397981 0.894873 0.202024
-0.092078 0.170675 0.00181299 0.602108 -0.590674 0.537188
-0.095233 0.144775 -0.005538 -0.392775 0.660219 -0.640186
0.020746 0.07304 -0.034553 0.431797 -0.0992408 0.896495
0.011027 0.064625 0.024394 -0.105832 0.871895 0.47812
0.012728 0.078275 -0.020588 -0.948774 0.24197 0.203169
0.035479 0.058125 -0.000353001 0.155102 0.889651 -0.429493
-0.071223 0.069149 -0.024087 0.208173 0.906184 0.368096
-0.046023 0.122375 -0.026005 -0.0958849 -0.322085 -0.941843
-0.077523 0.147847 -0.011138 -0.0740339 0.965358 0.250208
-0.014523 0.094557 0.00496301 -0.227371 0.62283 0.748589
-0.020473 0.185725 -0.028804 -0.0883718 0.0950826 -0.991539
-0.02555 0.147575 -0.00448801 0.492968 -0.726934 0.478068
0.04212 0.070595 -0.002009 0.540768 -0.840439 -0.0351073
0.056177 0.080466 0.00146199 0.948942 0.0551799 0.310586
0.031256 0.119225 -0.014638 -0.652669 0.735151 0.183238
-0.052673 0.098575 -0.019693 0.376411 -0.708401 -0.597062
0.072977 0.112925 0.002135 -0.155059 0.575793 0.802757
0.014877 0.138825 -0.002622 0.0927773 0.0881696 0.991775
0.036171 0.097056 0.013283 0.947233 -0.0518064 -0.316332
-0.097172 0.178725 -0.000286989 -0.477213 0.874278 0.0889069
0.056874 0.053075 0.00111199 -0.137515 -0.967904 0.210362
0.064291 0.072705 -0.00144001 -0.34302 0.873925 0.344372
0.00752699 0.065675 0.01213 -0.218722 0.815227 0.536251
0.021527 0.128882 -0.007988 0.551184 -0.768609 0.324709
0.060868 0.129725 -0.011487 0.861411 -0.0225231 0.50741
-0.044273 0.095775 0.000411995 0.172902 0.968038 -0.181681
0.033143 0.084575 0.023162 -0.715037 0.537567 0.446928
-0.07785 0.060775 -0.010437 -0.690686 -0.58507 -0.425024
-0.082423 0.100325 -0.013947 -0.825083 0.30773 -0.473857
-0.029406 0.171725 -0.035988 0.337479 -0.478929 0.810392
-0.022336 0.118525 -0.014287 0.473372 -0.322029 0.819888
-0.014173 0.06298 -0.019887 0.564712 -0.691646 -0.450252
-0.044273 0.071275 -0.035724 0.525015 0.198974 -0.827508
0.023977 0.141374 -0.035287 0.0591238 -0.0928516 -0.993923
-0.029223 0.157375 -0.032157 0.89429 0.446432 0.0307332
0.047427 0.083819 -0.007287 0.0367834 -0.443649 0.895445
-0.081023 0.066954 -0.036337 -0.260211 0.933716 -0.245895
-0.043485 0.175925 -0.030388 0.823686 0.257534 0.50519
0.053547 0.112925 -0.00413801 0.504662 -0.384814 0.77281
0.065924 0.063225 0.024213 0.122469 -0.410969 0.903386
0.043812 0.069175 0.019662 -0.647296 0.679467 -0.345444
-0.033423 0.062525 -0.040127 -0.28709 0.484711 -0.826217
-0.072623 0.066816 -0.035988 -0.08817 0.709956 -0.698705
0.049527 0.054764 -0.013237 0.497909 -0.519813 -0.694176
-0.015573 0.089125 0.009486 -0.0230382 0.516898 0.855737
0.083102 0.100325 -0.000987001 0.949227 0.00307525 -0.314578
0.062477 0.053425 0.012986 0.0968238 -0.986069 0.135251
0.050577 0.077321 -0.024438 0.869235 0.471097 0.149995
-0.039723 0.074425 -0.028713 0.480907 -0.314294 -0.818503
0.023703 0.102075 -0.011487 -0.41372 0.655834 0.631441
0.016404 0.152825 -0.029337 -0.166167 0.905819 -0.389719
0.038327 0.123919 -0.032488 -0.711297 -0.0934512 -0.696651
0.033414 0.082475 0.024913 -0.75652 0.643521 0.116445
0.016616 0.093325 -0.020938 -0.578076 0.749807 0.321898
-0.080802 0.064625 0.002512 -0.79877 -0.521255 0.300431
-0.02793 0.156325 -0.034238 0.531435 0.479941 0.698022
0.043577 0.078565 0.00146199 -0.135368 -0.750243 0.647156
-0.074373 0.077925 0.014493 -0.189056 -0.0502959 0.980677
-0.029923 0.052918 -0.018137 -0.113499 -0.991115 -0.0693495
-0.001573 0.131475 -0.00218299 -0.151851 0.227056 0.96197
-0.057923 0.161194 0.000413008 -0.187638 -0.254942 -0.948576
-0.003673 0.125525 -0.03324 -0.31383 0.0995305 -0.944248
-0.076473 0.097875 0.01099 -0.297082 0.269868 0.915922
-0.056021 0.054125 0.031912 0.0853763 -0.916224 0.391465
-0.042173 0.151425 0.00236499 0.283949 0.0241713 0.958535
0.042786 0.110475 0.013012 0.995234 -0.0477999 -0.0849912
-0.032023 0.154575 -0.00076101 0.0785278 -0.0290382 0.996489
0.026077 0.052804 -0.002738 -0.0399343 -0.998981 0.0210221
-0.080068 0.065325 0.00496301 -0.784764 -0.513649 0.346857
-0.066562 0.109775 -0.021637 -0.204654 -0.0258118 -0.978494
-0.077309 0.096125 -0.019887 -0.378982 0.19089 -0.905502
-0.006123 0.094375 -0.032221 0.287782 -0.225207 -0.93084
0.083124 0.133575 -0.016738 0.67384 -0.0665459 -0.735874
-0.068562 0.176625 -0.001338 -0.467482 0.182958 0.864862
-0.069823 0.169975 0.00468799 0.0708883 -0.0970818 -0.992749
-0.083111 0.178725 0.00706299 0.280095 0.548821 0.787618
-0.017323 0.095075 0.00461099 -0.234491 0.435423 0.86915
0.046602 0.090175 -0.024438 0.749402 -0.641484 0.163998
-0.027328 0.149464 -0.03453 0.749637 -0.0749285 0.657595
-0.065273 0.144775 0.012022 0.216264 -0.117798 0.969203
-0.00717301 0.083525 -0.029204 0.486602 -0.364522 -0.793941
-0.089073 0.165425 -0.00407501 0.369163 0.458071 0.808634
0.042527 0.087025 0.03024 0.443686 -0.0552238 0.894479
-0.081023 0.160301 -0.011138 0.438652 -0.179076 0.880634
-0.084523 0.14045 0.00146199 -0.394734 -0.883595 0.251881
0.022577 0.063083 -0.045787 -0.534265 -0.633788 -0.559351
0.041827 0.126225 -0.034144 -0.212265 -0.0419641 -0.976311
-0.056873 0.118875 0.00641199 0.0629681 0.285943 0.956175
0.00787701 0.145825 -0.005699 -0.18328 0.528801 0.828721
-0.030292 0.103415 -0.014839 -0.76893 -0.581725 -0.265222
-0.057573 0.177976 -0.002038 -0.0505475 0.967988 0.245852
-0.045762 0.099275 -0.002738 0.867276 0.291021 0.403906
0.00787701 0.059725 0.00234501 -0.602716 -0.525949 -0.600093
-0.055473 0.104875 -0.022272 0.0496026 -0.469065 -0.88177
0.044985 0.100675 0.025612 0.558303 0.55143 0.619857
0.042907 0.063754 0.007254 -0.485789 0.874028 0.00915858
0.024677 0.130775 -0.031989 0.36209 -0.768234 -0.527926
-0.01927 0.054475 -0.005187 0.497897 -0.861718 0.0976765
-0.098385 0.145475 -0.00378801 -0.163644 0.678535 -0.716108
0.056877 0.054125 0.003861 -0.380659 -0.810864 0.44452
-0.018023 0.105225 -0.030388 -0.706816 0.282716 -0.648446
-0.041035 0.099297 -0.00978 -0.543418 -0.360209 0.758252
-0.056523 0.172625 0.00461201 0.00760833 0.239436 0.970882
-0.049873 0.142134 -0.004837 -0.999421 -0.0102305 0.0324436
0.024905 0.075475 -0.040537 -0.412619 0.454948 -0.789157
-0.059673 0.174875 -0.02571 -0.328694 0.567353 -0.75503
0.041036 0.083875 -0.005187 0.0596301 -0.246174 0.96739
0.078927 0.112824 -0.001338 0.588831 0.584211 0.558548
0.048827 0.09151 -0.015337 0.190882 -0.908911 -0.370736
-0.042523 0.146175 -0.032167 -0.265245 -0.508398 -0.819254
0.055477 0.124825 -0.00460001 0.613224 0.0426357 0.788757
-0.06054 0.155314 -0.005485 0.373188 0.926469 -0.04884
-0.050923 0.178948 -0.004837 0.294236 0.947784 0.123004
0.019777 0.099067 -0.019537 -0.425174 0.837849 0.342398
-0.082464 0.104525 -0.002038 -0.921832 0.293927 0.25265
0.019075 0.123775 -0.012187 0.898128 -0.40016 0.182313
-0.052323 0.155975 0.004828 0.086217 0.986122 0.141881
0.062827 0.140225 -0.016863 -0.10467 -0.21276 0.971482
0.031882 0.060075 -0.044737 -0.570905 -0.129468 0.810744
0.054798 0.140925 -0.009037 0.68857 0.483429 0.540525
-0.083753 0.101375 -0.000286989 -0.882663 0.373666 0.285096
0.00727199 0.099275 -0.010788 0.962371 0.24206 0.123487
0.039027 0.115375 0.00746799 0.133481 -0.720896 -0.680067
-0.066953 0.063575 0.021063 -0.916273 -0.279903 -0.286529
0.058277 0.067075 -0.020248 0.86226 0.44371 -0.244189
-0.085573 0.063225 -0.021832 -0.458971 0.886432 0.0598604
-0.067739 0.062875 0.025612 -0.998415 -0.024633 -0.0506063
-0.010323 0.161041 -0.011487 0.939402 -0.157552 -0.304468
-0.002273 0.121643 -0.033888 -0.165576 0.0740953 -0.98341
0.012077 0.110221 -0.020938 0.878187 -0.0582846 0.474752
-0.016623 0.056681 -0.011487 0.660976 -0.744767 -0.0918302
-0.032723 0.057625 0.017174 -0.842033 -0.38061 -0.382251
0.044417 0.088425 -0.007988 -0.568577 0.143928 0.809942
-0.024673 0.05316 -0.005538 -0.0484172 -0.997949 0.0418714
0.00787701 0.123425 -0.001759 0.506354 -0.209856 0.836401
-0.051224 0.171025 -0.031438 -0.0425653 -0.0912787 -0.994915
-0.064517 0.062175 -0.031087 -0.126624 -0.917792 0.37633
-0.090823 0.162053 -0.005187 -0.65009 -0.338561 0.680264
-0.010323 0.141975 -0.017751 0.294539 -0.310179 0.9039
-0.015223 0.05885 0.008113 -0.0228711 0.0959718 -0.995121
-0.017673 0.092291 0.00531301 -0.450508 0.381065 0.807361
-0.00752001 0.089125 0.00426201 0.459806 0.0072708 0.88799
-0.068082 0.074425 0.019662 -0.649527 0.103518 0.753259
0.018027 0.064975 0.010108 0.170082 0.510921 0.842633
0.017123 0.092625 -0.023737 -0.718952 0.658011 0.223896
-0.083252 0.103825 -0.005187 -0.93688 0.346172 0.0492004
-0.086973 0.060775 -0.021794 -0.94118 0.122161 0.31505
-0.055123 0.088075 -0.030114 0.514865 0.828748 -0.219296
0.010965 0.066025 0.00741299 -0.0635297 0.744293 0.664825
0.045677 0.060206 -0.023387 -0.534238 -0.844283 -0.042151
-0.040073 0.166804 -0.038787 -0.294486 0.21592 -0.930944
-0.036231 0.126225 -0.026187 0.421445 -0.548555 -0.72213
-0.002973 0.115725 0.000725992 0.0861915 0.0786773 0.993167
0.022894 0.160175 -0.019887 0.00263427 0.297569 0.954697
0.064391 0.105207 -0.007962 0.363838 -0.111386 0.924779
0.053727 0.07975 0.002512 0.522537 0.137686 0.841426
-0.067723 0.071806 0.020012 -0.683381 -0.250661 0.685681
0.056177 0.053829 -0.00588801 0.408969 -0.778943 -0.475387
0.037627 0.106202 0.020363 -0.48792 0.665878 0.564394
0.045063 0.103125 0.014821 0.558686 -0.401428 -0.725758
0.074727 0.101725 0.011702 -0.105852 0.654032 0.749024
-0.074469 0.1488 0.007122 -0.363243 0.751621 -0.550564
-0.087673 0.165075 -0.015482 -0.399364 0.195489 -0.895708
0.048159 0.144075 -0.00588801 0.398415 0.452864 0.797609
0.084527 0.136375 -0.016675 0.5231 0.243798 -0.816657
-0.026073 0.151425 -0.002583 0.402425 -0.272916 0.873825
0.049353 0.107675 -0.032488 0.404903 -0.161163 -0.900045
-0.085898 0.095425 -0.00588801 -0.96519 0.258489 -0.0398917
0.031327 0.131125 -0.006012 -0.334368 -0.811144 0.479836
-0.043223 0.053329 -0.018137 0.0747081 -0.988136 -0.134183
0.049527 0.127625 -0.033538 0.163607 0.0545363 -0.985017
0.036577 0.060775 0.015947 -0.38184 0.916572 0.118719
-0.033773 0.05324 -0.018488 -0.0975491 -0.99514 0.0134039
-0.065623 0.158147 -0.017088 0.568556 0.32877 0.754091
-0.011723 0.057261 0.011613 0.810522 -0.421404 -0.406783
0.042177 0.053075 -0.012355 -0.148116 -0.947311 0.284013
-0.068548 0.070854 -0.022929 -0.641074 0.660041 -0.391625
0.060127 0.112225 -0.010437 0.331384 0.243991 0.911402
-0.078923 0.112078 -0.010088 -0.837925 0.502669 -0.212615
0.018027 0.126575 -0.03132 0.609723 -0.673021 -0.418665
-0.082626 0.142675 0.019312 0.412861 -0.170287 0.894733
-0.036754 0.174875 -0.024438 -0.207 -0.402627 -0.891652
-0.024844 0.097875 -0.027587 -0.788316 0.340898 -0.512197
0.076106 0.066025 0.013362 0.833294 -0.538078 -0.126858
-0.070173 0.060928 -0.027587 0.433434 -0.900934 -0.0212811
