-0.006365 -0.081048 -0.034207 -0.877267 -0.478001 0.0437968
0.001478 0.034435 -0.039186 0.473422 0.877722 0.0740009
-0.041652 0.087115 0.040469 -0.93853 0.238369 0.249683
-0.013079 0.087353 0.059269 0.322196 0.944845 0.0588055
-0.00529199 -0.083331 -0.049494 -0.973346 -0.222052 -0.0573579
0.00731001 -0.07008 -0.000414997 0.896147 0.31483 0.312735
0.029578 0.008407 -0.0548 -0.0919245 -0.917657 0.386595
0.031234 0.01042 -0.073199 0.0628364 -0.876409 -0.47745
-0.00735 0.039172 -0.070206 -0.924269 0.327485 0.196166
0.033876 0.028551 0.012965 0.959471 -0.149032 0.239175
0.004499 0.05474 0.025687 0.0265771 0.528354 -0.848608
0.036084 -0.058236 -0.074466 0.405278 0.494676 -0.768795
-0.00128599 0.035139 -0.020317 0.407761 0.819374 0.402936
-0.004224 -0.054069 -0.008962 0.126877 0.990611 -0.0509104
-0.00464199 -0.081945 -0.057287 -0.624979 0.744262 -0.235534
0.00196 0.073349 0.059035 0.854265 0.51793 -0.0444973
-0.000967003 0.028841 -0.058165 0.556803 -0.776743 -0.294347
0.032487 0.019457 -0.07034 0.465155 0.883716 -0.051737
-0.007938 0.024298 -0.011372 -0.759582 -0.623746 0.184327
0.018556 0.04969 0.043787 0.985935 -0.162554 0.0388425
-0.00817599 0.03844 -0.073769 -0.872535 -0.0700614 -0.483502
-0.00948 -0.02374 -0.002121 -0.841092 -0.108305 -0.529938
-0.021568 0.069636 0.062823 -0.954127 -0.187734 0.233235
0.031277 0.021205 -0.039868 0.829903 0.537004 -0.151287
-0.00539399 -0.048631 -0.004002 -0.0703544 0.994365 -0.0792999
0.031355 0.013261 -0.048215 0.909335 -0.372178 0.185995
0.004378 -0.061228 -0.002225 0.543114 0.093786 0.834405
0.029173 -0.030777 -0.005176 -0.369213 0.806281 -0.46216
0.002482 0.071187 0.054297 0.884394 0.303887 -0.35426
-0.005865 0.032565 -0.063131 -0.932238 -0.335371 -0.135865
-0.005354 -0.070742 -0.026834 -0.757957 0.424991 -0.494856
-0.002737 0.014982 -0.003269 -0.441136 -0.823319 0.357135
0.028321 0.021987 0.027821 0.682715 -0.432716 0.588776
0.02627 -0.058179 -0.007439 -0.482985 0.0865829 0.871338
0.030371 0.03514 -0.00976399 0.518025 0.843025 -0.14477
0.001642 -0.082808 -0.026151 0.593348 -0.761398 0.261173
0.009733 -0.065658 0.002644 0.752465 -0.208919 0.624619
0.032088 -0.060531 -0.067653 -0.116338 0.990521 0.0730294
0.00642201 0.054827 0.067504 0.393346 -0.227654 0.89076
-0.01851 0.068327 0.075025 -0.389235 0.0175182 0.920972
0.007415 -0.071409 -0.000157997 0.789564 -0.609533 0.0711189
0.000870004 0.018272 -0.017676 0.0202257 -0.936235 0.350793
0.026716 -0.021078 0.030309 0.430022 0.743647 0.511927
-0.006226 0.042213 -0.070972 -0.541206 0.840359 0.0298751
0.035659 -0.063518 -0.065412 0.716243 0.687827 -0.11786
0.030203 0.02705 -0.019826 0.870114 0.369676 0.325946
0.013801 0.035135 0.05296 0.456804 -0.721635 0.520167
-0.012316 0.085963 0.056221 0.258616 0.865456 -0.429073
-0.007408 -0.071126 -0.016098 -0.711719 -0.662412 0.23381
-0.00588 0.028105 -0.044373 -0.914352 -0.371639 -0.160764
-0.00575999 -0.032835 -0.000694998 -0.560741 0.513438 -0.649578
-0.002043 0.043209 -0.071783 0.348598 0.888557 -0.298239
0.029284 -0.069937 0.009074 -0.329209 -0.86627 -0.375762
0.024748 0.037626 -0.009103 0.512356 0.769903 0.380446
-0.036125 0.083999 0.047253 -0.746599 0.123639 0.653684
0.040378 -0.040408 0.019454 0.952636 0.269297 0.141295
-0.03218 0.09122 0.040677 0.320637 0.946127 0.0451093
-0.01122 0.030612 -0.004827 -0.961685 0.116283 0.248276
-0.008998 -0.064753 -0.005201 -0.958892 -0.107188 0.26275
-0.001402 -0.054667 0.032003 -0.492024 -0.0561621 0.868768
-0.037859 0.083202 0.045289 -0.758604 -0.127411 0.638973
-0.022828 0.067241 0.050562 -0.244152 -0.828227 -0.504411
0.026302 0.036858 -0.00834599 0.116047 0.94389 0.309201
-0.00419 0.027918 -0.025459 -0.56067 -0.16566 0.811299
-0.004973 -0.080245 -0.041812 -0.978095 0.206893 -0.0229208
0.030151 0.023616 -0.019035 0.79777 -0.394279 0.456187
-0.017131 0.069777 0.070666 -0.888582 -0.439606 0.13103
-0.00464199 0.081081 0.068212 0.898121 0.324648 0.296617
0.031053 -0.066325 -0.029671 -0.196409 -0.959622 0.201366
0.015778 0.029308 -0.016347 -0.640835 0.511133 0.572777
0.00218601 0.046468 0.008095 0.0401686 0.961936 -0.270306
0.030555 -0.046148 -0.017148 -0.248541 0.968242 0.0270994
-0.00325799 0.026855 -0.050173 -0.459886 -0.832219 -0.309705
0.004978 -0.073399 0.001426 0.186176 -0.932996 0.307987
-0.003235 -0.088473 -0.073206 0.066754 -0.900893 -0.428878
0.00189501 -0.086601 -0.056314 0.911746 -0.410415 -0.0166893
-0.007623 -0.085401 -0.074445 -0.651276 -0.420733 -0.631525
0.00172601 -0.085901 -0.055384 0.949946 -0.312307 0.00823967
-0.001692 0.039317 -0.00992 -0.44494 0.874714 0.192106
-0.005043 -0.082311 -0.062793 -0.745715 0.626258 -0.2274
-0.00676 0.041076 0.017404 -0.836487 0.509956 0.200584
0.027666 0.013418 -0.037348 0.155442 -0.96678 0.202914
-0.002624 0.034701 -0.075398 0.123844 -0.569966 -0.812282
-0.005696 -0.075578 -0.027624 -0.973797 -0.180459 0.1384
-0.00332299 0.076395 0.044473 0.708962 -0.287479 -0.643995
-0.00520599 -0.039765 0.000174008 0.190639 0.931951 -0.308422
-0.00871 -0.063378 -0.007436 -0.92258 0.242754 0.29986
0.006205 0.013725 -0.017386 -0.148005 -0.977404 0.150915
0.00055401 -0.086455 -0.070325 0.641831 -0.691851 -0.33075
-0.006128 0.030726 -0.041334 -0.867646 0.497062 -0.010957
-0.004472 -0.08133 -0.065649 -0.318871 0.897685 -0.30411
-0.016437 0.066217 0.061319 0.538979 -0.397793 -0.742471
0.040224 -0.041812 0.020926 0.938357 0.344556 0.0276903
0.032025 -0.067169 -0.035777 -0.0369725 -0.960221 0.276783
-0.000556998 0.035654 -0.055384 0.574941 0.808046 0.128471
-0.003924 0.036462 -0.058624 -0.512475 0.851597 0.110234
0.000915997 0.065469 0.070116 0.771855 0.360587 0.523657
0.00541 -0.015978 -0.016879 -0.277486 -0.399218 -0.873857
0.03626 -0.061435 -0.030582 0.779312 -0.621062 0.0833973
-0.005321 -0.083475 -0.049479 -0.949098 -0.308264 -0.0647099
0.002222 0.00725 0.026616 -0.5889 -0.745569 0.311967
-0.00808699 -0.070233 -0.015006 -0.89451 -0.335844 0.295061
-0.014392 0.086781 0.053997 0.0345075 0.983292 -0.178733
0.025618 -0.050711 -0.0049 -0.295979 0.582274 0.757201
0.013837 0.034869 0.05276 0.458961 -0.736999 0.496172
0.006925 0.012717 -0.017693 -0.173107 -0.980442 0.0936392
0.00389001 0.026245 -0.020748 0.5046 -0.058679 0.861357
-0.003536 0.028538 -0.056899 -0.62826 -0.766167 -0.135194
0.000123002 -0.082049 -0.047002 0.914314 0.197112 -0.353802
0.026635 0.013586 -0.075619 -0.439218 -0.246767 -0.863825
0.036836 -0.061009 0.002831 0.746866 -0.567921 0.345915
0.029574 -0.063119 -0.041132 -0.982178 -0.107119 -0.154442
0.025843 0.015732 -0.018864 -0.0131378 -0.65814 0.752781
-0.015944 0.086893 0.052142 -0.195433 0.976495 0.0909028
-0.001503 0.073291 0.047407 0.778791 0.0053248 -0.627261
0.00263501 -0.077093 -0.019957 0.943161 -0.326575 0.0616093
0.005136 0.014754 -0.017014 -0.0202011 -0.934256 0.356031
0.00018201 0.033982 -0.052707 0.839226 0.543777 -0.00255756
0.032559 -0.057828 -0.036467 0.00122229 0.912354 -0.409402
0.029563 0.023897 -0.024209 0.884986 -0.248449 0.393793
-0.004904 -0.08426 -0.044719 -0.781627 -0.623702 -0.00738515
-0.00665499 0.035599 -0.07549 -0.436914 -0.501416 -0.746785
0.03393 0.013513 -0.061067 0.993986 0.109271 0.00716494
0.031855 -0.038614 -0.006632 -0.701033 0.702052 0.125205
-0.004863 -0.076222 -0.026823 -0.926403 -0.113264 0.359095
-0.000940003 -0.082837 -0.022642 0.101357 -0.887762 0.449005
0.033779 -0.066168 -0.033524 0.839572 -0.530868 0.115318
-0.005157 0.056657 0.050503 -0.345739 -0.905698 -0.245307
0.028845 -0.059151 -0.073911 -0.666407 0.511932 -0.542059
0.033541 -0.055941 -0.032671 0.410759 0.894127 -0.178367
0.013185 0.060212 0.055252 0.935283 0.228748 0.270036
0.026818 0.015675 -0.068778 -0.805523 0.230821 -0.54576
-0.035767 0.090535 0.041135 -0.382037 0.918182 0.104831
0.00236901 -0.081948 -0.029597 0.892234 -0.448908 0.0489874
0.00074701 -0.087373 -0.062749 0.758976 -0.5217 -0.389595
-0.00426299 -0.087705 -0.065059 -0.451191 -0.832158 -0.322396
-0.011185 0.064064 0.067991 0.420184 -0.75894 0.497448
-0.023913 0.068549 0.04405 -0.443323 -0.869378 -0.218282
0.027963 0.026386 -0.031983 0.100959 0.976361 -0.19112
0.005444 0.045253 0.061376 -0.533617 -0.550663 0.64189
-0.005335 0.0319 -0.063856 -0.770779 -0.465661 -0.434811
0.001109 -0.076354 -0.016767 0.361569 -0.748176 0.556327
0.00533601 -0.065753 0.001114 0.518067 0.103047 0.84911
0.029828 -0.058022 -0.034977 -0.551808 0.722058 -0.417301
0.028192 0.024665 -0.036933 0.0345298 0.965363 -0.258616
0.022153 0.025102 -0.028134 -0.90919 0.416244 -0.0107078
0.034832 -0.033194 0.030866 0.613423 0.591059 0.523795
0.00117101 0.073871 0.058755 0.766601 0.594988 -0.241478
-0.00485099 0.0297 -0.025716 -0.927011 -0.262127 0.268218
-0.015349 0.087928 0.056761 0.0947895 0.963644 -0.249811
-0.005162 0.038071 -0.065686 -0.721069 0.689677 0.0663653
-0.014371 0.076559 0.070511 -0.649753 0.261569 0.713725
-0.001237 0.019635 -0.01811 -0.257558 -0.919068 0.298293
-0.027113 0.074534 0.058931 -0.625396 0.50063 0.59854
-0.001093 -0.079418 -0.070524 0.485033 0.832152 -0.268825
-0.018048 0.067764 0.074837 -0.209929 -0.28548 0.93511
0.028105 -0.053223 -0.026017 -0.584237 0.780308 -0.223131
-0.000328995 -0.078986 -0.040864 0.616933 0.63625 -0.463227
0.033319 -0.067195 -0.035631 0.60034 -0.760654 0.246977
-0.005661 -0.076682 -0.028196 -0.829041 -0.521653 0.20142
-0.004071 -0.081658 -0.058111 -0.353177 0.898625 -0.260267
0.00685601 -0.06848 0.00163901 0.362384 0.3972 0.843155
0.002306 -0.076768 -0.018569 0.844283 -0.487295 0.223003
0.027087 -0.05733 -0.029407 -0.901606 0.392814 -0.181117
-0.019118 0.067164 0.065562 -0.743783 -0.667717 -0.0306802
-0.005909 -0.057297 -0.012305 -0.390029 0.896917 -0.208367
0.033036 -0.069247 -0.044489 0.237697 -0.963667 0.12184
-0.036115 0.08531 0.032619 -0.296567 0.011517 -0.954943
-0.01131 -0.044537 0.00201 -0.792071 0.606533 -0.068861
0.027949 -0.058869 -0.032441 -0.991275 0.0200577 -0.130276
0.031301 -0.043833 -0.012868 -0.165209 0.934199 0.316193
-0.040557 0.083124 0.037336 -0.870241 -0.478011 -0.119102
0.00161801 -0.060088 -0.012814 0.850363 0.460257 0.255042
0.03085 -0.068863 0.006598 -0.173794 -0.91974 -0.351957
-0.017309 0.066877 0.072547 -0.0800841 -0.816221 0.572163
-0.000219993 0.024212 -0.037174 0.53093 -0.818387 -0.219899
-0.00719099 -0.037198 0.026761 -0.856981 0.424762 0.291823
-0.003641 0.029097 -0.06187 -0.347309 -0.849189 -0.397812
-0.003213 -0.08812 -0.064894 -0.080528 -0.904581 -0.418628
0.029501 -0.040302 -0.006054 -0.730741 0.35856 0.580907
0.035418 0.01708 -0.073728 0.862131 0.283361 -0.420044
-0.007568 -0.08307 -0.069869 -0.998361 -0.0350701 -0.0452337
-0.002579 0.041565 0.024001 -0.985651 -0.157287 0.0612575
0.019925 0.019572 -0.020323 -0.53322 -0.452805 0.714594
0.032992 0.015361 -0.059522 0.835016 0.535146 -0.127936
-0.005426 -0.069017 -0.025817 -0.581038 0.556412 -0.59397
0.028372 -0.064484 -0.073718 -0.726222 -0.195222 -0.659159
0.030602 0.007243 -0.058074 0.175599 -0.979573 0.097992
-0.040183 0.082699 0.037515 -0.8323 -0.540998 -0.120827
-0.00327499 0.035551 -0.054555 -0.533388 0.791505 0.298357
0.002414 0.061011 0.069985 0.46682 -0.095929 0.879134
0.029979 -0.044434 -0.013208 -0.474129 0.774497 0.418756
-0.006452 -0.034782 0.026593 -0.864481 0.502665 0.000959543
0.025835 0.029479 -0.021335 -0.482218 0.873041 0.0725568
0.023022 0.041614 -0.002544 0.415243 0.907234 -0.0670823
0.002379 -0.061648 -0.00353 0.684525 0.255692 0.682676
0.014754 -0.051654 0.036543 0.00210425 0.155877 0.987774
-0.026102 0.068962 0.059207 -0.792654 -0.580436 0.18653
-0.00293999 0.024578 -0.042819 -0.271399 -0.941207 -0.201179
0.012555 -0.029828 -0.011753 0.21674 0.0034148 -0.976223
0.020968 0.015797 -0.018819 -0.313298 -0.646662 0.695466
0.031604 -0.072183 -0.057374 -0.186091 -0.98216 0.0270553
-0.00549999 -0.037169 0.003727 -0.21083 0.956805 -0.200187
0.013185 -0.044362 0.037124 0.00876987 0.343912 0.938961
-0.031389 0.088668 0.034904 0.44873 0.392171 -0.803022
-0.00308999 0.037607 -0.011796 -0.510728 0.807675 0.294649
0.023275 0.009245 -0.013147 0.137855 -0.763567 0.630841
-0.00283699 0.022491 -0.024394 -0.16507 -0.935985 0.310941
0.019669 0.029761 -0.016338 -0.663029 0.327125 0.673337
0.029132 -0.04244 -0.008211 -0.577876 0.535804 0.615608
-0.007606 0.081981 0.043352 0.679487 0.701278 -0.215655
-0.016234 0.069139 0.074621 0.0700195 -0.0614183 0.995653
0.030214 0.024141 -0.019842 0.833329 -0.288137 0.471741
0.020477 0.027464 -0.019179 -0.574622 0.557755 0.598931
0.026719 0.01359 -0.034866 -0.0154578 -0.950971 0.308894
0.027835 -0.058432 -0.016085 -0.879938 0.0778035 0.468674
0.001454 -0.05458 -0.007928 0.445125 0.821138 0.357207
-0.00216499 -0.083095 -0.02334 -0.187839 -0.893133 0.408693
-0.017773 0.07039 0.068459 -0.959876 -0.0945155 0.264018
0.029312 -0.06223 -0.039327 -0.986283 -0.164894 -0.00741746
-0.032023 0.077612 0.043572 -0.589406 -0.686092 0.426472
-0.039073 0.081863 0.039497 -0.745062 -0.66398 0.0633416
0.000564002 -0.083674 -0.052944 0.966312 0.207863 -0.151767
0.037873 -0.061169 -0.074428 0.614519 0.183217 -0.767332
-0.008927 0.083516 0.066014 -0.248709 0.9617 -0.115227
0.036658 -0.058345 -0.07358 0.666891 0.638678 -0.383858
-0.00845 0.062171 0.05264 0.304983 -0.719376 -0.624086
-0.00672299 -0.042098 -0.000101998 0.266061 0.890068 -0.370121
-0.00255099 0.05735 0.041227 -0.337373 -0.92777 -0.159445
0.021355 0.041295 -0.007233 0.387719 0.921669 0.0141697
-0.00303899 -0.082996 -0.025316 -0.450862 -0.845221 0.286924
-0.00290599 -0.078689 -0.07598 0.0214927 0.499021 -0.866324
-0.00860599 0.077994 0.070168 0.769295 -0.105454 0.63013
0.027691 -0.033862 -0.007082 -0.572747 0.809233 -0.130775
-0.001945 0.015641 -0.005083 -0.210903 -0.909526 0.358166
-0.006838 -0.044116 -0.00110799 0.167808 0.885585 -0.433105
-0.004547 -0.081009 -0.030409 -0.682355 -0.697796 0.21788
0.006926 -0.070541 -0.001648 0.981552 -0.183784 -0.0527234
0.034513 0.012578 -0.074428 0.5596 -0.397836 -0.727031
0.000707 0.018345 -0.01772 -0.0673416 -0.951148 0.301301
0.008858 0.036618 -0.01223 0.0873349 0.981493 -0.170424
0.000338003 0.024383 -0.035712 0.594843 -0.801069 -0.0667095
-0.041576 0.08595 0.038149 -0.993701 -0.0705205 -0.0870904
-0.006629 -0.069304 -0.024415 -0.869393 0.238968 -0.432492
-0.002453 -0.059178 -0.007145 0.0939284 0.507647 0.85643
-0.017928 0.068454 0.070832 -0.996998 -0.0187295 0.0751254
-0.031078 0.089193 0.044184 0.300405 0.642974 0.704515
-0.00028199 -0.082842 -0.063672 0.771811 0.572015 -0.277682
0.026821 -0.036025 -0.007384 -0.711397 0.70275 -0.00749834
0.000114001 -0.083284 -0.064216 0.864213 0.423414 -0.271767
-0.00728399 -0.04671 -0.002397 -0.132566 0.899321 -0.41671
0.034411 -0.068243 -0.073616 0.294715 -0.741768 -0.602431
-0.007189 0.072881 0.071567 0.383543 -0.192391 0.903261
-0.004954 -0.081201 -0.044333 -0.986731 0.069601 -0.146692
0.008479 0.011693 0.034569 -0.350741 -0.817169 0.4574
0.027277 0.012932 -0.066772 -0.813632 -0.475268 -0.334847
-0.005622 0.083066 0.068218 0.780236 0.619633 0.085358
0.034306 -0.031073 0.001836 0.795326 0.605892 -0.0187465
-0.010712 0.063224 0.05549 0.331734 -0.745375 -0.578247
0.022738 0.00969 -0.016741 -0.0509193 -0.85361 0.518419
-0.037317 0.090865 0.038162 -0.321151 0.939753 -0.117163
-0.001745 -0.040244 -0.001129 0.32376 0.894462 -0.308411
0.030144 -0.065772 -0.046344 -0.866059 -0.476546 -0.151147
0.003309 -0.070778 -0.016056 0.979251 -0.190296 0.0696746
0.00410201 0.066743 0.047557 0.890991 0.36929 -0.264121
0.031533 0.036653 -0.000628002 0.755783 0.64503 0.112821
0.034419 -0.062272 -0.026855 0.639198 -0.726453 0.252371
0.034591 0.017177 -0.069534 0.861399 0.507567 -0.0191601
0.033653 -0.072686 -0.058152 0.178225 -0.983621 -0.0269233
0.036581 -0.060303 -0.0321 0.966369 -0.255137 -0.0321778
-0.010313 0.060474 0.064179 -0.0409708 -0.995638 0.0838186
-0.000133999 -0.082612 -0.050943 0.923463 0.33582 -0.185583
-0.000214003 0.037857 0.030233 -0.792263 -0.577639 0.196604
-0.040689 0.088911 0.040925 -0.792581 0.489651 0.363396
0.030618 0.009108 -0.053558 0.499901 -0.798639 0.335074
-0.015999 0.069547 0.07446 0.172205 0.0459476 0.983989
0.027062 -0.046563 -0.004329 -0.385855 0.535193 0.751455
-0.032487 0.081048 0.051122 -0.747266 -0.255712 0.613356
-7.00355e-06 -0.064533 -0.016219 0.46408 0.868125 0.176037
-0.005046 0.035074 -0.075899 -0.225643 -0.451256 -0.863396
-0.00489 0.075242 0.069251 0.793343 -0.330095 0.511512
0.006574 -0.066807 0.001962 0.446597 0.212935 0.869028
-0.020858 0.083692 0.040025 0.551446 0.575775 -0.603648
-0.006813 0.016449 0.008589 -0.894452 -0.435711 -0.100556
0.001875 0.03317 -0.062524 0.888395 -0.146205 -0.435176
-0.014886 0.074441 0.07072 -0.617637 0.367001 0.695583
0.028588 0.018024 -0.053309 -0.0891226 0.954498 -0.284588
-0.004291 -0.079342 -0.029012 -0.509686 -0.581662 0.633948
0.031799 0.017927 -0.067689 0.525126 0.850935 0.0123517
0.028497 0.027282 -0.026631 0.486232 0.872604 0.0462565
-0.002501 -0.058678 -0.007327 -0.0602229 0.595441 0.801139
0.033796 0.012149 -0.068209 0.827859 -0.496995 -0.260088
0.001105 -0.089108 -0.060548 0.687641 -0.639203 -0.344339
-0.015894 0.088228 0.059528 -0.101291 0.95969 0.262174
0.028252 0.020372 -0.045664 -0.0473304 0.958084 -0.28255
-0.000263996 0.028067 -0.050015 0.804534 -0.512334 -0.300398
0.00183601 0.039439 -0.071434 0.868458 0.445542 -0.217426
0.028765 0.019911 -0.072111 -0.153838 0.967107 -0.202578
0.01176 -0.012012 -0.018414 -0.0448869 -0.284103 -0.957743
-0.004594 0.026271 -0.019915 -0.257942 0.0147335 0.966048
0.039343 -0.057131 -0.000395 0.946861 -0.281792 0.15507
0.031826 0.021506 -0.037297 0.917683 0.38278 -0.106481
-0.00196299 -0.05948 -0.00577999 0.0995592 0.389349 0.915694
0.002012 0.031926 -0.021466 0.725765 0.364354 0.583534
0.000482 0.016789 -0.008808 -0.238739 -0.806664 0.540646
-0.005481 -0.074914 -0.03177 -0.71947 0.505763 -0.475989
-0.003739 0.059212 0.044807 0.135987 -0.988632 -0.0641377
-0.007098 -0.029795 0.018937 -0.942113 0.324023 0.0862103
0.006013 -0.070178 -0.002958 0.906085 0.100569 0.41097
-0.010835 -0.04968 0.02075 -0.795329 0.168539 0.582277
0.022109 -0.001788 0.027928 -0.492849 -0.227741 0.839782
0.030331 -0.057861 -0.035276 -0.387193 0.840811 -0.378311
0.005033 -0.069695 -0.00605999 0.974269 0.0621642 0.216645
-0.036688 0.090406 0.040144 -0.32954 0.942705 0.0520695
0.022841 0.039786 0.032609 0.948703 -0.263274 0.17507
-0.021507 0.073017 0.065545 -0.770103 0.456549 0.445539
0.03186 -0.069827 -0.04923 -0.445559 -0.885267 0.133339
0.019568 0.029974 0.039327 0.90106 -0.390245 0.189208
-0.022813 0.071255 0.063103 -0.862663 0.0261353 0.505104
0.028945 0.014231 -0.035711 0.595142 -0.713953 0.368886
0.025052 0.03278 -0.015487 -0.146507 0.987269 -0.0619291
0.004099 0.051638 0.021245 -0.733401 0.270656 -0.623593
-0.024984 0.069409 0.052258 -0.540659 -0.80893 -0.230912
0.035401 -0.063788 -0.048828 0.930175 0.365315 -0.0363173
0.033296 -0.068704 0.019451 0.555757 -0.814771 0.165175
-0.038872 0.08159 0.038318 -0.709151 -0.673853 -0.207432
-0.039319 0.083521 0.041791 -0.862464 -0.417319 0.286356
-0.005086 -0.082546 -0.051254 -0.937265 0.286507 -0.198614
0.033306 -0.031307 -0.000427 0.538483 0.840943 -0.0534
-0.002826 0.058874 0.039455 -0.778977 -0.627023 -0.00602295
-0.00357199 -0.069066 0.00759601 -0.097953 -0.560681 0.822218
0.035399 -0.062408 -0.042882 0.983505 -0.0242028 -0.179255
-0.00655999 0.0748 0.070689 0.638451 -0.00957414 0.769603
0.006549 -0.069089 0.000128001 0.451275 0.552618 0.700688
-0.00813799 -0.066259 -0.007524 -0.871145 -0.204136 0.44658
-0.017928 0.087512 0.055069 -0.274864 0.943393 -0.185634
-0.00472 -0.079577 -0.070153 -0.183302 0.916152 -0.356463
-0.001738 0.027043 -0.050205 0.396181 -0.864559 -0.309156
0.02209 0.019522 -0.033931 -0.997078 -0.0134794 -0.0751948
0.033888 -0.063524 -0.059805 0.143305 0.988656 -0.0449766
-0.004935 -0.028995 0.02304 -0.885471 0.456577 0.0864723
0.00872901 -0.06961 0.002273 0.624432 0.622779 0.471413
-0.004018 0.03071 -0.064089 -0.371623 -0.657938 -0.654992
0.029402 -0.043752 -0.010616 -0.586532 0.580977 0.56431
-0.006175 0.015216 0.01556 -0.864548 -0.411151 0.288983
-0.0046 0.033109 -0.048958 -0.897223 0.437246 -0.0617015
0.036552 -0.048411 -0.018965 0.800776 0.585799 -0.124894
-0.009114 0.062236 0.068142 0.172158 -0.659386 0.731828
0.033094 -0.058253 -0.037644 0.208173 0.843283 -0.495518
-0.032207 0.083367 0.03386 0.453894 -0.133043 -0.881068
0.018781 0.005396 -0.017234 -0.198928 -0.962451 0.184704
0.025156 -0.031406 -0.007455 -0.846471 0.158476 -0.508303
0.004657 -0.068912 -0.006794 0.837622 0.344307 0.424079
0.027832 -0.059586 -0.015279 -0.937359 -0.313576 0.151753
-0.003671 -0.079255 -0.076012 -0.0886107 0.267612 -0.959444
0.034858 -0.05895 -0.017068 0.695481 -0.552805 0.459034
0.032564 0.008124 -0.058444 0.653368 -0.755397 0.0498523
0.033278 -0.059976 -0.018091 0.784284 -0.374218 0.494832
-0.014245 0.087896 0.058593 0.195418 0.979798 -0.0425212
-0.000611 0.037268 0.029679 -0.894648 -0.305925 0.325599
0.033541 0.020619 0.00754201 0.771249 -0.636524 0.0035937
0.033902 -0.061821 -0.024921 0.627698 -0.690484 0.359482
-0.002248 0.03503 -0.075744 0.216421 -0.474787 -0.853077
0.029781 0.015021 -0.001613 0.192446 -0.937775 0.289037
-0.002008 -0.09136 -0.060846 0.188988 -0.915354 -0.355542
-0.00587899 -0.083772 -0.06288 -0.969733 0.197016 -0.14423
-0.0044 0.024974 -0.034132 -0.832439 -0.50942 -0.21803
-0.001106 -0.059823 -0.010639 0.0716005 0.49959 0.863298
0.029729 0.017552 -0.067396 -0.189985 0.978699 -0.0778045
0.028018 -0.060648 -0.020875 -0.981642 -0.159083 -0.105221
0.028182 0.011208 -0.071067 -0.435045 -0.833204 -0.341331
0.011584 0.001986 -0.018815 -0.509226 -0.840433 -0.185368
0.00597401 -0.070178 -0.003554 0.93074 0.144641 0.335859
-0.039019 0.082011 0.040109 -0.777906 -0.615569 0.126244
-0.007836 -0.082465 -0.076141 -0.383341 -0.0706746 -0.920899
0.033788 -0.067994 -0.074275 0.100575 -0.58266 -0.806469
-0.010375 0.02645 -0.008021 -0.905929 -0.33751 0.255694
-0.007845 0.026118 -0.012248 -0.706124 -0.624197 0.334317
0.00141301 -0.084102 -0.056958 0.971132 0.168371 -0.168979
-0.001485 0.03428 -0.028411 0.040491 0.998674 -0.0317885
0.020239 0.018573 -0.019599 -0.373919 -0.438684 0.817154
0.007677 -0.040394 -0.00287 0.0571197 0.901448 -0.429102
0.037749 -0.06542 -0.071055 0.895918 -0.198619 -0.397344
0.000284009 0.034863 -0.03866 0.232764 0.958408 0.165153
-0.005792 0.036791 -0.066307 -0.924274 0.361454 -0.122754
0.022102 -0.011732 0.029497 -0.427238 0.611654 0.665843
-0.007152 0.035751 -0.072221 -0.76718 -0.556001 -0.319841
0.031642 -0.068156 -0.070074 -0.204848 -0.889282 -0.408919
0.00600401 -0.056742 -0.006387 0.761158 0.417822 0.496048
0.036035 -0.067642 -0.064683 0.789271 -0.555205 -0.262297
0.024938 0.045196 0.023433 0.679679 0.72734 0.0949398
0.032795 -0.031478 -0.001458 0.373884 0.927313 0.0173543
0.001565 0.04039 -0.076183 0.480348 0.191361 -0.855948
0.027629 -0.053778 -0.02589 -0.740745 0.671298 -0.0256076
0.00687 -0.071009 -0.00132299 0.88216 -0.426344 0.200061
0.033503 -0.058739 -0.011865 0.561159 -0.29259 0.774269
0.015762 -0.068737 0.010526 0.49983 -0.863391 0.0687411
-0.009278 0.062417 0.068153 0.186775 -0.630714 0.753203
-0.038033 0.091243 0.040541 -0.491226 0.836676 0.242222
-0.012073 0.063381 0.059624 0.136858 -0.887533 -0.439948
0.025772 0.036917 -0.00867099 0.179405 0.908086 0.37841
0.000762001 -0.083808 -0.053835 0.976287 0.205654 -0.0676075
-0.018414 0.081906 0.04002 0.474674 0.35664 -0.804669
-0.00168299 -0.07531 -0.015384 -0.285592 -0.818135 0.499092
0.024551 0.015163 -0.018935 -0.167149 -0.620217 0.766415
0.026515 -0.058036 -0.007839 -0.430459 0.0414277 0.901659
0.01903 0.024431 -0.01929 -0.593935 0.0224245 0.8042
0.033749 0.012173 -0.074914 0.396789 -0.426918 -0.812588
0.01311 -0.030191 -0.011375 -0.0981023 0.310769 -0.945409
-0.02725 0.071408 0.048359 -0.784298 -0.616921 -0.0654544
3.20002e-05 0.035434 -0.070477 0.68178 -0.417584 -0.600666
0.005977 -0.0673 0.001974 0.270509 0.347046 0.897989
-0.002409 -0.069882 0.007734 -0.319666 -0.406957 0.855687
0.03139 0.022705 -0.03227 0.900175 0.235254 0.366524
-0.004052 -0.078102 -0.027687 -0.682954 -0.40854 0.605532
0.000175007 -0.079328 -0.019215 0.227666 -0.771745 0.593783
0.030048 -0.064812 -0.046459 -0.932677 -0.165166 -0.320677
0.027819 -0.058789 -0.016179 -0.826896 -0.145666 0.543162
0.011587 -0.070376 0.005195 0.927228 -0.254045 0.275153
0.026955 -0.058054 -0.011241 -0.764683 -0.041309 0.643081
-0.000357002 -0.061007 -0.012762 0.428274 0.677738 0.597706
-0.003561 0.027638 -0.053123 -0.56843 -0.794609 -0.213269
0.021369 0.025866 -0.024681 -0.853347 0.47219 0.220985
-0.037899 0.082681 0.03493 -0.431631 -0.649712 -0.625755
0.038004 -0.005599 0.003914 0.942876 0.226586 -0.24422
0.029841 -0.040611 -0.006536 -0.594155 0.53521 0.600442
0.028954 0.010626 -0.072964 -0.261016 -0.859476 -0.439513
-0.011758 0.085613 0.055746 0.445025 0.783121 -0.434366
-0.032847 0.081191 0.050632 -0.754403 -0.284178 0.591709
-0.00112199 -0.082205 -0.021689 0.0281445 -0.864989 0.501001
-0.024059 0.084029 0.038997 0.375684 0.244594 -0.893887
0.014614 0.031474 0.049295 0.769102 -0.597653 0.226479
0.027272 -0.059025 -0.009757 -0.576161 -0.502022 0.64499
0.032274 -0.06756 -0.074653 -0.00399392 -0.389133 -0.921173
-0.00618999 -0.08099 -0.037776 -0.91442 -0.307882 -0.262762
0.037269 -0.067217 -0.055957 0.975499 -0.199368 0.093032
0.025522 -0.04715 -0.00390299 -0.331595 0.661346 0.672805
0.033326 -0.056262 -0.033369 0.282767 0.903101 -0.323189
-0.00185999 -0.088101 -0.046915 0.0218841 -0.999156 0.0347731
-0.008171 0.083457 0.062455 0.496114 0.779596 -0.382232
0.037299 -0.058073 -0.02889 0.998288 0.0459305 -0.0362211
-0.010939 0.083533 0.04275 0.342758 0.72659 -0.59547
0.027828 -0.058666 -0.016141 -0.814076 -0.0651448 0.577093
0.02673 0.019811 -0.074037 -0.667215 0.618366 -0.415269
0.01389 0.029635 -0.016199 -0.450853 0.73293 0.509455
0.004471 0.015237 -0.016727 -0.0178032 -0.833714 0.55191
-0.012869 0.072062 0.07137 0.49624 -0.222781 0.839115
0.031924 -0.058497 -0.074729 0.123426 0.0625574 -0.99038
0.034387 -0.068951 -0.065493 0.340731 -0.861912 -0.375513
-0.006801 -0.071115 -0.024019 -0.986321 -0.089305 -0.138548
0.033626 0.00581001 0.013466 0.946137 -0.267311 -0.182671
0.001981 -0.080064 -0.037619 0.961525 -0.175259 -0.211551
-0.00405099 0.079501 0.050513 0.699031 0.711123 -0.0752312
0.000151008 -0.072233 -0.028971 0.362571 0.691963 -0.624283
0.020168 0.047869 0.0148 -0.0305097 0.963768 -0.264993
0.033952 0.022656 -0.006157 0.788489 -0.532353 0.308035
0.028591 -0.05671 -0.018923 -0.943792 0.206704 0.257933
0.03334 -0.059486 -0.015849 0.594519 -0.378252 0.709558
0.025928 0.016695 -0.070917 -0.917169 0.359703 -0.171509
0.030301 -0.060354 -0.011359 0.0390897 -0.53068 0.84667
0.004101 -0.060184 -0.00286799 0.689839 0.416171 0.592389
-0.00290599 -0.059398 -0.009451 -0.248492 0.274827 0.928828
0.00691201 -0.071849 -0.000271998 0.605429 -0.782839 0.14359
-0.001465 0.028367 -0.056602 0.404923 -0.882482 -0.239298
0.013566 -0.003278 0.028556 -0.650707 -0.356397 0.670494
-0.011362 0.077681 0.070438 0.268126 0.426893 0.863638
0.030809 -0.058725 -0.071565 -0.283561 0.951371 -0.120359
0.02054 0.018278 -0.020083 -0.446562 -0.300038 0.842947
-0.02552 0.087981 0.041815 0.388684 0.916859 0.0910735
-0.000312999 0.020302 -0.018852 0.333969 -0.917436 0.216276
-0.003662 -0.08823 -0.07551 -0.0347464 -0.646901 -0.761782
-0.015783 0.08802 0.056247 0.0648724 0.980209 -0.187036
0.028572 0.00936401 -0.053279 -0.484919 -0.861971 0.14785
0.003288 0.027476 -0.026524 0.849247 -0.375818 0.370864
-0.00558199 0.03766 -0.066321 -0.876971 0.476941 0.0587275
0.030919 0.01195 -0.075648 0.0412439 -0.267128 -0.962778
0.00514701 -0.056371 -0.007542 0.73898 0.507942 0.442611
0.032915 -0.069075 -0.043775 0.199777 -0.979772 0.0116443
0.0139 0.034197 0.052141 0.441749 -0.755286 0.48415
0.003499 0.022292 -0.018083 0.344077 -0.542081 0.766654
0.037425 -0.066193 -0.073537 0.714611 -0.376831 -0.589347
-0.013243 0.064054 0.065498 0.349865 -0.936731 -0.0113747
-0.002022 -0.081451 -0.054631 0.469824 0.859655 -0.200645
-0.022454 0.067193 0.0599 -0.513902 -0.832185 0.208262
0.00151 0.034567 0.033315 -0.85709 -0.513455 -0.0419678
0.028159 -0.055093 -0.028853 -0.515143 0.724685 -0.457668
0.00441 0.053851 0.024432 -0.265954 0.516763 -0.813771
-0.015263 0.07221 0.072222 -0.237052 0.510529 0.826539
0.00175901 -0.076878 -0.017749 0.60539 -0.651581 0.457106
-0.004545 0.017297 0.024434 -0.594535 -0.803318 0.0347552
-0.001762 0.022859 -0.028132 0.133327 -0.987406 0.0851722
-0.002771 -0.076598 -0.018941 -0.605871 -0.544928 0.579632
-0.037243 0.09089 0.042209 -0.523487 0.708892 0.472687
0.001664 -0.082855 -0.028367 0.706836 -0.696805 0.121846
0.036385 -0.061102 -0.028947 0.80828 -0.553302 0.201347
0.023481 0.026435 -0.028406 -0.478363 0.876987 -0.045417
-0.019467 0.067534 0.066995 -0.923927 -0.309002 0.225558
0.037687 -0.054882 -0.01166 0.92791 -0.0931738 0.360973
0.038186 -0.061266 -0.074127 0.761941 0.209266 -0.612906
0.025234 0.014304 -0.043046 -0.888448 -0.445166 -0.111751
-0.010079 0.025468 0.010657 -0.862538 -0.465064 0.199359
0.030201 -0.061408 -0.015078 -0.143241 -0.93427 0.326531
-0.02778 0.089012 0.039148 0.389568 0.840754 -0.375992
-0.000314996 -0.062261 -0.01447 0.281405 -0.368857 0.885865
-0.003331 -0.053918 -0.008779 0.286758 0.957586 -0.0282495
-0.001641 0.044301 -0.073525 0.430888 0.875869 -0.217228
-0.002183 -0.078943 -0.019314 -0.39703 -0.699187 0.594562
0.001729 0.058081 0.032104 -0.498161 0.373715 -0.782415
0.024896 0.010657 -0.009406 0.283839 -0.819964 0.497086
0.033583 -0.067463 -0.038115 0.741142 -0.651849 0.160631
-0.001442 -0.082133 -0.063692 0.6164 0.729587 -0.296232
0.00111901 -0.07198 -0.027592 0.608935 0.632654 -0.478484
-0.003982 0.022728 -0.018289 -0.481637 -0.603603 0.635365
0.039709 -0.05588 -0.000935003 0.975436 -0.159875 0.151537
-0.00392799 0.059341 0.045414 0.293459 -0.850393 -0.436708
0.008099 0.044649 0.004608 0.0140673 0.966121 -0.257706
-0.001505 -0.061533 -0.009424 0.15133 0.177211 0.972469
-0.040928 0.085738 0.035353 -0.816665 0.118449 -0.564826
-0.005872 0.036773 -0.066953 -0.978931 0.197769 -0.0508132
0.023654 0.025276 -0.031678 -0.557913 0.819607 -0.1303
0.032799 -0.045231 -0.016399 0.16006 0.985968 0.047409
0.034036 0.012513 -0.068091 0.87535 -0.427603 -0.225648
0.000564002 0.0223 -0.020564 0.515009 -0.584652 0.626855
0.03579 -0.057456 -0.009339 0.63064 -0.450562 0.631891
-0.032986 0.078436 0.039819 -0.448914 -0.827939 -0.336145
0.028149 0.015139 -0.00437099 0.0540319 -0.92708 0.370949
-0.008858 0.076684 0.070262 0.257461 -0.430013 0.865334
0.001647 -0.078144 -0.036848 0.832192 0.297191 -0.468117
-0.00129699 -0.061957 -0.010048 0.269558 -0.22169 0.937119
-0.000290997 0.019894 -0.018674 0.192156 -0.977353 0.088636
0.017938 0.008279 -0.018328 -0.245474 -0.941684 0.230158
0.02792 0.01679 -0.023873 0.496893 -0.698136 0.515464
-0.001241 -0.081201 -0.048519 0.705161 0.585782 -0.399509
-0.00145999 -0.060123 -0.005269 0.103443 0.278665 0.954801
-0.01216 0.086573 0.059554 0.314349 0.948697 0.0340321
0.015176 -0.070861 0.016293 0.362903 -0.894727 -0.260318
0.001954 -0.085726 -0.059027 0.952334 -0.165082 -0.256531
-0.00191499 -0.081255 -0.050654 0.579629 0.75767 -0.299943
-0.011965 -0.058142 -0.000792995 -0.92933 0.229799 0.289029
-0.014385 0.085708 0.062226 -0.337735 0.751457 0.566787
-0.008739 -0.043272 -7.1995e-05 -0.231834 0.783117 -0.577044
0.025825 0.013009 -0.007096 0.325567 -0.712811 0.621214
-0.000877999 -0.082972 -0.022938 0.0831879 -0.905052 0.417087
-0.031099 0.07981 0.052924 -0.808088 -0.13004 0.574529
0.027385 -0.057647 -0.011387 -0.522638 0.0900512 0.847786
-0.020654 0.068071 0.062602 -0.891446 -0.431283 0.138991
-0.003587 -0.082342 -0.024677 -0.599521 -0.749866 0.279778
-0.008237 0.039093 -0.076114 -0.533546 0.0159689 -0.84562
0.000510998 -0.089793 -0.060837 0.599673 -0.727593 -0.333167
-0.024789 0.069572 0.043605 -0.468764 -0.817978 -0.333427
0.033818 0.013279 -0.07518 0.268674 -0.173963 -0.947392
0.028646 -0.053371 -0.01696 -0.263887 0.453489 0.8513
-0.015105 0.08801 0.05806 0.0689807 0.987112 -0.144403
0.001046 -0.080882 -0.071454 0.769132 0.490788 -0.409345
-0.005945 0.075824 0.042278 0.637563 -0.163638 -0.752818
0.032546 0.011902 -0.053802 0.884117 -0.279599 0.374382
0.000940003 0.01998 0.0321 -0.727141 -0.641301 0.244947
-0.032246 0.090705 0.036513 0.418812 0.736627 -0.531015
0.004223 -0.041367 -0.002462 0.233581 0.93553 -0.264996
0.00116801 0.034084 -0.058052 0.926828 0.332814 0.17385
-0.006451 0.028379 -0.03917 -0.988096 -0.148537 -0.0400393
0.026517 0.020026 -0.074653 -0.621392 0.555712 -0.552319
0.03825 -0.061465 -0.07352 0.868994 0.246844 -0.428857
-0.002833 0.053193 0.040753 -0.848942 -0.492249 -0.192322
-0.01636 0.072195 0.071701 -0.557593 0.631982 0.538228
-0.014179 0.077543 0.070346 -0.750723 0.436526 0.495842
-0.000270002 -0.08854 -0.050618 0.631219 -0.7706 0.0879671
0.033721 -0.039008 -0.006255 0.219704 0.9706 0.0983141
0.027935 0.016397 -0.060174 -0.557109 0.79303 -0.246439
0.022352 0.011194 -0.018352 -0.330691 -0.91981 0.211169
-0.003872 0.023681 -0.028164 -0.606396 -0.777888 0.164849
-0.028805 0.074556 0.041311 -0.193825 -0.691387 -0.696
0.031833 0.021911 -0.036294 0.929507 0.366977 -0.0366732
0.033819 -0.047943 -0.020273 0.270016 0.92212 -0.277104
0.00031101 0.034315 -0.053958 0.843112 0.525746 0.11293
0.033404 0.012188 -0.074975 0.309024 -0.371232 -0.875609
0.030053 0.026799 -0.020652 0.90984 0.303052 0.283462
-0.005445 -0.070367 -0.026478 -0.745683 0.458857 -0.483122
0.001787 0.016127 -0.009662 -0.361362 -0.739024 0.568561
-0.00434799 -0.087705 -0.064903 -0.480392 -0.815901 -0.321758
-0.024725 0.078525 0.038455 0.277199 -0.257666 -0.925618
0.004471 -0.069197 -0.007442 0.816407 0.240922 0.52482
0.035618 -0.060633 -0.036222 0.969117 -0.136494 -0.205382
-0.004244 -0.071916 -0.029245 -0.245255 0.732085 -0.635532
-0.00540799 -0.06952 -0.026016 -0.680797 0.503067 -0.532391
-0.008736 0.069655 0.038755 0.0361407 -0.00079562 -0.999346
0.031071 -0.046856 -0.018228 -0.106744 0.993737 -0.0330411
0.022276 0.024544 -0.029375 -0.907544 0.394948 0.142755
-0.002737 -0.087816 -0.046892 -0.395013 -0.918555 0.0148485
0.033583 0.020775 0.007849 0.793808 -0.607909 0.0177546
0.011852 0.061712 0.045555 0.684904 0.688595 -0.23821
-0.041773 0.087909 0.039544 -0.943753 0.301147 0.136533
0.000868 0.035585 -0.065654 0.896637 0.126235 -0.424389
-0.000569999 -0.073972 -0.03208 0.201661 0.659452 -0.724193
-0.000178002 0.046004 0.021452 -0.840449 0.240337 -0.485678
0.030654 -0.025756 0.030023 0.552582 0.672423 0.492443
-0.003445 0.023205 -0.027893 -0.485232 -0.87438 -0.00306983
-0.004531 0.025222 -0.02019 -0.54099 -0.350131 0.764682
-0.031259 0.076919 0.044644 -0.55935 -0.78292 0.272332
-0.00581 -0.074184 -0.027182 -0.997359 -0.0189994 0.0700966
0.000455 0.043013 -0.076047 0.412903 0.509582 -0.754876
-0.020035 0.067985 0.06305 -0.850772 -0.501948 -0.155677
-0.035483 0.090974 0.042362 -0.340925 0.840768 0.42057
0.018223 -0.056995 -0.003426 -0.252444 0.467846 0.84699
-0.009469 0.08211 0.068618 -0.457801 0.651643 0.604797
-0.02225 0.072261 0.064618 -0.854934 0.209711 0.474456
0.011304 -0.068241 0.00463301 0.826293 0.409727 0.386475
0.032583 0.017638 0.00500201 0.582441 -0.809526 0.07369
-0.012854 0.063466 0.06404 0.218681 -0.953007 -0.209659
0.033963 -0.037319 -0.00515399 0.426782 0.860717 0.277531
-0.002256 0.025245 -0.044946 0.12133 -0.966655 -0.225513
-0.00499 0.043126 -0.071972 -0.315902 0.923283 -0.218527
-0.004626 0.026782 -0.032233 -0.911661 -0.317389 0.261033
-0.024212 0.068569 0.053483 -0.583667 -0.673754 -0.453198
0.001471 -0.085805 -0.072788 0.724546 -0.512819 -0.460488
0.026629 0.017156 -0.051839 -0.849764 0.509334 -0.135938
0.031456 0.034284 -0.009425 0.811912 0.578775 -0.0762822
0.000384003 -0.079521 -0.074578 0.609996 0.525223 -0.593334
0.03503 -0.031679 0.003566 0.710932 0.676058 0.193703
-0.007869 0.03156 0.022417 -0.977777 0.0862207 0.191095
-0.002419 -0.091652 -0.058997 0.0747469 -0.995652 -0.0555845
-0.014341 0.074142 0.038756 -0.14742 -0.169483 -0.974445
0.030058 -0.063162 -0.044817 -0.846814 0.368194 -0.383849
0.03557 -0.067953 -0.065272 0.650296 -0.69373 -0.309602
0.034201 0.019578 -0.074164 0.683007 0.53242 -0.50003
-0.004956 0.08189 0.068173 0.823299 0.497555 0.273161
0.027351 0.020639 -0.074301 -0.449177 0.765132 -0.461317
0.007337 0.053812 0.066825 0.516231 -0.232573 0.824266
0.027335 -0.058504 -0.013291 -0.788881 -0.239945 0.565768
-0.000823997 0.016673 -0.007508 -0.122948 -0.872442 0.473
-0.008091 -0.067097 -0.001219 -0.73141 -0.283285 0.620314
-0.002905 0.026382 -0.048567 -0.188611 -0.960671 -0.203807
0.026803 0.027272 -0.028755 -0.210435 0.975922 -0.0573925
0.032094 -0.058068 -0.071827 -0.0312046 0.999256 -0.0226728
-0.00159399 -0.007307 0.02364 -0.83503 0.184698 0.518277
0.033738 -0.067117 -0.037307 0.832963 -0.511214 0.211739
0.028753 -0.064942 -0.074585 -0.496425 -0.210487 -0.842174
-0.005451 0.04514 -0.075911 -0.348235 0.692121 -0.632219
-0.008235 0.081697 0.073656 0.302783 -0.122988 0.945091
-0.00340499 -0.076444 -0.025596 0.136442 0.66855 0.731043
0.007271 -0.069952 -0.00019899 0.78399 0.451301 0.426247
0.03151 0.022003 -0.037744 0.881843 0.454549 -0.125452
-0.003281 0.011226 0.021593 -0.785524 -0.472931 0.399109
-0.005159 0.034548 -0.070876 -0.52851 -0.707041 -0.469862
-0.002919 -0.088063 -0.07544 0.0877506 -0.631317 -0.770544
0.038123 -0.034538 0.011909 0.141184 0.979376 -0.144529
0.027774 -0.055475 -0.028744 -0.617233 0.654853 -0.436109
-0.038887 0.082278 0.042019 -0.743453 -0.624153 0.24023
-0.00851 0.082217 0.071094 -0.153878 0.688819 0.708414
-0.00285 0.076189 0.045283 0.808591 -0.175969 -0.56144
0.023557 0.015394 -0.019322 -0.25555 -0.671599 0.695449
0.029953 0.026393 -0.021717 0.965741 0.214601 0.145911
-0.038851 0.084868 0.044456 -0.726835 0.21747 0.651473
0.020608 0.007165 -0.016721 -0.0603258 -0.924213 0.377081
-0.000922002 -0.072508 0.007391 -0.523661 -0.655479 0.544175
0.00840801 0.027343 -0.016672 0.395172 0.114457 0.911449
0.019256 0.018962 -0.018826 -0.463491 -0.522534 0.715635
0.031112 0.018486 -0.068387 0.270006 0.957724 -0.0993057
-0.005079 -0.086951 -0.065025 -0.643952 -0.721851 -0.253489
0.00084801 -0.072642 -0.010695 0.293512 -0.805243 0.515204
-0.034047 0.079156 0.039734 -0.641485 -0.742259 -0.193776
-0.008595 0.083679 0.067743 -0.408471 0.907371 0.0991468
0.036208 -0.056277 -0.030355 0.776239 0.572434 -0.264144
0.005025 -0.058075 -0.004489 0.533136 0.256631 0.806168
0.029701 -0.060703 -0.039476 -0.762316 0.553932 -0.334714
6.70031e-05 0.061002 0.03651 -0.464324 0.123383 -0.877029
0.022301 0.040039 -0.00917699 0.3077 0.950028 -0.0526027
0.028706 0.013826 -0.037609 0.521097 -0.8158 0.250854
-0.006035 -0.072889 -0.025212 -0.990232 -0.112272 0.0826744
-0.00973099 0.082973 0.067146 -0.457666 0.854134 0.246975
-0.033225 0.083586 0.033302 0.340666 -0.293947 -0.893052
-0.001121 -0.061441 -0.013257 0.215105 0.485813 0.847181
-0.033676 0.090728 0.039398 -0.264641 0.960385 -0.087326
-0.019854 0.066579 0.073117 -0.852061 -0.300746 0.428419
-0.003619 0.038018 -0.007848 -0.526145 0.766614 0.368069
0.038044 -0.050508 -0.00749499 0.758058 0.182799 0.626045
0.000909001 -0.08063 -0.020352 0.315507 -0.784092 0.534467
-0.014311 0.062588 0.04898 -0.498275 -0.864497 -0.0660787
-0.002368 0.034778 -0.075449 0.19858 -0.557723 -0.805922
0.029948 -0.065891 -0.033948 -0.644526 -0.764458 -0.0137724
-0.01129 0.082484 0.0418 0.142924 0.410691 -0.900503
-0.009016 0.036494 -9.99942e-05 -0.885108 0.450262 0.117678
-0.007846 0.00368 0.013645 -0.990802 0.0295571 0.132048
0.033046 -0.066211 -0.028959 0.533016 -0.824714 0.189052
0.03669 -0.068829 -0.062101 0.848662 -0.462398 -0.256827
-0.003468 -0.088248 -0.064492 -0.185194 -0.904051 -0.38522
0.00327 0.025885 -0.023386 0.593842 -0.634619 0.494582
0.029975 -0.056178 -0.018177 0.569027 -0.113128 0.8145
-0.004501 -0.079611 -0.04228 -0.791996 0.572329 -0.21256
-0.00236 -0.060256 -0.010532 -0.10962 0.334737 0.935914
0.015476 0.056724 0.048117 0.962934 0.236555 -0.129615
0.004711 0.028019 -0.017452 0.486283 0.0354534 0.873082
-0.006743 -0.079783 -0.071288 -0.534435 0.829136 -0.164052
-0.005091 0.034856 -0.070582 -0.670813 -0.622702 -0.402805
0.027794 0.019926 -0.075533 -0.144857 0.324092 -0.934869
0.025584 -0.056415 -0.005189 -0.218775 0.3569 0.908163
0.036301 -0.066888 -0.067397 0.871786 -0.375306 -0.314857
0.007936 0.014494 0.036049 -0.428517 -0.792489 0.433975
0.000312008 0.034258 -0.053745 0.848085 0.527619 0.0486856
-0.003148 -0.075857 -0.024495 0.824589 -0.34309 -0.449825
0.027575 0.028391 -0.024362 0.187363 0.972188 -0.140518
0.003431 0.029953 -0.036438 0.979708 -0.13322 -0.149747
0.001046 -0.060139 -0.00419 0.423819 0.278554 0.86185
0.026013 0.017836 -0.07166 -0.861024 0.484147 -0.155685
0.03548 -0.067693 -0.073833 0.459352 -0.612332 -0.643464
0.033136 0.013309 -0.075382 0.124555 -0.050054 -0.990949
-0.041149 0.084341 0.037073 -0.979513 -0.138811 -0.145894
-0.007743 -0.082445 -0.070341 -0.995407 0.0916575 -0.0276301
0.029994 0.026338 -0.021605 0.976924 0.169561 0.129882
-0.00758499 -0.032536 0.016125 -0.912449 0.372121 -0.170183
0.00373801 -0.060551 -0.002732 0.421593 0.470845 0.774961
0.028784 0.007966 -0.061557 -0.354132 -0.832212 -0.42663
-0.002898 0.027267 -0.051584 -0.258334 -0.923883 -0.282319
0.017497 -0.054071 0.036044 0.0335737 -0.0846372 0.995846
-0.005766 -0.074503 -0.02696 -0.985928 -0.154361 0.0641821
-0.004839 0.017653 -0.005871 -0.0811296 -0.918619 0.386726
0.018743 -0.056672 -0.003713 -0.430323 0.41333 0.802484
0.008626 -0.029291 -0.011763 -0.550677 0.118061 -0.826327
-0.002456 -0.060163 -0.006266 -0.272204 -0.0935247 0.957684
0.035847 -0.063225 0.001311 0.76875 -0.61861 0.162314
0.034184 0.010876 -0.059477 0.965797 -0.256448 -0.0383482
-0.004242 -0.082986 -0.03148 -0.700571 -0.712329 0.0422918
0.000118002 -0.074401 -0.014197 0.25383 -0.808417 0.531068
-0.004237 0.026715 -0.022099 -0.405645 -0.315545 0.857836
0.026415 0.012821 -0.056216 -0.90597 -0.414208 -0.0874661
-0.003107 0.028593 -0.058399 -0.341969 -0.909106 -0.237871
0.029686 -0.054804 -0.018038 -0.0582388 0.563939 0.82376
0.029581 -0.066026 -0.074777 -0.352788 -0.271206 -0.895538
0.021628 0.0098 -0.018047 -0.249311 -0.935215 0.25143
0.008576 -0.071182 0.001282 0.911661 -0.379705 0.157156
-0.006186 0.027752 -0.041385 -0.928968 -0.368604 -0.0338996
-0.000955999 -0.081467 -0.04905 0.761047 0.545792 -0.350598
-0.022675 0.06705 0.059431 -0.501577 -0.843532 0.192028
-0.034253 0.091048 0.042893 -0.198928 0.812991 0.547241
-0.001903 -0.08363 -0.027169 -0.0281739 -0.961657 0.272804
0.029505 0.025792 -0.02658 0.930488 0.299113 0.21148
-0.016848 0.072818 0.069694 -0.820456 0.570114 0.0426781
-0.000162996 0.03802 -0.076345 0.0805027 0.0782499 -0.993678
-0.023206 0.070429 0.062414 -0.84956 -0.303182 0.431658
0.031453 -0.069463 0.008257 0.0543826 -0.965644 -0.254113
0.000185996 0.018787 -0.013913 -0.00239558 -0.619277 0.785169
-0.003426 0.023083 -0.029277 -0.438382 -0.876589 0.198526
0.00402001 0.016545 -0.017604 0.215762 -0.927086 0.306526
0.035716 -0.057527 -0.009414 0.605626 -0.459394 0.64975
-0.039429 0.083726 0.043733 -0.817184 -0.176038 0.548837
-0.01465 0.086475 0.061686 -0.206068 0.792333 0.574234
-0.00368899 -0.081754 -0.061138 -0.0621166 0.979298 -0.192659
-0.000189997 -0.061962 -0.014165 0.621055 0.32676 0.712404
0.000936002 -0.080317 -0.07511 0.60706 0.390467 -0.692108
0.00693901 -0.014676 -0.017544 -0.149387 -0.388854 -0.909107
-0.041876 0.086634 0.03846 -0.99172 0.0304893 -0.124744
0.00576401 -0.066658 0.00166701 0.389198 0.337643 0.857043
-0.004164 -0.081824 -0.026546 -0.669287 -0.686675 0.283782
0.010228 -0.067057 0.003761 0.801883 0.357861 0.478455
-0.022375 0.083546 0.039341 0.518824 0.279906 -0.807759
0.035944 -0.064926 0.011779 0.865322 -0.49289 0.090976
0.014665 -0.057456 -0.002921 0.355044 0.568299 0.742281
-0.007367 0.042413 -0.076176 -0.380595 0.365986 -0.849236
-0.001872 -0.088359 -0.047782 0.0142358 -0.995768 0.0907919
-0.031999 0.077602 0.04371 -0.575688 -0.680539 0.453266
0.030682 -0.040033 -0.006394 -0.654767 0.391536 0.646514
0.029228 0.010646 -0.049253 0.0720953 -0.948259 0.309203
-0.002628 0.039184 0.025899 -0.917643 -0.397317 0.00842276
0.035886 -0.045573 0.032162 0.926893 0.03275 0.373893
-0.024752 0.06764 0.058622 -0.7333 -0.649841 0.199942
0.03454 -0.030554 0.002297 0.889509 0.452212 -0.0654149
-0.002282 0.030084 -0.063762 0.121473 -0.684849 -0.718489
-0.00920499 0.081578 0.0717 -0.145091 0.47689 0.866905
0.026413 -0.043267 -0.004445 -0.637689 0.341761 0.690328
-0.023128 0.083875 0.058612 -0.560644 0.273046 0.781744
0.021897 -0.05659 -0.004428 -0.466243 0.409787 0.784023
-0.004323 -0.081135 -0.048324 -0.624054 0.713147 -0.31934
-0.007622 0.028439 -0.017212 -0.94429 -0.233778 0.231656
-0.002492 0.049705 0.037135 -0.864559 -0.425611 -0.267196
0.029522 -0.061304 0.031225 0.536835 -0.537721 0.650127
0.036179 -0.065688 -0.074712 0.336244 -0.0933832 -0.937134
-0.009015 0.081382 0.073792 0.0390577 -0.0719063 0.996646
-0.002716 0.028236 -0.056623 -0.28629 -0.924595 -0.251319
-0.00435499 -0.081917 -0.06186 -0.429717 0.881912 -0.193842
-0.006992 -0.070041 -0.010711 -0.753373 -0.625065 0.204259
0.032294 -0.064443 -0.022431 0.370823 -0.803499 0.465703
0.029385 -0.043899 -0.010788 -0.586992 0.565366 0.579483
-0.003211 0.022647 -0.024157 -0.295065 -0.881687 0.368192
0.034103 -0.063559 -0.054253 0.268446 0.946418 -0.179526
-0.012448 -0.054475 0.006696 -0.818931 0.261905 0.510644
-0.002412 -0.070206 0.00553901 -0.294231 -0.388007 0.873429
-0.034554 0.090718 0.043435 -0.230648 0.749996 0.619925
-0.006311 0.029412 -0.036828 -0.978524 0.202845 -0.0366571
0.000220001 -0.072792 0.014149 -0.294633 -0.872377 0.390063
-0.031438 0.088949 0.035023 0.457683 0.460946 -0.760299
0.019662 0.01674 -0.018577 -0.510277 -0.65605 0.556072
-0.003601 -0.056671 0.029687 -0.724208 -0.193289 0.661938
-0.002189 -0.083159 -0.024344 -0.15289 -0.93514 0.31959
-0.003803 -0.09114 -0.060734 -0.382656 -0.866078 -0.321689
0.000136003 -0.081069 -0.069397 0.746523 0.600407 -0.286733
-0.004624 0.030094 -0.061313 -0.736488 -0.634394 -0.234797
0.029676 -0.065271 -0.065455 -0.968454 0.133963 -0.21012
0.034759 -0.058059 -0.010059 0.487068 -0.413903 0.769057
-0.00762899 0.069185 0.038912 0.292701 0.212702 -0.932247
0.026928 -0.04403 -0.005283 -0.568535 0.413331 0.711284
-0.004999 0.037766 -0.006252 -0.52199 0.85054 0.0641031
0.007112 -0.067573 0.002374 0.278856 0.121612 0.952602
-0.004218 -0.073662 -0.031667 -0.213201 0.696478 -0.685174
-0.0129 0.063924 0.065794 0.280218 -0.958438 -0.053606
-0.026826 0.072675 0.060109 -0.819065 0.298343 0.490025
-0.040751 0.085254 0.041928 -0.926726 -0.0905774 0.364656
0.027541 0.00856201 -0.061148 -0.627023 -0.729628 -0.272919
-0.00597499 -0.083958 -0.054882 -0.990631 0.0997067 -0.0933169
0.038638 -0.052232 -0.017028 0.976964 0.125305 0.172744
0.00666501 -0.071502 -0.00128 0.745091 -0.653758 0.132061
-0.00137 -0.062 -0.010793 0.190579 0.0644727 0.979553
-0.020453 0.073113 0.066522 -0.706316 0.560364 0.432562
0.00124801 -0.073768 0.011922 -0.169852 -0.892109 0.418679
-0.004497 0.060133 0.0461 -0.0952103 -0.981935 0.163518
-0.008021 0.036685 -0.00300099 -0.800598 0.518205 0.300842
0.001647 -0.088638 -0.057723 0.750623 -0.65958 -0.0389888
-0.003498 -0.07956 -0.021557 -0.700039 -0.482884 0.526088
-0.000426002 -0.061649 -0.013718 0.50718 0.44206 0.739832
0.000298999 0.033534 -0.065166 0.622484 -0.427536 -0.655535
-0.003314 0.034989 -0.051542 -0.672172 0.699309 0.243214
0.026275 0.025612 0.029914 0.636562 -0.316623 0.703234
-0.008229 -0.083752 -0.075719 -0.628278 -0.205126 -0.75046
-0.00474799 -0.07506 -0.033236 -0.51381 0.588232 -0.624485
0.027297 0.01617 -0.058784 -0.75335 0.615489 -0.231597
-0.012292 0.067514 0.070383 0.443268 -0.680156 0.583867
0.008462 0.060228 0.065188 0.835314 0.337946 0.43364
0.03504 -0.066785 0.00928501 0.916825 -0.398922 -0.0170914
0.036845 -0.065521 -0.056207 0.982189 0.18534 -0.0308921
0.018664 -0.065364 0.030819 0.0980311 -0.69671 0.710623
0.029777 -0.055921 -0.018587 -0.293001 0.269159 0.917444
-0.007859 0.042097 -0.076048 -0.496206 0.395998 -0.772635
-0.003632 0.028709 -0.058982 -0.545844 -0.822125 -0.161754
0.033223 0.011379 -0.074466 0.393085 -0.573588 -0.718666
0.029595 0.025544 -0.025832 0.958039 0.231586 0.168904
0.029887 0.025095 -0.033653 0.621477 0.770665 -0.140864
-0.00801199 0.038977 -0.072686 -0.920473 0.222465 -0.321308
-0.004168 -0.081924 -0.029889 -0.665292 -0.710165 0.230331
