-0.243346 0.004425 0.022734 0.026239594 -0.99963475 0.0064684195
0.126461 0.010682 0.00503 -0.0016423591 -0.99999841 -0.00069732579
-0.23448 -0.007504 -0.033764 -0.025153644 0.99440006 0.10264412
0.195797 -0.028642 0.011253 0.00050016229 -0.99999921 0.0011568358
0.357801 -0.028642 0.057131 -4.9776608e-05 -1 1.3130872e-08
-0.079218 -0.01464 0.037957 0.15505772 0.98590746 -0.062797921
0.304713 0.028642 0.000503 -0.0068843554 0.99996587 0.0045681552
0.370476 -0.010682 0.049217 0.0009942497 -0.99999949 -0.00018829934
0.329271 0.028642 0.054269 -0.0054779834 -0.9999772 -0.0039492734
0.094025 0.018164 0.095232 0.015390569 -9.8138546e-05 -0.99988155
0.127561 -0.024388 -0.00498 -0.22309161 0.030809372 0.97431048
0.256388 0.028642 0.002264 0.025758494 -0.90958108 0.41472733
0.120788 0.028642 0.072691 -0.0032141391 -0.999994 -0.0012927289
0.344302 0.010682 0.040477 -0.00096836866 -0.99999898 0.001050421
0.14755 -0.028642 0.049702 -0.0039842017 -0.99998561 -0.0035924339
-0.434631 -0.001058 -0.046602 0.25774424 0.96587777 0.025456699
-0.079154 0.005156 -0.00499 -0.53577786 0.82324695 -0.18763407
-0.078472 -0.019434 -0.035981 0.97640949 0.00060526168 0.21592624
0.074749 -0.010682 0.062724 -4.8049698e-05 -1 1.3281524e-05
0.27345 0.028642 0.026624 3.9309081e-05 1 -5.9158398e-05
0.215577 0.010682 0.012355 0.0005940519 -0.99999981 -0.0001431475
0.22944 0.028642 0.085682 0.0009719104 0.99998531 -0.0053327309
0.041918 0.010682 0.018326 -6.2130876e-17 1 1.4846952e-17
0.160173 0.010679 0.083032 6.3845949e-05 -0.99999999 9.0410673e-05
-0.020825 0.006089 -0.015612 0.013843783 -0.99493343 -0.099578172
-0.12754 -0.013281 0.024265 -0.0296393 -0.99953122 -0.0076709713
0.364164 -0.010682 0.011738 -0 1 0
0.440629 0.010641 -0.025602 0.36667422 -0.86887324 -0.33257978
-0.189699 -0.005239 -0.047779 -0.079344322 -0.99626064 -0.03419394
-0.203008 0.005404 0.0122 0.029644018 -0.99950773 0.010272501
0.276929 -0.019218 0.089471 0.094914915 0.004029971 0.99547723
0.109464 0.028719 -0.002892 0.0047704319 0.99987669 -0.014961402
-0.011622 -0.020123 0.08906 0.10124275 0.0018498527 -0.99486003
0.071085 0.010682 0.025698 0.00026996338 0.99999996 8.5103244e-05
-0.004036 -0.002461 0.023826 0.96669552 -0.0018174857 0.25592276
0.037238 0.016856 0.092803 -0.068734656 0.0011771519 0.99763428
-0.247833 -0.001432 -0.065656 0.081067564 -0.9553557 0.28411889
-0.094805 -0.014301 0.047869 0.027454315 0.99961025 0.0050605815
-0.288153 -0.007257 -0.041044 -0.013036429 0.99606189 0.08769694
0.372556 0.010682 0.074604 -0.062816816 0.97663836 -0.20550317
0.12139 0.028641 0.050292 4.8388247e-05 -0.99999999 -0.0001041781
0.197165 0.028686 0.062409 -0.0037359988 -0.99999262 -0.00090104177
0.229307 0.010682 0.067718 0.0011494654 -0.99999934 6.8312863e-05
0.061176 0.028641 0.09127 -0.078873859 -0.97119599 -0.22484943
0.325891 -0.010682 0.07219 6.8203688e-06 1 -6.1649722e-05
0.359776 0.028705 -0.003893 -0.00074194511 0.99999964 -0.00041650435
0.472543 0.010682 0.043467 0.0014801514 0.99999888 0.00019878707
0.280712 0.010679 0.016149 -0.00047242453 -0.9999981 0.0018905753
0.488826 0.012085 0.020847 0.37804056 -0.62944295 -0.67888652
0.230793 -0.010674 0.05117 -0.00065131843 -0.99999895 0.0012961802
0.277296 0.010682 0.069064 0.0010640201 0.99999789 0.0017552353
0.118778 -0.028642 0.03243 -0.0015228338 0.99999878 0.00035481884
0.435023 -0.015475 -0.043555 0.9370588 0.0696994 -0.34214442
0.194858 0.010681 0.027488 2.6452545e-05 -1 -2.6931297e-06
-0.0485 -0.028642 0.045623 -0.00010474346 0.99999993 -0.00035068179
0.042209 0.010682 0.034998 -7.4438468e-17 1 2.2276859e-17
-0.227449 0.004876 0.027856 0.025208829 -0.99964807 0.0082613371
0.329627 0.028642 0.039184 8.5185468e-05 0.99999974 -0.00072152364
0.076208 -0.028642 0.022882 -0.0015640219 0.99999635 0.002203712
-0.300687 -0.007298 -0.041147 0.0016830725 -0.99587272 -0.090745156
0.084045 0.010682 0.088763 -0.0083678649 0.99547471 -0.094657677
0.221332 0.010682 0.053957 -0.00019410674 -0.99999998 -8.0132633e-05
-0.006157 -0.015936 -0.01983 0.32056208 0.0017570331 -0.94722588
0.417684 0.010682 -0.016611 5.0489849e-18 -1 -3.3543975e-17
0.368153 -0.028641 0.048821 -0.00016527384 0.99999999 3.1341258e-05
-0.189919 0.005933 0.038809 0.027817508 -0.99961249 0.0010238606
0.429793 0.028642 -0.01487 0.00039324884 -0.99999979 0.00050653102
0.114593 -0.028642 0.089307 -0.0053890604 0.99998543 0.00031188691
0.237044 -0.028642 0.003043 -0.044135946 -0.87135285 -0.48866782
0.106069 -0.010682 0.091069 -0.045740674 -0.99479145 -0.091092016
0.004949 0.028658 0.008144 0.0017290237 -0.9999719 -0.0072945771
0.45915 -0.028642 0.002186 -0.14095938 0.98039594 0.13767446
0.054758 -0.028642 0.048511 0.0013781916 -0.99999697 -0.0020383558
0.285731 0.010682 0.022503 -0.00011335887 0.99999999 -3.3545788e-05
-0.237122 0.00202 0.03052 -0.27094175 0.37580897 0.88620437
-0.298973 -0.001911 0.01257 0.25327077 -0.051023595 -0.96604892
0.114245 -0.028646 0.095095 0.021527553 -0.7032288 0.71063761
0.179293 0.010682 0.065521 -0.00010426587 -0.99999998 0.00017447064
0.248957 0.028716 0.00878 -0.00069509494 -0.99998937 0.0045580805
-0.393796 -1.7e-05 -0.050324 -0.13368924 0.98619841 -0.097672333
0.240891 0.024844 0.001588 -0.10450433 0.12726441 -0.98634812
0.397676 -0.015504 0.074273 -0.1897772 -0.061467831 -0.97990118
0.213143 0.010682 0.052508 -5.3400078e-05 1 -2.8239907e-05
0.065517 0.028639 0.019507 -0.0040661561 0.99998864 -0.0024862739
0.003629 0.00383 -0.006509 0.92321414 0.059737575 -0.37961437
0.428817 -0.028643 0.059623 -0.0017303983 -0.99999767 -0.0012906125
0.269021 -0.028642 0.005666 -0.0027279081 0.99998886 0.0038512315
0.355146 0.027352 -0.021058 0.25505082 -0.613455 0.74741022
-0.0746 0.012859 0.037209 0.86209336 -0.093142346 -0.49811599
-0.178692 -0.01212 0.049318 -0.14656219 -0.93840093 0.31292685
-0.202055 0.002492 -0.024622 -0.0092561304 -0.99249379 0.12194429
0.055656 -0.013775 0.093752 -0.023480629 -0.34867468 -0.93694964
-0.00118 0.028642 0.011382 -0.0016818457 0.99999173 0.0037033587
0.103732 0.010682 0.088482 0.030286316 0.9983848 -0.04806792
0.331089 0.025632 -0.013687 0.22747767 -0.19008204 0.95505116
0.206473 0.018163 0.0941 0.037694371 0.002246389 0.99928679
-0.056642 0.028642 -0.038697 0.00024900742 -0.99999461 0.0032752494
0.181501 -0.028107 0.095107 0.062877464 -0.35972573 0.93093707
0.104458 0.028641 0.084054 -0.001249202 -0.99999595 -0.002555704
0.280923 0.012987 0.089086 0.13819435 -0.12586459 0.98237489
-0.02428 0.00521 -0.020206 0.11742398 0.8931598 -0.43413959
0.130915 0.028642 0.006166 4.3031482e-05 -0.99999999 0.00012215386
0.368952 0.028637 0.001411 0.0028584222 -0.99999515 0.0012368662
0.231759 0.028642 0.066223 -0.0047699088 0.99998743 0.0015443184
0.276584 -0.010658 0.035553 3.9786114e-05 0.99999996 0.00027703098
0.310269 0.010682 0.044369 -6.1668751e-05 -1 3.893694e-05
0.353484 0.01068 0.029921 -0.0012219551 0.999999 0.0007150852
0.236703 -0.010682 0.084996 -6.5803048e-05 -1 -5.7725054e-05
-0.156585 0.004555 -0.007212 0.0020669594 -0.9899807 0.14118764
-0.418976 -0.001509 -0.072708 0.26431196 -0.94243079 0.20484968
0.405281 -0.028659 0.058135 -0.00040048909 -0.99999795 -0.0019858921
-0.227756 -0.007958 -0.028983 0.0034352506 -0.99308202 -0.11737247
0.307945 -0.028642 0.071651 0.00028664372 0.99999978 -0.00059683516
0.435796 0.010682 -0.023295 0.0028684341 0.99999586 -0.00024407763
-0.270326 -0.005027 -0.062959 0.16236085 -0.9444107 -0.28588003
-0.269729 -0.008965 -0.0226 0.00080373699 -0.9960441 -0.08885667
-0.041966 -0.014712 -0.041145 -0.052543606 -0.11093221 0.99243802
-0.259083 -0.002022 0.023632 -0.29364083 -0.0075460824 0.95588604
-0.426486 -0.002704 -0.086386 -0.0076266957 -0.99952021 -0.030019685
-0.183859 -0.011942 0.043101 0.024720191 0.9996793 0.0054967978
0.208959 0.010655 0.023432 -0.00015320358 0.99999997 -0.00018204185
-0.322582 0.00209 -0.015011 0.026072869 -0.99963607 0.0069235051
0.215654 0.024006 0.093731 0.00042015416 -0.062809281 -0.99802546
-0.206933 0.005197 -0.002737 0.016556944 -0.99846968 0.052765129
0.118508 -0.013236 -0.00684 -0.18303993 -0.24621006 0.9517757
-0.118691 0.008037 0.073574 -0.12979493 0.97474951 0.18170489
-0.050753 0.028642 0.047027 0.0010423434 0.99999866 -0.0012645007
0.01343 0.028642 0.009229 0.0010420071 -0.99999758 0.0019378808
-0.272044 0.003232 -0.021724 0.007647004 -0.99749478 0.070325602
-9.7e-05 -0.028642 0.060038 -0.001741195 -0.99999757 -0.0013492376
0.310218 -0.010682 0.013988 -1.8726746e-05 1 3.085514e-06
-0.253314 0.000439 -0.047409 0.010157302 0.99509335 -0.098417745
-0.126531 -0.004552 0.073944 0.41064515 -0.0025791624 -0.91179159
-0.081541 0.028641 -0.011849 -0.83980416 0.54273799 -0.012823833
0.499723 0.011193 0.035767 -0.68426677 0.70316244 0.19323967
-0.353478 0.001282 -0.0219 -0.028031111 0.99959733 -0.0044089983
-0.422411 -0.001169 -0.067761 0.096084427 -0.90451924 0.41546689
-0.037808 -0.011511 0.086692 0.061295137 0.086360312 0.99437659
-0.185557 -0.008128 -0.024843 -0.016154628 0.99160818 0.12826628
0.252609 0.028642 0.036415 -1.3156506e-05 1 -8.4498558e-05
0.09175 -0.017398 -0.013087 0.26817219 -0.0030274807 -0.96336624
-0.325537 -0.001086 -0.07238 0.14990907 -0.87632524 0.45780055
0.2919 0.028642 0.054199 -6.0517853e-05 -0.99999213 0.0039680945
-0.038345 0.02656 0.086411 -0.10190832 0.45072196 0.88682829
0.284572 -0.017922 0.088735 0.096065822 8.6675962e-05 0.99537498
0.133936 0.028075 0.09591 0.057660346 0.70324109 0.70860938
0.225373 0.028641 0.05708 -0.0006194463 -0.99999961 -0.00063310618
0.121207 0.028551 -0.006284 -0.091541277 -0.82848641 0.55247666
0.204878 -0.028642 0.093032 -0.0041148704 -0.88894031 0.45800457
0.121126 -0.028642 0.050127 -0.00017737575 0.99999998 6.6137583e-05
-0.404168 -0.000223 -0.04151 0.15350742 0.98269419 -0.10367061
0.440416 -0.028642 0.024366 0.0025885788 -0.99999641 0.00069635522
0.310073 -0.028648 0.064253 0.00035027252 0.99999886 0.0014715161
-0.244269 0.004176 -0.009365 0.0244432 -0.99962535 0.01231583
0.018437 -0.028642 -0.019434 -0.15274692 -0.55862214 -0.81523597
0.189801 0.026125 0.094771 0.088136881 0.20375672 0.9750462
0.107584 -0.028642 0.073188 -0.0021690228 0.99999598 0.0018258385
-0.256989 -0.000789 0.024276 -0.3035926 0.03568849 0.95213332
-0.344953 -0.000292 -0.063674 -0.064326361 -0.98057903 0.18527516
0.175708 -0.023557 0.095285 -0.014613232 0.019633635 -0.99970044
-0.120096 0.007976 0.070162 -0.026112373 0.9996349 -0.0069433403
-0.24095 -0.007974 -0.031081 0.015944585 -0.99445477 -0.10394941
0.330757 -0.022621 -0.013566 -0.24007912 0.00016273211 -0.97075331
0.093639 0.028649 0.017135 0.0011137326 0.99999936 0.00020276127
0.379203 -0.028642 0.044934 0.00020788264 0.99999998 -4.9124163e-05
0.053648 -0.021746 0.093665 0.043491934 0.0023488221 -0.99905102
0.432585 0.014006 0.068043 -0.27280519 0.23217762 -0.93363316
0.433453 -0.025739 -0.048207 -0.93178295 0.20907383 0.29676365
0.460593 0.028613 0.001236 0.32439347 0.87780333 -0.35246303
0.499576 0.02227 0.042838 0.9804502 -0.0009669256 0.19676503
0.317766 0.028642 0.031932 0.0060370323 0.99998177 -8.1176958e-05
-0.3697 -0.001091 -0.073226 0.27161075 0.96191449 -0.030791437
-0.2366 -0.008341 0.030799 -0.30794122 -0.42348486 0.8519582
0.278873 -0.028643 0.058844 -0.0020314563 0.99999787 0.00037542559
0.213387 0.010682 0.007725 -0.011959824 -0.99943883 -0.031288879
-0.097523 -0.01411 0.030659 -0.02625909 -0.99963098 -0.0069546239
0.455317 -0.027779 0.063639 0.092461107 -0.72137524 0.68634446
-0.204107 0.002674 -0.023195 -0.0053134256 -0.99206751 0.12559392
0.044099 -0.010683 0.031323 0.00051204006 0.99999943 0.00093644046
-0.283281 0.003273 0.007316 0.025530176 -0.9996573 0.0057877501
0.058166 -0.028642 0.011411 6.941204e-05 -1 2.222542e-05
-0.429223 -0.001206 -0.066802 0.42600823 0.90136993 -0.077776829
-0.154757 -0.010776 0.061427 -0.27571361 -0.39875424 0.87462967
-0.029263 0.028641 0.045112 0.00045474137 0.9999999 1.756786e-05
-0.346796 0.001288 -0.039343 -0.019808366 0.99978146 -0.0066826042
0.238992 0.018907 0.001768 0.080117441 0.0042324539 0.99677645
0.471882 -0.028641 0.018047 -0.0013212508 -0.99999805 -0.0014685742
0.174831 0.027984 0.001097 -0.11043921 -0.76123131 0.6390071
0.38247 0.016392 0.076601 0.1524405 0.0014214932 0.98831163
-0.075155 0.028642 0.034016 -0.73797576 0.63928545 0.21611545
-0.020598 -0.028641 0.031369 5.9311124e-05 -0.99999972 -0.00074224509
0.291944 -0.024014 0.088025 -0.16333858 0.17521397 -0.97088649
0.019119 -0.010682 0.089856 0.091590717 -0.86168966 -0.49910126
0.073285 0.028642 0.005943 2.8436289e-06 -1 -3.064932e-05
0.148397 0.023363 0.095628 -0.020610148 -0.01123609 -0.99972445
-0.120972 0.007641 0.025526 -0.021859648 0.99974038 -0.0064289045
0.499823 -0.02602 0.040905 -0.94263444 0.32241958 -0.086521253
0.292681 0.010678 0.072808 0.0012665316 -0.99999895 -0.00070058023
0.377736 -0.019952 0.077353 -0.14614193 0.0029183052 -0.98925933
0.13731 0.028641 0.095131 -0.027125503 0.90535635 0.42378543
0.32859 0.028659 0.083968 0.097694199 0.87094063 0.48157892
0.252122 0.020049 0.09143 0.068207041 -0.00021459915 0.99767117
0.023539 0.010682 -0.000338 -0.00062839312 -0.99999978 0.00021556502
0.356968 -0.028645 0.015366 -0.0028505645 0.99999542 0.0010136841
0.23128 0.028642 0.024905 -0.0030510514 0.99999402 -0.0016270354
0.235555 0.028377 0.092562 0.050590276 0.80800933 0.58699365
-0.11164 -0.013726 0.02842 -0.025434376 -0.99961356 -0.011217375
0.143819 0.027389 -0.002337 -0.12847343 -0.54183045 0.83061082
0.111237 -0.028423 0.095496 0.055419564 -0.34670565 0.93633534
0.480771 -0.020434 0.058281 0.20600721 -6.3838159e-05 0.97855047
-0.001908 0.022311 0.090018 -0.089815764 0.0028613655 0.99595429
0.228046 0.028642 0.037528 0.0029241883 0.99998012 0.0055858063
0.373488 0.027174 -0.027408 0.28545672 -0.35870648 0.88873175
0.322831 0.010682 0.075689 -7.5832358e-05 0.99999999 7.8742649e-05
0.343009 0.018904 -0.017065 0.31139037 0.001954 0.95028007
-0.249314 -0.004254 -0.067494 -0.24084614 0.96576775 0.096362794
-0.081453 0.028409 -0.014341 -0.82410867 0.53408747 -0.18866765
0.031073 0.028642 0.01441 1.1144223e-05 -0.9999817 0.0060504612
0.120912 -0.028642 0.047675 0.00023328501 -0.99999997 -7.591785e-05
0.379746 0.023082 -0.029997 -0.38231296 -6.8494535e-05 -0.9240329
-0.140164 0.007319 0.051044 0.029523559 -0.99953606 0.007485043
-0.359355 -0.006857 -0.028459 0.026985171 0.99961735 0.0060785893
0.444587 -0.028642 -0.005237 -0.00051265877 -0.99999987 2.5622394e-05
-0.083638 0.000624 -0.033188 0.0060755053 -0.98746912 0.15769534
-0.077516 -0.020102 0.027224 0.97596356 0.02508477 -0.21648528
0.070435 0.013114 0.09439 -0.0061579339 -0.29894654 0.95424999
0.222761 0.025595 0.00227 -0.032136906 0.1843589 -0.98233345
0.086681 0.010679 0.070166 4.9824322e-05 0.99999998 0.00019286688
0.222728 0.021253 0.093438 0.05269916 -6.2719791e-05 0.99861043
0.309375 0.028642 0.035178 -0.00019284292 -0.99999993 -0.00032839423
0.101376 -0.028184 -0.010354 -0.17795078 0.7628881 0.62155874
0.362555 -0.01451 0.079646 -0.11632899 -0.16623495 -0.97920044
-0.230092 -0.01057 0.019694 0.023922732 0.99968674 0.0073567023
0.453747 -0.005859 0.034797 0.32447342 0.15252065 -0.93351725
0.09623 0.028581 0.095266 -0.063632041 0.63850972 0.76697868
0.237163 -0.028645 0.092452 0.05774453 -0.52096114 0.85162495
0.205767 -0.028641 0.031255 -0.0010277579 0.99999943 0.00027218091
-0.347768 -0.007341 -0.002799 0.06587187 0.98424059 -0.16410774
0.306271 0.026226 0.086644 -0.045170327 -0.23178521 -0.97171768
0.01423 0.028642 -0.0005 -8.4564811e-17 -1 -1.8619869e-16
0.420663 0.026105 0.070208 0.29523404 0.34429231 0.89123491
0.042744 0.019954 0.093193 0.058615128 -0.00048781053 -0.99828054
-0.198275 -0.006089 -0.042174 -0.013752298 0.99231029 0.12300879
0.233556 0.010682 0.079926 5.1826915e-05 -0.99999988 -0.00048228192
-0.344929 0.000593 -0.052957 -0.00051748554 -0.99654584 0.083042897
0.126655 -0.014248 0.095731 -0.063506679 0.045014534 0.99696569
-0.207327 0.005397 0.02731 0.024175595 -0.99965033 0.010712378
0.113063 0.028641 0.074114 0.0028359972 -0.99999264 -0.0025827836
-0.191183 0.005855 0.032518 -0.030162156 0.99948208 -0.011216729
0.129762 0.028526 0.095779 0.020295499 -0.45108867 -0.89224834
-0.457011 -0.001636 -0.045659 0.15699839 -0.90439054 -0.39677356
-0.190618 -0.01078 -0.004722 -0.0048041751 0.99109793 0.13304816
0.087406 -0.026333 0.095122 -0.05654103 -0.36628031 0.92878514
0.327767 -0.028641 0.081372 0.017422487 0.95684828 -0.2900652
0.098664 -0.027182 0.095304 0.033643816 -0.542223 0.83956079
0.29812 -0.028642 0.073247 8.4138208e-05 0.99999988 0.00047449861
0.31729 -0.017357 0.085443 0.12362257 -5.9451154e-06 0.99232931
0.333881 -0.028642 0.071441 -0.0019630142 -0.99999709 -0.0014018647
-0.339236 -0.001475 -0.077823 0.29866568 0.9466934 -0.12070794
0.269245 0.028642 0.025315 -4.4709458e-05 -1 3.1134435e-05
0.05078 0.015809 -0.02621 0.34427224 -0.00047623771 -0.93886974
-0.019255 -0.017244 -0.027638 -0.66270389 -0.00033679371 0.74888146
-0.2644 -0.009618 0.01171 0.025282342 0.99964882 0.0079391903
-0.172078 0.006344 0.030958 -0.026092618 0.99963396 -0.0071498458
0.159701 0.026267 0.095486 0.042438427 0.36504729 0.93002121
-0.095195 0.008265 0.018528 0.022253515 -0.99924443 0.031864574
-0.454437 -0.003666 -0.072851 0.10449071 0.98552503 0.13349945
-0.22993 0.004777 0.022992 -0.026181207 0.99963276 -0.006992197
0.198216 0.028641 0.06503 0.0089765185 0.99993682 0.0067652846
0.240716 -0.028642 0.001716 -0.071105608 -0.63182774 -0.77184046
0.011091 -0.015246 -0.018021 -0.094567321 0.090218813 -0.991422
-0.030992 0.028642 0.04299 -0.00024178732 -0.99999996 0.00017704656
0.02839 -0.025224 0.092173 0.067727345 0.24653168 -0.9667653
0.187632 -0.022942 0.094859 0.037702197 -0.00091407103 0.9992886
-0.229802 0.004758 0.019937 -0.026344792 0.99963094 -0.006628503
-0.320206 -0.002771 0.007372 0.21902964 0.037965545 -0.9749793
0.340095 0.028642 0.025802 -0.0042420805 0.99999047 -0.0010349676
0.377216 0.011667 0.077403 0.070862016 -0.74174864 0.66692393
-0.143052 0.007156 0.038714 0.027102858 -0.99962051 0.0049259405
0.033401 -0.028642 0.043137 -4.0367703e-05 -0.99999797 -0.0020159137
0.219485 -0.018363 0.002334 -0.021021095 -0.00056840318 -0.99977887
-0.106201 -0.000676 -0.041578 -0.0031095103 -0.97653893 0.2153185
0.195115 -0.019966 0.002281 0.058326506 0.0017358929 -0.99829605
0.353608 0.010682 0.003272 0.00019157868 -0.99999994 0.00030048301
0.080348 0.026204 0.094819 -0.05454645 0.23998183 0.96924373
-0.337099 0.001509 -0.041868 -0.010713882 0.99872109 -0.049410469
0.101882 0.028642 0.058599 -0.0019135913 0.99999747 0.0011798837
0.369305 0.02819 0.078612 0.038428401 0.73431893 0.67771599
-0.069616 -0.015166 0.0766 0.026019439 0.999637 0.0069902235
0.305873 0.022855 -0.007385 0.22101886 0.0056912167 0.97525293
0.246216 -0.028643 0.091613 0.018865288 -0.86639506 0.49900271
-0.052663 -0.015637 0.081427 0.62924234 0.71695453 -0.30005046
0.308853 0.0262 0.086392 0.1316284 0.3287225 0.93520879
0.382123 -0.028641 0.000167 6.5234414e-05 -0.99999993 0.00037441262
-0.127843 0.007621 0.048407 0.026084482 -0.99962601 0.0082125106
0.262055 0.01691 -0.000426 -0.093481802 -0.0021220712 -0.99561873
0.295115 0.028642 0.038785 0.0018701535 0.99998804 -0.0045198044
0.087217 0.028642 -0.01378 -0.20714508 -0.78634189 0.58202865
-0.013492 0.028614 0.002131 -0.0029886224 0.99998252 -0.0051020851
0.100075 -0.028642 0.0394 -0.0013814339 0.9999974 -0.0018167787
0.49611 0.022948 0.027162 0.80411462 0.059856767 -0.59145317
0.418485 -0.02843 -0.047566 0.21889416 0.84704971 0.48434713
-0.137362 -0.012997 0.020284 -0.025977942 -0.99963744 -0.0070800608
0.317454 0.028642 0.085351 -0.076818677 -0.53033711 -0.84429938
0.424472 0.020344 -0.05058 -0.44982859 -0.00013929186 -0.8931149
0.311446 0.028642 0.068186 0.0012387454 0.99999889 -0.0008247027
0.286672 0.023874 -0.00398 0.16841472 -0.00058303663 0.98571606
0.309355 0.0195 0.086346 0.090835302 -0.02367183 0.99558455
-0.063849 0.021634 -0.047223 0.48862883 0.0035205867 -0.87248465
0.48452 0.010682 0.047893 1.5659706e-05 -0.99999993 -0.00036546018
-0.398422 -0.000157 -0.053082 -0.026979252 0.99961603 -0.0063178642
0.289503 0.025118 0.088259 -0.05604584 -0.13993357 -0.98857345
0.455225 0.010484 0.05324 0.22961508 -0.8007632 0.55322257
-0.263961 0.000789 -0.046755 0.014730361 0.99528497 -0.095868929
0.489921 0.024999 0.021523 0.55169471 0.1755139 -0.81536974
0.115943 0.028641 0.039405 -0.00062143204 0.99999904 -0.0012403375
-0.004116 -0.027321 -0.019307 -0.23296669 0.5658236 0.79092994
0.054838 0.026349 -0.024699 0.20840131 0.38513527 -0.89902153
-0.114782 -0.013624 0.025589 -0.026120869 -0.99963348 -0.0071143456
0.112906 -0.010682 0.059516 8.1734563e-06 -1 1.2015166e-05
0.181552 0.010682 0.011586 0.0010951127 -0.99999903 0.00086373562
-0.378206 -0.003932 -0.082448 -0.011735395 0.99972359 0.020372215
0.474609 0.010681 0.046112 0.00085106511 0.99999903 0.001100149
-0.325713 -0.007768 -0.024064 0.024867296 0.99964917 0.0091194487
0.173447 0.028641 0.036912 -0.0087501933 -0.9999615 -0.00065650508
0.028396 0.028642 0.050607 0.0041973157 0.99999108 -0.00047885535
-0.434815 -0.004089 -0.072348 0.024618197 -0.99932663 -0.027207091
0.387088 -0.028642 0.025312 -0.0015858352 0.99999601 -0.0023358905
-0.286958 0.003031 -0.013662 -0.026273701 0.99962961 -0.0070951284
-0.266092 -0.009524 0.00463 0.026045294 0.99963623 0.0070038579
-0.203165 0.005653 0.041701 0.26850936 -0.78941748 -0.552017
-0.204546 -0.000467 -0.048737 0.1791869 0.95333094 -0.24300652
0.499118 -0.02345 0.033274 0.95879788 -0.0071551177 -0.28399899
0.184353 -0.02746 0.094992 0.016616917 -0.39204652 0.9197953
-0.133411 0.005178 -0.002944 0.0010350941 -0.98855328 0.15086863
0.328824 -0.025956 0.084005 -0.022329614 0.22725423 -0.97357943
0.438489 -0.022446 0.066971 0.17826114 0.0020685657 0.98398104
0.273545 -0.023492 -0.001738 0.18294736 0.080712433 0.97980394
0.15486 -0.017153 -0.000915 0.12785981 5.4488206e-05 -0.99179225
0.454438 0.02593 0.063824 0.19088412 0.22542972 0.95537673
0.095718 0.028642 0.092478 -0.021265995 -0.95764406 -0.28716826
-0.017269 0.021517 -0.025912 0.61929799 -0.0070705248 -0.7851242
0.227178 0.028642 0.086672 0.0014914872 0.99999192 -0.0037339565
-0.294706 -0.007986 -0.033464 -0.0023283053 0.99589645 0.090470153
0.291947 0.028642 0.07941 -0.00012104816 0.99999999 3.345989e-05
0.040247 -0.014479 0.093016 -0.078175998 0.062072346 0.99500529
0.458105 0.028643 -0.00043 0.32241811 0.93267744 -0.16173856
-0.356566 0.001228 -0.000357 -0.1459579 0.8365106 0.52815368
-0.376505 -0.001832 -0.08187 -0.065235614 0.99548316 0.068975344
0.355132 -0.028642 0.070689 -0.00086626516 0.9999996 0.00023231111
-0.095983 -0.014254 0.04565 -0.027445056 -0.99960123 -0.0066441934
-0.392574 -0.001272 -0.007785 0.4829499 -0.50519022 -0.71522181
0.224797 -0.028642 0.008405 0.00086630063 0.99999962 4.1615588e-05
0.247594 0.027743 0.00095 0.10646897 -0.47602205 0.8729647
-0.113455 -0.004633 -0.045263 0.066141731 0.93395186 0.35122527
0.365313 0.017031 0.079221 0.15068062 -3.5773161e-05 0.9885825
-0.167218 -0.012367 0.041812 -0.023576382 -0.99967339 -0.0098625971
0.202503 -0.028642 0.053361 -0.00076380866 0.99999789 -0.0019051017
0.204597 0.028642 0.079975 -0.0001700109 -0.99999994 0.00029019459
0.291912 0.028641 0.073258 -0.0017273706 -0.99999851 -6.3732204e-05
-0.222773 0.004596 -0.008332 -0.0070938469 0.99621259 -0.086661163
-0.175615 0.006075 0.005678 0.022002774 -0.99946323 0.024272171
-0.339923 0.001691 -0.007388 -0.030537008 0.99951552 -0.0060175494
9.5e-05 -0.021099 -0.018224 0.17069239 -0.0010570814 -0.9853238
-0.151209 -0.012395 0.006855 -0.0035820102 -0.99555046 -0.094161819
0.370413 0.024786 0.078443 -0.12562557 -0.17431762 -0.97664302
0.144962 -0.027293 0.095671 -0.044242637 -0.40655889 0.91255271
-0.198533 -0.007517 -0.030618 0.01928276 -0.99211744 -0.12381903
-0.049317 0.01418 0.08254 0.72442481 -0.10395822 -0.68147001
-0.112149 -0.013694 0.025848 0.026441854 0.99959328 0.010682151
0.045201 -0.028642 0.033 0.00018109176 -0.99999967 -0.00078960142
0.36614 -0.025703 -0.024679 0.31161898 0.1282856 0.94150752
-0.034867 -0.017388 -0.041482 0.11645857 0.00055248614 0.9931954
0.395949 0.010682 0.03434 0.00012641875 0.99999999 3.1897822e-05
-0.078127 -0.007113 -0.029277 -0.016746203 0.79611487 0.60491378
0.072658 0.028642 0.050581 -0.0027033985 0.99998644 0.0044511986
-0.125439 -0.013327 0.02251 0.026732311 0.99960257 0.0089487257
0.488744 -0.010682 0.026569 -0.021158116 -0.99865051 0.047428877
0.182567 0.019566 0.001582 0.053493546 0.00022555262 -0.99856817
0.117946 0.024631 0.095599 -0.010146405 0.11270694 0.99357647
0.054504 0.02168 -0.024821 -0.34394363 3.2055117e-05 0.9389903
-0.041805 -0.024681 -0.041136 -0.03978849 -0.16718783 -0.98512187
0.186934 0.023078 0.00184 -0.050827174 -0.0016789696 0.99870605
0.013025 -0.028642 0.081724 1.4250315e-06 1 6.1004078e-06
0.355757 0.010678 0.056535 3.7595957e-05 -1 6.502399e-05
0.443853 0.010669 0.008408 0.00051893517 0.99999974 -0.00050553537
0.222039 0.028642 0.061577 -0.0014197905 -0.99999893 0.00036628123
-0.010438 0.028642 0.071639 0.0038113043 0.99999199 0.0012221143
0.214122 -0.022899 0.093788 0.039413739 -0.0021450344 0.99922067
0.12402 0.028642 0.080498 5.9192823e-05 0.99999998 0.0002115411
0.176834 -0.016831 0.095271 -0.022806023 -0.0013303492 -0.99973902
-0.347699 -0.001653 -0.080378 0.093354559 -0.98842023 -0.11962597
-0.417756 -0.005243 -0.040965 -0.11275238 -0.99349167 -0.016161867
0.099093 -0.017005 0.09531 0.015938784 0.0070340067 -0.99984823
-0.103485 0.008119 0.028527 -0.021569375 0.99973353 -0.0082242477
0.22743 0.028642 0.0449 -1.6560555e-16 1 -7.1996537e-17
0.439846 -0.027889 0.066725 0.18148251 -0.35701424 0.91629959
0.0483 -0.010682 0.069988 -0.00098029548 -0.9999995 -0.00018459413
-0.025455 0.019753 -0.034659 0.82545702 -0.0047261798 -0.5644452
-0.119498 -0.006421 -0.033606 0.0058939487 -0.98854096 -0.15083779
-0.394674 -0.005777 -0.050865 0.028893948 0.99949142 0.013492519
-0.221578 0.005054 0.031416 -0.12736315 0.97948444 0.15616933
0.137118 0.028642 0.000209 0.023524289 0.97962982 -0.19942924
0.321267 -0.020389 0.084947 -0.12040173 -0.0010042684 -0.99272474
0.074681 -0.026749 0.094575 -0.015383888 -0.31208067 0.94993104
-0.023463 0.028479 0.087888 -0.049358319 0.74440905 0.66589709
0.241883 0.019429 0.09213 -0.067260435 0.0011624095 -0.99773478
-0.245466 -0.010036 0.000683 -0.026120285 -0.9996345 -0.0069707392
-0.278693 -0.009243 0.011494 0.026058175 0.99963589 0.007004252
0.196772 -0.028642 0.01958 -0.0029731273 -0.99999536 0.00066576637
-0.224411 0.002841 -0.022999 0.0024133045 0.99301896 -0.11793016
0.437898 0.010681 -0.032944 -0.47929103 0.85780432 0.18561215
-0.020012 -0.028644 0.062294 0.0002767547 0.99999932 -0.0011324582
-0.252643 -0.00981 -0.004739 0.02646611 0.99962296 0.007313754
0.466273 -0.013786 0.061332 0.25758166 0.29336442 0.92064597
-0.235427 0.00468 0.029715 0.10234866 -0.93448871 -0.34096275
-0.142793 -0.012966 0.035915 0.025408302 0.99965526 0.0066164156
-0.339507 -0.006015 -0.0577 -0.00031913335 0.99652181 0.083331756
0.039864 -0.028642 0.066054 -3.1198734e-05 -1 -6.7274772e-05
-0.409478 -0.004446 -0.072698 0.13906445 0.94815289 0.28577469
0.499989 0.02588 0.039026 -0.99698747 -0.059970607 0.049188505
-0.011804 -0.025381 -0.022426 0.50704824 -0.20163519 -0.83800079
0.10981 0.028642 0.052085 -0.00069713033 -0.99999975 -0.00010160896
0.113994 0.028642 0.070227 -0.002711979 0.99998708 0.0042993137
-0.202556 -0.006976 -0.035198 0.0039725487 -0.99212426 -0.12519453
0.109976 0.013564 0.095476 -9.8599386e-05 -0.30398053 0.95267824
0.272186 0.027029 0.089926 0.12626159 0.58697612 0.7996981
0.299055 0.028642 0.086511 -0.054649412 -0.84365733 -0.53409339
0.169649 0.025121 0.000911 -0.023502668 -0.15596645 0.9874827
-0.019656 -0.028643 0.085102 -0.016188916 0.94686615 -0.3212202
0.368896 -0.02408 0.078675 -0.14686695 0.015193381 -0.98903956
0.10308 -0.010682 0.016909 0.00071249691 0.9999995 0.00070830441
0.32844 0.024457 -0.01299 -0.25612413 0.12271343 -0.95882316
0.352595 0.014818 0.081044 -0.12951148 0.14734257 -0.9805697
-0.074659 -0.020066 0.03703 0.9470791 0.073942275 -0.31236793
-0.156521 -0.009399 -0.014064 0.0018849941 0.98992025 0.14161337
-0.412091 -0.005285 -0.056713 0.4510118 0.82859618 -0.3316877
-0.125952 -0.009434 -0.013832 0.0031515765 0.98927436 0.14603531
0.081095 -0.015705 0.09485 0.050219299 -0.01002501 -0.9986879
-0.321538 -0.007873 -0.024401 0.025925856 0.99963851 0.0071201292
0.286251 -0.028642 0.081342 -0.00029418265 0.99999951 -0.0009504656
-0.249714 -0.008982 -0.021905 -0.0010877345 -0.9949372 -0.10049273
-0.001229 0.027447 0.090067 -0.09654594 0.67709237 0.72953739
0.244623 0.015384 0.091942 0.068576069 0.0001262071 0.99764588
0.354509 -0.028642 0.056275 -4.3661592e-05 -1 4.3963964e-05
0.444375 0.028642 0.036152 -0.0028026007 0.99999601 -0.00036338181
0.337071 0.028642 -0.004419 0.0041520708 0.99999072 0.0011510414
-0.121625 -0.010391 -0.007461 0.007371209 -0.98912278 -0.14690743
-0.131208 -0.00446 -0.047382 0.089856683 0.7319581 0.67539849
0.028759 0.028642 0.042688 -4.8864108e-05 -0.99999989 0.00045720601
-0.275444 0.000904 -0.045633 0.0012835837 0.99528271 -0.097008691
0.261738 0.010682 0.060519 0.001399238 -0.99999544 0.0026772561
0.364841 0.028492 -0.024247 0.20248887 -0.65496954 0.72802002
0.30067 -0.028642 0.061441 7.5250978e-05 0.99999996 -0.00028410444
0.098857 0.028642 0.084347 -0.00059804931 0.99999957 -0.00070730722
-0.272452 -0.0066 -0.046879 -0.00095360949 0.99534977 0.096322025
0.050703 -0.028642 0.070832 -0.00011738065 0.99999999 1.4643044e-05
0.345611 0.028642 0.039923 -0.0014792512 0.99999875 0.00056626443
0.078318 -0.028641 0.034148 -0.000120281 -0.99999999 -2.4527515e-05
0.359175 -0.010682 0.010754 0.0025824169 0.99999407 0.0022801574
0.144099 0.026591 0.095682 -0.051109027 0.37905158 0.92396308
0.134523 0.025615 0.095803 -0.018321122 -0.24419663 -0.96955265
-0.07891 0.020037 -0.034302 0.97691109 -0.00033697858 0.21364597
-0.277302 -0.009201 0.000226 -0.026729847 -0.99962343 -0.0062061158
0.242503 0.028642 0.078782 -0.00092818429 0.99999947 -0.00045287506
0.457993 0.028641 0.018418 0.0013260154 0.99999912 -1.454934e-05
0.008768 0.021058 0.090777 0.071449072 -0.0017100135 -0.99744278
0.35649 0.028642 0.056155 -0.0034892504 -0.99998865 0.0032448402
-0.357396 -0.006148 -0.056218 -0.0021699487 -0.99663936 -0.08188577
-0.019482 0.028642 0.016369 0.0044884314 0.99998209 -0.0039581337
-0.353085 -0.004258 -0.079311 -0.11932787 0.99250513 0.026351987
0.44426 0.020587 0.065924 -0.18626352 -0.00028390898 -0.98249978
0.340042 -0.028642 0.060258 -0.0021680641 -0.99999765 5.8121026e-05
0.438299 -0.010682 0.064934 -0.0053735665 -0.81383709 -0.58106826
0.249918 0.010681 0.025394 -2.3935612e-05 -1 -3.5870981e-05
0.000165 0.015469 0.090166 -0.065650912 -0.086856582 0.99405528
0.423647 0.012069 0.069671 0.19324912 -0.53867697 0.82004994
0.267246 -0.010678 0.00959 -0.0013856086 0.9999986 0.00094315891
-0.30738 -0.00749 -0.03914 0.00061628613 -0.99588497 -0.090624206
0.101904 0.026168 -0.010246 0.24446495 0.3736123 -0.89479089
-0.323199 -0.007927 -0.010579 0.026091654 0.99963465 0.0070557265
-0.069766 0.028642 0.044887 0.44920817 -0.8681843 -0.21087447
0.126785 0.014023 -0.00514 -0.19902428 -0.0001026857 0.97999455
-0.010146 0.023262 -0.021601 0.44253868 0.060303081 -0.89471954
-0.125131 0.007388 0.011445 -0.013844383 0.99561046 -0.092564304
-0.424699 -0.001169 -0.025445 -0.30584834 0.72690684 0.61486847
-0.073238 -0.015065 0.076343 0.02316415 0.99971117 0.0064025572
-0.324845 -0.003329 -0.089589 -0.042586818 -0.99907528 0.0059113641
-0.390542 -0.004591 -0.073319 -0.053007352 -0.89249241 -0.44793697
-0.080193 -0.026661 0.013643 -0.94619014 -0.29231867 0.13883086
-0.359747 -0.006798 -0.035415 0.028015918 0.99957129 0.0085055191
0.479821 0.028642 0.033754 0.00051995185 0.99999981 0.00034308928
0.275452 -0.010682 0.065193 0 1 0
0.171356 0.010681 0.079112 -0.00022804954 0.99999986 0.00047517774
-0.050417 -0.028641 0.005889 -0.0014867036 0.99999396 -0.0031427069
-0.317193 0.002315 -0.003066 -0.027045188 0.99961209 -0.0066505745
0.148077 -0.026144 -0.001788 -0.11988239 0.34404178 0.93126981
0.151311 0.027914 0.095591 0.038764457 0.73732969 0.67441993
0.217229 0.017126 0.093663 0.037596856 -0.0022860964 0.99929037
0.197181 0.023669 0.094473 -0.070038499 -0.050743371 -0.99625284
0.439163 -0.013981 -0.033382 0.87010564 0.20761047 -0.44700568
-0.08379 0.000162 -0.036044 0.0032312861 -0.98763246 0.15675356
0.298174 -0.028642 0.034101 0.0039842108 0.99999127 0.0012592076
-0.047983 -0.003518 -0.046008 -0.4652217 0.29339537 0.83515742
-0.167856 -0.007425 -0.028974 0.0065244003 -0.99087054 -0.13465884
-0.061422 -0.028651 0.054174 -0.00061147261 0.99999886 -0.001378023
0.074496 -0.025888 -0.017987 -0.22809001 0.22917735 0.94628362
-0.250059 0.00405 -0.005773 0.026105529 -0.99963537 0.0069009437
0.040374 0.02295 -0.030008 -0.25928788 0.04095457 0.96493135
-0.270251 0.003544 -0.002704 -0.026160758 0.99963387 -0.0069092576
-0.247286 -0.009876 -0.013444 -0.011531144 -0.99783856 -0.064693475
0.499454 -0.028457 0.043315 -0.79579011 0.57044775 -0.20324239
0.079503 -0.010681 0.024819 -4.5645953e-05 1 -8.0354881e-05
0.07834 0.024836 0.094731 0.049165788 -0.070638397 -0.99628959
0.391145 -0.01763 -0.03471 -0.38642224 -0.0029006733 -0.92231743
0.379508 -0.027592 -0.029904 0.18345313 0.67889951 0.71094332
-0.193371 -0.000926 -0.051078 -0.3364225 0.85814196 -0.38783021
0.498957 -0.019325 0.045129 0.95317187 0.0059813548 0.30237
0.357717 0.027702 0.080386 0.17404968 0.49904064 0.84891999
0.258408 -0.028309 -7.9e-05 0.08012071 0.72806262 0.68081238
0.303295 -0.011176 0.086931 0.030961287 0.7802062 0.6247557
-0.273961 0.000676 -0.047948 -0.0013532586 -0.99526778 0.097160759
-0.074473 0.027145 -0.050492 -0.79443005 0.45998183 -0.39660763
-0.029909 0.028641 0.03435 0.0024354083 0.99999701 -0.00021101968
-0.072042 -0.028644 -0.034074 -0.00023294082 0.99999848 0.0017282298
0.214477 0.028495 0.002442 -0.041441346 -0.83825943 0.54369453
0.359107 -0.019918 0.080173 0.14729131 0.00017022788 0.98909314
-0.038907 -0.028642 0.060469 0.00049116774 0.99999972 -0.00057248547
-0.12363 0.003658 -0.0136 0.0021789687 0.98897568 -0.14806197
0.451234 0.028642 0.020062 -0.0019050206 -0.99999816 0.00020947201
0.444353 0.028642 0.06559 -0.094893985 -0.56015038 -0.82293784
0.020303 -0.010682 -0.001261 -3.6706345e-06 -1 6.5077746e-06
-0.036014 0.028642 0.051137 -2.49768e-05 -1 -6.0303026e-05
0.130481 0.010682 0.000489 0.082266677 0.99274593 0.087679625
-0.241584 0.004482 0.024438 -0.030549598 0.9940015 0.105013
-0.378724 0.000562 -0.023867 -0.024383131 0.99969949 -0.0025274017
-0.196437 0.005576 0.011509 -0.020530714 0.99977445 -0.0054348069
0.034996 0.028642 0.02881 8.3835491e-05 1 -1.6920538e-05
0.225073 0.010682 0.049354 -1.3401764e-05 -0.99999998 -0.00018745661
0.197135 0.026321 0.094475 0.056860848 0.2051965 0.97706767
-0.406609 -0.000129 -0.018441 0.14755722 -0.95667694 -0.25099024
0.278277 0.010682 0.061171 -0.0004611891 0.9999998 -0.00043950806
0.165577 0.028642 0.045561 0.0033063955 0.99999373 0.0012642566
-0.011452 -0.022892 0.089077 0.093355101 0.039655468 -0.99484284
-0.078978 0.015155 -0.033644 0.97779854 -0.00083098085 0.20954553
-0.137321 0.007129 0.01351 0.022179863 -0.99951834 0.02170557
-0.081245 0.023499 0.005026 0.99807241 -0.018099269 -0.059362292
-0.362063 -0.001108 -0.07359 -0.026460831 -0.92311864 0.3836037
-0.047766 -0.028641 -0.011135 0.0010697113 -0.99999112 0.004075283
-0.308683 0.001673 -0.039109 -0.0018557137 -0.99587601 0.090705757
0.005919 -0.010682 0.074742 -0.0010465327 -0.99999921 -0.00069945003
0.321209 0.023118 0.084954 -0.12458231 -0.00073732971 -0.992209
-0.070497 0.027284 0.048039 0.68224091 -0.62758396 -0.37508094
-0.361437 0.000958 -0.031809 -0.028038974 0.99955981 -0.0096953087
0.489166 -0.028642 0.048555 0.0024246907 -0.99999693 0.00051709637
-0.286328 -0.008345 0.01585 -0.23174098 -0.73742275 0.63443187
0.045585 -0.028642 -0.013628 -0.0012642892 -0.9999985 -0.0011834337
0.028633 0.026441 -0.024498 0.56932111 -0.33365095 0.75136577
-0.334047 -0.006586 -0.050469 -0.0048590387 0.99648873 0.083585911
-0.252548 0.004121 0.013781 -0.026066829 0.99963518 -0.0070737085
0.092982 0.014629 -0.012737 0.33443574 -0.12202061 -0.9344858
-0.046757 0.026468 -0.041577 0.081024116 0.44788756 -0.89041105
0.058559 -0.028644 0.053396 -0.00056401015 0.99999827 0.0017740676
0.385189 0.023543 0.076184 -0.17014984 -0.072622731 -0.98273851
0.054273 -0.028642 0.043317 -0.00018813085 -0.99999992 -0.00034395978
-0.184833 -0.011868 0.036147 -0.025722547 -0.99963094 -0.0087374981
-0.261237 -0.008988 -0.021962 -0.00047490354 0.99463527 0.10344301
-0.298349 0.001067 -0.045633 0.0017948504 0.99553729 -0.094351907
0.349643 0.028642 0.059129 0.0069889494 -0.99997547 -0.00047163368
0.073636 0.017722 0.094528 0.043155029 -0.00014699066 -0.99906838
0.164273 0.023117 0.095429 0.017355916 -0.0028219969 0.99984539
0.423797 0.026291 -0.050241 0.3896426 -0.46566955 0.7945631
-0.070004 0.009269 0.067984 0.026117735 -0.99963469 0.0069539893
0.346038 -0.010682 -0.01115 -0.0035197749 -0.99999235 -0.0017078739
-0.01644 0.028642 0.037259 0.005521047 0.99997868 0.003487929
0.285465 -0.010674 0.084389 -0.02217647 0.99115115 0.13087247
-0.09197 0.007238 0.091513 -0.017627456 0.44275139 0.89647113
0.072779 -0.028643 0.037227 -0.00091163419 0.99999939 -0.00061812547
-0.095097 -0.009138 -0.015802 -0.0051778209 -0.98836203 -0.15203188
0.095696 -0.023299 0.095258 0.012053028 -0.0045015526 -0.99991723
0.18819 -0.028642 0.035985 -0.0012869341 -0.99999868 -0.00099305406
-0.316878 0.00232 -0.005839 -0.026268969 0.9996306 -0.0069719951
-0.426603 -0.000804 -0.048146 -0.38887794 0.9210052 0.022877159
0.077892 -0.028641 0.053052 3.7272166e-05 1 4.5431856e-05
-0.328271 -0.004773 -0.072176 -0.29597413 0.89433263 0.33551223
-0.092078 -0.005129 -0.041572 0.06851899 0.84284428 0.53377773
0.111979 -0.028642 0.03033 -0.0013453067 -0.99999869 -0.00090442905
-0.053629 -0.01544 0.087243 -0.17716735 -0.76205215 0.62280675
-0.156483 0.004274 0.060693 0.35316915 -0.34655659 -0.86900523
-0.061389 -0.028642 -0.004292 0.0014486177 0.99999104 0.0039782198
0.139018 0.026553 0.095745 0.027337013 0.24310709 0.96961417
0.33591 -0.022905 -0.014846 0.26366315 -0.002784849 0.9646108
0.441668 0.028642 0.043103 -0.0021588759 -0.99999208 -0.0033431154
-0.377757 0.000637 -0.016678 0.019080991 -0.99974447 0.012120991
-0.035438 0.026675 0.086699 0.15243454 -0.45185035 -0.87897382
-0.246611 -0.009592 -0.016087 0.003565554 0.99557625 0.093889366
0.481946 -0.028483 0.016593 0.42099425 -0.64909935 -0.6335881
0.340177 -0.022574 0.08268 0.11806313 -0.0052485134 0.99299222
-0.029282 -0.02178 -0.041494 0.59447408 -0.062313696 -0.80169669
0.489568 0.023609 0.056429 -0.38698237 -0.0012625109 -0.92208625
0.011169 -0.010674 0.030998 0.00032061828 -0.99999989 0.00033159663
0.306358 0.028642 0.075135 -0.0026340939 0.99999533 0.0015518687
-0.383678 0.000503 -0.013567 0.02729286 -0.99962193 0.0033324313
0.272204 -0.02561 -0.001514 -0.12851586 -0.31544927 -0.94019968
0.144499 0.014007 0.095677 -0.015336742 0.15365076 -0.98800619
0.271497 -0.0282 0.089995 0.037470572 -0.71891106 0.69409138
0.307982 0.026584 -0.00799 0.18407595 -0.3753342 0.90842737
0.278603 -0.026387 0.089337 -0.11568894 0.47683361 -0.87134711
0.036484 0.028332 0.092749 -0.040876561 0.8085085 0.58706313
0.173037 0.028642 0.093668 0.030744601 -0.90979681 -0.41391369
-0.354615 -0.007028 -0.022273 0.02681864 0.99961375 0.0072870829
-0.183531 -1e-06 -0.042285 0.0079193282 0.99153833 -0.12957249
-0.083907 -0.010648 -0.006742 0.34101104 0.93259625 0.1182189
-0.187616 -0.007193 0.048064 0.36666483 -0.0014627389 -0.93035196
0.149429 -0.010681 0.028956 -6.0792982e-05 -1 1.4823224e-06
0.23108 -0.010657 0.025238 0.00055993164 0.99999891 0.0013655109
-0.333827 -0.005473 -0.064132 -0.11432661 0.92700226 0.35720616
-0.002083 0.002544 -0.010881 0.60677552 0.00097175301 -0.79487264
-0.181241 0.002496 -0.022507 0.0079300824 0.99110194 -0.13286854
0.039371 -0.010683 -0.004197 -0.0030208866 0.99999533 -0.00045701628
0.428988 0.028642 -0.017293 -0.0041721554 0.99998858 0.0023296242
-0.221682 0.001256 -0.036155 -0.002238841 -0.99289285 0.11899065
0.410818 -0.028642 -0.043686 0.23042136 0.89048945 0.39234491
-0.226714 -0.010491 -0.004296 0.028798625 0.99943104 0.017556387
-0.241587 -0.010208 0.010791 0.02573086 0.99962991 0.0088298275
0.185331 0.0134 0.094953 0.01093383 -0.19881623 0.97997579
0.369588 0.028642 -0.013518 0.00082791642 -0.99999849 0.0015271215
-0.423449 -0.005108 -0.03922 -0.45906368 0.88053819 0.1179535
-0.224308 -0.005928 0.034784 -0.31512141 0.0014108111 0.94905032
0.413113 0.010682 0.061417 -4.514537e-05 1 -1.3332793e-05
-0.39289 0.000212 -0.021047 0.026036636 -0.99963669 0.0069698447
0.129067 0.028642 0.003018 -7.1668875e-05 1 -9.8932217e-06
0.104024 0.027164 0.095385 0.032267904 0.50477487 0.86264773
-0.181 0.00613 0.033724 -0.024969685 0.99967933 -0.0042126075
0.464195 -0.028648 0.056449 -0.0056904976 0.99984095 -0.016902455
0.448966 0.028641 0.013381 0.00015906484 -0.99999965 0.00081934734
0.448172 0.015875 -0.017154 0.83325937 -0.00056786916 -0.55288199
-0.058862 0.028642 0.012449 -0.0021921637 -0.99999716 0.00093242699
-0.333699 0.001016 -0.047557 0.0033798699 0.99633801 -0.085435081
0.105302 0.028642 0.037065 -0.0004300127 0.99999953 -0.00086744031
-0.187452 -0.011612 0.009414 0.027646496 0.99960442 0.0051640967
-0.297553 -0.00619 -0.053305 0.0023180949 -0.99629381 -0.085984152
0.199767 0.010682 0.030579 3.981109e-05 -1 9.6128192e-06
0.258585 0.028642 0.046219 0.0051103218 -0.99998613 -0.0012723816
0.067029 -0.027672 -0.020234 -0.25908754 0.62407336 0.73716083
-0.028544 0.003442 0.083896 -0.43503593 0.014479401 0.90029667
0.166264 -0.028004 0.000554 -0.14757606 0.80860618 0.56954135
0.18595 -0.028642 0.093452 0.021219238 -0.86484647 0.50158781
0.104161 0.028642 0.023913 0.00013120195 -0.99999958 0.00090355563
0.291567 0.020648 0.088061 -0.10171951 -0.0040663578 -0.99480481
0.240841 -0.017245 0.001592 0.095519307 0.0056652962 0.99541146
-0.364468 -0.006923 -0.009341 -0.025146376 -0.99966109 -0.0067357364
-0.040226 0.010682 -0.036471 0.0094822116 0.98596555 0.16667941
-0.032516 0.028296 -0.041845 -0.014039549 -0.77826133 0.62778355
-0.115075 -0.009257 -0.014747 0.0028891054 0.98893143 0.14834514
0.435625 -0.010678 0.044214 0.10681659 -0.99372813 -0.033085055
-0.270374 -0.006459 -0.048284 0.00099313153 -0.99528403 -0.096998536
0.069309 0.028661 -0.018053 -0.29447543 -0.73481039 0.61101385
0.242626 -0.028641 0.090225 0.0018499476 0.83848031 -0.54492875
0.159677 -0.0274 0.095486 -0.089983422 -0.58820174 0.80369254
0.034032 -0.028641 0.055236 0.0037830607 0.9999927 0.00053212005
0.173381 0.015121 0.095314 0.0029291407 0.072819653 -0.99734082
0.228319 0.027928 0.093061 0.0029160682 0.74612694 0.66579734
-0.374073 -0.005177 -0.067421 -0.0065836887 0.99466424 0.1029549
0.219887 0.028642 0.072693 -0.00071902509 -0.99999875 -0.0014060211
0.334547 0.027084 0.083292 0.085658153 0.54768211 0.83229021
0.449763 -0.028642 0.006995 0.0029566261 0.99999224 -0.0026017688
-0.195639 0.00523 -0.002833 -0.0022003533 0.99497283 -0.10012103
0.437639 0.010682 -0.025802 -0.017875156 0.999821 0.0062007851
0.426409 -0.028642 0.06762 0.13565833 -0.82185692 0.55330644
0.477037 0.010679 0.053482 0.00010237602 -0.99999999 -4.1079647e-05
-0.022931 -0.027935 -0.031238 -0.53876087 0.73301236 0.41524644
0.166363 0.028642 0.002996 -0.122006 -0.94799594 0.29396978
0.474244 0.01661 0.010998 0.62165999 0.0010314932 -0.78328653
0.082813 -0.022277 0.094924 -0.0434282 6.9242188e-06 0.99905655
-0.145713 0.006907 0.013125 0.028408445 -0.99951568 0.012703281
0.45572 0.007971 0.053023 -0.43622552 0.27472073 -0.85687561
-0.102988 -0.012587 0.085258 -0.47623567 -0.42208176 0.77139262
0.162941 -0.020437 0.000126 0.12763833 9.8661183e-05 -0.99182077
0.400447 0.028642 -0.02807 -0.0024163812 -0.99998948 -0.0039000476
0.327044 -0.028642 0.008522 -0.0022367775 0.99999749 0.00013958276
0.20658 -0.028647 0.006431 0.035022464 0.98555315 0.16570583
-0.157839 -0.012554 0.033875 -0.023890427 -0.99969667 -0.005985343
0.424275 0.028642 -0.019792 0.0026419301 0.99999649 0.00018176503
0.055325 -0.023107 -0.024521 0.34011272 -0.009676252 -0.94033489
0.382474 -0.010673 0.071732 0.11304579 0.98065929 0.15977486
-0.194792 -0.011571 0.030963 -0.023381391 -0.99971585 -0.0046394443
0.155535 0.010682 0.073075 0.0007938531 0.99999968 8.1579559e-05
0.045643 0.028642 0.047777 -0.00053645294 -0.99999559 -0.0029198813
-0.262301 -0.009731 0.02 -0.20202762 -0.93758731 0.2830457
0.001098 0.028642 -0.008301 0.0052222462 0.99998624 -0.00050552333
-0.340861 -0.006728 0.002758 -0.12577597 -0.57700287 0.80699944
0.415316 0.023415 -0.045971 -0.44985277 9.3935223e-05 -0.89310273
0.218923 0.010681 0.01127 -0.00081149058 -0.99999323 0.0035890749
0.243801 0.028642 0.008034 0.00066924482 -0.99999434 0.0032978212
0.133081 0.028642 0.059422 3.1445758e-05 -0.99999322 0.0036813613
-0.096836 0.003199 -0.016447 -0.0079348884 0.98816077 -0.15321661
0.314334 0.028642 0.014282 -0.00078582053 -0.99999569 -0.0028281101
0.374558 -0.028642 0.031181 0.00088275735 -0.99999943 -0.00059508022
0.02619 0.013491 -0.022855 -0.40886119 -0.35752857 -0.83964626
0.292556 0.028642 -0.00312 0.0010690124 -0.90954401 0.41560624
-0.333847 -0.007524 -0.02837 0.028932763 0.99954985 0.0079372394
0.169536 -0.028642 0.058855 5.9770561e-05 -1 -3.779971e-05
0.383774 0.02595 -0.031666 0.29192826 -0.32742269 0.89865025
0.366997 0.028641 0.027894 0.0058901275 -0.9999806 -0.0020255757
0.406543 0.028642 0.028212 -0.00046155991 0.99999989 2.6708814e-05
0.440844 -0.028642 0.028336 -0.00027370048 0.99999992 0.00028912353
-0.167617 -0.0123 0.033678 -0.028808918 -0.99955658 -0.0075290435
-0.043506 0.026708 -0.041237 -0.17817782 -0.41423163 0.89256082
0.440758 -0.017589 0.066559 -0.17872528 6.3359746e-05 -0.98389901
0.004881 -0.028642 0.031175 -0.0013010502 0.99999914 0.00014342487
-0.258577 -0.009806 0.01689 0.026212875 0.99963164 0.0070330002
0.163873 -0.022733 0.000243 -0.12584706 -0.0041052389 0.99204116
-0.168035 0.006488 0.036414 -0.025245234 0.99965462 -0.0073022726
-0.15282 -0.009426 -0.013933 -0.0021104148 -0.98996718 -0.14128177
-0.30718 0.002623 0.010497 0.20845249 -0.61364534 -0.76156874
0.107314 -0.016846 0.095436 -0.019810231 0.001839552 0.99980207
0.07284 -0.028642 0.08169 0.00088533211 0.99999931 0.00077351612
0.460718 -0.028644 0.019138 0.0012652259 0.99999883 0.00086069973
0.287589 0.026208 -0.004137 0.1776252 -0.21715266 0.95984062
-0.041466 0.010682 -0.007338 -0.33459269 -0.86958466 0.36313943
-0.055037 0.028642 0.026191 0.0034052783 0.99999261 0.001786455
-0.089283 -0.014284 0.024576 -0.026385787 -0.99963461 -0.0058686721
0.432353 -0.027774 -0.051992 0.47524835 -0.70903483 -0.52096892
-0.318201 -0.007259 -0.042277 0.0015689008 -0.99650401 -0.083530171
0.49402 -0.028642 0.024822 0.54910755 -0.58655106 -0.59534759
0.037259 -0.028642 0.070762 -0.0010977356 0.99999868 0.0011965959
0.415185 -0.010682 0.041862 -1.1801723e-05 1 8.2332502e-05
-0.418929 -0.004313 -0.072701 0.12988297 -0.94259537 -0.30764326
0.20338 0.028642 0.051012 0.00014005049 -0.99999998 0.00012571148
-0.214308 -0.009674 -0.013945 -0.0093609266 0.99258339 0.12120475
0.232857 0.028642 0.076583 4.5615576e-05 1 4.2002862e-05
-0.204609 0.003791 -0.014372 -0.0059546541 -0.99218812 0.12460848
-0.305273 0.00272 0.007922 0.088099931 -0.98211839 -0.16637872
0.13612 -0.028642 0.017723 -6.3637171e-05 -1 2.6523104e-05
0.34175 0.022716 -0.016651 0.30912617 -0.0014902077 0.95101987
0.220025 0.026826 0.002328 0.055354088 -0.30375704 0.95114015
0.393139 -0.023148 0.074967 0.15121203 -0.00042259673 0.98850126
-0.072726 -0.014941 0.056884 -0.023252283 -0.99967065 -0.010859661
0.335503 0.028641 0.036619 1.7510858e-06 1 -1.6678885e-06
0.183853 0.026569 0.095012 0.050864205 0.3795168 0.9237856
0.247325 -0.027439 0.000975 0.022741979 0.64328771 0.76528669
0.434825 0.010682 -0.016197 0.00014961135 0.99999999 -4.5192042e-05
0.08169 -0.010682 0.054815 -0.00014783215 0.99999999 6.7212777e-05
0.109331 0.025806 -0.008722 0.18621914 0.26643979 -0.94569142
0.34038 -0.028641 0.05582 -0.000214147 -0.99998629 0.0052327121
-0.089363 0.001126 -0.030282 0.00028389274 0.98743242 -0.15804156
