151.41 8.38724 15.9566 0.153489 0.44512 0.882219
95.3975 48.2953 15.0098 0.54665 0.723852 0.420965
91.76 -51.122 11.3565 0.356242 -0.507186 0.784764
-9.55089 -37.8663 -1.83743 -0.446661 -0.774492 0.447947
6.54523 -3.7804 14.8891 -0.195675 -0.47209 0.859559
291.117 10.4221 -9.60782 0.0119495 0.986882 -0.160997
252.721 -20.8234 9.00653 0.194398 -0.893402 0.405022
172.021 17.0499 3.64783 0.267051 0.949315 -0.165785
13.653 -33.1322 4.59467 -0.419022 -0.445325 0.791269
95.5473 -26.662 0.807343 0.111528 -0.530817 -0.840116
309.491 28.4119 20.6908 0.501931 0.481813 0.718277
45.3653 23.6777 -18.2864 -0.178308 0.534327 -0.826257
196.858 13.9863 -0.139496 0.198949 0.779065 -0.59454
81.3449 -4.29132 16.9035 -0.095996 -0.585859 0.804707
160.879 10.504 14.063 0.0966502 0.578144 0.81019
89.8664 58.7104 -0.362 0.201153 0.97376 0.106441
26.4287 39.7738 -13.6233 -0.342041 0.707277 -0.618682
-50.2646 -7.56772 -10.7508 -0.219237 -0.570053 -0.791817
-80.5632 60.0041 -1.08633 -0.195435 0.978996 0.0580673
173.187 -12.3629 -8.66098 0.164687 -0.415698 -0.894468
41.7567 -52.0688 -2.97998 0.165578 -0.873568 0.457672
84.1854 44.508 -14.003 -0.14829 0.773736 -0.615908
123.005 -1.88675 18.2627 0.0992103 -0.24663 0.964018
64.3019 42.8281 -18.1293 -0.154805 0.80991 -0.565757
222.423 -14.1955 -5.6832 0.144793 -0.376092 -0.915199
297.222 -19.0062 6.48831 0.26626 -0.95496 0.130986
-88.9597 37.8802 7.43518 0.206468 0.728597 0.653083
309.531 -1.88675 -14.191 0.199669 -0.21611 -0.955734
-11.4446 2.84741 16.7288 -0.126442 -0.592951 0.79525
39.6843 9.86981 18.7971 0.142918 0.22504 0.963811
-136.763 -6.62088 3.64783 -0.735184 -0.276395 0.618959
-58.1327 -31.2385 -2.03317 -0.273295 -0.542571 -0.794309
-117.49 -23.6639 5.20596 -0.231211 -0.73869 0.63315
282.073 -20.8234 3.21774 0.133404 -0.951296 -0.277919
85.1322 -13.2487 -4.21268 -0.30258 -0.511154 -0.804467
-48.371 -41.6536 5.53168 0.107136 -0.627723 0.771029
-5.76357 9.11234 19.744 -0.067097 -0.168549 0.983407
36.8438 -23.6639 5.95557 0.005724 -0.0533057 0.998562
-25.944 -52.0688 -3.92682 0.120252 -0.925576 0.358956
198.752 9.47522 14.248 0.0883132 0.674878 0.732626
107.789 -1.88675 17.8503 -0.0497348 -0.419063 0.906594
294.017 23.6777 22.5844 -0.804516 0.120943 0.581487
293.435 32.1992 -8.25006 -0.773117 -0.301439 -0.558055
112.59 13.5033 15.9566 0.0636356 0.290351 0.954802
-80.5632 7.58157 -12.0952 -0.20655 0.433166 -0.877328
216.742 1.19559 -5.82047 0.335713 0.165991 -0.927224
54.8336 -34.079 2.11432 0.040378 -0.562532 0.825789
-109.915 27.465 14.7447 -0.214623 0.329418 0.919468
292.488 27.907 -6.7673 -0.692084 0.483918 -0.535577
-30.4456 -13.2487 -6.7673 -0.43148 -0.188018 -0.882312
81.3449 -42.6005 6.79709 0.185887 -0.681922 -0.70741
194.018 -17.4178 13.1161 0.0379135 -0.612935 0.789223
16.0135 -21.7702 -4.61197 -0.0508784 -0.129684 -0.990249
-115.596 -0.939911 -6.65213 -0.693308 -0.474593 -0.542297
264.083 23.6777 12.462 -0.211238 0.555934 0.803938
87.0259 12.3157 23.6282 -0.0568508 -0.303297 0.951199
24.535 -44.4941 -0.833984 -0.590292 -0.734166 -0.335494
160.879 15.6518 7.43518 0.0764766 0.831616 0.55006
36.8438 -64.3776 6.99551 -0.0986723 -0.45339 0.885834
68.0892 -67.8793 -12.4483 0.145764 -0.611996 -0.777312
83.2385 46.4016 20.221 0.0432601 0.547435 0.835729
32.8051 -56.8029 -1.08633 -0.342888 -0.9358 0.0818895
-75.8291 -35.0258 -0.506927 -0.258625 -0.770323 -0.582852
-17.1255 25.5714 6.34637 -0.242741 0.959252 0.144609
65.2487 -27.4512 -2.37875 0.373554 -0.141279 -0.916786
37.7907 14.2094 21.7169 0.321467 -0.584867 0.744708
-111.809 22.7309 15.6571 -0.184514 0.280887 0.941837
93.6537 -5.22842 15.9566 -0.170537 -0.479343 0.860899
53.8868 17.3387 -24.7571 0.0108316 0.27408 -0.961646
82.2917 -24.6107 7.69736 0.102144 0.0807507 0.991487
177.922 0.953766 -9.34543 0.0868331 0.0968302 -0.991506
18.854 -42.6005 7.06458 -0.265072 -0.299889 0.916408
115.431 10.4221 -11.9235 -0.0746808 0.102777 -0.991897
190.23 -7.56772 20.8517 0.0739496 -0.293446 0.953111
200.646 -0.63681 17.8503 0.208118 0.283599 0.936087
177.922 -6.62088 -12.043 0.0789132 -0.0106857 -0.996824
-94.7657 -27.4512 2.47256 -0.564944 -0.73321 0.378472
120.165 -3.7804 17.8226 0.0393187 -0.455245 0.889498
11.2794 36.9333 14.5989 -0.163896 0.828004 0.536235
290.092 5.6879 25.4249 -0.0705106 0.639093 0.765891
112.66 -22.717 6.48831 0.233683 -0.602121 0.763441
282.073 0.00692749 25.7559 0.0143123 0.343994 0.938863
8.11771 -54.9093 4.59467 -0.537518 -0.450982 0.712524
-32.6088 -50.1751 -7.71414 -0.393594 -0.875615 -0.279967
-105.181 5.38016 -13.3951 -0.444361 -0.128983 -0.886514
133.421 -10.1513 -9.60782 0.0851445 -0.275868 -0.957417
56.7273 2.84741 22.1647 -0.066666 -0.270416 0.960433
121.112 5.91605 15.9566 -0.0034996 0.410488 0.911859
218.635 3.79428 -5.27661 0.217482 0.141463 -0.965758
155.198 11.3689 11.389 0.208358 0.674853 0.707927
290.595 -19.2032 3.64783 0.208182 -0.962279 -0.175153
257.455 -12.0745 -5.82047 0.259903 -0.435828 -0.861687
109.75 49.3193 -2.97998 0.355044 0.91151 -0.207591
247.987 0.00692749 -8.99435 0.138362 -0.0707071 -0.987854
113.537 27.465 -6.13889 0.061364 0.588125 -0.806438
154.251 7.58157 -8.36484 0.141888 0.579071 -0.802835
-90.9784 19.3785 -7.71414 0.40466 0.888372 -0.216898
46.1781 28.4119 -18.1293 -0.316607 0.186756 -0.92999
229.997 -16.0892 16.5521 0.125999 -0.593985 0.794547
306.34 -0.939911 -13.3951 0.051165 -0.119706 -0.99149
152.357 -24.2651 1.75418 0.101299 -0.983796 -0.147934
65.2487 -35.9727 -1.84091 0.353563 -0.487929 -0.798072
-12.3914 -19.8765 -6.10535 -0.355547 -0.0988961 -0.929412
89.8664 25.5714 -17.1545 -0.124612 0.138705 -0.982463
-4.81674 -3.7804 -12.6028 -0.0773161 -0.373923 -0.924231
167.507 7.58157 15.5119 0.111691 0.303945 0.94612
-115.338 -14.1955 7.43518 -0.446685 -0.354603 0.821419
-67.3076 -61.5371 1.61685 0.58093 -0.627703 0.518179
20.7477 -18.9297 -3.27005 -0.104627 0.198171 -0.974567
315.52 -2.83356 0.807343 0.902783 0.346387 0.25495
189.284 -21.1284 -2.03317 0.0159825 -0.77814 -0.627888
58.6209 58.9943 -1.08633 -0.206594 0.902517 0.377864
65.2487 -57.5767 0.807343 0.170114 -0.984943 0.0307998
293.435 16.103 24.1539 -0.561549 0.59953 0.570287
157.091 -0.315216 15.9566 0.243374 0.294061 0.924282
316.159 5.11737 -2.97998 0.724078 -0.0613188 0.686987
265.615 32.1992 -3.92682 -0.389635 0.269165 -0.880758
307.736 -15.1424 8.38199 0.567309 -0.787849 0.239695
20.7477 17.9967 -18.5608 -0.15688 0.406782 -0.899954
77.5576 -23.3552 -0.139496 0.288659 -0.244571 -0.925668
-30.3812 9.47522 11.067 -0.478331 0.536143 0.695522
70.9297 23.0261 27.3186 0.0758255 0.256501 0.963565
61.4614 26.5182 -18.9201 -0.231685 0.387122 -0.892445
86.079 49.2421 9.95483 -0.482083 0.873687 -0.0653205
238.96 -5.67404 -8.66098 0.200377 -0.111024 -0.973408
-29.0169 22.7309 9.32883 -0.533683 0.512557 0.672657
204.433 14.7846 2.70099 0.0599866 0.957149 -0.283314
45.3653 -39.76 -8.01001 0.0405537 -0.0660126 -0.996994
230.944 2.84741 18.4545 0.227326 0.399866 0.887936
160.879 -3.93481 18.7971 0.110396 0.112696 0.987478
-39.887 -14.1955 9.32883 -0.286219 -0.365555 0.885691
86.079 49.2421 -11.1355 -0.0767323 0.673026 -0.735628
33.0565 41.6675 -10.9971 0.250256 0.887178 -0.387668
157.091 6.2753 15.9566 0.150767 0.310077 0.938681
-8.60406 18.9435 15.5242 -0.351125 0.192559 0.916314
294.382 9.44684 -16.2356 -0.111028 0.313653 -0.943024
90.8132 57.7636 -3.08603 0.310101 0.920874 -0.236282
94.8574 42.6143 -11.5015 0.417861 0.404614 -0.813437
196.858 -1.46512 18.7971 0.0988552 0.294081 0.950655
6.54523 13.2626 -18.2201 -0.198267 0.524449 -0.828036
-78.6696 44.508 -8.11978 0.280522 0.418838 -0.863645
255.562 -4.72723 22.1971 0.165353 -0.315055 0.934558
29.2692 39.7738 -15.552 -0.148396 0.771818 -0.618285
38.5136 -50.1751 -1.08633 0.221358 -0.705659 0.673087
304.797 3.51947 -15.2888 0.0820334 -0.37373 -0.923903
-109.915 48.2951 -4.87366 -0.252962 0.908688 -0.332109
34.0033 -30.2917 -3.58856 -0.197203 -0.0867247 -0.976519
-17.1255 -17.6385 -4.87366 -0.398296 0.106456 -0.911058
-15.2319 -43.5473 -13.2764 -0.0379445 -0.507929 -0.860563
172.241 -5.29379 -10.5546 0.110176 0.157482 -0.981357
1.58455 38.827 -6.7673 -0.42489 0.479438 -0.767859
141.942 9.47522 -7.6796 0.0840354 0.62301 -0.777687
106.909 5.81128 -13.3951 0.114609 0.604548 -0.78828
20.3248 48.2953 -1.08633 -0.549128 0.78739 0.280134
106.909 -2.84717 -14.342 -0.146583 -0.379873 -0.913351
76.6107 -19.8765 6.74249 0.193837 0.412938 0.889893
-80.5632 -13.7436 -7.71414 -0.367904 -0.499151 -0.784535
-140.214 -0.939911 -5.87775 -0.551597 0.193732 -0.811301
84.1854 7.58157 -17.0333 -0.26684 -0.52263 -0.809725
102.175 -54.9093 10.6087 0.192746 -0.325679 0.925625
278.275 44.508 -2.97998 -0.162632 0.658655 -0.73466
239.466 -17.2235 -1.08633 0.292856 -0.707974 -0.642657
-103.287 5.9935 -14.342 -0.380456 -0.0696588 -0.922172
101.654 4.74109 -17.1825 0.160639 0.0724282 -0.984352
-67.1373 -47.3346 -10.5546 -0.557248 -0.452513 -0.696209
304.797 23.6777 -14.5975 0.0959976 0.295932 -0.950373
-36.0622 2.84741 16.2168 -0.125758 -0.160363 0.979014
-152.439 22.7309 -20.0229 -0.300188 0.654458 -0.693954
-48.6052 -14.1955 10.2756 -0.273606 -0.363444 0.890532
230.944 4.74109 18.0038 0.161866 0.44195 0.882315
-54.2304 -44.4941 -1.08633 -0.478032 -0.718636 -0.505023
299.501 19.8904 -13.3951 -0.430633 0.25103 -0.866913
232.214 16.103 1.75418 0.0470985 0.861238 -0.506015
192.124 6.63474 -8.17288 0.138865 0.45754 -0.878279
178.868 -9.06964 -11.5015 0.119003 -0.257915 -0.958811
152.357 -8.51456 17.4935 0.0581322 -0.469602 0.880962
-59.7967 -49.2283 -8.66098 -0.00971196 -0.829494 -0.558431
43.4716 -4.72723 14.1099 -0.0928687 -0.564597 0.820125
-154.416 0.953766 6.05191 0.218193 -0.0959289 0.971179
-69.2012 41.2359 -0.139496 -0.536723 0.767077 0.351454
267.176 6.63474 23.5313 0.218411 0.378659 0.899396
26.4287 49.2421 3.32791 -0.168727 0.814085 0.555696
67.1424 -32.1853 4.87311 -0.125763 -0.306257 0.943605
151.41 2.84741 16.4132 0.135531 0.111022 0.984533
95.5473 32.1992 -21.2341 0.291785 0.370897 -0.881644
240.694 2.84741 20.6908 -0.13941 0.352516 0.925363
-26.5939 -42.6005 -6.19421 -0.19846 -0.950556 -0.238868
-138.32 1.8815 -1.08633 -0.92705 0.201861 -0.315959
26.4287 -24.1144 -3.92682 -0.217159 0.0389395 -0.975359
81.3449 -13.2487 -5.272 -0.0555603 -0.594554 -0.802134
256.509 1.90057 -9.00021 0.22401 0.139974 -0.964483
-29.4343 -52.0688 0.226349 -0.242149 -0.706054 0.665471
293.435 -17.9829 -0.441467 0.107672 -0.883265 -0.456344
36.8595 -27.4512 -2.97998 -0.109855 0.0161697 -0.993816
268.817 -16.6563 12.1693 0.155817 -0.728795 0.666767
168.453 3.79428 14.7622 0.159582 0.0413739 0.986317
119.218 -30.9368 7.43518 0.564338 -0.507048 0.651479
90.5085 15.1562 24.4781 0.148094 0.147321 0.977939
254.615 -20.0045 9.32883 0.247188 -0.880596 0.404288
143.197 1.90057 -9.60782 0.051029 -0.109221 -0.992707
113.537 -0.939911 -15.5062 0.131973 0.0420545 -0.990361
284.914 45.9536 9.32883 0.0426992 0.929995 0.365083
4.65157 33.4203 15.9566 -0.406112 0.599631 0.689577
221.476 -7.19806 21.6376 -0.0134528 -0.32169 0.946749
-52.1583 -35.9727 6.01456 -0.140154 -0.534873 0.833227
-154.565 -4.72723 11.2225 0.332814 -0.39553 0.856032
219.582 -3.7804 -9.10406 0.170144 0.211954 -0.962355
278.286 46.2964 -2.03317 -0.15081 0.734764 -0.661345
134.367 0.00692749 -9.01779 0.115771 -0.0510012 -0.991966
157.091 -10.7339 -10.5546 0.0205388 -0.19574 -0.980441
-87.191 -26.5043 6.14911 -0.649858 -0.502724 0.570047
228.815 -14.1955 -5.82047 0.236913 -0.363128 -0.901116
-93.0522 23.6777 -13.3951 0.444321 0.373894 -0.814114
95.5473 47.0838 15.9566 0.526723 0.701629 0.479874
196.858 -22.9697 2.70099 0.131583 -0.968184 -0.212852
302.903 7.58157 -17.7944 -0.0732844 -0.181729 -0.980614
92.7068 -57.2657 6.48831 0.327744 -0.794819 -0.510731
-85.2974 3.79428 -13.2314 -0.220503 0.427294 -0.876812
-155.363 -2.75186 0.807343 -0.732223 -0.549574 0.402265
271.658 37.4495 -4.87366 -0.0694087 0.663156 -0.745256
11.8687 -55.8561 -1.08633 -0.2683 -0.939389 -0.213456
-127.783 -25.5575 -0.139496 -0.75932 -0.604349 -0.241239
22.6414 -32.1853 -2.42282 -0.225734 -0.1986 -0.953731
313.906 9.47522 19.744 0.62409 -0.142251 0.768295
119.218 -30.6958 5.5415 0.704786 -0.677585 0.21013
-65.4139 11.3689 -7.19186 -0.401871 0.642701 -0.652254
83.2385 55.8699 1.88251 -0.271417 0.806344 0.525492
-64.4671 12.3157 -6.42929 -0.433038 0.648189 -0.626362
60.5146 -52.0688 -7.95282 0.339579 -0.541879 -0.7688
63.3551 4.74109 22.1037 -0.0270358 -0.155994 0.987388
-85.9403 -25.5575 7.43518 -0.567246 -0.427751 0.703748
107.856 -22.717 -2.07767 -0.00767781 -0.614424 -0.788938
-59.7329 9.38046 -10.5546 -0.287934 0.398056 -0.871002
-82.2324 30.3055 -0.139496 0.471911 0.881494 -0.016365
63.3551 -55.8561 -4.56564 0.350506 -0.75416 -0.555327
153.304 3.79428 16.5314 0.158859 0.12702 0.979096
260.296 0.00692749 -8.2272 0.309023 0.116894 -0.943843
104.069 7.58157 22.2575 0.0495515 0.0675974 0.996481
112.686 -33.1322 2.70099 0.150434 -0.799821 -0.581082
-103.287 -35.0258 -11.814 -0.342173 -0.332735 -0.878752
104.069 29.3587 -13.1287 0.703027 0.530785 -0.473307
-33.2217 -18.0996 7.43518 -0.107476 -0.569169 0.815166
278.286 16.103 16.2517 0.689379 0.476003 0.546056
204.433 -17.9837 -5.82047 0.0804289 -0.627816 -0.774195
230.944 3.79428 -6.30865 0.272574 0.194026 -0.942368
291.541 47.9901 9.32883 -0.0830511 0.891442 0.445458
137.208 -22.012 -2.03317 0.0363229 -0.82561 -0.56307
-110.737 44.508 7.43518 -0.387296 0.812704 0.435333
303.85 0.953766 23.7379 0.389415 0.0226268 0.920784
106.909 -3.23322 17.8503 -0.0186621 -0.376971 0.926037
265.247 27.465 -2.97998 -0.348207 0.324522 -0.879453
300.063 47.9113 7.43518 0.454077 0.860339 0.231586
66.1956 -25.2889 5.5415 -0.172835 -0.0967444 0.980188
106.304 28.4119 18.7971 0.503325 0.381573 0.775285
281.126 -4.72723 -15.4095 -0.0415694 -0.174007 -0.983867
83.2385 -26.5043 8.14865 0.122464 -0.0339953 0.991891
-34.1685 -11.3551 9.98343 -0.274526 -0.291917 0.916199
309.791 12.3157 23.5313 0.2759 -0.141754 0.950676
-74.5419 39.7738 -2.03317 0.67111 0.736998 0.0802801
40.6311 -47.3346 -2.53888 0.0784264 -0.838961 0.538511
57.6741 -30.2917 -4.70123 0.137173 -0.117841 -0.983513
46.5106 10.4221 -20.9698 -0.0978494 -0.704991 -0.702434
10.3326 -48.2369 0.807343 -0.674826 -0.438758 0.593381
72.5286 -60.5903 -8.66098 0.777558 -0.407954 -0.478515
316.927 11.3689 15.0098 0.997476 0.0442108 -0.0555558
34.9502 -2.68732 14.063 0.16798 -0.690334 0.70372
213.901 -3.38159 -9.60782 0.160031 0.22107 -0.962039
37.2469 12.3157 20.6908 0.306808 -0.384438 0.870676
122.059 14.2094 15.5299 0.0420853 0.318742 0.946907
10.3326 -4.48517 -14.342 -0.154938 -0.409971 -0.898842
204.433 -7.56772 -9.41208 0.173772 -0.050722 -0.983479
110.957 33.146 -6.7673 0.330018 0.399694 -0.85518
166.56 5.6879 -9.19199 0.172321 0.354979 -0.918855
85.1322 10.328 21.6376 -0.168682 -0.316335 0.93353
213.901 0.438019 18.7971 0.179098 0.335789 0.924754
-131.083 13.2626 -5.82047 -0.867936 -0.0637091 -0.492572
262.19 15.1562 14.6994 0.36329 0.881299 0.302214
-126.958 -8.51456 -2.08005 -0.543557 -0.472819 -0.693533
258.402 6.63474 21.7699 0.341331 0.359678 0.868404
89.8664 41.6675 18.1449 -0.0715746 -0.170094 0.982825
21.6945 39.7738 6.22632 -0.437387 0.768639 0.466784
75.4958 -29.3448 1.75418 0.376151 -0.507197 -0.775411
158.038 -21.2896 1.75418 0.205715 -0.964556 -0.165265
91.76 -37.8663 10.5294 0.146937 -0.477091 0.866484
229.382 2.84741 -6.7673 0.226083 0.204371 -0.952428
57.6741 -35.0258 -5.20654 0.325388 -0.208855 -0.922227
24.535 -9.4614 -12.3504 -0.111857 -0.566632 -0.816343
156.145 -17.7837 10.2756 0.136736 -0.680962 0.71944
1.81108 -14.1955 -4.14944 -0.423461 0.0424136 -0.904921
310.462 34.0928 -4.87366 0.609468 0.670396 -0.423222
-143.054 -7.68674 1.75418 -0.632925 -0.419392 0.650781
307.637 28.4119 22.5147 0.543685 0.510522 0.666163
25.0558 -5.67404 12.1693 -0.27154 -0.405742 0.87272
303.85 -0.939911 -12.9091 -0.0592295 -0.124798 -0.990413
130.58 11.3689 15.4962 0.0878392 0.323973 0.94198
228.104 -5.67404 21.5695 0.158557 -0.189551 0.968984
304.797 -16.0892 11.7721 0.467019 -0.844957 0.260655
16.9604 37.4639 -8.66098 -0.21348 0.728452 -0.650987
-90.0315 -62.5394 -28.5444 -0.56975 -0.62146 -0.537747
67.1424 -58.2529 -0.139496 0.221258 -0.975015 -0.0197631
274.498 37.8802 14.7286 -0.00605001 0.404406 0.91456
146.676 -3.20694 17.8503 -0.00873607 0.133957 0.990949
-48.371 -21.1296 -3.92682 -0.388227 -0.449381 -0.804572
247.987 -12.7497 16.9035 0.207583 -0.788875 0.578434
237.572 -0.939911 -8.09323 0.168367 0.0857287 -0.981989
-72.4882 53.0295 -3.92682 0.507251 0.818896 -0.268524
-94.7657 37.8802 -7.26059 0.313781 0.822525 -0.474335
251.774 2.84741 24.1132 0.0967881 0.106443 0.989597
104.069 -37.8663 10.2017 0.368087 -0.590998 0.717797
82.2917 44.006 -13.3951 -0.231843 0.808097 -0.541506
-112.755 7.58157 17.2283 -0.061681 -0.102131 0.992857
77.5576 43.5611 20.0962 -0.0572077 0.416276 0.907437
-80.5632 58.5446 -3.92682 -0.194407 0.869458 -0.454147
159.932 1.65207 -9.60782 0.142894 0.00480717 -0.989726
-70.1481 -56.8029 -7.42572 -0.757576 -0.629998 -0.170828
40.6311 -0.143799 18.7971 -0.0812991 -0.481723 0.872544
69.0361 -56.8029 2.09531 0.317786 -0.934506 0.160346
8.43889 10.3031 -20.9698 -0.10038 0.300119 -0.948605
-57.8393 -25.1632 -2.97998 -0.284291 -0.458943 -0.841754
-126.011 -10.0508 2.70099 -0.613429 -0.751032 0.244244
-159.15 -5.67404 12.0746 -0.638523 -0.487364 0.595621
316.159 26.5972 16.9035 0.82808 0.332681 0.451229
13.4459 -37.8663 -8.66098 0.215692 0.117583 -0.969356
98.3878 -12.3019 -10.763 -0.011636 -0.504586 -0.863283
-33.2217 -16.1099 8.38199 -0.127842 -0.520568 0.844195
117.461 -28.398 3.64783 0.499036 -0.81518 -0.294014
316.159 12.2184 -9.60782 0.697569 0.29003 -0.655194
-123.171 7.35318 -6.7673 -0.939146 -0.0977092 0.329328
209.167 -1.2919 19.744 0.0243173 0.282394 0.95899
16.0135 7.58157 -20.7645 -0.104367 -0.183979 -0.977374
297.708 24.6245 -11.5015 -0.580691 0.0922162 -0.808884
293.435 0.00692749 -13.4021 0.450326 -0.069552 -0.890151
294.637 19.8904 23.5313 -0.799355 0.403736 0.445003
150.021 9.47522 -6.7673 0.165537 0.665445 -0.727861
151.41 18.1443 0.807343 0.140179 0.852597 -0.503416
-12.3914 10.6194 15.9566 -0.550727 0.716688 0.427854
-12.3914 15.1562 -16.0555 -0.19012 -0.0201788 -0.981554
112.59 21.784 16.5532 0.372321 0.358789 0.855948
207.273 -1.88675 19.1588 0.0184713 0.263727 0.96442
287.754 28.4119 -6.08295 0.0122625 0.552125 -0.833671
204.433 11.3689 12.7755 0.139837 0.759849 0.634882
46.3121 -26.5043 2.08691 0.257584 -0.0161255 0.966121
112.59 -47.5787 4.59467 0.0540043 -0.425453 -0.903368
254.615 -11.0503 -6.7673 0.208681 -0.387667 -0.897868
311.425 -6.3519 18.7971 0.590626 -0.466696 0.658298
95.5473 4.77792 -18.1293 0.033078 -0.367637 -0.929381
40.6311 39.1996 -17.1825 -0.166572 0.654059 -0.737876
-51.2115 -14.5314 9.32883 -0.389145 -0.375698 0.841081
300.063 15.1562 27.5829 -0.0701619 -0.0288182 0.997119
-18.0724 -10.4082 -8.23535 -0.313085 -0.308827 -0.898111
263.136 18.9435 -2.17966 -0.00790508 0.429822 -0.902879
114.484 -2.72693 -15.2888 0.0958437 -0.143727 -0.984965
19.8009 48.2953 -6.47922 -0.463633 0.74636 -0.477484
-16.1787 23.6777 13.3743 -0.304834 0.518046 0.79919
-16.1787 11.3689 13.0456 -0.314142 0.8305 0.459984
130.58 -17.2538 -6.7673 0.0567982 -0.646017 -0.761207
120.165 -42.226 10.2756 0.104685 -0.243893 0.964135
283.02 30.3055 17.306 0.0422005 0.0908483 0.99497
93.6537 30.8491 22.5844 -0.0469071 0.489676 0.870642
24.9198 -17.036 8.38199 -0.170484 -0.0222344 0.98511
292.398 8.52841 -16.2356 -0.0891973 0.291937 -0.952269
64.3019 -69.1117 -4.50156 -0.202445 -0.948595 0.243277
89.8664 28.4119 23.0646 -0.0576413 0.377694 0.924134
285.86 6.63474 24.0101 0.00458323 0.656622 0.754206
-36.8306 -3.7804 12.1693 -0.0171335 -0.194252 0.980802
-54.052 -48.6707 -20.9698 -0.139305 -0.299493 -0.943874
-2.62001 -67.2181 10.2756 -0.430875 -0.612362 0.662842
-118.49 34.0928 -4.87366 -0.560663 0.765378 -0.315996
-48.371 12.3157 11.7867 -0.316158 0.354974 0.879794
160.879 -18.32 -4.87366 0.0983237 -0.767566 -0.633384
-85.7642 -21.7702 7.43518 -0.62104 -0.407779 0.669347
29.2692 8.52841 -22.5541 -0.0340749 -0.412564 -0.910291
216.586 3.79428 -5.82047 0.259245 0.22116 -0.940149
213.901 8.93423 15.0098 0.0682024 0.668779 0.740326
-153.54 1.90057 4.59467 0.0280567 -0.0286499 0.999196
290.595 -18.1276 11.2225 0.192927 -0.895621 0.400803
-117.49 3.79428 9.61246 -0.836101 -0.457559 0.302614
-87.8678 -10.4082 -10.5546 -0.378753 -0.522115 -0.764161
-88.1379 -59.1363 -24.7571 -0.976642 -0.13048 0.170718
301.01 -3.7804 24.3702 0.342698 -0.285457 0.895026
153.304 -21.0075 -2.97998 0.0916442 -0.805646 -0.585266
51.0463 53.8011 2.70099 0.259768 0.878881 0.400111
200.641 -24.6107 2.70099 0.0762937 -0.97863 -0.190951
227.157 7.58157 16.5269 0.0604448 0.580668 0.811893
-2.92308 -13.2487 8.59036 -0.301358 -0.279119 0.911743
97.441 -50.1751 4.24301 0.209936 -0.458792 -0.863387
45.3653 54.9231 3.08453 0.041832 0.889643 0.454736
265.977 10.4477 -7.71414 0.364113 0.664294 -0.65279
127.74 -6.62088 -11.8241 0.146313 -0.095344 -0.984633
229.873 15.1562 8.38199 0.00207517 0.90832 0.418271
58.6209 53.0295 -10.2005 -0.16332 0.464432 -0.870419
-45.5305 -44.4941 1.75418 0.363428 -0.905328 0.219773
18.854 38.827 5.99857 0.0505525 0.903268 0.426089
-62.5734 18.8007 0.807343 -0.386411 0.906776 -0.168651
65.2487 -54.9093 -5.21545 0.368229 -0.64402 -0.670557
45.3653 17.017 -21.9166 -0.0748151 0.691076 -0.718899
42.5248 34.0928 17.2402 0.160973 0.147766 0.975835
229.997 16.5488 4.59467 -0.00572058 0.995017 -0.0995383
184.905 -22.717 1.75418 0.034377 -0.953591 -0.299135
161.826 10.4221 -6.37415 0.155 0.620937 -0.768383
-135.479 -9.4614 2.50443 -0.573222 -0.640653 0.510862
-105.181 43.3768 7.43518 0.205123 0.897185 0.391131
210.382 -17.9829 -5.82047 0.197712 -0.667354 -0.718017
-12.3914 9.40564 18.7971 -0.347916 0.386465 0.854166
34.0033 47.4212 3.64783 0.233117 0.796406 0.558027
-43.1222 8.52841 -11.5015 -0.387644 0.0382492 -0.921015
228.104 8.52841 15.3947 0.0837383 0.656076 0.750035
105.962 7.58157 22.0545 0.0998018 0.183855 0.977874
23.5882 -49.2283 5.0799 0.134558 -0.586286 0.798851
283.967 -14.7033 17.8503 0.20304 -0.829156 0.520842
55.5763 41.6675 18.7971 0.0207454 -0.0276366 0.999403
294.382 -16.1258 15.9566 0.0385866 -0.91369 0.404576
227.157 3.79428 -6.97601 0.108776 0.251483 -0.96173
255.823 -9.4614 20.6908 0.317138 -0.423902 0.848369
127.74 -11.3551 12.9726 -0.0696868 -0.33399 0.939997
195.911 16.3815 4.59467 0.1421 0.987831 0.0632282
-6.7104 30.8166 -9.60782 -0.250744 0.643507 -0.723206
118.854 0.00692749 -12.4483 0.193642 0.327377 -0.924839
-1.44519 -58.6966 -0.139496 -0.136707 -0.989983 -0.0352749
240.412 -18.9297 10.7803 0.330382 -0.839428 0.43152
-72.8399 -34.079 -0.139496 -0.314624 -0.841106 -0.439947
207.273 -16.936 15.0098 0.0814861 -0.60983 0.788332
284.73 22.7309 15.9566 0.557615 0.350357 0.752539
265.977 7.58157 23.31 0.19241 0.37131 0.908354
111.643 -55.8561 11.4167 0.201336 -0.666074 0.718199
26.4287 36.9333 -16.8271 -0.340069 0.661405 -0.668503
95.5473 30.6624 22.5844 -0.00370924 0.432043 0.901846
51.9931 0.953766 -18.5105 -0.102022 -0.177074 -0.978895
-17.2909 28.4119 -5.82047 -0.277059 0.353343 -0.893525
300.063 3.79428 -15.3264 0.036193 -0.339267 -0.939994
-71.0949 -17.9829 7.78625 -0.616622 -0.440998 0.652148
93.6537 54.1082 7.43518 0.297311 0.85695 0.421003
-120.33 24.5876 -13.3951 -0.556576 0.421041 -0.716204
280.692 1.90057 -12.4483 0.0791172 0.494294 -0.865687
44.4185 54.9231 -6.46487 0.139195 0.816257 -0.560668
40.2699 -38.8131 -5.82047 -0.159888 -0.0535473 -0.985682
52.9399 2.84741 22.0656 -0.0370661 -0.242174 0.969525
309.036 -10.4082 -10.5546 0.511115 -0.56433 -0.6483
1.758 -0.939911 -12.4483 -0.398891 -0.249883 -0.882295
-146.554 6.63474 -2.97998 -0.933952 -0.241377 -0.263572
-41.7431 14.2094 -10.6477 -0.321204 0.514522 -0.795044
91.76 -44.4941 11.3468 0.275932 -0.568019 0.775381
62.6611 -37.8663 -1.08633 0.407854 -0.697757 -0.58889
-96.6593 -15.2892 9.32883 -0.38022 -0.501285 0.777269
-58.7861 -23.6639 -2.77267 -0.208997 -0.458546 -0.863745
109.75 -23.1746 -2.03317 0.0606536 -0.601475 -0.796586
178.868 15.1511 -1.08633 0.0467989 0.809919 -0.584672
109.75 -27.4512 0.398804 0.0391248 -0.657117 -0.752773
78.1718 45.4548 19.744 -0.0707947 0.542582 0.837015
-59.7329 17.0499 -2.81854 -0.31515 0.72632 -0.610852
-50.2646 -22.3417 6.48831 -0.275662 -0.677772 0.681642
50.9117 -17.9829 -3.92682 -0.0234506 0.602158 -0.798033
-36.0622 -42.6005 -7.52307 -0.469017 -0.652168 -0.595567
-115.596 37.1343 6.48831 -0.759695 0.632087 0.152736
233.785 16.103 7.22131 0.0124535 0.962563 0.270773
19.8009 -3.7804 12.695 0.0567619 -0.672693 0.737742
1.44395 1.90057 -13.3951 -0.496285 -0.5329 -0.685361
76.6107 34.0928 22.0554 -0.0734274 0.377246 0.923198
-10.4977 39.7738 -3.41101 -0.0616073 0.938564 -0.339562
298.169 -4.21335 24.4781 0.295141 -0.37858 0.877251
218.635 -17.9829 -4.41901 0.201642 -0.634373 -0.746265
-103.287 38.827 -14.5095 0.119014 0.684369 -0.719357
128.686 -3.7804 -10.6473 0.153484 0.126711 -0.979993
-103.287 -17.9829 -2.41232 -0.69767 -0.48827 -0.524261
-5.76357 27.2668 -14.342 -0.352601 0.656127 -0.667211
-123.171 -0.939911 7.85751 -0.533328 -0.193337 0.823518
103.122 8.51556 -13.3951 0.363978 0.579376 -0.729276
178.762 16.103 5.5415 0.129775 0.974629 0.182366
283.661 40.7207 17.8503 -0.263978 0.396511 0.879258
21.6945 -52.0688 4.20197 -0.0352405 -0.746143 0.664852
184.549 15.1867 -0.139496 0.182462 0.852132 -0.490489
-27.1991 -53.9624 -7.71414 -0.0175041 -0.956003 -0.292834
-44.8501 -22.717 -2.03317 -0.516078 -0.450342 -0.728598
70.9297 -55.6925 -6.7673 0.606011 -0.299709 -0.736835
19.8009 -31.7126 4.59467 -0.150265 -0.237896 0.959597
305.744 31.8924 -11.5015 0.363519 0.403346 -0.839741
35.4005 43.5611 9.32883 0.211188 0.976788 0.0358405
98.3878 -10.768 -11.5015 -0.0279213 -0.374513 -0.926801
200.646 -8.38824 16.9035 0.249132 -0.546172 0.799768
32.1097 -11.3551 8.77289 0.0552711 0.190373 0.980155
314.768 -2.83356 10.2756 0.985632 -0.0184946 -0.16789
175.081 15.9642 6.48831 0.206297 0.945617 0.251494
309.531 25.5714 -11.2776 0.338736 0.338229 -0.877986
-48.371 -51.122 -21.9166 -0.100254 -0.432347 -0.896117
-62.5734 -58.0615 -6.7673 0.217565 -0.975366 -0.0364153
199.062 -17.036 -5.82047 0.168162 -0.558956 -0.811967
16.3772 11.3689 -20.0229 -0.287404 0.333401 -0.89791
241.879 15.1562 11.2225 -0.0266285 0.860697 0.508421
-94.9349 -30.2917 -6.7673 -0.151877 -0.63538 -0.757116
182.656 17.36 3.64783 0.134678 0.988685 -0.0660649
165.613 -21.7702 8.5715 -0.00906068 -0.815324 0.578934
159.932 16.5846 2.70099 0.150816 0.970134 -0.189985
162.772 17.0415 0.807343 0.0722373 0.890773 -0.448671
305.744 -14.1955 14.7696 0.515879 -0.758024 0.399085
-123.171 -26.5043 6.01303 -0.433125 -0.569398 0.698705
-37.009 0.00692749 -14.586 -0.206702 -0.0266254 -0.978041
122.059 4.74109 16.4652 0.0612546 0.356986 0.932099
203.486 0.00692749 16.708 0.245906 0.249248 0.9367
40.6311 -22.0276 -6.7673 -0.0900875 -0.0322433 -0.995412
290.595 5.6879 -16.0665 0.0336552 0.187655 -0.981658
-59.7329 -33.1322 -1.75964 -0.149132 -0.656889 -0.739092
54.1487 -58.6966 -2.97998 0.246682 -0.94605 -0.21009
-17.1255 -42.6005 -13.4679 -0.126201 -0.421234 -0.898129
61.4614 37.8802 -22.387 -0.0553163 0.314205 -0.947742
246.093 -4.72723 21.3906 0.293296 -0.09912 0.950869
-102.34 11.3689 -14.9512 -0.044547 0.313782 -0.94845
-146.841 8.48886 -8.66098 -0.697465 -0.17012 -0.696133
171.294 14.2094 9.74332 0.135938 0.705355 0.695698
-85.2974 -52.7985 -5.82047 -0.711955 -0.664441 -0.227241
12.2262 -21.7702 7.75781 -0.029304 -0.31413 0.948928
-88.345 46.4016 -4.87366 -0.0450269 0.879589 -0.473599
-36.0622 -26.5043 4.26877 -0.158641 -0.764554 0.624732
112.59 4.74109 -11.7535 0.0807699 0.508847 -0.857059
125.846 10.4221 15.6339 0.022625 0.191276 0.981275
268.09 21.784 -6.7673 -0.0517269 0.167454 -0.984522
205.38 -11.7559 -7.71414 0.0816157 -0.272056 -0.958814
102.175 8.52841 22.3334 0.0661254 -0.00644984 0.99779
296.276 46.4016 0.679504 0.220056 0.762761 -0.608088
300.27 2.84741 25.4249 0.515968 0.150193 0.843338
-109.915 12.3157 -18.5345 -0.0754358 0.0198942 -0.996952
258.402 12.3157 18.5701 0.307583 0.768573 0.56097
195.911 12.2521 9.32883 0.220934 0.769311 0.599457
-93.8189 11.3689 -11.7891 0.105149 0.687666 -0.718372
294.382 36.9333 -9.6911 -0.283156 0.455833 -0.843824
317.106 4.74109 -11.8303 0.713643 -0.0299799 -0.699868
-112.33 -50.1751 0.807343 -0.859636 -0.309567 0.406441
-135.479 -4.72723 4.00546 -0.712526 -0.117944 0.691662
265.977 26.5182 -4.44308 -0.275378 0.322167 -0.905746
-84.3505 11.5361 11.2225 -0.297589 0.783853 0.544991
97.441 -12.3019 13.1531 -0.102012 -0.367349 0.924472
315.212 28.4119 10.9791 0.926383 0.36841 -0.0780304
-25.647 -12.8695 10.2756 -0.00202338 -0.485554 0.874204
-18.0724 23.6391 -8.66098 -0.220996 0.880882 -0.418579
36.8438 -62.4839 7.03149 -0.0372928 -0.382797 0.923079
-110.731 40.7207 -12.4483 -0.26083 0.68586 -0.679384
103.819 -3.7804 -13.3951 -0.196121 -0.354851 -0.914121
-157.257 5.10004 6.48831 -0.31243 0.706114 0.635445
23.5882 14.5559 -20.9698 -0.174636 0.487774 -0.855324
-96.6593 37.3279 -7.71414 0.358609 0.879154 -0.313827
29.2692 -1.70209 17.8503 -0.0141134 -0.472708 0.881106
99.3347 -57.7498 2.41333 0.0278511 -0.377492 -0.925594
286.807 46.6945 6.48831 -0.154166 0.965411 0.210271
-72.9886 53.0295 5.99359 0.25037 0.614011 0.748535
85.1322 -42.6005 12.7434 0.255861 -0.304432 0.917527
283.02 29.5171 -2.97998 0.656068 0.341899 -0.672815
302.272 -14.1955 17.8503 0.408614 -0.71544 0.566728
279.233 34.0928 -5.88278 0.519288 -0.232265 -0.822431
-135.479 -32.1853 -6.30533 -0.271255 -0.734021 -0.622602
17.9072 -26.5043 5.05945 -0.229118 -0.199853 0.952661
38.7375 -2.39294 -17.1825 0.0431508 -0.32101 -0.946092
110.293 21.784 17.8503 0.428342 0.249341 0.868534
-105.181 38.827 15.1442 -0.0368683 0.556008 0.830359
263.136 20.8372 -2.85709 -0.28951 0.402224 -0.868562
-130.745 -7.56772 4.35321 -0.608332 -0.476815 0.634491
79.1063 14.2094 23.5313 -0.128588 -0.207122 0.969828
-134.976 16.103 -3.92682 -0.629958 0.0522618 -0.774869
97.441 -4.72723 17.3957 -0.134071 -0.349571 0.927267
100.651 -56.8029 2.70099 0.149689 -0.249401 -0.956761
90.8132 36.9333 17.9192 -0.299305 0.532076 0.79203
255.562 9.47522 -5.7352 0.348513 0.585374 -0.732036
-104.234 -33.1322 -2.83282 -0.588647 -0.773663 0.234393
-102.787 36.9333 -15.2888 0.104146 0.591933 -0.79923
193.071 0.953766 16.3674 0.133219 0.170841 0.976251
183.974 1.90057 16.9035 0.0173093 0.227478 0.973629
283.02 25.5714 -6.15021 0.352527 0.451189 -0.819849
86.079 -1.88675 18.4083 0.0104255 -0.454487 0.890693
-36.0622 -30.2917 -4.47034 -0.384206 -0.372529 -0.844753
-108.198 -50.1751 4.59467 0.925305 -0.170229 0.338869
18.854 19.0074 21.6376 -0.262302 0.670914 0.693594
212.263 15.1562 2.70099 0.22376 0.930141 -0.291152
88.2314 -54.9093 11.2225 0.0917105 -0.401926 0.911068
287.754 40.7207 -6.00812 -0.0082136 0.548193 -0.836312
-8.23688 30.3055 -9.60782 -0.368188 0.576429 -0.729498
166.672 18.9435 4.59467 0.0578078 0.997329 0.0446542
33.0565 -43.0867 1.75418 0.0525335 -0.574759 0.816635
-148.438 20.8372 -20.9698 0.216586 0.350693 -0.911101
42.9096 48.2953 -10.5546 -0.194302 0.539407 -0.819321
17.9072 8.08893 18.7971 -0.20088 -0.390328 0.898494
180.762 -0.939911 16.641 0.0241211 0.344061 0.938638
143.836 -18.9297 -4.59146 0.139023 -0.742414 -0.655358
-7.65723 20.8372 16.2016 -0.185159 0.231695 0.955004
41.578 35.9865 17.1587 0.263536 -0.0946244 0.959997
33.0565 -3.7804 -16.478 -0.0577445 -0.347407 -0.935935
-67.3076 14.2094 -3.34503 -0.517474 0.621926 -0.587731
285.86 7.78851 -9.60782 0.0112453 0.942606 -0.333718
-10.1432 -3.7804 15.0098 -0.237476 -0.269382 0.933295
94.902 37.8802 -13.3951 0.36399 0.756291 -0.543632
38.7375 -3.87827 12.1693 -0.0497362 -0.482768 0.874335
16.0135 -9.4614 9.6795 0.0215012 0.0204769 0.999559
-68.2544 -45.441 -4.20557 -0.36855 -0.906973 -0.203889
-119.916 -16.0892 5.5415 -0.5937 -0.439281 0.674205
13.4324 -45.441 -9.60782 -0.0199301 -0.399917 -0.916335
93.0159 -34.079 3.64783 0.139163 -0.662767 -0.735781
-69.6994 -27.4512 -3.92682 -0.359503 -0.397833 -0.844089
-24.3428 -17.036 6.48831 -0.22713 -0.540193 0.810311
-69.2012 8.52841 9.66647 -0.393879 0.319951 0.861679
14.1199 3.79428 16.383 -0.0668311 0.17892 0.981591
125.846 15.7934 14.063 0.191581 0.607665 0.77074
95.0698 53.0295 7.43518 0.49484 0.778919 0.385253
83.2385 1.90057 20.1393 -0.0139497 -0.223156 0.974683
-19.0192 -18.9297 -5.11984 -0.351802 -0.046338 -0.934927
233.785 -21.7702 10.6821 0.281375 -0.859708 0.426298
316.932 4.74109 15.0098 0.995164 -0.0954245 -0.0232832
218.635 -7.39896 19.744 -0.0252071 -0.446177 0.89459
283.02 44.3779 14.063 0.00488595 0.812816 0.582499
-114.649 3.72382 -15.2888 -0.164803 -0.563665 -0.809396
69.0361 -2.17496 17.8503 0.0803209 -0.663439 0.743907
167.507 -1.17429 15.9566 0.220708 0.44859 0.866057
5.59842 -39.1295 -8.66098 -0.356848 -0.150335 -0.921986
158.985 -19.8765 7.84326 0.131524 -0.818514 0.559228
172.241 0.953766 -8.09579 0.242051 -8.48225e-05 -0.970264
269.764 -7.00238 22.5844 0.143872 -0.486502 0.861752
82.2917 30.5286 -20.9698 -0.0914482 -0.214673 -0.972395
105.595 21.784 20.6908 0.3456 0.110219 0.931886
27.3755 -8.51456 -13.5841 -0.0188337 -0.556265 -0.830791
23.5882 -54.3767 -3.92682 -0.0880067 -0.992599 -0.0836794
102.175 32.1992 20.6492 0.313315 0.379395 0.870571
-31.91 17.0499 -11.5015 -0.388063 0.552803 -0.737439
12.2262 -59.3065 2.70099 0.103214 -0.926554 0.361724
182.656 -2.34543 18.7971 0.00889941 0.366832 0.930245
-74.8822 42.6143 -7.66144 0.613077 0.293921 -0.733312
93.6537 39.7738 18.4895 -0.313871 0.188275 0.930611
-42.3949 -18.9297 8.38199 -0.344929 -0.50181 0.793229
-119.383 -12.3051 2.70099 -0.93524 -0.354006 0.00220472
121.112 19.1848 14.063 0.295749 0.59777 0.745119
-106.789 -17.9829 -1.08633 -0.575605 -0.607391 -0.547499
26.4287 -9.4614 -12.5402 -0.057442 -0.576833 -0.81484
114.484 -38.8131 9.84692 0.199657 -0.625 0.75466
-104.593 -10.4082 9.32883 -0.59013 -0.432088 0.681943
316.159 21.784 -0.406555 0.948686 -0.0389254 0.313814
-66.3608 -19.8765 -4.51102 -0.380776 -0.409741 -0.828928
-133.162 23.6777 -3.92682 -0.844697 0.0128224 -0.535091
5.59842 -2.83356 15.8714 -0.190167 -0.374951 0.90733
266.924 38.6569 8.38199 -0.351643 0.84648 0.399775
113.933 23.6777 15.0098 0.395669 0.609412 0.687069
-16.4192 -37.8663 -9.60782 -0.25138 -0.460955 -0.851075
244.2 7.58157 -7.2171 0.0331575 0.441889 -0.896457
-13.3382 -49.8185 -18.1293 0.0590003 -0.630631 -0.773837
36.8438 7.34619 -20.9698 0.207682 -0.591939 -0.778766
-82.4569 55.6823 -4.87366 -0.437718 0.667995 -0.601818
311.425 -5.67404 -12.163 0.528836 -0.352699 -0.771969
63.7524 50.189 14.063 -0.287211 0.916435 0.27867
268.817 -17.4635 -1.08633 0.185647 -0.786671 -0.588799
-126.433 27.465 3.64783 -0.55483 0.538615 0.63408
58.6209 26.5182 24.9227 -0.0779124 0.777969 0.623454
16.9604 18.9435 -16.7721 -0.38912 0.0450245 -0.920086
68.0892 24.6245 25.9492 0.0843605 0.547188 0.832748
-50.2646 -13.2487 -7.73227 -0.332802 -0.492007 -0.80447
46.7046 29.3587 19.744 -0.296022 0.633673 0.714724
-146.673 13.2626 -16.2356 -0.43692 0.0103465 -0.899441
313.318 -5.45099 -8.66098 0.737998 -0.397723 -0.545138
200.646 10.4221 -4.38867 0.136607 0.683439 -0.717112
30.216 -34.6933 -3.92682 -0.211518 -0.0814708 -0.973973
84.1854 38.827 -20.7521 0.0931488 0.669641 -0.736821
202.539 11.3689 12.4078 0.105458 0.784018 0.611714
258.402 3.79428 -8.78488 0.215357 0.214421 -0.952704
318.866 -7.56772 4.59467 0.970219 -0.164778 0.177548
-107.074 13.3303 -17.1825 0.153987 0.0841533 -0.984483
24.0233 18.9435 -18.1293 0.00910559 0.518866 -0.854807
283.967 7.44275 -10.5546 -0.039545 0.861248 -0.506645
99.3347 9.74493 22.5844 0.0894858 -0.0862614 0.992246
-34.3123 18.9435 6.48831 -0.570954 0.530428 0.626624
11.8222 37.8802 -8.66098 0.0511588 0.734513 -0.676663
-54.9988 0.508606 -12.4483 -0.304472 0.106293 -0.946572
210.687 16.103 5.5415 0.172913 0.970989 0.165172
88.9195 -22.717 -1.41779 -0.0862947 -0.416358 -0.905096
271.658 40.671 -1.08633 -0.193802 0.843575 -0.500822
-135.966 -35.0258 -2.03317 -0.685805 -0.683786 -0.249216
69.0189 -53.0156 -1.08633 0.44794 -0.634159 -0.630232
-58.7861 11.3526 -8.66098 -0.289845 0.61187 -0.735938
265.977 13.7231 -2.97998 0.749099 0.477747 -0.458921
-118.436 -7.04858 -3.92682 -0.564035 -0.345078 -0.750191
9.38573 -2.54584 -15.2888 -0.168865 -0.433335 -0.885271
-61.0621 -33.1322 2.70099 -0.354415 -0.877913 0.321961
-26.5939 -10.8395 -8.66098 -0.329996 -0.355153 -0.874625
92.7068 -35.9727 4.01797 0.120281 -0.695898 -0.707996
231.891 13.2626 10.9958 0.00923047 0.837386 0.546535
-79.9712 -54.9093 -20.9698 -0.227383 -0.222327 -0.948086
85.1322 33.146 21.5469 0.213489 0.639868 0.738235
-11.4446 33.146 5.74039 -0.486917 0.542696 0.684393
160.879 -19.1416 8.38199 0.0795562 -0.770367 0.632618
193.071 -1.88675 -9.7034 0.128732 0.231266 -0.964336
300.474 0.953766 26.3718 0.467321 -0.0543252 0.882417
115.231 39.7738 -2.03317 0.865593 0.440502 -0.238132
98.902 32.1992 -19.0761 0.460186 0.519011 -0.720317
116.378 -46.3878 4.18442 -0.0118935 -0.474908 -0.879955
30.216 17.9967 25.7433 -0.212095 0.0673063 0.974928
25.2261 -40.7068 -2.03317 -0.553301 -0.366346 -0.748096
-81.9116 -53.9624 -20.0229 -0.281448 -0.220173 -0.933976
309.531 -3.7804 -14.1049 0.313138 -0.206741 -0.926932
61.4614 -44.4941 3.38147 -0.387017 -0.799763 0.458907
123.952 4.74109 16.6283 0.0738563 0.296378 0.952211
10.3326 20.4059 16.9035 -0.12231 0.718952 0.684214
275.445 13.021 17.8503 0.673 0.641884 0.3675
-156.31 4.65558 -1.08633 -0.795278 0.553981 -0.246248
276.626 -15.1424 -2.97998 0.151809 -0.722461 -0.67454
79.4512 -12.9119 -6.7673 0.0390492 -0.653652 -0.755787
218.635 -4.72723 -10.0789 0.148413 0.0876988 -0.985029
54.5158 -49.2283 -3.92682 0.340823 -0.939953 0.0180861
262.19 -14.0005 -4.87366 0.100109 -0.612384 -0.784197
244.425 14.2094 15.0098 -0.152718 0.80481 0.573549
-27.0504 19.8904 13.1161 -0.397382 0.292847 0.869671
268.283 -7.56772 21.6376 0.0877211 -0.519764 0.849794
-115.596 -4.19641 -4.87366 -0.692638 -0.346971 -0.632348
310.012 21.784 23.5313 0.557417 0.308349 0.770848
29.2692 5.6879 17.9929 -0.165828 0.229262 0.959135
289.648 22.3518 -8.66098 -0.125681 0.647534 -0.751601
-66.3608 42.8648 -2.97998 0.772508 0.587796 -0.240264
-12.3914 -14.8634 8.38199 -0.265143 -0.523375 0.809801
120.165 -5.84875 15.9566 0.0704635 -0.559069 0.826121
271.658 -6.97855 -11.5015 -0.0377011 -0.366051 -0.929831
191.177 10.213 -3.92682 0.289174 0.614254 -0.734214
20.7477 -28.398 -3.17728 -0.162 -0.124831 -0.978863
196.964 0.953766 -9.60782 0.209036 0.169726 -0.963067
-105.797 -45.441 -5.82047 -0.114702 -0.625624 0.771647
-37.9558 -34.079 2.54413 -0.150492 -0.809285 0.567811
212.954 -21.8411 -1.08633 0.151995 -0.808484 -0.568551
276.392 36.9333 14.7736 0.109473 0.208395 0.971899
288.701 -12.3019 23.0677 0.0880157 -0.554386 0.827592
95.5473 16.2592 21.6376 0.137096 0.433899 0.89047
-7.06229 32.1992 -8.66098 -0.170788 0.581272 -0.795584
105.016 0.953766 19.654 -0.199194 -0.330216 0.922648
-100.135 -41.6536 -8.66098 -0.0298614 -0.993238 -0.112189
272.571 -14.1955 -5.82047 0.243724 -0.640194 -0.728526
-11.4446 40.3088 -2.03317 -0.115617 0.986087 -0.119436
276.392 -8.51456 -9.80099 0.116284 -0.570444 -0.813063
-19.966 -12.8486 7.43518 -0.358636 -0.600343 0.714821
-111.015 -44.4941 -8.66098 -0.947752 -0.318746 0.0129315
69.9829 -16.0892 9.83798 0.0307736 0.184932 0.982269
180.762 -2.24042 17.8503 0.0194357 0.412162 0.910904
151.41 -23.6639 0.61676 0.0426208 -0.960036 -0.276613
212.954 9.47522 -3.06906 0.133949 0.57939 -0.803968
-139.267 -27.527 -7.71414 -0.646749 -0.724952 -0.236981
-77.0894 -48.2815 -2.97998 0.0576698 -0.88751 -0.457166
-100.447 13.7225 -13.3951 -0.0511471 0.511579 -0.857712
130.58 -17.1697 10.2756 0.0537387 -0.527573 0.847808
297.222 -15.1424 -7.08383 0.190212 -0.848149 -0.494431
-54.9988 -7.56772 -12.0464 -0.206176 -0.481311 -0.851957
93.6537 55.5507 4.59467 0.321896 0.877498 0.355501
43.4716 -21.7702 5.5813 0.191508 -0.0408863 0.980639
44.4185 10.7226 -20.9698 0.0604051 -0.73086 -0.679849
-52.1583 -28.398 -3.43182 -0.205267 -0.43075 -0.878817
289.648 0.953766 28.7878 0.0281423 0.0389129 0.998846
-140.214 10.4221 -7.0069 -0.489937 -0.036739 -0.870983
-114.649 24.6245 14.4976 -0.299114 0.427367 0.853163
107.856 -48.9653 11.2225 0.186761 -0.347965 0.918717
153.304 -1.67758 15.9566 0.240227 0.29334 0.925334
302.903 27.465 -13.4682 -0.0384547 0.241953 -0.969526
306.691 -7.40009 20.6908 0.474241 -0.400462 0.784044
-89.0847 14.3787 6.48831 -0.372075 0.926231 -0.0604635
83.2385 48.5637 15.9566 -0.0268091 0.986207 0.163331
-53.5036 -41.6536 5.5415 -0.367384 -0.659185 0.656128
163.719 -22.7583 6.48831 -0.0210726 -0.931462 0.363228
39.3479 44.508 15.0098 -0.314258 0.906792 0.281016
-116.543 15.1562 -15.5653 -0.397149 0.164953 -0.902808
43.892 42.6143 -13.3951 -0.296572 0.838713 -0.456734
313.439 -7.56772 15.0098 0.835967 -0.446381 0.319222
180.04 15.1562 8.38199 0.15794 0.857156 0.490244
32.1097 -53.0156 -5.54028 -0.0923637 -0.954956 -0.282006
33.0565 -13.0098 8.38199 0.00783677 0.244712 0.969564
2.60104 -33.1322 -4.87366 -0.302569 -0.237578 -0.923043
-57.8393 -20.8234 6.98611 -0.430513 -0.505926 0.747461
297.876 39.7738 -5.82047 0.130314 0.745417 -0.653736
-21.8597 -42.6005 -11.8123 -0.338766 -0.518452 -0.78514
70.9297 -1.88675 -16.9651 0.121015 -0.261983 -0.957455
41.2193 43.5611 -10.5546 -0.3347 0.746011 -0.575711
97.441 10.1196 -18.1293 0.345489 0.228792 -0.910105
-16.1787 -22.717 -5.21625 -0.419526 -0.182964 -0.889113
4.65157 34.0178 10.2756 -0.581153 0.809948 0.0790358
-97.6062 -5.08066 13.1161 -0.391475 -0.304494 0.868349
37.7907 -40.7068 -1.71722 0.114435 -0.914602 0.387824
10.3326 41.6675 6.24948 -0.0953656 0.871348 0.481309
11.2794 -44.9345 -1.08633 -0.689496 -0.438511 0.576457
26.4287 -29.3448 6.11133 -0.0806295 -0.27289 0.95866
74.7171 10.4221 -18.927 0.04127 -0.554914 -0.830883
171.294 -16.0892 12.6435 0.0656549 -0.482219 0.873587
178.868 1.57587 15.0098 0.11435 0.103794 0.988003
155.198 -6.62088 19.5719 0.0569214 -0.188695 0.980385
262.19 5.6879 21.781 0.387104 0.409382 0.82617
104.069 21.784 -17.0934 0.448376 0.165229 -0.878441
-74.5368 40.7207 1.75418 0.818266 0.559899 -0.130205
176.975 7.58157 15.5565 0.102845 0.326313 0.93965
-0.329834 -37.8663 -6.7673 -0.285037 -0.403521 -0.869439
178.868 -14.6662 15.0098 0.0448463 -0.639044 0.767862
-22.8065 4.74109 18.5784 -0.204431 -0.0734683 0.97612
-12.3914 -11.8482 10.2756 -0.290052 -0.49958 0.816266
-5.76357 -35.5019 -7.71414 -0.241496 -0.384594 -0.890936
22.6414 24.6245 -16.5516 0.220651 -0.105614 -0.969618
248.934 7.58157 22.1796 0.0344403 0.402048 0.914971
59.5678 54.9231 -9.93036 -0.0818715 0.562184 -0.82295
118.271 -2.02039 18.7971 -0.0065942 -0.310775 0.95046
-146.044 14.2094 -2.03317 -0.841991 0.539033 0.0222353
-72.2964 -60.5903 -2.03317 -0.679843 -0.726478 -0.100214
-30.3812 -55.8561 7.3299 -0.318812 -0.568281 0.758562
247.04 19.377 2.70099 0.20428 0.890099 -0.407422
301.957 42.775 15.9566 0.185665 0.904463 0.384026
143.836 12.3157 12.872 0.0906545 0.688253 0.719785
-43.6368 -4.36343 -13.3951 -0.253139 -0.29799 -0.920393
117.324 -31.2385 8.12909 0.340304 -0.509215 0.790502
217.689 10.9118 -2.97998 0.137438 0.646915 -0.750074
59.5678 33.9308 -20.0229 -0.00226496 -0.355364 -0.934725
97.441 1.90057 17.32 -0.0710341 -0.192353 0.978751
79.4512 -23.6639 0.349396 0.229808 -0.262515 -0.937163
-54.3581 -53.0156 -15.2888 -0.222711 -0.52778 -0.819663
175.081 15.819 1.75418 0.140249 0.905861 -0.399683
-6.03246 30.3055 11.2225 -0.320521 0.780624 0.536556
275.445 39.1825 -4.87366 -0.0933282 0.595527 -0.797896
123.005 -17.9829 -5.47278 -0.145164 -0.695363 -0.703845
289.606 37.8802 20.6908 -0.298602 0.182961 0.936676
-104.237 -42.6005 -12.4483 -0.0837004 -0.643139 -0.761161
-3.8699 -17.036 5.88538 -0.54082 -0.381741 0.749525
283.02 -5.67404 -15.4409 0.0179809 -0.287356 -0.957655
76.6107 -28.0428 10.2756 -0.0751761 -0.00098395 0.99717
-78.6696 59.3971 -2.97998 0.0634656 0.957007 -0.283035
85.5273 -41.6536 5.5415 0.165937 -0.699623 -0.694977
-74.1626 -0.939911 -12.4483 -0.243499 0.0703699 -0.967345
87.9727 -37.8663 4.10648 0.0879112 -0.680594 -0.727368
311.975 27.465 -9.60782 0.4918 0.433151 -0.755323
30.216 -32.1853 -3.64886 -0.184069 -0.0899879 -0.978785
84.1854 -21.7702 -0.411255 -0.0921798 -0.266605 -0.959388
-155.363 3.30243 -2.97998 -0.780724 0.399637 -0.480375
36.8438 46.9981 4.59467 0.0217708 0.778916 0.626751
301.957 21.784 29.1637 -0.0290237 0.16335 0.986141
128.686 0.00692749 -8.50613 0.095144 0.0552014 -0.993932
128.211 16.103 11.2225 0.184451 0.806994 0.561015
112.086 17.9967 15.9566 0.169068 0.185701 0.967952
200.646 14.3296 4.59467 0.189025 0.981966 -0.00351361
251.774 8.22211 -6.7673 0.242743 0.488245 -0.838267
-112.755 -48.5614 0.807343 -0.81084 -0.178074 0.55752
-133.586 -1.88675 4.23856 -0.777583 -0.0889409 0.622458
27.0944 -50.1751 -18.1293 0.0950066 0.156493 -0.983099
14.1199 34.0928 -14.7672 -0.127219 0.812537 -0.568858
248.934 4.14938 23.5313 0.0412309 0.233214 0.971551
308.584 -14.1955 -4.4281 0.440642 -0.801859 -0.403555
317.106 7.82468 -2.97998 0.663419 -0.219404 0.715358
318.642 -0.939911 -5.82047 0.963403 -0.268051 0.00199401
69.3777 22.7309 27.3186 0.0287469 0.194608 0.98046
65.2487 9.18527 -19.0761 0.126577 -0.272935 -0.953669
313.771 10.4221 -13.3951 0.61763 0.236958 -0.749923
-9.00008 13.2626 -16.2356 -0.153936 0.200538 -0.967517
73.3219 -32.1853 7.43518 -0.283 -0.485877 0.826943
69.9829 -12.3019 9.72891 0.110371 0.296607 0.9486
-31.328 7.12964 14.063 -0.34953 0.448117 0.822812
3.70474 -6.12195 11.2225 -0.263398 -0.41914 0.868875
216.742 2.29346 16.9035 0.284861 0.325783 0.90151
-156.31 -1.87189 4.59467 -0.333647 -0.903253 0.26984
263.136 34.0928 8.17136 -0.648252 0.539144 0.537674
57.6741 52.0826 4.24371 -0.108022 0.725654 0.679528
146.676 -21.8496 4.59467 0.0437892 -0.977822 0.204809
103.122 42.6143 -9.98389 0.179587 0.498631 -0.848007
49.0655 28.4119 -20.0229 -0.303675 0.11096 -0.946293
-122.055 7.58157 8.38199 -0.851288 -0.524492 0.0147403
-71.0949 40.7229 -4.87366 -0.212186 0.976228 0.0442156
279.233 21.2862 -3.92682 0.542295 0.632244 -0.553339
176.028 -4.97943 19.744 0.0528922 0.211214 0.976008
55.7804 -5.23737 -15.2888 -0.00263824 -0.543868 -0.839167
31.1102 22.7309 -18.1293 -0.46731 0.056527 -0.882284
27.3755 -2.83356 -16.537 -0.0681379 -0.297236 -0.95237
258.402 13.2626 16.2018 0.486965 0.810379 0.325807
196.858 -18.9297 11.776 0.0788187 -0.707595 0.702209
-77.9582 -39.76 3.64783 0.00735165 -0.842317 0.538932
55.7804 -21.7702 -4.69138 -0.0161637 0.12362 -0.992198
206.634 -11.3551 -8.66098 0.0592091 -0.273851 -0.959948
302.903 -16.5951 12.1693 0.378164 -0.885307 0.270598
56.7273 -68.8149 10.2756 0.477543 -0.817597 0.321694
299.116 -16.1874 -3.92682 0.210708 -0.853124 -0.477265
27.3755 36.6808 17.8503 -0.195631 0.14385 0.97007
0.864258 0.495636 -12.4483 -0.477372 -0.287913 -0.830194
161.826 0.953766 14.6261 0.441853 0.260253 0.858507
170.347 15.1562 -0.540558 0.219491 0.731474 -0.645577
-125.064 17.9967 6.34634 -0.918449 0.373363 0.130582
-72.5225 -28.398 4.59467 -0.290419 -0.812032 0.506222
40.6311 32.1992 -16.5345 0.403881 0.0470594 -0.913601
-109.695 -6.62088 9.32883 -0.691129 -0.173284 0.701651
78.5044 -44.4941 7.89081 0.264065 -0.655346 -0.707667
27.3755 41.6675 -12.7422 -0.168842 0.740556 -0.650438
315.212 5.6879 -13.7893 0.569812 -0.00853139 -0.821731
81.6165 -35.9727 4.59467 0.0658772 -0.714543 -0.696483
190.23 11.3689 12.6321 0.139258 0.736088 0.662406
134.367 -0.360931 15.9566 0.0508441 0.331075 0.942234
-85.2974 -9.4614 14.7484 -0.21577 -0.397161 0.892024
110.697 -16.7867 -6.7673 0.0109632 -0.649193 -0.760545
-110.862 -3.7804 -7.51343 -0.777554 -0.38632 -0.496152
41.136 -32.1853 -3.92682 -0.24451 -0.05421 -0.96813
8.43889 37.8802 -9.62201 -0.156388 0.660634 -0.734238
92.7068 7.45026 -20.0229 0.0668929 -0.222204 -0.972703
-83.4037 -25.5575 -3.39865 -0.220165 -0.440387 -0.870395
84.1854 57.7636 -4.75156 -0.241224 0.873321 -0.423228
55.7804 41.6675 -16.1786 0.226216 0.951429 -0.20883
-116.543 27.8045 11.2225 -0.537517 0.549215 0.639874
-116.998 4.74109 12.1693 -0.543407 -0.746261 0.384453
177.922 7.58157 -7.27969 0.16295 0.539627 -0.825984
112.876 41.6675 4.59467 0.677576 0.578725 0.453837
105.016 43.238 -9.60782 0.235143 0.49399 -0.837067
47.259 11.3689 20.9251 -0.115444 -0.079639 0.990116
