0.25433293 0.56348825 0.12995024 -0.00097781 -0.00020203 -0.00016839
0.35177132 0.34998628 0.10575937 0.00079418 -0.00093204 -0.00021933
0.31240544 0.28208521 0.56721085 -0.00012291 -0.00131320 0.00015874
0.39716703 0.29115987 0.50009573 0.00009367 -0.00091533 -0.00000856
0.46309963 0.58723694 0.38570714 0.00017262 0.00028373 -0.00007128
0.39647651 0.51632947 0.68718332 -0.00037673 0.00008852 0.00062182
0.61258239 0.48285368 0.34900206 0.00002649 -0.00047642 -0.00078933
0.31240544 0.28344759 0.42720285 -0.00013828 -0.00124022 -0.00040017
0.37933797 0.51762670 0.10612135 0.00087300 -0.00030564 -0.00036596
0.37954545 0.47683614 0.89743423 0.00075852 -0.00051071 0.00041320
0.25597361 0.65721118 0.19026184 -0.00071356 0.00042658 -0.00038557
0.30519518 0.57433027 0.68328851 -0.00009202 0.00023403 0.00020299
0.37968919 0.39920196 0.89933050 0.00056907 -0.00037902 0.00036097
0.48212925 0.65348053 0.40522879 0.00051191 0.00076969 -0.00034795
0.31240544 0.59275150 0.92244732 -0.00020609 0.00056905 0.00147346
0.31240544 0.66777009 0.86971515 -0.00033953 0.00123745 0.00094569
0.47191462 0.65601254 0.60545200 0.00037219 0.00086255 0.00046342
0.31240544 0.70844591 0.44118538 -0.00029198 0.00109300 -0.00025865
0.35672906 0.39879590 0.14286417 0.00003069 -0.00024920 0.00051610
0.37849608 0.59565455 0.11973148 0.00100616 -0.00009651 -0.00054690
0.31240544 0.44245565 0.04712893 -0.00011156 -0.00039012 -0.00133053
0.25402370 0.50378180 0.11857738 -0.00096943 -0.00041846 -0.00015291
0.19739862 0.60876948 0.63755196 -0.00056790 0.00078879 0.00077788
0.61524898 0.51632947 0.64658433 -0.00006807 0.00044636 0.00058566
0.31240544 0.41361791 0.04595025 -0.00003595 -0.00058108 -0.00134423
0.31240544 0.31942645 0.35536876 -0.00024323 -0.00097894 -0.00105901
0.49490860 0.60309666 0.58186233 0.00004577 -0.00001091 0.00038111
0.74713999 0.57988256 0.50009573 0.00021051 0.00138526 -0.00000856
0.18662828 0.28713137 0.50009573 -0.00126759 -0.00181282 -0.00000541
0.84595877 0.36893043 0.50009573 0.00187720 -0.00076537 -0.00000392
0.62995780 0.28541884 0.50009573 0.00009429 -0.00141847 -0.00001497
0.37866142 0.58651119 0.88314199 0.00099895 -0.00014252 0.00055927
0.34906441 0.51632947 0.69012314 -0.00021540 0.00021191 0.00055179
0.61258239 0.47222468 0.34760013 0.00005900 -0.00025895 -0.00083782
0.37957311 0.46619678 0.10231980 0.00074004 -0.00044512 -0.00037092
0.85707241 0.51632947 0.52546418 0.00165467 0.00091127 0.00014182
0.31240544 0.44810295 0.69351184 -0.00025695 0.00042489 0.00080942
0.61258239 0.37062842 0.64748651 0.00021587 -0.00036128 0.00139554
0.31800047 0.51632947 0.69179201 -0.00014658 0.00028252 0.00059606
0.25390092 0.45404723 0.88612956 -0.00090130 -0.00065858 0.00023461
0.36477891 0.39920196 0.86938226 0.00002686 -0.00024984 -0.00079040
0.31240544 0.71065956 0.24098039 -0.00020821 0.00122405 -0.00029222
0.31240544 0.52788049 0.18033093 -0.00003129 -0.00008532 0.00014055
0.37511048 0.62260151 0.65573537 -0.00008636 0.00009600 0.00011246
0.86600339 0.42315909 0.50009573 0.00197845 -0.00000076 -0.00000314
0.37799457 0.62120092 0.87236619 0.00104968 0.00010098 0.00072260
0.14442413 0.51632947 0.44419798 -0.00101571 -0.00061135 -0.00052862
0.22370261 0.51632947 0.33066592 -0.00042830 -0.00016229 -0.00089958
0.31240544 0.39183077 0.04974182 -0.00000491 -0.00084751 -0.00124411
0.81602466 0.55501580 0.50009573 0.00092204 0.00144441 -0.00000052
0.31240544 0.38222906 0.94369644 -0.00001376 -0.00101239 0.00106342
0.40156871 0.72697711 0.50009573 0.00017271 0.00145910 -0.00000829
0.36922926 0.28457850 0.50009573 0.00001112 -0.00103972 -0.00001285
0.37943959 0.50060147 0.89572448 0.00082991 -0.00042126 0.00040322
0.61258239 0.33098260 0.62483728 0.00021223 -0.00106554 0.00122973
0.25388002 0.43028837 0.11333431 -0.00089353 -0.00049492 -0.00013066
0.36103562 0.51632947 0.68972480 -0.00034016 0.00017173 0.00056707
0.24402869 0.27102113 0.50009573 -0.00007298 -0.00160059 -0.00000889
0.37710270 0.64879274 0.85795027 0.00104719 0.00034413 0.00092647
0.16691746 0.51632947 0.38137853 -0.00107747 -0.00046786 -0.00070911
0.36616910 0.63662046 0.31897062 0.00012946 -0.00006738 0.00003454
0.13339141 0.51997060 0.50551021 -0.00128074 0.00034791 0.00013821
0.31240544 0.70576656 0.42709187 -0.00024993 0.00104013 -0.00038553
0.45344794 0.62260151 0.62730366 0.00022694 -0.00010121 0.00042811
0.82538623 0.51632947 0.38774478 0.00167822 0.00037818 -0.00114588
0.31240544 0.28616142 0.41708049 -0.00016236 -0.00124736 -0.00049673
0.27316931 0.35014954 0.11265130 -0.00119404 -0.00091170 -0.00011799
0.31240544 0.48831606 0.69332719 -0.00020139 0.00024012 0.00068494
0.35285947 0.59714377 0.32881057 -0.00006754 0.00001710 -0.00017702
0.37126544 0.68060309 0.76360154 0.00065965 0.00037209 -0.00005280
0.31240544 0.54350507 0.93954784 -0.00016593 0.00005649 0.00157265
0.25502503 0.62343371 0.84478217 -0.00092966 0.00001487 0.00044472
0.37954524 0.47692481 0.10276997 0.00077588 -0.00041935 -0.00037480
0.36066616 0.61177975 0.66376001 -0.00009510 -0.00003534 0.00011275
0.37950480 0.48766121 0.89677763 0.00079383 -0.00047146 0.00041084
0.14093588 0.37754488 0.50009573 -0.00147766 -0.00000634 -0.00000435
0.37927145 0.52811402 0.10719724 0.00089384 -0.00029229 -0.00037595
0.47035211 0.58553267 0.39314747 0.00009565 0.00034242 -0.00012570
0.25894028 0.39920196 0.09833907 -0.00099286 -0.00034154 -0.00068817
0.47080553 0.31020540 0.50009573 0.00011835 -0.00043540 -0.00000613
0.25441295 0.57366365 0.13290870 -0.00097369 -0.00020281 -0.00019660
0.26591450 0.69142252 0.50009573 -0.00047755 0.00102475 -0.00000872
0.47932082 0.62260151 0.39727187 0.00033326 -0.00039406 -0.00037470
0.45782381 0.65154290 0.38029447 0.00017587 0.00070635 -0.00061845
0.46456707 0.58658582 0.61298966 0.00013847 0.00032239 0.00008636
0.31564903 0.71349108 0.50009573 -0.00050272 0.00107265 0.00001728
0.31240544 0.41895691 0.95403570 -0.00001645 -0.00047901 0.00131353
0.31240544 0.45558605 0.82076228 -0.00008943 -0.00022409 0.00017475
0.31240544 0.69552600 0.67550123 -0.00008741 0.00082157 -0.00036233
0.61258239 0.31330988 0.39659935 0.00018871 -0.00129572 -0.00094658
0.14261566 0.56089765 0.56637001 -0.00146887 0.00035596 0.00012957
0.54920822 0.30092159 0.50009573 0.00007076 -0.00092374 -0.00000405
0.27230757 0.35115495 0.88755107 -0.00104515 -0.00093306 0.00017970
0.37867889 0.58547992 0.11677753 0.00099226 -0.00007144 -0.00050188
0.25758424 0.66372746 0.24944480 -0.00064302 0.00028966 -0.00010852
0.31240544 0.68069810 0.37690583 -0.00004413 0.00013412 -0.00034036
0.20797615 0.27881569 0.50009573 -0.00071397 -0.00173226 -0.00000620
0.16221826 0.31591687 0.50009573 -0.00176878 -0.00081915 -0.00000478
0.31240544 0.33362457 0.10297051 0.00000038 -0.00133372 -0.00043699
0.68192089 0.28912494 0.50009573 -0.00023535 -0.00137585 -0.00000314
0.25631464 0.66081357 0.20279561 -0.00061148 0.00037158 -0.00025822
0.25503594 0.62396163 0.15582313 -0.00090868 -0.00006970 -0.00044721
0.20547831 0.61176610 0.35819402 -0.00046814 0.00073532 -0.00072270
0.29641569 0.39920196 0.94421160 -0.00088940 -0.00065097 0.00101940
0.31240544 0.59241182 0.81536096 0.00013398 -0.00026560 -0.00053892
0.31240544 0.30645657 0.62821406 -0.00023047 -0.00109714 0.00104478
0.36665744 0.64140654 0.68912452 0.00024638 -0.00006226 -0.00004657
0.31240544 0.45217147 0.17946376 -0.00008941 -0.00012024 -0.00018080
0.61258239 0.46417686 0.65352768 0.00008073 -0.00001224 0.00084835
0.80710006 0.56088215 0.50009573 0.00100468 0.00133930 -0.00000401
0.61258239 0.37373695 0.35174954 0.00021471 -0.00033526 -0.00138313
0.61258239 0.28755608 0.52104527 -0.00009744 -0.00134543 0.00054428
0.16021925 0.58555722 0.39716458 -0.00125757 0.00066963 -0.00051950
0.85814106 0.51632947 0.47978854 0.00167413 0.00095717 -0.00006653
0.46139619 0.62260151 0.62050682 0.00026067 -0.00023158 0.00041475
0.56378782 0.59083211 0.50009573 0.00009183 0.00063721 -0.00000340
0.37038693 0.67578518 0.74940205 0.00060736 0.00021662 -0.00003562
0.25879657 0.37612250 0.11265130 -0.00108485 -0.00054411 -0.00014164
0.61258239 0.44653416 0.34516913 0.00012643 0.00019136 -0.00094082
0.31240544 0.50046623 0.30722082 -0.00015766 0.00021940 -0.00067091
0.50487357 0.31075108 0.50009573 0.00018610 -0.00050593 -0.00000526
0.31240544 0.64384931 0.10646877 -0.00027662 0.00105809 -0.00125106
0.50890023 0.62260151 0.55408812 0.00031471 0.00028110 0.00033373
0.30504197 0.67080450 0.63298059 -0.00020463 -0.00002855 0.00007289
0.31240544 0.69048214 0.61053318 -0.00010340 0.00043204 0.00064177
0.25801808 0.65864354 0.26538041 -0.00066692 0.00017243 -0.00007479
0.25708678 0.66507351 0.76903915 -0.00062378 0.00034975 0.00019455
0.29563671 0.57886171 0.68092573 -0.00012338 0.00016228 0.00019376
0.37900406 0.56244403 0.11152174 0.00096135 -0.00016869 -0.00045645
0.74604863 0.51632947 0.34446430 0.00030855 0.00032218 -0.00154193
0.61258239 0.54918784 0.39857972 0.00005181 0.00088062 -0.00025764
0.25543064 0.64196038 0.17030318 -0.00082903 0.00018412 -0.00047294
0.27953374 0.65426362 0.64160597 -0.00041726 0.00019508 -0.00006400
0.32535756 0.57634747 0.31796613 0.00003366 0.00025633 -0.00019034
0.31240544 0.51111716 0.82044667 -0.00005309 -0.00009168 -0.00008065
0.60413802 0.28622919 0.50009573 -0.00023960 -0.00141491 -0.00000471
0.72129029 0.29534158 0.50009573 0.00032633 -0.00136756 -0.00000344
0.31240544 0.57346725 0.93050963 -0.00018891 0.00041917 0.00151467
0.38502362 0.28820592 0.50009573 0.00003502 -0.00097330 -0.00000944
0.25387546 0.42251340 0.88703996 -0.00087989 -0.00055048 0.00014861
0.86658543 0.45210463 0.50009573 0.00177523 0.00045781 0.00000066
0.36561102 0.63114953 0.32799116 0.00002664 -0.00004241 0.00000632
0.17063217 0.51632947 0.62345439 -0.00097255 -0.00044384 0.00080177
0.48668659 0.62260151 0.59444565 0.00031889 -0.00020834 0.00036191
0.44150802 0.51632947 0.32016429 -0.00028471 0.00008332 -0.00065816
0.81870526 0.51632947 0.37964737 0.00157402 0.00035853 -0.00133457
0.27679852 0.51632947 0.68513650 -0.00027085 0.00011241 0.00063217
0.37966985 0.41004279 0.89911580 0.00051136 -0.00044869 0.00032024
0.31240544 0.69048214 0.38966921 -0.00011078 0.00046573 -0.00055044
0.49492452 0.62260151 0.41600916 0.00034186 -0.00004732 -0.00031797
0.37399051 0.68310004 0.19255868 0.00083458 0.00083821 -0.00012997
0.61258239 0.52955395 0.36973286 -0.00001198 0.00090872 -0.00005981
0.57941151 0.51632947 0.65171736 0.00027268 0.00039524 0.00063805
0.22487172 0.51632947 0.67008311 -0.00049180 -0.00016520 0.00084841
0.18202958 0.63292438 0.50009573 -0.00099776 0.00088133 -0.00000528
0.31240544 0.63567460 0.90028727 -0.00027206 0.00091371 0.00143188
0.50209564 0.62690598 0.57448876 0.00041212 0.00016871 0.00028714
0.85608107 0.39112276 0.50009573 0.00190439 -0.00039177 -0.00000396
0.14337051 0.36271697 0.50009573 -0.00162725 -0.00015615 -0.00000437
0.61258239 0.50096607 0.64856195 -0.00005186 -0.00014591 0.00063276
0.31240544 0.37888181 0.16734014 0.00001691 -0.00027370 -0.00014480
0.13708337 0.51632947 0.52043509 -0.00109006 0.00019340 0.00048641
0.13718523 0.53691399 0.50009573 -0.00117870 0.00041071 -0.00000266
0.29894218 0.39920196 0.17099346 -0.00015194 -0.00015270 -0.00015917
0.21284087 0.51632947 0.33657742 -0.00057540 -0.00021077 -0.00090358
0.25402370 0.50378180 0.88162410 -0.00096986 -0.00040591 0.00017897
0.31240544 0.62324268 0.80718940 0.00023451 -0.00042651 -0.00079899
0.61258239 0.29092747 0.45976838 0.00001630 -0.00129872 -0.00061398
0.33977827 0.66102362 0.63808131 0.00046013 -0.00004376 0.00005891
0.25897211 0.64261425 0.69974893 -0.00058295 -0.00002346 -0.00004718
0.61258239 0.52262157 0.36140805 -0.00005787 0.00067542 -0.00029136
0.20893244 0.65714020 0.50009573 -0.00087802 0.00091006 -0.00000903
0.31240544 0.40769094 0.31058401 -0.00026174 0.00018178 -0.00101146
0.78640068 0.31640205 0.50009573 0.00089184 -0.00152318 -0.00000359
0.25405642 0.51436096 0.88041270 -0.00098354 -0.00036661 0.00018009
0.31240544 0.34521341 0.91172785 -0.00005764 -0.00112949 0.00121673
0.31240544 0.42141837 0.82050401 -0.00005913 -0.00009480 0.00033309
0.53570718 0.51632947 0.66057920 -0.00000122 0.00028415 0.00068024
0.31240544 0.46433374 0.17938419 -0.00009131 -0.00011374 -0.00012262
0.31240544 0.67880279 0.85701448 -0.00036846 0.00119211 0.00096886
0.37222731 0.39755446 0.11649150 0.00028348 -0.00027630 0.00042366
0.31240544 0.70785838 0.78457063 -0.00028305 0.00112335 0.00047825
0.14286575 0.56086135 0.50009573 -0.00113410 0.00069846 0.00002317
0.31240544 0.70764643 0.56368434 -0.00027605 0.00107367 0.00024961
0.13751809 0.54504251 0.54279339 -0.00137916 0.00016546 0.00013508
0.31215441 0.71164626 0.47754246 -0.00047419 0.00106178 -0.00022762
0.49492452 0.62260151 0.58419186 0.00033021 -0.00001747 0.00032806
0.65196222 0.51632947 0.34862143 -0.00044164 0.00044521 -0.00082727
0.61258239 0.40621305 0.65462583 0.00018968 -0.00012566 0.00119545
0.54772753 0.51632947 0.65787488 0.00006141 0.00032132 0.00066785
0.61258239 0.36337271 0.35536602 0.00021801 -0.00045720 -0.00140973
0.24486995 0.51632947 0.67700410 -0.00025519 -0.00006831 0.00078008
0.31240544 0.70287359 0.58429873 -0.00021674 0.00091761 0.00058237
0.80896449 0.51632947 0.37009844 0.00134848 0.00033899 -0.00157597
0.31240544 0.50465387 0.17959063 -0.00006251 -0.00010134 0.00005022
0.48522416 0.59043646 0.59179729 -0.00005680 0.00018193 0.00033655
0.13332638 0.48274049 0.50009573 -0.00119811 0.00061284 0.00000124
0.35647267 0.39920196 0.85685349 0.00006131 -0.00027730 -0.00039950
0.44533005 0.60845709 0.36747828 0.00023122 -0.00002487 -0.00028601
0.37512615 0.67875820 0.82599986 0.00095198 0.00094544 0.00055327
0.61258239 0.54394001 0.38935137 0.00002953 0.00096037 -0.00014590
0.69304454 0.51632947 0.65624106 -0.00030568 0.00038448 0.00109625
0.56912094 0.51632947 0.65351856 0.00023689 0.00038012 0.00064268
0.31240040 0.71050990 0.54249990 -0.00035877 0.00111021 0.00012679
0.28946510 0.39920196 0.83591080 -0.00020898 -0.00017822 -0.00002027
0.65196359 0.28691265 0.50009573 0.00021274 -0.00132603 -0.00000580
0.37823838 0.60919553 0.12389500 0.00102844 -0.00005542 -0.00061958
0.36732000 0.64789593 0.69983214 0.00035799 -0.00001530 0.00003302
0.36675337 0.64234644 0.30952856 0.00023981 -0.00006541 0.00001913
0.15746675 0.51632947 0.60294688 -0.00116913 -0.00053598 0.00055767
0.31240544 0.44810295 0.30669060 -0.00024969 0.00038469 -0.00080482
0.85973716 0.51632947 0.51281500 0.00174670 0.00100021 0.00004686
0.65654320 0.57236540 0.50009573 -0.00012048 0.00079437 -0.00000174
0.37085450 0.72944814 0.50009573 -0.00025253 0.00145392 -0.00000915
0.31240544 0.59694278 0.07959226 -0.00019907 0.00049924 -0.00145442
0.25442478 0.57517016 0.86684799 -0.00099312 -0.00026710 0.00024655
0.37964416 0.41267750 0.10117567 0.00055837 -0.00036552 -0.00028781
0.31240544 0.58494693 0.07439376 -0.00018710 0.00044733 -0.00146322
0.49919033 0.61154062 0.57746911 0.00018009 0.00001396 0.00034218
0.31240544 0.69934940 0.31412089 -0.00011333 0.00097731 0.00023843
0.29292151 0.33582503 0.11265130 -0.00062097 -0.00120489 -0.00003944
0.31240544 0.41173440 0.17977253 -0.00004203 -0.00009005 -0.00036724
0.31240544 0.63260013 0.25754538 0.00014972 -0.00024040 -0.00140677
0.25420195 0.54554385 0.87505823 -0.00100447 -0.00032375 0.00021795
0.53630245 0.51632947 0.33975828 0.00007188 0.00028170 -0.00067369
0.25626010 0.39920196 0.88033265 -0.00086780 -0.00030717 -0.00011479
0.35910669 0.35768536 0.10447523 0.00068615 -0.00084125 -0.00023620
0.20415230 0.51632947 0.34298503 -0.00068189 -0.00025142 -0.00088000
0.25463760 0.59888810 0.85901392 -0.00100153 -0.00010574 0.00037619
0.31240544 0.69143707 0.66543752 -0.00005687 0.00062014 -0.00040238
0.31240544 0.57346725 0.06969184 -0.00017741 0.00040156 -0.00149190
0.45047078 0.70166445 0.50009573 0.00088509 0.00079480 -0.00000549
0.14669597 0.51632947 0.43355179 -0.00105491 -0.00073860 -0.00046561
0.80694228 0.32976118 0.50009573 0.00111215 -0.00138562 -0.00000368
0.37927336 0.52781463 0.89303517 0.00089489 -0.00034902 0.00040750
0.46537372 0.68656325 0.50009573 0.00080377 0.00060469 -0.00000542
0.28996348 0.39920196 0.16465177 -0.00021920 -0.00017620 0.00003573
0.31240544 0.68498939 0.34881654 -0.00002548 0.00034068 0.00021674
0.20476255 0.51632947 0.65770942 -0.00072921 -0.00025844 0.00084864
0.78603458 0.51632947 0.64482999 0.00094164 0.00031857 0.00172618
0.47805077 0.58647805 0.40104482 0.00000967 0.00030282 -0.00022557
0.25434563 0.56515974 0.86977017 -0.00099485 -0.00026057 0.00021369
0.31240544 0.61370784 0.72434855 0.00005982 -0.00004253 0.00092925
0.37675375 0.38938656 0.10138576 0.00060783 -0.00038997 -0.00030986
0.28374046 0.34130043 0.11265130 -0.00093010 -0.00105805 -0.00004402
0.61258239 0.45238748 0.65460807 0.00011213 0.00015682 0.00089866
0.48283228 0.31164506 0.50009573 0.00012693 -0.00039127 -0.00000582
0.16310363 0.58825010 0.60704124 -0.00127079 0.00065151 0.00048726
0.31240544 0.62729341 0.19432759 0.00023932 -0.00073810 0.00074980
0.25864923 0.64827847 0.28858680 -0.00064360 0.00005580 -0.00009772
0.83221495 0.34988624 0.50009573 0.00158327 -0.00126975 -0.00000379
0.31240544 0.39726526 0.68748838 -0.00026608 0.00022078 0.00109845
0.61258239 0.34045827 0.36770022 0.00021679 -0.00090024 -0.00132194
0.19269851 0.51632947 0.64672077 -0.00081205 -0.00032082 0.00082384
0.48604634 0.51632947 0.67176199 -0.00016321 0.00015698 0.00069441
0.61258239 0.32350451 0.38293374 0.00020491 -0.00118969 -0.00113168
0.61258239 0.45804933 0.34607586 0.00009908 0.00009708 -0.00088416
0.31538302 0.67274982 0.36823589 0.00009657 -0.00007890 -0.00017261
0.31240544 0.70610219 0.71070433 -0.00013342 0.00122301 -0.00009257
0.61258239 0.53786117 0.61980790 -0.00001192 0.00110514 -0.00013021
0.31240544 0.37323084 0.93733424 -0.00001689 -0.00112021 0.00101031
0.86695832 0.43927434 0.50009573 0.00185122 0.00033034 -0.00000176
0.44095233 0.61781681 0.36298734 0.00017449 0.00004641 -0.00043291
0.13383250 0.45087546 0.50009573 -0.00123342 0.00050856 -0.00000385
0.37206551 0.51632947 0.68924820 -0.00040287 0.00013853 0.00058574
0.31240544 0.31269506 0.36333248 -0.00023699 -0.00105220 -0.00102929
0.36659396 0.36739525 0.89703768 0.00065943 -0.00058650 0.00029494
0.61258239 0.40386707 0.34583259 0.00019294 -0.00006166 -0.00122112
0.31240544 0.63971990 0.75054342 0.00019335 -0.00052029 0.00145016
0.17771371 0.51632947 0.63138264 -0.00089910 -0.00040344 0.00082066
0.77293742 0.31032726 0.50009573 0.00070917 -0.00152340 -0.00000356
0.31240544 0.34971938 0.85830539 0.00007842 -0.00039842 -0.00098390
0.61489880 0.28439844 0.50009573 -0.00012117 -0.00151160 -0.00000196
0.31240544 0.43744677 0.30716351 -0.00025510 0.00038343 -0.00085584
0.41204634 0.72498995 0.50009573 0.00038645 0.00143199 -0.00000752
0.13695696 0.51632947 0.48037422 -0.00108997 0.00020351 -0.00047043
0.25390732 0.45820212 0.11429471 -0.00092330 -0.00058927 -0.00019765
0.61258239 0.30675218 0.59217560 0.00017197 -0.00139242 0.00067740
0.86281574 0.40889052 0.50009573 0.00199748 -0.00024242 -0.00000370
0.42606303 0.29891437 0.50009573 0.00013385 -0.00075721 -0.00000746
0.27941689 0.59106350 0.67456263 -0.00005444 -0.00007125 0.00022628
0.37963173 0.42337829 0.10137483 0.00054933 -0.00042243 -0.00026718
0.57933193 0.51632947 0.34847096 0.00026267 0.00040345 -0.00065925
0.31240544 0.36997542 0.84004021 0.00002452 -0.00035724 -0.00006273
0.39758715 0.62260151 0.65033406 -0.00010881 0.00024243 0.00027164
0.31240544 0.58786905 0.18411158 0.00011218 -0.00025759 0.00048522
0.31240544 0.69491076 0.32626998 -0.00009051 0.00077346 0.00037468
0.37961364 0.44317323 0.89845514 0.00061696 -0.00049083 0.00036104
0.28947827 0.39920196 0.06094687 -0.00135353 -0.00055633 -0.00083046
0.61258239 0.38652858 0.34846777 0.00020775 -0.00024804 -0.00131429
0.18718305 0.60420394 0.63076288 -0.00079270 0.00079176 0.00075680
0.61258239 0.29287282 0.55009609 0.00006108 -0.00131171 0.00050761
0.37823838 0.60919553 0.87630695 0.00102779 0.00000910 0.00063235
0.32511654 0.39920196 0.82887834 0.00010889 -0.00014452 0.00033611
0.31240544 0.60964161 0.81128526 0.00019151 -0.00021113 -0.00070968
0.37957680 0.46448565 0.89793032 0.00071226 -0.00052277 0.00040702
0.58350414 0.29133809 0.50009573 -0.00041049 -0.00116280 -0.00000934
0.31240544 0.43241200 0.82058859 -0.00007283 -0.00012016 0.00028782
0.36146969 0.39854306 0.08319011 0.00046106 -0.00029556 -0.00089884
0.46494949 0.65509397 0.38760519 0.00025989 0.00082767 -0.00056125
0.47159445 0.62260151 0.38919857 0.00030138 -0.00041696 -0.00041001
0.33091486 0.66628307 0.63533837 0.00043675 -0.00009712 0.00009175
0.19607309 0.51632947 0.35021120 -0.00074711 -0.00029240 -0.00085274
0.36589003 0.63388520 0.67672127 0.00010133 -0.00005396 -0.00004402
0.84829152 0.51632947 0.43819419 0.00175977 0.00058573 -0.00009694
0.86286569 0.50902951 0.50009573 0.00191178 0.00063904 0.00000547
0.31240544 0.53360140 0.81964183 -0.00002097 -0.00007207 -0.00017340
0.31240544 0.56067002 0.81842995 0.00003876 -0.00026331 -0.00030371
0.84053385 0.35978124 0.50009573 0.00181697 -0.00099829 -0.00000385
0.53803724 0.60866576 0.50009573 0.00006463 0.00065095 -0.00000825
0.13949163 0.51632947 0.53214514 -0.00102387 -0.00004158 0.00062681
0.61258239 0.30675218 0.40802497 0.00017138 -0.00134120 -0.00078234
0.61258239 0.47980237 0.65161687 0.00002358 -0.00041459 0.00079293
0.31240544 0.64579469 0.75918067 0.00021214 -0.00088022 0.00131996
0.30412793 0.70878005 0.50009573 -0.00055551 0.00102002 0.00001768
0.61258239 0.53786117 0.38039449 -0.00000134 0.00106469 0.00004431
0.85093808 0.37928197 0.50009573 0.00188351 -0.00055267 -0.00000397
0.31240544 0.35242638 0.91960430 -0.00009362 -0.00096279 0.00147936
0.31240544 0.33613151 0.87475175 0.00003105 -0.00106529 -0.00051830
0.35110161 0.65055847 0.64353859 0.00020928 0.00011934 -0.00001450
0.61258239 0.30111304 0.57907885 0.00014690 -0.00138690 0.00050661
0.25386682 0.40863767 0.11285776 -0.00092686 -0.00039248 -0.00012837
0.31240544 0.29002392 0.59470665 -0.00018587 -0.00129390 0.00046106
0.86588061 0.46439561 0.50009573 0.00176004 0.00025245 0.00000570
0.51800674 0.62260151 0.48400486 0.00025830 0.00043036 -0.00034990
0.13602793 0.41544229 0.50009573 -0.00131100 0.00015898 -0.00000434
0.79545850 0.51632947 0.36034080 0.00114824 0.00032341 -0.00170355
0.31240544 0.27858606 0.45188934 -0.00005548 -0.00124240 -0.00028372
0.31240544 0.44005102 0.95317400 -0.00008189 -0.00037182 0.00135410
0.32011995 0.67095637 0.63290191 0.00022768 -0.00007654 0.00009915
0.62712932 0.56809407 0.50009573 0.00002224 0.00060485 0.00000292
0.31906223 0.39920196 0.95042962 0.00036398 -0.00072141 0.00118391
0.31231222 0.71147442 0.52841944 -0.00044598 0.00108266 0.00017533
0.61258239 0.38095629 0.65046090 0.00021090 -0.00029004 0.00133926
0.25565711 0.51632947 0.67999172 -0.00018728 -0.00001031 0.00073531
0.26558572 0.39920196 0.14011896 -0.00040893 -0.00027343 0.00074962
0.67764550 0.51632947 0.65471041 -0.00037426 0.00041127 0.00097529
0.61258239 0.42813978 0.34464025 0.00016102 0.00009773 -0.00105145
0.61258239 0.29014534 0.53609252 -0.00001096 -0.00128943 0.00068711
0.31342947 0.39920196 0.82101512 -0.00003858 -0.00012510 0.00038190
0.44312096 0.63116682 0.36521187 0.00012733 0.00019978 -0.00056990
0.61258239 0.49035662 0.65013939 -0.00000606 -0.00038244 0.00071500
0.25629371 0.38627574 0.11265130 -0.00103739 -0.00040006 -0.00014080
0.31240544 0.49179995 0.05142705 -0.00014259 -0.00049847 -0.00145522
0.31240544 0.35420394 0.07739999 -0.00007127 -0.00096366 -0.00143125
0.27468312 0.39920196 0.07357343 -0.00137886 -0.00040988 -0.00096350
0.31240544 0.64952528 0.77630496 0.00022353 -0.00126476 0.00061129
0.82364005 0.34235680 0.50009573 0.00136743 -0.00135230 -0.00000375
0.28786579 0.58379191 0.32184774 -0.00013629 0.00007705 -0.00019956
0.30242950 0.33127221 0.11265130 -0.00029059 -0.00133181 -0.00004403
0.48608181 0.66454601 0.50009573 0.00067456 0.00051232 -0.00000707
0.26140901 0.39920196 0.86761606 -0.00060376 -0.00027630 -0.00053542
0.31240544 0.48661309 0.82085049 -0.00007727 -0.00015689 0.00002550
0.31895632 0.57377917 0.68357593 -0.00000821 0.00026901 0.00018834
0.83137691 0.51632947 0.60355484 0.00184780 0.00040345 0.00078171
0.24611183 0.62062979 0.65518510 0.00007515 0.00023941 0.00026312
0.31240544 0.39100951 0.94954342 -0.00001197 -0.00087454 0.00119721
0.25396913 0.48500544 0.11657745 -0.00095178 -0.00053348 -0.00017019
0.32447901 0.27509370 0.50009573 0.00021902 -0.00126062 -0.00006099
0.14675462 0.34889129 0.50009573 -0.00171751 -0.00040174 -0.00000442
0.16871092 0.61649722 0.50009573 -0.00111967 0.00072250 -0.00000130
0.62581742 0.51632947 0.64805174 -0.00023878 0.00044972 0.00066343
0.61258239 0.44076633 0.65530246 0.00013736 0.00015187 0.00096357
0.68709302 0.57679361 0.50009573 -0.00004677 0.00097411 -0.00000531
0.38576797 0.62260151 0.34697622 -0.00009859 0.00017488 -0.00018190
0.31240544 0.70194954 0.80910432 -0.00034646 0.00111457 0.00043755
0.60427898 0.56995469 0.50009573 0.00009677 0.00050838 0.00000415
0.31240544 0.38123459 0.68319118 -0.00026532 0.00003190 0.00118537
0.36093444 0.39920196 0.91805089 0.00046848 -0.00031685 0.00095783
0.25682029 0.38370287 0.88755107 -0.00106506 -0.00035850 0.00018127
0.37959617 0.45396128 0.89822000 0.00066801 -0.00050934 0.00039254
0.46969277 0.62260151 0.61287683 0.00029694 -0.00037952 0.00040191
0.51317245 0.63277566 0.50009573 0.00042840 0.00045112 -0.00001299
0.13418899 0.44007695 0.50009573 -0.00126168 0.00037912 -0.00000419
0.37532014 0.67696655 0.17106713 0.00095039 0.00090336 -0.00060740
0.15662052 0.59694093 0.50009573 -0.00127109 0.00046298 0.00000487
0.40916532 0.29427478 0.50009573 0.00010230 -0.00086082 -0.00000805
0.31240544 0.48804700 0.30686790 -0.00018124 0.00023071 -0.00069259
0.70630497 0.51632947 0.34308052 -0.00013405 0.00036031 -0.00122206
0.25929588 0.63690281 0.68785769 -0.00041626 -0.00005110 -0.00004556
0.31240544 0.69930482 0.18279830 -0.00036077 0.00110738 -0.00054187
0.25386816 0.41085768 0.88729554 -0.00092150 -0.00043535 0.00016742
0.31240544 0.69915390 0.68549758 -0.00010480 0.00097130 -0.00031849
0.30412793 0.51632947 0.69083893 -0.00018741 0.00025672 0.00060970
0.76259816 0.30680308 0.50009573 0.00059648 -0.00145785 -0.00000356
0.37910125 0.55213457 0.10995111 0.00094263 -0.00023993 -0.00043303
0.26498595 0.39920196 0.08620226 -0.00102649 -0.00035888 -0.00108182
0.31240544 0.64952528 0.22389610 0.00024127 -0.00128671 -0.00048953
0.31240544 0.50210148 0.94712651 -0.00014437 -0.00047273 0.00149177
0.40689597 0.51632947 0.31441012 -0.00033548 0.00007777 -0.00064050
0.51379997 0.62260151 0.46592119 0.00026607 0.00037017 -0.00052727
0.14152111 0.51632947 0.45819125 -0.00100167 -0.00032485 -0.00060255
0.15818386 0.51632947 0.39562076 -0.00117297 -0.00054588 -0.00057015
0.85141557 0.51632947 0.55018294 0.00169209 0.00067332 0.00014743
0.27641654 0.59427851 0.32731631 -0.00000362 -0.00015108 -0.00023801
0.25572166 0.65213680 0.18099122 -0.00078102 0.00039404 -0.00044196
0.31240544 0.29387596 0.60439610 -0.00020154 -0.00124649 0.00066732
0.13482335 0.42879412 0.50009573 -0.00129092 0.00026416 -0.00000431
0.83397704 0.54110157 0.50009573 0.00041353 0.00204798 0.00002317
0.34846991 0.28009030 0.50009573 0.00030029 -0.00108317 -0.00003255
0.37959203 0.45548511 0.10201420 0.00069875 -0.00043613 -0.00035887
0.13980813 0.55333304 0.55512178 -0.00143339 0.00022480 0.00008264
0.33847976 0.39920196 0.83868235 0.00022851 -0.00018789 0.00023670
0.45740771 0.51632947 0.32297045 -0.00023600 0.00010267 -0.00067275
0.36932150 0.66707617 0.26802060 0.00049365 0.00009573 -0.00012089
0.28606415 0.39920196 0.93673217 -0.00143053 -0.00053857 0.00081460
0.61258239 0.30118078 0.42094618 0.00014671 -0.00135542 -0.00056941
0.25697312 0.66471332 0.22697192 -0.00056984 0.00032212 -0.00012388
0.41960275 0.51632947 0.68378967 -0.00029622 0.00007436 0.00063211
0.27716228 0.39920196 0.92902863 -0.00152650 -0.00042627 0.00081962
0.44790792 0.63978815 0.63007987 0.00012038 0.00034787 0.00059966
0.28148136 0.51632947 0.31336787 -0.00031312 0.00015496 -0.00063296
0.57095349 0.29475039 0.50009573 -0.00032071 -0.00105153 -0.00000549
0.31240544 0.56366146 0.93406022 -0.00018122 0.00036267 0.00153594
0.33717558 0.66283536 0.36306557 0.00046727 -0.00007640 -0.00007545
0.35164055 0.34954882 0.89442033 0.00078880 -0.00085606 0.00030142
0.33053786 0.39920196 0.94264555 0.00088965 -0.00061481 0.00092382
0.35461730 0.64555824 0.35405642 0.00009221 0.00014534 0.00002910
0.37884519 0.57502335 0.11408962 0.00097964 -0.00010880 -0.00048120
0.31240544 0.68144518 0.62237942 -0.00004230 0.00017954 0.00036624
0.31240544 0.62047058 0.26947576 0.00008687 -0.00000045 -0.00120290
0.50064957 0.62974668 0.42422843 0.00045051 0.00018376 -0.00027414
0.37189955 0.68239152 0.77385026 0.00068350 0.00046718 -0.00009933
0.31240544 0.39014599 0.82610762 -0.00002486 -0.00020548 0.00031339
0.25848916 0.65105319 0.71751624 -0.00069534 0.00005595 0.00003256
0.15289897 0.51632947 0.40929231 -0.00118076 -0.00061878 -0.00043870
0.25389183 0.44596982 0.11374629 -0.00090942 -0.00055411 -0.00018464
0.26197562 0.62665814 0.34420145 0.00005174 0.00010799 -0.00004606
0.31240544 0.36267468 0.32412636 -0.00026028 -0.00023428 -0.00125489
0.35461125 0.51632947 0.31024933 -0.00019678 0.00020220 -0.00056352
0.15781735 0.58318847 0.59951591 -0.00134237 0.00060476 0.00040315
0.25675026 0.66363019 0.78141344 -0.00057716 0.00035843 0.00015688
0.51566666 0.51632947 0.33501178 -0.00011097 0.00022349 -0.00071046
0.59361869 0.28876612 0.50009573 -0.00032696 -0.00128709 -0.00001432
0.31240544 0.44306317 0.82067043 -0.00008385 -0.00017044 0.00023711
0.31240544 0.56219882 0.68624610 -0.00007190 0.00036884 0.00028575
0.49052271 0.64644313 0.41383961 0.00058114 0.00051301 -0.00026022
0.37314144 0.62260151 0.34400955 -0.00010449 0.00007516 -0.00010400
0.48212925 0.65348053 0.59497219 0.00049857 0.00077972 0.00035610
0.36808571 0.65536767 0.28799334 0.00040958 0.00000645 -0.00011302
0.41908979 0.51632947 0.31632683 -0.00032269 0.00007283 -0.00064742
0.31240544 0.70255345 0.69631207 -0.00011778 0.00109153 -0.00026246
0.51873934 0.62260151 0.51291084 0.00026203 0.00044148 0.00026992
0.31240544 0.62674004 0.90614235 -0.00025549 0.00083570 0.00148844
0.31240544 0.27260995 0.50009573 0.00014024 -0.00137525 -0.00005865
0.47944134 0.62260151 0.60279590 0.00031082 -0.00036873 0.00038705
0.79510880 0.56735265 0.50009573 0.00089143 0.00136206 -0.00000652
0.25387317 0.41927522 0.11309012 -0.00089959 -0.00043004 -0.00012113
0.34682161 0.39907101 0.06993876 0.00112376 -0.00033730 -0.00076651
0.31240544 0.33923006 0.12998797 0.00007301 -0.00081540 0.00074785
0.82584095 0.54767460 0.50009573 0.00065826 0.00173390 0.00000731
0.81538439 0.33597690 0.50009573 0.00115619 -0.00140640 -0.00000372
0.31240544 0.51765466 0.94445717 -0.00015025 -0.00030451 0.00151083
0.13980950 0.54861468 0.50009573 -0.00114748 0.00053379 0.00000204
0.31240544 0.62674004 0.09405866 -0.00024138 0.00080614 -0.00144632
0.31240544 0.52284455 0.05666192 -0.00014838 -0.00015688 -0.00146970
0.45523456 0.64938432 0.62256354 0.00015822 0.00063794 0.00061142
0.31240544 0.49179995 0.94877446 -0.00014114 -0.00057800 0.00148997
0.37029490 0.39778137 0.09184548 0.00047857 -0.00032610 -0.00064978
0.40689597 0.51632947 0.68579137 -0.00032230 0.00007832 0.00062661
0.61258239 0.31589046 0.60745782 0.00019435 -0.00124885 0.00101415
0.31240544 0.54350507 0.06065358 -0.00015745 0.00020502 -0.00149520
0.45632684 0.59182340 0.62144262 0.00023793 0.00014991 0.00005589
0.86440730 0.48646688 0.50009573 0.00190115 -0.00025623 0.00001257
0.24186507 0.62000132 0.34595034 0.00005101 0.00030356 -0.00031910
0.31240544 0.69317418 0.83310050 -0.00038701 0.00120663 0.00065500
0.44533005 0.60845709 0.63272411 0.00023221 -0.00003218 0.00026410
0.31240544 0.56219882 0.31395629 -0.00005004 0.00035788 -0.00028810
0.34660688 0.58971024 0.32493398 0.00002892 0.00013030 -0.00015963
0.37775397 0.63128281 0.86847782 0.00106469 0.00016196 0.00084468
0.31240544 0.52803034 0.94260556 -0.00015566 -0.00013950 0.00152947
0.25323293 0.51632947 0.32075000 -0.00020732 -0.00001684 -0.00075970
0.73329109 0.51632947 0.34319285 0.00014075 0.00033085 -0.00144873
0.31240544 0.67841262 0.14271139 -0.00036411 0.00124299 -0.00089162
0.51023853 0.62260151 0.45144460 0.00030728 0.00030599 -0.00036833
0.61258239 0.56362134 0.54755777 0.00007611 0.00070271 0.00003530
0.37053752 0.39920196 0.90856153 0.00043509 -0.00033759 0.00066886
0.45055765 0.59903044 0.37284049 0.00026484 0.00003517 -0.00014185
0.31240544 0.37310216 0.31978869 -0.00026162 -0.00010658 -0.00120755
0.31240544 0.47696939 0.30662966 -0.00020950 0.00025374 -0.00071197
0.25410372 0.52720976 0.12152767 -0.00098973 -0.00036015 -0.00017725
0.35763428 0.64017689 0.64895171 0.00004182 0.00012864 -0.00002447
0.83679318 0.51632947 0.59358531 0.00188388 0.00043603 0.00055721
0.61258239 0.35383970 0.35972011 0.00021898 -0.00060383 -0.00139866
0.16958992 0.59356821 0.38525286 -0.00110882 0.00075382 -0.00066146
0.25828180 0.65450960 0.27509576 -0.00067001 0.00010631 -0.00007973
0.35110161 0.59464365 0.67269599 -0.00004709 0.00006733 0.00016340
0.32535893 0.51632947 0.30887648 -0.00011308 0.00029304 -0.00058349
0.84486282 0.51632947 0.42693225 0.00181717 0.00052177 -0.00018450
0.42228016 0.72200280 0.50009573 0.00054453 0.00138693 -0.00000682
0.83142006 0.51632947 0.39671347 0.00172626 0.00040336 -0.00095141
0.61258239 0.54841626 0.60319376 0.00004562 0.00092548 0.00017460
0.61258239 0.56560594 0.48639354 0.00005423 0.00047954 -0.00007968
0.31240544 0.34020182 0.09377356 -0.00001834 -0.00120767 -0.00086649
0.31240544 0.31269506 0.63686901 -0.00023843 -0.00103567 0.00110167
0.37963283 0.43144295 0.89869249 0.00054553 -0.00056429 0.00030666
0.30162373 0.66930616 0.36643967 -0.00030568 -0.00006128 -0.00009270
0.49619821 0.63799059 0.41966110 0.00053796 0.00029164 -0.00025021
0.13361469 0.46183273 0.50009573 -0.00120988 0.00058623 -0.00000292
0.61258239 0.56545794 0.51814836 0.00005119 0.00049764 0.00010929
0.78363633 0.57222062 0.50009573 0.00065494 0.00144867 -0.00000776
0.52157682 0.62260151 0.50009573 0.00025914 0.00050780 -0.00001252
0.31183928 0.71168995 0.51696038 -0.00049987 0.00106023 0.00014165
0.31240544 0.36714244 0.15901218 0.00003544 -0.00034560 0.00014364
0.25392276 0.46680111 0.88531655 -0.00091985 -0.00072682 0.00023964
0.26191512 0.39920196 0.90865517 -0.00098217 -0.00032980 0.00095538
0.84268928 0.53370017 0.50009573 0.00070943 0.00188696 0.00002186
0.61258239 0.28583539 0.48989725 -0.00014415 -0.00142939 -0.00028031
0.26291099 0.61651582 0.33891290 0.00011806 -0.00008477 -0.00015489
0.48668659 0.62260151 0.40575674 0.00033232 -0.00022864 -0.00035204
0.31240544 0.29859337 0.61457115 -0.00021535 -0.00121384 0.00079611
0.42998660 0.51632947 0.68203527 -0.00028464 0.00007728 0.00063783
0.38576797 0.62260151 0.65322661 -0.00009603 0.00017443 0.00018540
0.25590992 0.65623713 0.81228602 -0.00072979 0.00045852 0.00034198
0.25565165 0.65015644 0.82176358 -0.00079488 0.00036866 0.00042740
0.36296105 0.61769223 0.33952636 -0.00010871 -0.00002841 -0.00009467
0.34142566 0.39913514 0.15901308 0.00024607 -0.00020795 -0.00014324
0.61258239 0.55371875 0.59154719 0.00006686 0.00085897 0.00022185
0.74604863 0.51632947 0.65573764 0.00028140 0.00032385 0.00155423
0.33045149 0.57870483 0.68100715 0.00005095 0.00025061 0.00014959
0.37053752 0.39920196 0.87996525 0.00022359 -0.00027262 -0.00048762
0.31240544 0.47162172 0.95129633 -0.00013234 -0.00085846 0.00147342
0.31240544 0.48047629 0.17933415 -0.00008459 -0.00009558 -0.00004935
0.44088957 0.71055490 0.50009573 0.00080669 0.00105714 -0.00000583
0.31240544 0.40640995 0.95454544 -0.00000919 -0.00064568 0.00135029
0.50596905 0.62260151 0.56557608 0.00033981 0.00021148 0.00029793
0.31240544 0.39084899 0.17487141 -0.00000959 -0.00019499 -0.00030810
0.26584494 0.61054021 0.66440618 0.00012522 -0.00018840 0.00019177
0.13304171 0.50531656 0.50009573 -0.00124262 0.00044899 0.00003427
0.31240544 0.70533460 0.79659915 -0.00031432 0.00109126 0.00047890
0.31240544 0.60854983 0.28068215 0.00003575 -0.00001450 -0.00085180
0.21777789 0.66357154 0.50009573 -0.00085886 0.00088927 -0.00000984
0.45620543 0.59193575 0.37863469 0.00024220 0.00015900 -0.00006795
0.31240544 0.50049150 0.82069093 -0.00006474 -0.00009227 -0.00003658
0.15149657 0.33649713 0.50009573 -0.00173344 -0.00054214 -0.00000452
0.52438164 0.51632947 0.66318119 -0.00003833 0.00025082 0.00068761
0.81528342 0.51632947 0.62427151 0.00152909 0.00035090 0.00140219
0.37585035 0.67016011 0.16249542 0.00097340 0.00072384 -0.00074478
0.46052176 0.30810407 0.50009573 0.00008541 -0.00051108 -0.00000640
0.31240544 0.58031774 0.30699980 -0.00002165 0.00014619 -0.00027896
0.25478131 0.60995811 0.85376221 -0.00098851 -0.00001924 0.00042768
0.44998014 0.30550528 0.50009573 0.00010323 -0.00058999 -0.00000670
0.58974212 0.51632947 0.35020936 0.00018847 0.00041748 -0.00066262
0.31240544 0.34566724 0.13830365 0.00010447 -0.00046000 0.00103362
0.27057868 0.51632947 0.31602716 -0.00030574 0.00008498 -0.00066085
0.31240544 0.64733893 0.23779364 0.00022285 -0.00098443 -0.00107948
0.31240544 0.39676142 0.31283629 -0.00026239 0.00013223 -0.00107604
0.37513790 0.39920196 0.88947099 0.00039637 -0.00032006 -0.00011456
0.74920672 0.30283692 0.50009573 0.00052551 -0.00137788 -0.00000355
0.34702948 0.65512031 0.35904300 0.00031547 0.00005851 -0.00002253
0.83649766 0.51632947 0.40605822 0.00179247 0.00043381 -0.00069492
0.41026175 0.62260151 0.64708817 -0.00007922 0.00025675 0.00036320
0.17843083 0.59945607 0.62370312 -0.00099069 0.00076191 0.00069227
0.51129079 0.51632947 0.66619515 -0.00008893 0.00021546 0.00069637
0.25523466 0.63328272 0.16311249 -0.00086246 0.00002903 -0.00045401
0.31240544 0.58435488 0.69696325 -0.00004467 0.00006706 0.00027067
0.16273211 0.60768539 0.50009573 -0.00119186 0.00061181 0.00000136
0.49052271 0.64644313 0.58636141 0.00056665 0.00051973 0.00027135
0.59012043 0.57682180 0.50009573 0.00016715 0.00056031 0.00000147
0.25396913 0.48500544 0.88362402 -0.00094520 -0.00059950 0.00020908
0.31240544 0.63567460 0.09991471 -0.00025870 0.00095525 -0.00136428
0.61258239 0.29660437 0.43502378 0.00011183 -0.00135999 -0.00039781
0.13844576 0.54868716 0.45198438 -0.00140177 0.00015061 -0.00010914
0.37585035 0.67016011 0.83770561 0.00098732 0.00069802 0.00076804
0.31240544 0.51246476 0.05484028 -0.00014565 -0.00021504 -0.00144710
0.14261566 0.56089765 0.43382871 -0.00146741 0.00031728 -0.00011721
0.80743748 0.51632947 0.63130128 0.00133747 0.00033733 0.00157901
0.31240544 0.70763737 0.21430944 -0.00027257 0.00110987 -0.00037571
0.37451330 0.68207324 0.81609398 0.00089886 0.00095651 0.00033140
0.29894218 0.39920196 0.05424366 -0.00082113 -0.00065241 -0.00105427
0.25758424 0.66372746 0.75075620 -0.00069506 0.00029944 0.00016788
0.61258239 0.35073388 0.63891667 0.00021922 -0.00069845 0.00138357
0.31240544 0.51700050 0.17993668 -0.00004718 -0.00008232 0.00009816
0.28897807 0.33796862 0.88755107 -0.00066078 -0.00123246 0.00008473
0.61439955 0.56625736 0.50009573 0.00004554 0.00047779 0.00000519
0.35937408 0.60881406 0.33489627 -0.00011605 -0.00005387 -0.00014338
0.37355527 0.68331689 0.80060899 0.00079161 0.00078351 -0.00000756
0.45062765 0.59892583 0.62728959 0.00025554 0.00000755 0.00013183
0.61258239 0.52990729 0.63002753 -0.00003510 0.00093413 -0.00000698
0.30081749 0.33201164 0.88755107 -0.00028927 -0.00138912 0.00008702
0.31240544 0.53928566 0.68953794 -0.00010610 0.00043618 0.00047389
0.31240544 0.71060991 0.74693650 -0.00019343 0.00127947 0.00021198
0.37887597 0.57288927 0.88660979 0.00098592 -0.00019265 0.00052673
0.62625891 0.51632947 0.35208967 -0.00023309 0.00045401 -0.00068871
0.31240544 0.28634197 0.58376896 -0.00016456 -0.00129427 0.00037493
0.31240544 0.56191361 0.18183610 0.00003696 -0.00011236 0.00030989
0.25786802 0.66070807 0.74033469 -0.00071037 0.00021891 0.00008075
0.47537374 0.51632947 0.67390102 -0.00017556 0.00013591 0.00068117
0.31240544 0.38462463 0.31602806 -0.00026235 0.00004998 -0.00114817
0.31240544 0.35647988 0.14996573 0.00006791 -0.00029791 0.00066853
0.61258239 0.39114231 0.65265954 0.00020398 -0.00022796 0.00129134
0.37965885 0.39997047 0.10093876 0.00060375 -0.00036241 -0.00032191
0.31240544 0.54840213 0.18118945 0.00000606 -0.00005625 0.00023532
0.31240544 0.71066910 0.25163159 -0.00018899 0.00125228 -0.00026716
0.61258239 0.41705021 0.65531021 0.00017635 -0.00003369 0.00112171
0.31240544 0.42963585 0.95360279 -0.00005114 -0.00039611 0.00133256
0.23102108 0.61819470 0.34863645 -0.00003985 0.00047011 -0.00047693
0.41687882 0.62260151 0.35486084 -0.00001613 0.00026191 -0.00040421
0.31240544 0.47429329 0.82086140 -0.00008536 -0.00020639 0.00008335
0.19791473 0.28219479 0.50009573 -0.00093794 -0.00180317 -0.00000581
0.25467852 0.60240048 0.14266181 -0.00097760 -0.00009303 -0.00035924
0.46926805 0.51632947 0.32513860 -0.00021951 0.00012174 -0.00069057
0.44035664 0.51632947 0.68023813 -0.00029066 0.00008492 0.00064858
0.52601230 0.51632947 0.33739594 -0.00000749 0.00025168 -0.00068965
0.28718415 0.66091949 0.63813543 -0.00047918 0.00008732 -0.00001671
0.37961927 0.43407950 0.10157492 0.00059104 -0.00044481 -0.00028689
0.31240544 0.36532259 0.67730784 -0.00026332 -0.00020225 0.00126736
0.61258239 0.56472027 0.53420609 0.00006427 0.00060040 0.00011678
0.31240544 0.47596490 0.69358909 -0.00022735 0.00022588 0.00070864
0.43817028 0.62260151 0.63959330 0.00015311 0.00011588 0.00046138
0.29943010 0.51632947 0.30982915 -0.00021576 0.00025267 -0.00062059
0.29409063 0.70440149 0.50009573 -0.00059495 0.00098079 0.00002296
0.31240544 0.61650354 0.08855776 -0.00022441 0.00068112 -0.00145954
0.85431671 0.51632947 0.53795737 0.00162888 0.00080296 0.00027664
0.79554576 0.32185200 0.50009573 0.00097685 -0.00147459 -0.00000362
0.31240544 0.47162172 0.04890512 -0.00013819 -0.00079344 -0.00144805
0.25495043 0.27056184 0.50009573 -0.00000767 -0.00150850 -0.00001195
0.25890708 0.64375198 0.29807705 -0.00058489 0.00001595 -0.00005645
0.31240544 0.35717654 0.85079372 0.00005347 -0.00034939 -0.00061986
0.13944298 0.38820928 0.50009573 -0.00140048 0.00007818 -0.00000435
0.31240544 0.32705140 0.11265130 0.00001428 -0.00144682 -0.00006245
0.48604634 0.51632947 0.32844043 -0.00027944 0.00015392 -0.00072876
0.57482100 0.58466589 0.50009573 0.00014289 0.00061073 -0.00000159
0.78584492 0.51632947 0.35528603 0.00097473 0.00031772 -0.00171640
0.69304454 0.51632947 0.34396136 -0.00018340 0.00038008 -0.00111026
0.35653719 0.60306847 0.66830236 -0.00009029 -0.00000981 0.00015190
0.27463675 0.39920196 0.84853274 -0.00028942 -0.00025599 -0.00047108
0.31240544 0.28078651 0.43940964 -0.00010231 -0.00125267 -0.00026858
0.31240544 0.29338303 0.39696723 -0.00019879 -0.00121760 -0.00075136
0.36744273 0.39805970 0.12578262 0.00008902 -0.00022334 0.00075893
0.86358875 0.49841160 0.50009573 0.00191249 0.00015582 0.00001948
0.21799526 0.61543584 0.35273862 -0.00021662 0.00064788 -0.00064883
0.25727320 0.66515219 0.23801373 -0.00060873 0.00032459 -0.00012773
0.85591280 0.51632947 0.46946949 0.00163125 0.00087242 -0.00016621
0.13317996 0.49430361 0.50009573 -0.00121203 0.00053325 0.00001130
0.23582260 0.61904097 0.65282327 0.00003303 0.00041199 0.00043055
0.45044488 0.62260151 0.37040129 0.00021055 -0.00004812 -0.00045969
0.66309685 0.51632947 0.34720451 -0.00039901 0.00043104 -0.00089143
0.25451118 0.58564448 0.13653295 -0.00097553 -0.00016818 -0.00025473
0.31240544 0.30645657 0.37198830 -0.00022916 -0.00111265 -0.00099515
0.14636357 0.56810737 0.42310888 -0.00143424 0.00044884 -0.00022769
0.31240544 0.69813162 0.82088512 -0.00037210 0.00118313 0.00046188
0.70897567 0.51632947 0.65726238 -0.00014799 0.00036011 0.00123686
0.31240544 0.64453048 0.20316440 0.00024809 -0.00126194 0.00049233
0.34001487 0.58434302 0.67806685 0.00005090 0.00021224 0.00014524
0.32571679 0.71732002 0.50009573 -0.00044036 0.00113285 0.00002196
0.31240544 0.50210148 0.05307501 -0.00014390 -0.00035575 -0.00144848
0.86078757 0.51632947 0.49246472 0.00179147 0.00102160 -0.00000980
0.84104764 0.51632947 0.41636974 0.00183542 0.00047328 -0.00039790
0.31240544 0.27858606 0.54830712 -0.00005594 -0.00124437 0.00033522
0.14714526 0.56943929 0.57907158 -0.00146371 0.00045419 0.00018989
0.17514949 0.62490743 0.50009573 -0.00103031 0.00083722 -0.00000352
0.31240544 0.70533460 0.20360278 -0.00030402 0.00106956 -0.00044817
0.30563900 0.39920196 0.95041513 -0.00036650 -0.00072477 0.00120641
0.36968738 0.67030019 0.73809469 0.00055639 0.00010158 -0.00001868
0.63682324 0.51632947 0.35063773 -0.00037269 0.00045012 -0.00074760
0.15097818 0.58498555 0.50009573 -0.00127515 0.00042718 0.00000910
0.31240544 0.28939730 0.40717414 -0.00018196 -0.00124037 -0.00061794
0.34330565 0.34329811 0.89296061 0.00062303 -0.00103140 0.00022491
0.61258239 0.56424171 0.45928046 0.00007057 0.00065841 -0.00004905
0.31240544 0.63567686 0.80273896 0.00025352 -0.00088964 -0.00067239
0.31240544 0.57282472 0.81768006 0.00007306 -0.00030955 -0.00038269
0.71107149 0.29308882 0.50009573 0.00014560 -0.00139690 -0.00000336
0.61258239 0.33902633 0.63152903 0.00021674 -0.00095714 0.00127957
0.14406899 0.51632947 0.55431139 -0.00102933 -0.00054063 0.00049046
0.17371026 0.51632947 0.37318519 -0.00099283 -0.00042145 -0.00075598
0.66309685 0.51632947 0.65299785 -0.00035889 0.00043439 0.00088583
0.46456707 0.65500754 0.61298966 0.00027315 0.00083217 0.00053834
0.19344881 0.60711515 0.36511004 -0.00069084 0.00077825 -0.00074977
0.31240544 0.64884549 0.78696066 0.00022957 -0.00131400 0.00003224
0.31240544 0.45906568 0.30649507 -0.00024071 0.00033805 -0.00076027
0.15529314 0.58038461 0.40485501 -0.00131451 0.00062550 -0.00044997
0.49358809 0.31175604 0.50009573 0.00015885 -0.00041964 -0.00000555
0.31240544 0.40091133 0.17985573 -0.00003642 -0.00011409 -0.00037856
0.37918186 0.54154247 0.10864694 0.00092126 -0.00028024 -0.00040478
0.31240544 0.27687487 0.53630000 0.00000473 -0.00119915 0.00058901
0.61258239 0.51219130 0.35335338 -0.00008572 0.00026298 -0.00059940
0.37918186 0.54154247 0.89155453 0.00092716 -0.00030199 0.00043113
0.77092159 0.57597095 0.50009573 0.00040474 0.00148576 -0.00000843
0.31240544 0.33532119 0.34072459 -0.00025264 -0.00064041 -0.00126196
0.32535756 0.66885412 0.36620504 0.00036114 -0.00013239 -0.00012008
0.31240544 0.33180791 0.65669578 -0.00025287 -0.00074967 0.00123633
0.25451118 0.58564448 0.86366808 -0.00099629 -0.00018176 0.00028696
0.31240544 0.64384931 0.89373273 -0.00028786 0.00103516 0.00130862
0.35884815 0.28230485 0.50009573 0.00010566 -0.00106620 -0.00001974
0.48490039 0.59013677 0.40807223 -0.00004207 0.00017896 -0.00032419
0.61258239 0.43000191 0.65557986 0.00015694 0.00009280 0.00103656
0.31240544 0.54845858 0.31193590 -0.00006817 0.00044736 -0.00040047
0.85355282 0.51632947 0.45902026 0.00163508 0.00076226 -0.00023110
0.25405642 0.51436096 0.11978878 -0.00097958 -0.00039081 -0.00016141
0.25978154 0.62832201 0.67001396 -0.00012125 0.00000714 0.00006639
0.61258239 0.29395509 0.44543123 0.00007850 -0.00133824 -0.00040527
0.37270141 0.68317640 0.78680921 0.00071736 0.00059158 -0.00014488
0.31240544 0.70091826 0.41002125 -0.00020082 0.00087136 -0.00057312
0.63807833 0.51632947 0.64973426 -0.00039720 0.00044559 0.00073463
0.46395999 0.62260151 0.38195515 0.00026900 -0.00027722 -0.00043052
0.25528106 0.39920196 0.10843184 -0.00098016 -0.00033939 -0.00032585
0.25664023 0.66299170 0.21475053 -0.00055824 0.00031203 -0.00016520
0.36473891 0.62260151 0.65811723 -0.00006253 0.00002915 0.00006454
0.84262103 0.51632947 0.57947946 0.00186178 0.00049219 0.00023249
0.15296717 0.57762074 0.59123659 -0.00139670 0.00055219 0.00031674
0.31240544 0.68565834 0.84732956 -0.00038369 0.00122886 0.00085341
0.25610730 0.39920196 0.11931448 -0.00086829 -0.00032300 0.00012638
0.23962142 0.51632947 0.32475528 -0.00024907 -0.00008792 -0.00084323
0.31240544 0.58314306 0.92657626 -0.00019694 0.00058062 0.00145190
0.55822366 0.51632947 0.65563172 0.00015299 0.00035303 0.00065221
0.14017284 0.55448014 0.44337085 -0.00144307 0.00020552 -0.00008079
0.55422205 0.59684956 0.50009573 0.00004157 0.00066524 -0.00000519
0.13425677 0.52625549 0.48533720 -0.00127972 0.00028788 -0.00022410
