0.47135416 0.61309189 0.08054643 0.00015595 -0.00068753 -0.00125491
0.45902964 0.33555263 0.22657725 0.00016661 0.00004156 0.00058629
0.91149259 0.30720472 0.44589326 0.00072314 0.00069622 0.00019668
0.47958675 0.40448928 0.87375474 0.00088417 -0.00159363 0.00078439
0.46382785 0.75484550 0.20094867 0.00052548 0.00108558 0.00059035
0.53872806 0.63006324 0.21536314 -0.00011415 -0.00029498 0.00043472
0.64795774 0.50640231 0.73182684 -0.00040153 -0.00029345 -0.00071427
0.92773032 0.65194666 0.38613459 0.00220247 0.00076512 0.00057701
0.78434646 0.18689305 0.44650173 -0.00141915 -0.00021368 0.00074441
0.81630343 0.23222549 0.18365011 0.00142761 -0.00085144 -0.00159050
0.64878291 0.43202251 0.85112226 -0.00015201 -0.00172429 0.00092588
0.94016463 0.18308690 0.47109237 0.00218517 -0.00139624 -0.00000557
0.38372156 0.76336628 0.08773500 -0.00029958 0.00136666 -0.00192707
0.19082320 0.83717310 0.43830580 0.00032555 0.00195676 0.00018314
0.76162750 0.18024835 0.31442040 -0.00008159 -0.00157564 0.00054849
0.37445855 0.76999915 0.22983177 0.00031183 0.00112296 0.00071283
0.44749901 0.61693221 0.08239875 0.00012857 -0.00066779 -0.00131782
0.79329681 0.46003264 0.75483119 0.00092729 -0.00147102 0.00043355
0.81287640 0.31021944 0.46202645 0.00003209 0.00008494 0.00027457
0.44039142 0.25473651 0.19142669 0.00018923 -0.00047310 0.00153458
0.43756288 0.24769948 0.18076694 0.00009476 -0.00095671 0.00107841
0.48471296 0.40950650 0.11670416 -0.00019161 0.00067811 -0.00019429
0.83573055 0.58116859 0.79621595 0.00171668 0.00072031 0.00138601
0.89840257 0.51144820 0.46072856 0.00051430 -0.00110848 0.00021590
0.94048083 0.62219113 0.56875730 0.00222635 0.00100535 -0.00038585
0.16211666 0.74000829 0.57525504 0.00035729 -0.00027000 0.00127010
0.07323404 0.70462334 0.42343047 -0.00129851 -0.00074281 0.00031143
0.16874591 0.47478881 0.34244561 -0.00027115 0.00084909 -0.00014326
0.76855254 0.45455310 0.77844769 0.00071035 -0.00154692 0.00059554
0.41805926 0.46757269 0.76011968 0.00045556 -0.00019447 -0.00082829
0.89694256 0.51445931 0.44196278 0.00076678 -0.00100984 0.00036373
0.82403541 0.68615878 0.20352007 0.00158637 0.00107447 -0.00129953
0.82108623 0.46686375 0.72233945 0.00104028 -0.00138719 0.00032317
0.50345033 0.48165870 0.77359343 0.00035555 -0.00013598 -0.00070997
0.74339819 0.70300949 0.13753033 0.00119256 0.00112957 -0.00148930
0.42356029 0.25953299 0.08034938 -0.00058164 -0.00250027 -0.00140911
0.31053913 0.37558204 0.81462997 -0.00000455 -0.00184062 0.00066730
0.42299911 0.76159543 0.21069184 0.00052560 0.00109402 0.00061769
0.48187605 0.23311025 0.16636246 -0.00079490 -0.00145640 0.00023297
0.79820657 0.68747902 0.39781448 -0.00023493 0.00122890 0.00058536
0.58040285 0.53257960 0.94345915 0.00013675 0.00058320 0.00258355
0.06473792 0.37380844 0.57507849 -0.00204358 -0.00211241 0.00070813
0.32274085 0.78002447 0.26427010 0.00050838 0.00107419 0.00068135
0.27742478 0.48186263 0.89363295 -0.00102431 0.00027077 0.00228991
0.52393585 0.59197855 0.83588809 0.00005194 0.00139762 -0.00047367
0.78402925 0.17285860 0.35459405 -0.00011087 -0.00155515 0.00060902
0.53917921 0.22393098 0.17000480 -0.00064775 -0.00152207 -0.00001993
0.88668233 0.52352607 0.38639584 0.00095963 -0.00082600 -0.00008890
0.94767767 0.62164265 0.50401235 0.00235987 0.00039538 -0.00002823
0.74742323 0.29310200 0.36587006 -0.00038177 -0.00000980 0.00066152
0.73378748 0.57965535 0.33654958 -0.00052481 -0.00030252 0.00052614
0.89886540 0.50443876 0.50441462 0.00046349 -0.00108662 -0.00040074
0.42569843 0.41907579 0.12607002 0.00029250 0.00059037 -0.00023340
0.22936530 0.42449579 0.54079580 0.00052934 0.00010800 -0.00007232
0.18948971 0.70073754 0.50668657 0.00021308 -0.00010533 0.00017859
0.36859664 0.25165036 0.18859680 0.00037112 -0.00171254 -0.00003769
0.23060137 0.53981513 0.72294754 -0.00037803 0.00139388 -0.00012640
0.09117068 0.34702888 0.57522547 -0.00145004 -0.00200849 0.00056316
0.73691183 0.52683979 0.64447248 -0.00060964 -0.00028044 -0.00053949
0.28896701 0.55238426 0.77549130 -0.00035553 0.00152598 -0.00002573
0.54138988 0.65912205 0.22822295 -0.00012388 -0.00014088 0.00066956
0.19875772 0.46452820 0.28576711 -0.00020593 0.00081394 -0.00026455
0.16693319 0.52060854 0.62166703 -0.00046840 0.00101032 -0.00045900
0.92266351 0.18570839 0.55086207 0.00170764 -0.00138267 0.00210506
0.41627976 0.75798219 0.07988195 0.00012929 0.00130412 -0.00181237
0.82452285 0.23018110 0.19328949 0.00157669 -0.00090686 -0.00124353
0.57849729 0.49401423 0.76251632 -0.00045188 -0.00022508 -0.00056040
0.86055630 0.58734637 0.76710939 0.00186591 0.00070043 0.00157258
0.69983977 0.51704913 0.69193804 -0.00055093 -0.00030207 -0.00065798
0.44815755 0.47260070 0.76732963 0.00035898 -0.00020072 -0.00080619
0.14012767 0.50114596 0.50343937 -0.00008503 0.00087701 0.00018411
0.21383896 0.33931419 0.14916813 -0.00118722 -0.00052606 -0.00180816
0.77322477 0.69718170 0.15785813 0.00124752 0.00113795 -0.00160661
0.61038506 0.60613406 0.23246783 -0.00025635 -0.00025392 0.00054079
0.54558039 0.59546751 0.83327478 -0.00037265 0.00132379 -0.00046094
0.35742444 0.31264108 0.06989396 -0.00025785 -0.00065833 -0.00225365
0.79190278 0.69012511 0.38254556 -0.00020174 0.00122301 0.00067501
0.55382401 0.72116232 0.21305025 -0.00018637 0.00001653 0.00116906
0.87355500 0.53060710 0.34428701 0.00103628 -0.00084216 -0.00011110
0.55022132 0.59215474 0.10400183 -0.00020239 -0.00109572 0.00016221
0.72012711 0.30092320 0.32619473 -0.00034309 0.00002618 0.00076352
0.93515557 0.18168969 0.51842546 0.00214290 -0.00149772 0.00074531
0.32735845 0.37227151 0.28770000 0.00060129 0.00005842 0.00059069
0.17840807 0.66643625 0.21696880 -0.00140503 -0.00039143 -0.00063160
0.57599413 0.47195300 0.93753350 0.00066482 -0.00148404 0.00244940
0.51070786 0.33998820 0.22335638 0.00000431 0.00007554 0.00064115
0.73089021 0.29823482 0.33882332 -0.00035960 0.00001640 0.00074384
0.34853140 0.64998782 0.24464725 0.00012066 -0.00028057 0.00074288
0.69933367 0.71460181 0.26327884 -0.00027572 0.00126732 0.00052679
0.24090298 0.80157655 0.36828944 0.00036123 0.00109796 0.00091963
0.11021961 0.81281251 0.57724530 -0.00105363 0.00160303 0.00257482
0.09191117 0.69331729 0.35830602 -0.00164607 -0.00018236 0.00030395
0.89598811 0.67196637 0.51205564 0.00058344 0.00222430 0.00039645
0.29872066 0.26423755 0.22463571 0.00002353 -0.00175451 -0.00004599
0.26908794 0.38684210 0.35511243 0.00072879 0.00006861 0.00050434
0.72196943 0.57054257 0.15162487 0.00051753 -0.00068445 -0.00110224
0.22876227 0.76098502 0.45649374 0.00065666 -0.00005701 0.00057406
0.10099531 0.44072029 0.71528375 -0.00238202 -0.00012497 0.00066863
0.88228232 0.52655381 0.36799544 0.00102200 -0.00081396 -0.00022735
0.20767166 0.82250834 0.44329399 0.00065027 0.00121006 0.00028392
0.44001824 0.63425028 0.21172494 0.00002663 -0.00028052 0.00064688
0.39875546 0.24657081 0.17876896 0.00048825 -0.00167031 0.00018091
0.05002077 0.39492863 0.44166797 -0.00222689 -0.00023709 -0.00004967
0.17251793 0.49796119 0.53791541 0.00075373 0.00039512 -0.00019712
0.47983354 0.51622242 0.95065916 0.00021994 0.00045169 0.00236159
0.78559941 0.69277114 0.36727634 -0.00012589 0.00122709 0.00070121
0.19130245 0.69155550 0.46193606 0.00008100 -0.00010296 0.00014831
0.19202244 0.46658537 0.29676408 -0.00023470 0.00082790 -0.00020354
0.55273265 0.58325124 0.90444195 -0.00017555 0.00225254 0.00103708
0.80813998 0.16027962 0.42700341 -0.00068712 -0.00145709 0.00054431
0.06484851 0.42539737 0.62802637 -0.00260237 -0.00029276 -0.00057072
0.21875469 0.46089810 0.53659147 0.00040569 0.00031458 -0.00009475
0.93448466 0.64729810 0.41416088 0.00217775 0.00075336 0.00075473
0.16571893 0.33737808 0.62953776 -0.00048774 -0.00183264 -0.00032285
0.18644497 0.80206126 0.21983059 -0.00138561 0.00156155 -0.00082127
0.17350690 0.29645121 0.37892011 -0.00043804 -0.00167611 0.00059222
0.29571232 0.37280813 0.80553949 -0.00021287 -0.00187507 0.00068643
0.18484978 0.70692301 0.52709949 0.00028903 -0.00016859 0.00030226
0.69033515 0.51501989 0.70006967 -0.00053334 -0.00030401 -0.00066894
0.20634907 0.70713013 0.46174908 0.00018785 -0.00012058 0.00020244
0.12526944 0.78396350 0.58744895 -0.00037738 0.00026502 0.00245781
0.31984171 0.48950642 0.91419053 -0.00093820 0.00027814 0.00220793
0.22716114 0.80737835 0.40125343 0.00043023 0.00104707 0.00099229
0.22613896 0.67869896 0.37108022 0.00023431 -0.00011623 0.00054920
0.56089151 0.73454273 0.07191057 0.00088208 0.00152339 -0.00178526
0.23501375 0.80406332 0.38241675 0.00037019 0.00110095 0.00101669
0.33621731 0.49237192 0.92096734 -0.00063553 0.00032870 0.00234446
0.45021334 0.40460578 0.10032356 0.00006910 0.00089493 -0.00051992
0.58913428 0.59399474 0.09270763 -0.00027804 -0.00084454 -0.00099219
0.06726062 0.72729772 0.52139688 -0.00180297 -0.00035169 0.00053708
0.57153577 0.75937492 0.14030609 0.00033751 0.00217631 0.00017986
0.26004928 0.78566062 0.14942755 -0.00120437 0.00151166 -0.00147905
0.10726911 0.67928553 0.45064947 -0.00004543 -0.00077702 0.00053799
0.22594370 0.39400384 0.54626769 0.00070166 -0.00022827 -0.00004412
0.83890367 0.68247461 0.22089511 0.00152224 0.00106845 -0.00116528
0.18241718 0.34599352 0.17598502 -0.00160697 -0.00046504 -0.00162757
0.71912271 0.62698984 0.74544847 -0.00026325 0.00152828 0.00003841
0.62144947 0.21014091 0.19521739 -0.00027401 -0.00159571 0.00018563
0.68342054 0.57779348 0.12794830 0.00026675 -0.00062282 -0.00127168
0.89130002 0.31764922 0.45082563 0.00002467 0.00055727 0.00029740
0.56323719 0.43101901 0.81523442 0.00002354 -0.00097719 -0.00097467
0.27818802 0.36913076 0.79056609 -0.00021907 -0.00187982 0.00048609
0.90857673 0.30457735 0.49860322 0.00093543 0.00053382 0.00019191
0.89608145 0.20977637 0.29696980 0.00200287 -0.00101833 -0.00056996
0.93833911 0.18600649 0.44689047 0.00217789 -0.00137931 0.00020979
0.43336535 0.57747811 0.83455956 0.00010860 0.00157913 0.00017617
0.85122281 0.33957589 0.30982095 0.00096993 0.00037463 0.00001539
0.55748135 0.61515313 0.21494853 -0.00023716 -0.00027395 0.00035852
0.92698348 0.19517893 0.38333884 0.00220143 -0.00124988 0.00046616
0.43454182 0.35249802 0.23258480 0.00042508 0.00007464 0.00046411
0.08822107 0.69338375 0.44529241 -0.00021305 -0.00111982 0.00050046
0.60753059 0.60577685 0.81562442 -0.00068732 0.00137272 0.00016383
0.81851625 0.67183757 0.49280050 -0.00063073 0.00097699 0.00062551
0.25359303 0.43070313 0.61335063 0.00067242 -0.00013175 -0.00044071
0.75274581 0.57355905 0.36907363 -0.00057593 -0.00028817 0.00043762
0.74186897 0.56659669 0.16599384 0.00063555 -0.00071488 -0.00102552
0.22872177 0.40940955 0.48618400 0.00066141 0.00002152 0.00034389
0.95454538 0.58940035 0.49885491 0.00271730 -0.00085672 -0.00013134
0.79892755 0.23606578 0.16748343 0.00146027 -0.00087079 -0.00147376
0.76388168 0.53665769 0.59044278 -0.00061196 -0.00025231 -0.00035465
0.46219832 0.51336282 0.94927567 0.00016693 0.00043790 0.00232621
0.79951870 0.29599747 0.46179283 -0.00002058 0.00020533 0.00019089
0.09015350 0.83972859 0.44008228 -0.00137615 0.00214881 -0.00024917
0.73925072 0.24828568 0.12123984 0.00109981 -0.00081698 -0.00171457
0.23950395 0.36057043 0.75358695 -0.00009000 -0.00181890 0.00061390
0.17534284 0.34138861 0.65277106 -0.00028778 -0.00175088 0.00024756
0.68946993 0.62076384 0.77073300 -0.00032878 0.00151403 0.00011677
0.56982088 0.51814091 0.94578481 0.00041557 -0.00050172 0.00258763
0.74727577 0.36485267 0.19226867 0.00064206 0.00058311 -0.00046093
0.29757100 0.32311109 0.09465280 -0.00033214 -0.00067110 -0.00227966
0.22582857 0.43662968 0.53939450 0.00047060 0.00021545 -0.00008362
0.57465792 0.32947043 0.23273954 -0.00005113 0.00005772 0.00079137
0.80618757 0.35189590 0.24761371 0.00075917 0.00050960 -0.00029481
0.15972456 0.33074474 0.56699419 0.00074528 -0.00137946 0.00014870
0.45936781 0.41246155 0.15013388 0.00013650 0.00034699 0.00053274
0.67623329 0.20010467 0.22556780 -0.00022609 -0.00158982 0.00020516
0.75403655 0.29104897 0.37668818 -0.00038012 -0.00001682 0.00064546
0.84754997 0.54049146 0.28845683 0.00092679 -0.00080416 -0.00049747
0.59365088 0.73377770 0.20953856 -0.00049539 0.00113076 0.00062462
0.54164714 0.59490818 0.84631479 -0.00025219 0.00151424 -0.00004374
0.48353460 0.29192096 0.04896038 -0.00069763 -0.00055387 -0.00212912
0.54086095 0.74242717 0.19966933 0.00030065 0.00090409 0.00093222
0.53746670 0.57093436 0.79539263 -0.00020090 0.00028913 -0.00118873
0.45409501 0.30423325 0.22738963 0.00019120 -0.00021568 0.00088207
0.24544093 0.67275006 0.33948553 0.00023808 -0.00016395 0.00061516
0.30971354 0.43932945 0.17548122 -0.00001934 0.00065945 -0.00048905
0.34175792 0.43332964 0.15582651 0.00002089 0.00061491 -0.00056750
0.37092912 0.56714553 0.81779444 -0.00011204 0.00158260 0.00010457
0.87251365 0.21733177 0.25655311 0.00206438 -0.00106560 -0.00030269
0.17728575 0.81591862 0.56210446 0.00057732 0.00134101 0.00181473
0.47133678 0.74899000 0.07111048 0.00074397 0.00120824 -0.00185138
0.85972756 0.19171411 0.58215237 -0.00028505 -0.00120569 0.00240624
0.18191975 0.46967119 0.31326029 -0.00029333 0.00084968 -0.00015548
0.88879091 0.49293953 0.57540202 0.00102790 -0.00093667 -0.00036435
0.60642648 0.59114164 0.09687833 -0.00012164 -0.00070676 -0.00115427
0.94342512 0.62831062 0.53094161 0.00211354 0.00116985 -0.00033127
0.86629444 0.53365105 0.32671219 0.00097050 -0.00082190 -0.00028173
0.06709678 0.80898726 0.42314786 -0.00261591 0.00089685 -0.00019883
0.67560935 0.61805636 0.78040332 -0.00036037 0.00150188 0.00012197
0.70505542 0.58719987 0.29990807 -0.00046793 -0.00030071 0.00058103
0.30920246 0.64010042 0.12032780 -0.00082318 -0.00057257 -0.00122506
0.89951217 0.59967279 0.70153332 0.00214940 0.00080694 0.00080571
0.90862489 0.29471311 0.52546978 0.00112380 0.00044156 0.00052019
0.90571952 0.20572399 0.32027456 0.00176170 -0.00100333 -0.00056396
0.77041620 0.17756225 0.32872927 -0.00007692 -0.00156907 0.00058162
0.67790812 0.25959125 0.08788019 0.00073119 -0.00076526 -0.00192509
0.79002994 0.35587043 0.22872677 0.00072656 0.00055016 -0.00043416
0.89577651 0.19848625 0.57978481 0.00129679 -0.00107631 0.00257931
0.14177246 0.49177277 0.44484991 -0.00033533 0.00088190 0.00019993
0.66657346 0.50994700 0.72039884 -0.00044982 -0.00029976 -0.00071271
0.14311233 0.48904619 0.42780644 -0.00038390 0.00088200 0.00011613
0.08849459 0.48858094 0.55273128 -0.00095079 0.00158108 -0.00008999
0.05807455 0.73555404 0.43357959 -0.00213535 -0.00000484 -0.00003376
0.59062439 0.32680616 0.23658800 -0.00005909 0.00006175 0.00082360
0.09840478 0.69058615 0.34269637 -0.00158904 -0.00019216 0.00012076
0.22652626 0.79274726 0.17812043 -0.00105326 0.00149635 -0.00129881
0.26504466 0.36637318 0.77933651 -0.00012024 -0.00184943 0.00059418
0.93898267 0.18121409 0.50091612 0.00227088 -0.00149752 0.00021431
0.08581669 0.84414732 0.48106983 -0.00164283 0.00222208 -0.00007466
0.81182736 0.15743148 0.44402441 -0.00084068 -0.00143650 0.00020616
0.31688437 0.55760950 0.79261190 -0.00013777 0.00157448 0.00006613
0.77562100 0.28095856 0.43654355 -0.00026559 0.00006146 0.00042722
0.24676032 0.45212781 0.22486919 -0.00015790 0.00076076 -0.00040452
0.08759620 0.84196824 0.50810975 -0.00158057 0.00212022 0.00042834
0.23401250 0.42043251 0.55348402 0.00054011 0.00001004 -0.00026234
0.57647115 0.74649233 0.09601817 0.00043444 0.00261290 -0.00015220
0.90683681 0.66181403 0.32876569 0.00188032 0.00095153 -0.00055218
0.19724582 0.82305491 0.53004551 0.00090646 0.00146652 0.00087919
0.79277343 0.26550731 0.52479476 -0.00064057 -0.00005723 0.00034010
0.24740069 0.42807257 0.59840137 0.00063213 -0.00012181 -0.00043899
0.54910761 0.47885728 0.77489507 -0.00004104 -0.00026054 -0.00062873
0.46247652 0.40233067 0.18013386 0.00012362 0.00022983 0.00032082
0.09480023 0.36987761 0.29417220 -0.00205308 -0.00040081 -0.00125002
0.80768621 0.65721416 0.50968713 -0.00111948 0.00030054 0.00006324
0.85955101 0.47864151 0.65965247 0.00111649 -0.00120325 0.00010172
0.81017572 0.51818419 0.48747969 -0.00038489 -0.00039780 -0.00001206
0.87383986 0.59145612 0.74539751 0.00173832 0.00072096 0.00131002
0.43519762 0.35593826 0.05524917 -0.00002570 0.00133988 -0.00196499
0.89421272 0.66678303 0.30070633 0.00191573 0.00099353 -0.00085926
0.91886652 0.65675819 0.35773209 0.00215761 0.00084155 0.00007664
0.33420432 0.25759465 0.20286652 0.00015215 -0.00174490 -0.00019036
0.43868473 0.50955003 0.94743687 0.00033023 0.00046610 0.00249711
0.87847662 0.32952777 0.36607349 0.00102951 0.00028009 0.00035059
0.57034522 0.73762798 0.20391057 -0.00024068 0.00096998 0.00088360
0.81504232 0.57602030 0.82047147 0.00177442 0.00068914 0.00170404
0.22361988 0.72960430 0.46077934 0.00038909 -0.00003081 0.00041476
0.78123933 0.23982324 0.15235351 0.00163472 -0.00092210 -0.00123891
0.11966332 0.79983252 0.58263481 -0.00064611 0.00105775 0.00247659
0.77564240 0.56180245 0.43780902 -0.00053883 -0.00023445 0.00020172
0.91053867 0.20369782 0.33192694 0.00206353 -0.00114141 0.00021573
0.08986313 0.43671569 0.69325286 -0.00211364 -0.00005246 0.00106609
0.75174779 0.45102549 0.79278022 0.00045643 -0.00161552 0.00082007
0.91143215 0.66773701 0.51138157 0.00076441 0.00259509 0.00044003
0.56607848 0.59779811 0.08714654 -0.00022459 -0.00111111 -0.00078382
0.78115612 0.45719895 0.76769781 0.00095815 -0.00149602 0.00048459
0.24595204 0.65185064 0.15678225 -0.00103945 -0.00052700 -0.00111880
0.44899634 0.75259411 0.07289227 0.00037825 0.00125577 -0.00200912
0.61596209 0.32235742 0.24711077 -0.00010100 0.00005974 0.00084751
0.90436411 0.60172260 0.68979579 0.00202321 0.00080049 0.00076983
0.69496369 0.71198308 0.11018185 0.00033088 0.00128312 -0.00199602
0.17724888 0.68528402 0.46075130 -0.00000999 -0.00011525 0.00018372
0.67453164 0.54855627 0.91419506 0.00020632 0.00042266 0.00237305
0.72224659 0.70700091 0.12459772 0.00070260 0.00121539 -0.00178374
0.17403664 0.33575243 0.56391531 0.00141705 -0.00094959 -0.00008000
0.57566965 0.70713603 0.06086034 0.00042107 0.00005879 -0.00272671
0.90582365 0.28034508 0.55420721 0.00119407 0.00029217 0.00130933
0.94309640 0.63705206 0.47691917 0.00208551 0.00099317 0.00058045
0.07777474 0.82135046 0.42287716 -0.00216659 0.00129823 -0.00020844
0.61794281 0.38798991 0.12932821 0.00019169 0.00063094 -0.00064756
0.79810876 0.35388294 0.23817046 0.00071576 0.00053446 -0.00038129
0.32536593 0.37835643 0.82372093 0.00015834 -0.00180960 0.00073802
0.30832908 0.44649118 0.69294298 0.00071855 -0.00015671 -0.00068310
0.90722406 0.28752908 0.53983825 0.00114197 0.00031173 0.00096082
0.86510062 0.68042606 0.51340365 0.00026724 0.00213936 0.00040794
0.57745188 0.44467160 0.91885096 0.00063486 -0.00188024 0.00187783
0.75125444 0.53129703 0.62101620 -0.00062122 -0.00026958 -0.00046793
0.06422681 0.71973872 0.49908751 -0.00176280 -0.00045890 0.00034801
0.83591449 0.16017084 0.54962420 -0.00045011 -0.00204273 0.00158499
0.36226186 0.45752865 0.73389626 0.00059174 -0.00018430 -0.00081841
0.14757110 0.48599753 0.40922242 -0.00033005 0.00086359 0.00001739
0.91649354 0.60684818 0.66045260 0.00213274 0.00085798 0.00034856
0.81426632 0.34990841 0.25705737 0.00085272 0.00047687 -0.00018213
0.22347242 0.80997759 0.41609833 0.00063471 0.00093609 0.00081879
0.30346617 0.48664087 0.90741390 -0.00094916 0.00028659 0.00235508
0.15014026 0.30963144 0.45795134 -0.00053643 -0.00156886 0.00101861
0.04545458 0.40432864 0.49961090 -0.00234881 -0.00006300 0.00093136
0.46135443 0.35294357 0.22350247 0.00016402 0.00020618 0.00042768
0.29781041 0.44385922 0.68063247 0.00072403 -0.00015522 -0.00064707
0.94244373 0.62627077 0.54354697 0.00210600 0.00111167 -0.00042888
0.24717586 0.47612688 0.87510782 -0.00136241 0.00020438 0.00204762
0.07556152 0.47605088 0.55680734 -0.00132310 0.00157299 -0.00002467
0.19192594 0.69807780 0.49005342 0.00015642 -0.00010058 0.00009317
0.53814107 0.60637891 0.19487651 -0.00009103 -0.00035375 0.00029144
0.77874583 0.56897736 0.49559402 -0.00049623 -0.00012675 -0.00002497
0.75415945 0.24546123 0.13039044 0.00131392 -0.00083996 -0.00173421
0.28039306 0.38332811 0.33667973 0.00071619 0.00007344 0.00051519
0.17580298 0.72016191 0.55507058 0.00032592 -0.00020163 0.00071541
0.48584986 0.34403512 0.22431441 -0.00003414 0.00013377 0.00055379
0.45590684 0.63165891 0.20954084 0.00002468 -0.00027616 0.00061262
0.38333610 0.24910261 0.18248136 0.00044833 -0.00170995 -0.00003642
0.43255883 0.75528973 0.07595522 0.00028229 0.00127343 -0.00195697
0.22223543 0.47117186 0.85746473 -0.00143671 0.00019186 0.00206408
0.16511407 0.29995245 0.39919797 -0.00039623 -0.00172426 0.00027168
0.47959933 0.75230277 0.19972941 0.00060831 0.00105854 0.00064626
0.72347271 0.55743653 0.88955688 0.00043998 0.00045912 0.00233961
0.42691085 0.23780386 0.12367838 -0.00044935 -0.00238983 -0.00072118
0.39901081 0.39136004 0.85817748 0.00030183 -0.00174956 0.00093009
0.77171469 0.56451082 0.42153633 -0.00056059 -0.00024682 0.00025483
0.91421700 0.16807304 0.42292157 0.00100486 -0.00250526 -0.00002419
0.86720198 0.20364594 0.58567542 -0.00004029 -0.00074921 0.00242673
0.81696475 0.66277665 0.54924327 -0.00044178 0.00123616 -0.00025021
0.23716874 0.67529964 0.35302618 0.00022246 -0.00013859 0.00060119
0.78180242 0.55279386 0.49301031 -0.00040350 -0.00022187 -0.00004203
0.17053087 0.33938336 0.64115423 -0.00043835 -0.00181246 -0.00018432
0.67653000 0.43681717 0.83964640 0.00002639 -0.00169126 0.00096258
0.82626277 0.51175374 0.48645023 -0.00050061 -0.00045719 -0.00001060
0.05932931 0.38709742 0.39426756 -0.00223777 -0.00020747 0.00008347
0.43831018 0.75906402 0.20703813 0.00038905 0.00111593 0.00067665
0.90083879 0.15556185 0.42306140 0.00088466 -0.00274140 0.00001891
0.86344588 0.22013530 0.24172856 0.00200302 -0.00101372 -0.00066924
0.22817469 0.41229090 0.50385576 0.00063110 0.00004999 0.00035487
0.67515510 0.37823766 0.15017441 0.00051952 0.00060186 -0.00051242
0.08767538 0.84225363 0.46350372 -0.00147054 0.00211847 0.00000932
0.71578485 0.71112835 0.27736473 -0.00012508 0.00123527 0.00068685
0.34951678 0.77470368 0.24506821 0.00044318 0.00109489 0.00071677
0.89787555 0.50244236 0.51685846 0.00058827 -0.00100765 -0.00048358
0.38434505 0.64361435 0.22798903 0.00007481 -0.00028746 0.00071978
0.79925066 0.69167298 0.18004286 0.00133672 0.00111090 -0.00137963
0.12025906 0.84754342 0.42547238 0.00015520 0.00254914 0.00017880
0.95111150 0.60552150 0.50143361 0.00259342 -0.00069662 -0.00012608
0.64013249 0.26619545 0.07220275 0.00044928 -0.00071874 -0.00215920
0.27014926 0.66629243 0.30792359 0.00021378 -0.00020992 0.00068238
0.78051525 0.55010003 0.50959432 -0.00040960 -0.00019309 -0.00022479
0.56394672 0.54644680 0.93763822 -0.00011756 0.00204491 0.00173782
0.77876717 0.55896753 0.45499361 -0.00048535 -0.00023671 0.00023332
0.67046243 0.72022706 0.24354722 -0.00036813 0.00127063 0.00048159
0.07881106 0.35779288 0.57544166 -0.00180547 -0.00185446 0.00060183
0.53845960 0.59833884 0.18464774 -0.00008703 -0.00036991 0.00027086
0.19810510 0.79917580 0.20614885 -0.00133943 0.00154495 -0.00100494
0.56838137 0.76029694 0.16114365 0.00029068 0.00210805 0.00038877
0.14731126 0.45412302 0.78375620 -0.00176991 0.00008326 0.00158548
0.20297574 0.82371163 0.51498932 0.00102728 0.00142857 0.00040040
0.87407786 0.32117957 0.45414546 -0.00043791 0.00040307 0.00037199
0.77066064 0.54023600 0.56949693 -0.00058063 -0.00023308 -0.00031540
0.77163005 0.22775851 0.45506170 -0.00075835 -0.00025869 0.00054494
0.25305507 0.39236268 0.38494903 0.00073906 0.00005907 0.00046153
0.08541708 0.69604802 0.37391561 -0.00171640 -0.00020298 0.00045777
0.40814316 0.50452065 0.94201189 0.00020413 0.00044997 0.00246178
0.89254886 0.51948899 0.41092995 0.00096452 -0.00088166 0.00015890
0.55262434 0.46407115 0.78199989 0.00000837 -0.00053534 -0.00062465
0.67783487 0.71496582 0.10310707 0.00034669 0.00127597 -0.00184542
0.62445098 0.60367829 0.23827240 -0.00028998 -0.00026234 0.00056392
0.42493927 0.39561540 0.86441213 0.00059955 -0.00167895 0.00083466
0.12236535 0.82175416 0.32378942 -0.00161668 0.00165506 0.00001473
0.72812307 0.70852327 0.28792888 -0.00017312 0.00125999 0.00057033
0.24123473 0.39737898 0.41345996 0.00073297 0.00004624 0.00041523
0.54700297 0.59604645 0.88132656 -0.00019398 0.00220283 0.00085919
0.88884097 0.24103338 0.58627295 0.00093365 0.00050769 0.00214367
0.54003412 0.53254741 0.77240598 -0.00012762 0.00033290 -0.00063693
0.38997713 0.36018997 0.24824631 0.00048291 0.00002574 0.00055850
0.53896374 0.58568066 0.81992483 -0.00027725 0.00065090 -0.00110535
0.80125546 0.16494228 0.40004441 -0.00025916 -0.00155925 0.00096948
0.15054348 0.48396504 0.39683300 -0.00031337 0.00085972 -0.00002513
0.44049656 0.39816859 0.86815274 0.00046724 -0.00168931 0.00081808
0.46167573 0.41153997 0.16566114 0.00012485 0.00023095 0.00043578
0.40050584 0.64079672 0.22126876 0.00007544 -0.00029290 0.00070604
0.73636389 0.18698819 0.28086093 -0.00012541 -0.00158419 0.00045601
0.52026635 0.41100109 0.87612641 0.00094179 -0.00161762 0.00064176
0.92416537 0.65448165 0.50926298 0.00071143 0.00258324 0.00040455
0.06347634 0.38422653 0.37700540 -0.00235462 -0.00018325 0.00018728
0.77257752 0.28292012 0.42407471 -0.00029639 0.00001529 0.00051391
0.32802474 0.43590105 0.16424984 0.00001975 0.00062987 -0.00052439
0.58031869 0.39416951 0.12032143 0.00004329 0.00062771 -0.00068180
0.35074148 0.36749235 0.26998088 0.00056982 0.00004166 0.00057708
0.85205430 0.18038943 0.57549214 -0.00031776 -0.00154003 0.00232721
0.55816805 0.61254030 0.07464767 0.00002103 -0.00104790 -0.00124137
0.74798441 0.70361340 0.31124231 -0.00029863 0.00127262 0.00053088
0.93689919 0.64122683 0.50714397 0.00158448 0.00173510 0.00019380
0.75397378 0.70101333 0.14399710 0.00128803 0.00112476 -0.00155657
0.93132848 0.18216485 0.53593427 0.00204785 -0.00154592 0.00164036
0.60555542 0.21288891 0.18865004 -0.00013924 -0.00162027 0.00022853
0.90350622 0.31395593 0.45486125 0.00041879 0.00069103 0.00020793
0.76862442 0.28492218 0.41196144 -0.00033497 -0.00001438 0.00054806
0.18960576 0.82217884 0.55012029 0.00078197 0.00156254 0.00162675
0.74387330 0.57654101 0.35296199 -0.00056979 -0.00029056 0.00045329
0.43611833 0.47058949 0.76444560 0.00041150 -0.00019711 -0.00081437
0.17011946 0.72843325 0.56710982 0.00035364 -0.00024757 0.00097960
0.66701216 0.58072215 0.12003744 0.00008039 -0.00059058 -0.00131020
0.81796688 0.66479373 0.53667700 -0.00058365 0.00115121 -0.00018373
0.84398460 0.17028035 0.56255817 -0.00031445 -0.00170529 0.00190628
0.40611652 0.62366611 0.08843909 -0.00024918 -0.00062260 -0.00132448
0.94435763 0.55311340 0.49305078 0.00200311 -0.00106801 -0.00013634
0.70943320 0.25393459 0.10293867 0.00087361 -0.00077794 -0.00194074
0.86248696 0.21737729 0.58799559 -0.00039269 -0.00003056 0.00233602
0.79126561 0.16983297 0.37192768 -0.00008639 -0.00158719 0.00089472
0.69409758 0.25676087 0.09459863 0.00080928 -0.00076480 -0.00204647
0.11951996 0.36223072 0.25385836 -0.00203383 -0.00033768 -0.00089126
0.64885390 0.61304641 0.79677212 -0.00050522 0.00145709 0.00019353
0.23028827 0.41667506 0.53074181 0.00058080 0.00007354 0.00010071
0.76778656 0.56721926 0.40526366 -0.00058197 -0.00026311 0.00031629
0.11139292 0.68512428 0.31147712 -0.00170089 -0.00021528 -0.00013182
0.91157919 0.19078569 0.56449974 0.00144201 -0.00121422 0.00237903
0.79061347 0.28651601 0.46163699 -0.00014567 0.00018002 0.00016138
0.82011235 0.24448544 0.57098329 -0.00066043 -0.00012972 0.00123269
0.83043891 0.15535434 0.53503537 -0.00050133 -0.00207248 0.00125925
0.85005498 0.67971158 0.23392650 0.00168257 0.00103712 -0.00103831
0.06473382 0.71871060 0.43739310 -0.00156957 -0.00060113 0.00019079
0.34019324 0.38113040 0.83281195 0.00010141 -0.00181229 0.00082812
0.55511516 0.52842861 0.94747788 0.00053261 0.00065108 0.00252872
0.76649952 0.56570327 0.86198312 0.00134856 0.00060926 0.00202140
0.72830606 0.52416545 0.65854609 -0.00060700 -0.00029000 -0.00057279
0.85685533 0.32470992 0.45746529 -0.00031780 0.00016157 0.00038374
0.86120629 0.67694855 0.24695788 0.00199215 0.00098616 -0.00088746
0.23909754 0.79008985 0.16736101 -0.00115599 0.00152710 -0.00119488
0.64706618 0.20557107 0.20773084 -0.00019423 -0.00160786 0.00024179
0.44680950 0.39733118 0.08625679 0.00003836 0.00098901 -0.00100317
0.92367798 0.65473562 0.36931890 0.00232497 0.00080690 0.00024327
0.27549371 0.78274924 0.13994062 -0.00096709 0.00149251 -0.00140921
0.15648869 0.47990021 0.37205419 -0.00032665 0.00085783 -0.00014181
0.15872377 0.30376223 0.42216209 -0.00035652 -0.00168950 0.00038250
0.18834828 0.34076056 0.56083596 0.00152511 -0.00078202 -0.00010020
0.81929719 0.14956661 0.49392375 -0.00069020 -0.00205195 0.00037010
0.14834619 0.51075965 0.56297827 -0.00006731 0.00084842 -0.00047895
0.10733280 0.49920854 0.54802948 -0.00077223 0.00134016 -0.00008741
0.41417527 0.24403852 0.17505659 0.00028081 -0.00160779 0.00043439
0.34265268 0.63428766 0.10651408 -0.00036851 -0.00063857 -0.00135133
0.37806627 0.46054015 0.74357295 0.00056280 -0.00018534 -0.00082774
0.58966130 0.21563691 0.18208268 -0.00015475 -0.00161854 0.00010819
0.92134506 0.60889798 0.64871556 0.00221818 0.00085519 0.00036299
0.27018932 0.32822114 0.11033662 -0.00084013 -0.00057428 -0.00191853
0.23691113 0.40038732 0.43145514 0.00072625 0.00003142 0.00039622
0.39562014 0.50243860 0.93900818 -0.00015310 0.00039353 0.00234995
0.43212742 0.33972195 0.05244656 -0.00001325 0.00172812 -0.00218502
0.77720386 0.35856476 0.21778938 0.00073175 0.00054391 -0.00035253
0.89376533 0.59762019 0.71282977 0.00212401 0.00079233 0.00091791
0.16139166 0.47785565 0.36021066 -0.00029689 0.00085425 -0.00012880
0.74528557 0.56157082 0.87617278 0.00132247 0.00061794 0.00189208
0.65839815 0.59725523 0.25901258 -0.00038644 -0.00027694 0.00058078
0.19623820 0.48408344 0.53640622 0.00054272 0.00029913 -0.00013345
0.33677801 0.37025991 0.27966261 0.00058176 0.00005502 0.00059019
0.54078889 0.58777332 0.15912840 -0.00010016 -0.00043319 0.00034242
0.81199896 0.65805435 0.57824749 -0.00026868 0.00135372 -0.00021127
0.26230034 0.47899476 0.88437080 -0.00083134 0.00030060 0.00231033
0.07078916 0.73363155 0.53779119 -0.00176277 -0.00016961 0.00115989
0.26060954 0.38947767 0.36893663 0.00073553 0.00006809 0.00048685
0.13193420 0.45029458 0.76575768 -0.00205402 0.00003751 0.00153674
0.71256626 0.55536896 0.89624983 0.00044669 0.00045206 0.00242291
0.45361760 0.41188037 0.11439033 0.00007146 0.00073561 -0.00018061
0.17335488 0.52328569 0.63717473 -0.00048165 0.00108211 -0.00034069
0.31093007 0.78252304 0.27432951 0.00043370 0.00108540 0.00074240
0.06818406 0.70993316 0.45176581 -0.00130209 -0.00081299 0.00031763
0.36279663 0.64737135 0.23694938 0.00012389 -0.00028963 0.00072906
0.53877807 0.59029871 0.17441943 -0.00008171 -0.00036031 0.00027415
0.21198981 0.82028323 0.47586870 0.00102383 0.00101038 0.00007784
0.73245806 0.63009101 0.73142362 -0.00025707 0.00152614 -0.00001040
0.51968819 0.28606179 0.04981599 -0.00023708 -0.00062436 -0.00205692
0.78043157 0.61690307 0.50324678 -0.00081329 -0.00005213 0.00003780
0.78562945 0.55723172 0.20464194 0.00083988 -0.00076964 -0.00083741
0.80450994 0.68483299 0.41308346 -0.00018544 0.00122140 0.00056496
0.26361561 0.79413676 0.32830831 0.00036301 0.00108786 0.00079268
0.87839562 0.52857774 0.35600358 0.00105640 -0.00082942 -0.00017312
0.81030047 0.68084252 0.43732285 -0.00023079 0.00114941 0.00078606
0.92017674 0.19964546 0.35523167 0.00237176 -0.00124949 0.00066669
0.43473476 0.24066247 0.17010674 -0.00008785 -0.00154241 0.00060086
0.89985484 0.50643516 0.49197128 0.00041724 -0.00114712 -0.00029596
0.57704091 0.21771044 0.17906298 -0.00027528 -0.00159293 0.00014292
0.65974712 0.38090143 0.14380458 0.00036538 0.00062146 -0.00056899
0.29911888 0.78502119 0.28438902 0.00030264 0.00110495 0.00080807
0.71167105 0.70899659 0.11813140 0.00054849 0.00125033 -0.00199003
0.54291815 0.51376194 0.77144253 -0.00011967 0.00026272 -0.00059955
0.65499616 0.71894312 0.09367430 0.00006885 0.00134967 -0.00198107
0.54484087 0.50123829 0.77080083 -0.00008525 0.00004453 -0.00060601
0.24751310 0.79909301 0.35450485 0.00039607 0.00107930 0.00078307
0.23081939 0.77353722 0.45477954 0.00084385 -0.00016222 0.00063013
0.17610061 0.47172198 0.32468054 -0.00030179 0.00085442 -0.00014517
0.81649595 0.15251575 0.47521147 -0.00074566 -0.00171013 0.00015005
0.77837032 0.54561031 0.53723407 -0.00049956 -0.00019583 -0.00031889
0.57721519 0.73769444 0.08233733 0.00051047 0.00202692 -0.00116270
0.94447136 0.63425487 0.49420679 0.00217248 0.00110757 0.00039383
0.13832176 0.79306364 0.58604181 0.00030551 0.00071880 0.00236729
0.86145383 0.53568041 0.31499565 0.00096003 -0.00080906 -0.00041162
0.76852566 0.56097460 0.18880659 0.00076642 -0.00075737 -0.00083441
0.57295758 0.68123662 0.05150492 0.00043952 -0.00003926 -0.00275991
0.22302414 0.28078151 0.29470512 -0.00015185 -0.00178323 0.00002309
0.92591077 0.52758241 0.48896888 0.00161920 -0.00095555 -0.00013326
0.21978417 0.81257677 0.43094322 0.00082526 0.00084780 0.00055556
0.80533373 0.57395685 0.82877362 0.00143340 0.00063770 0.00183247
0.55346811 0.59781361 0.08927512 -0.00008717 -0.00115489 -0.00052043
0.10986555 0.82697618 0.35398465 -0.00188237 0.00182376 0.00071133
0.13914008 0.49913850 0.49089175 -0.00021194 0.00088404 0.00020909
0.73437911 0.55950367 0.88286483 0.00100268 0.00056488 0.00200869
0.52510697 0.48518670 0.77187628 0.00025459 -0.00010087 -0.00066547
0.45605385 0.40072227 0.87189335 0.00048932 -0.00167694 0.00090957
0.88506305 0.32677841 0.38188517 0.00100627 0.00029128 0.00039083
0.07009419 0.38031209 0.35378259 -0.00235554 -0.00026348 -0.00034703
0.89995956 0.31721684 0.43743855 0.00045552 0.00061794 0.00034144
0.23709409 0.27732354 0.27821669 -0.00023458 -0.00175184 0.00014959
0.95191252 0.57372200 0.49634722 0.00244435 -0.00071841 -0.00009296
0.49630833 0.28985062 0.04796185 -0.00066194 -0.00055918 -0.00224094
0.28907397 0.78750885 0.29611784 0.00034504 0.00109955 0.00083136
0.20108199 0.28685507 0.32567179 -0.00026727 -0.00174626 0.00024337
0.25479454 0.67009902 0.32595170 0.00025018 -0.00018892 0.00062817
0.89548206 0.51747048 0.42319700 0.00097956 -0.00092560 0.00025198
0.50446904 0.22949068 0.16729911 -0.00076043 -0.00147927 0.00013515
0.89431471 0.32105941 0.41509074 0.00069157 0.00042502 0.00048870
0.78486484 0.27338311 0.48543078 -0.00037230 0.00006130 0.00012796
0.22670513 0.74843246 0.45820802 0.00052936 -0.00000603 0.00051543
0.77881676 0.26624870 0.46018121 -0.00038272 0.00010654 0.00021785
0.22853880 0.40621647 0.54388195 0.00063109 -0.00005888 -0.00005694
0.19253992 0.28946471 0.33962250 -0.00033075 -0.00173284 0.00031809
0.49746883 0.51908195 0.95203817 0.00054676 0.00051928 0.00249891
0.44313034 0.41621310 0.12187565 0.00019167 0.00066448 -0.00008420
0.63399661 0.50374389 0.74039805 -0.00037193 -0.00028751 -0.00070534
0.81319588 0.67884773 0.44944254 -0.00024354 0.00111714 0.00084207
0.67617464 0.59359425 0.27298787 -0.00041361 -0.00028685 0.00058551
0.56607574 0.42371252 0.82568663 0.00002664 -0.00118109 -0.00120633
0.14877810 0.75929981 0.58883119 0.00044946 -0.00038826 0.00201348
0.38858950 0.62655932 0.09262709 -0.00036117 -0.00061527 -0.00129179
0.30851978 0.37629476 0.30377385 0.00063606 0.00007314 0.00058111
0.19054513 0.52901167 0.66858637 -0.00045161 0.00120120 -0.00024876
0.29608595 0.77886713 0.12729155 -0.00060688 0.00143091 -0.00161864
0.42364401 0.62077248 0.08425110 0.00005768 -0.00066420 -0.00146456
0.09914161 0.76366389 0.58068639 -0.00138961 -0.00011392 0.00221976
0.38861910 0.30745733 0.06242093 0.00019276 -0.00073315 -0.00225064
0.08491872 0.43462625 0.68131745 -0.00209065 -0.00007851 0.00086982
0.64187962 0.31764969 0.26000473 -0.00016693 0.00006335 0.00085102
0.04646951 0.40641806 0.51249027 -0.00223667 -0.00005223 0.00087291
0.63758928 0.72192234 0.08752702 -0.00000212 0.00141046 -0.00202705
0.54804718 0.33391103 0.22632603 -0.00000007 0.00005560 0.00073929
0.35588884 0.76816231 0.09835245 -0.00027329 0.00137450 -0.00178087
0.54347003 0.58440632 0.13874003 -0.00013764 -0.00063533 0.00041242
0.19588366 0.34313077 0.16449240 -0.00133892 -0.00049794 -0.00168081
0.81369519 0.15546536 0.45649922 -0.00084384 -0.00147905 -0.00000421
0.51603884 0.74177915 0.06842756 0.00111471 0.00122201 -0.00189040
0.87000501 0.14848615 0.42684469 0.00030919 -0.00243448 0.00010949
0.31793934 0.37428313 0.29573688 0.00062337 0.00006357 0.00058381
0.82753623 0.31504959 0.46050605 -0.00005845 0.00005293 0.00032516
0.18399779 0.29207435 0.35357276 -0.00052031 -0.00170888 0.00043890
0.89937651 0.50944072 0.47323909 0.00042487 -0.00114715 -0.00003796
0.10252541 0.83117604 0.38018349 -0.00173283 0.00195099 0.00075563
0.18496676 0.34539908 0.67600435 -0.00035084 -0.00175858 0.00049666
0.43243963 0.30020183 0.05295403 -0.00060828 -0.00063648 -0.00231528
0.77977890 0.55690992 0.46766582 -0.00043653 -0.00023449 0.00019289
0.80069840 0.25888535 0.54365027 -0.00069284 -0.00009076 0.00057205
0.93556648 0.61810368 0.59354717 0.00208792 0.00089204 0.00009371
0.38017848 0.42669126 0.13989058 0.00023584 0.00054327 -0.00056039
0.60535830 0.53672761 0.93745625 -0.00009661 0.00049871 0.00246645
0.21470822 0.35448053 0.72454727 -0.00069898 -0.00192617 0.00000918
0.92966861 0.61401355 0.61819673 0.00208846 0.00087960 0.00014127
0.42951915 0.23875643 0.13915418 -0.00039181 -0.00206334 -0.00063861
0.21391906 0.68378031 0.40056169 0.00018395 -0.00006843 0.00050966
0.44187102 0.38204062 0.07069907 0.00005485 0.00123555 -0.00130794
0.28166512 0.66343743 0.29440293 0.00022489 -0.00023455 0.00069719
0.52746284 0.62008888 0.20943069 -0.00003263 -0.00031168 0.00038134
0.17025371 0.34885752 0.18879704 -0.00162454 -0.00045386 -0.00154620
0.55747491 0.73495507 0.20408489 -0.00007385 0.00066371 0.00099222
0.42480642 0.28038511 0.06690111 -0.00058087 -0.00215180 -0.00141528
0.25190181 0.36361516 0.76810652 -0.00008383 -0.00181983 0.00081035
0.59288079 0.53465360 0.94045997 0.00008148 0.00055311 0.00248698
0.08939573 0.83986014 0.52399832 -0.00153407 0.00208723 0.00112151
0.34118944 0.45351315 0.72099411 0.00064744 -0.00017412 -0.00078271
0.62340552 0.58829349 0.10192330 -0.00008464 -0.00062605 -0.00127384
0.18086343 0.52605575 0.65278113 -0.00048216 0.00115123 -0.00024638
0.52302980 0.74530131 0.19824208 0.00067049 0.00093071 0.00079698
0.75519753 0.56378591 0.17740043 0.00060758 -0.00072034 -0.00096908
0.11908123 0.33331162 0.57302225 -0.00116588 -0.00193793 0.00050813
0.74460101 0.18496154 0.29048622 -0.00009628 -0.00158365 0.00047558
0.05445318 0.40531713 0.57160455 -0.00221318 -0.00073766 0.00063947
0.80740547 0.68283778 0.42520317 -0.00022734 0.00119142 0.00064573
0.80407125 0.65264523 0.61112237 -0.00016902 0.00142146 -0.00011387
0.21807839 0.65762877 0.17939612 -0.00116739 -0.00047572 -0.00087800
0.23123856 0.35854018 0.74390703 -0.00031591 -0.00186756 0.00030020
0.29598039 0.44190040 0.18390498 -0.00005544 0.00068391 -0.00049663
0.54422724 0.67549080 0.22701554 -0.00014574 -0.00015275 0.00078451
0.92759514 0.18058467 0.42278180 0.00180179 -0.00173470 -0.00002764
0.65795171 0.31459218 0.26987532 -0.00023696 0.00006850 0.00082556
0.24256141 0.54275352 0.73695737 -0.00037701 0.00145224 -0.00002342
0.83926094 0.23152280 0.58511335 -0.00084579 0.00008038 0.00186851
0.56299144 0.62966049 0.06168910 0.00020081 -0.00084046 -0.00197251
0.75990164 0.70066792 0.32522985 -0.00030848 0.00128988 0.00043240
0.93851572 0.62014896 0.58122212 0.00221101 0.00094716 -0.00016069
0.72400790 0.19002791 0.26642326 -0.00015246 -0.00158133 0.00032907
0.45054692 0.28963035 0.21989976 0.00021555 -0.00022436 0.00102914
0.25373456 0.33133960 0.12041108 -0.00102430 -0.00054525 -0.00183264
0.11337087 0.44455010 0.73547322 -0.00238397 -0.00014509 0.00047149
0.78723282 0.27064422 0.50339288 -0.00048272 -0.00002939 0.00025341
0.71051455 0.51971775 0.67941600 -0.00056914 -0.00029653 -0.00063091
0.56353664 0.74992478 0.18112010 0.00018171 0.00153170 0.00049050
0.63655251 0.54191262 0.92995137 0.00014821 0.00043132 0.00256350
0.79077095 0.57086205 0.84122747 0.00113720 0.00058959 0.00197163
0.83965963 0.47230095 0.69390601 0.00097403 -0.00131225 0.00021685
0.28448865 0.26699510 0.23435523 -0.00001620 -0.00177120 -0.00009683
0.57361251 0.49341148 0.94443768 0.00073215 -0.00180869 0.00263693
0.86902106 0.48258987 0.63683969 0.00103334 -0.00112891 -0.00001318
0.73282218 0.70500523 0.13106401 0.00109664 0.00114141 -0.00150920
0.65632188 0.26336509 0.07892168 0.00050681 -0.00073233 -0.00200685
0.88712388 0.59556538 0.72368568 0.00199345 0.00078346 0.00094744
0.82999980 0.67140567 0.51195729 -0.00040203 0.00126373 0.00020736
0.36990237 0.31056762 0.06690475 -0.00006286 -0.00068170 -0.00220892
0.55734164 0.49048120 0.76761132 -0.00019616 -0.00015184 -0.00059864
0.21465497 0.53589714 0.70426810 -0.00048606 0.00131792 -0.00023316
0.40000066 0.76067424 0.08380825 -0.00028680 0.00137226 -0.00175494
0.56039864 0.43832543 0.80478263 0.00001146 -0.00081664 -0.00088213
0.22529791 0.78915185 0.45140773 0.00098977 -0.00026328 0.00060103
0.79102302 0.64720565 0.64253825 -0.00027356 0.00144267 -0.00001926
0.16185407 0.33537877 0.61765379 -0.00041823 -0.00184459 -0.00043617
0.15443201 0.30669683 0.44005671 -0.00041166 -0.00163072 0.00067387
0.20345408 0.53295296 0.68966019 -0.00047356 0.00128220 -0.00018549
0.55017304 0.70736951 0.22201516 -0.00023027 -0.00025797 0.00120329
0.35937780 0.63138127 0.09960721 -0.00040423 -0.00062979 -0.00145522
0.23114571 0.40439823 0.45544875 0.00069664 0.00002282 0.00036467
0.16650219 0.66937995 0.23087902 -0.00144322 -0.00036325 -0.00052140
0.53878182 0.40084562 0.11621127 -0.00011801 0.00061822 -0.00058805
0.05569655 0.77657104 0.42654723 -0.00244621 0.00047398 -0.00004870
0.45798710 0.29606166 0.05095696 -0.00087091 -0.00055697 -0.00209127
0.54230487 0.52635163 0.94848830 0.00079501 0.00067554 0.00239626
0.42467713 0.25228980 0.09479207 -0.00048542 -0.00220533 -0.00116954
0.78449893 0.64448589 0.65824622 -0.00021989 0.00146816 0.00001838
0.62052149 0.42723972 0.86078942 -0.00008747 -0.00177239 0.00069330
0.66223162 0.61555135 0.78858775 -0.00047484 0.00147258 0.00014997
0.08135606 0.69890660 0.39042068 -0.00157700 -0.00029858 0.00053903
0.70534128 0.19409847 0.24920933 -0.00017862 -0.00158891 0.00035014
0.27383438 0.43746802 0.64960122 0.00071538 -0.00014840 -0.00054510
0.64981651 0.72411555 0.23085853 -0.00029163 0.00125075 0.00044896
0.79754716 0.64992547 0.62683034 -0.00023749 0.00143335 -0.00009451
0.72726929 0.36869749 0.17899927 0.00061756 0.00058606 -0.00043891
0.61363828 0.72588503 0.08180255 -0.00001988 0.00155110 -0.00190571
0.56288993 0.39698347 0.11809361 -0.00002234 0.00062122 -0.00065303
0.65065980 0.58356118 0.11324480 0.00008911 -0.00060307 -0.00122627
0.15747720 0.33238909 0.59942639 -0.00010095 -0.00181851 -0.00035899
0.62756032 0.72798401 0.22160554 -0.00035613 0.00122288 0.00052102
0.75756830 0.53397739 0.60572922 -0.00061476 -0.00025914 -0.00041873
0.10352985 0.33626443 0.57500970 -0.00137425 -0.00217851 0.00057932
0.94034618 0.64264679 0.44234437 0.00219873 0.00081726 0.00061654
0.19031349 0.66349208 0.20305859 -0.00138229 -0.00042625 -0.00084485
0.58351994 0.27564737 0.05763400 -0.00037925 -0.00059550 -0.00218028
0.77568924 0.58516043 0.49817815 -0.00057435 -0.00000867 0.00000867
0.38309717 0.50035661 0.93600899 -0.00076817 0.00029575 0.00223529
0.81754637 0.67384332 0.48030534 -0.00048695 0.00099926 0.00081433
0.91164869 0.65979201 0.34035254 0.00193309 0.00091779 -0.00034347
0.75619203 0.56363791 0.86948073 0.00135409 0.00060840 0.00202757
0.31667778 0.77498543 0.11464247 -0.00093514 0.00147070 -0.00171269
0.60310137 0.42438018 0.86496234 0.00007618 -0.00181954 0.00040123
0.04799142 0.39910614 0.46742040 -0.00216101 -0.00015046 0.00047838
0.78551608 0.63261777 0.50575632 -0.00106644 -0.00011010 0.00004134
0.05051869 0.41477540 0.56400722 -0.00243165 0.00002992 0.00061639
0.18032639 0.71354270 0.54108483 0.00031766 -0.00019653 0.00045735
0.22730543 0.33645195 0.13767505 -0.00128155 -0.00052146 -0.00188157
0.93326914 0.28697613 0.43909532 0.00168298 0.00064961 0.00012920
0.05959553 0.38956279 0.57334173 -0.00197084 -0.00184244 0.00067100
0.24120834 0.42544243 0.58345258 0.00057536 -0.00009987 -0.00046151
0.68782198 0.30846769 0.29285008 -0.00030735 0.00005907 0.00079475
0.13571712 0.35745242 0.22921057 -0.00194353 -0.00039280 -0.00124241
0.91535741 0.20167163 0.34357929 0.00221434 -0.00119735 0.00047482
0.06262846 0.46352082 0.56088334 -0.00177892 0.00183267 0.00002010
0.29359603 0.66091108 0.28418463 0.00020600 -0.00024580 0.00070278
0.82234466 0.34792137 0.26650062 0.00089583 0.00046230 -0.00017109
0.53285861 0.73906523 0.06973375 0.00097286 0.00132498 -0.00176997
0.36371279 0.42953619 0.14672007 0.00014072 0.00056829 -0.00055432
0.14111528 0.50315344 0.51598734 0.00002896 0.00086380 0.00004751
0.27437049 0.64649844 0.13940996 -0.00086891 -0.00055921 -0.00112735
0.13062938 0.67921233 0.28016007 -0.00151314 -0.00027984 -0.00030292
0.90090066 0.20775020 0.30862218 0.00184634 -0.00100324 -0.00059627
0.46616235 0.23562749 0.16761042 -0.00067751 -0.00144054 0.00046267
0.20518172 0.68794876 0.42575333 0.00012758 -0.00005205 0.00045198
0.42579401 0.24504705 0.10923523 -0.00043264 -0.00226071 -0.00079448
0.85005766 0.67656034 0.51278383 0.00022538 0.00179966 0.00035461
0.39842233 0.57174355 0.82615358 0.00004849 0.00159131 0.00012070
0.94489735 0.63137037 0.51203418 0.00220813 0.00119307 0.00000304
0.90495485 0.31127623 0.46735892 0.00047899 0.00066032 0.00009127
0.88051325 0.22631715 0.58714861 0.00057269 0.00020612 0.00230305
0.44521341 0.29813150 0.05195551 -0.00076942 -0.00058820 -0.00218969
0.64433908 0.38356528 0.13743475 0.00027301 0.00063485 -0.00063743
0.57542843 0.42730567 0.88835037 0.00046298 -0.00180487 0.00095212
0.32241222 0.44950086 0.70496488 0.00069717 -0.00016501 -0.00072512
0.65282935 0.54475993 0.92319739 0.00051277 0.00048573 0.00226812
0.10331094 0.84171838 0.42369869 -0.00079245 0.00228204 -0.00005369
0.76846743 0.69803548 0.33924568 -0.00025827 0.00125497 0.00059635
0.84096175 0.22609279 0.21256737 0.00180806 -0.00096884 -0.00089825
0.85661322 0.53770971 0.30327910 0.00100635 -0.00080893 -0.00048539
0.40245512 0.42289197 0.13166295 0.00030700 0.00054191 -0.00050315
0.29331613 0.64292991 0.12782812 -0.00081003 -0.00057878 -0.00128187
0.07997663 0.37613818 0.32993853 -0.00226061 -0.00023007 -0.00015441
0.69278049 0.43969896 0.83190352 0.00041870 -0.00162957 0.00082592
0.60628271 0.27186576 0.06311362 0.00019105 -0.00068707 -0.00203193
0.07997435 0.43253681 0.66938156 -0.00212228 -0.00010836 0.00066498
0.46346021 0.38211980 0.20700493 0.00014345 0.00034869 0.00020740
0.24276441 0.33341861 0.12712771 -0.00122249 -0.00052059 -0.00181883
0.49537086 0.74976003 0.19851016 0.00065002 0.00102922 0.00067658
0.35805112 0.49619266 0.93000585 -0.00060394 0.00034020 0.00259655
0.94111258 0.20465857 0.42448759 0.00241728 -0.00044437 -0.00000789
0.56442004 0.21978395 0.17604372 -0.00044317 -0.00156079 0.00011878
0.59631920 0.60858947 0.22666372 -0.00023194 -0.00025009 0.00051247
0.46327725 0.39312181 0.19460662 0.00013024 0.00026079 0.00025110
0.87080288 0.50343513 0.48511493 -0.00084277 -0.00090718 -0.00012836
0.35589704 0.56454909 0.81156117 0.00002150 0.00160387 0.00012726
0.29445666 0.37981144 0.32022676 0.00067677 0.00007042 0.00055737
0.04950604 0.41268596 0.55112791 -0.00231167 0.00003957 0.00074945
0.34110072 0.31549653 0.07664607 -0.00018757 -0.00066635 -0.00215463
0.80803484 0.65535003 0.59468490 -0.00023930 0.00138490 -0.00014619
0.14440396 0.50806624 0.54655623 0.00004405 0.00087206 -0.00027631
0.11375680 0.77529484 0.58572364 -0.00091454 -0.00008288 0.00237272
0.81596261 0.66075909 0.56180996 -0.00029315 0.00131283 -0.00026886
0.23196082 0.65469742 0.16756536 -0.00114647 -0.00049503 -0.00098638
0.52070087 0.40374199 0.11479995 -0.00017358 0.00062864 -0.00055135
0.93261784 0.61605835 0.60587215 0.00206460 0.00088716 0.00009136
0.83274227 0.22813717 0.20292844 0.00158851 -0.00091936 -0.00113168
0.12265252 0.44742233 0.75061542 -0.00220787 -0.00005971 0.00094830
0.33908409 0.77108639 0.10533394 -0.00033809 0.00138599 -0.00173668
0.54432505 0.59547704 0.86382049 -0.00015442 0.00183941 0.00058608
0.20124085 0.69039041 0.44142944 0.00010151 -0.00006901 0.00033325
