0.41302767 0.12820260 0.25874519 0.00001004 -0.00130186 -0.00274412
0.71245134 0.72261018 0.37699446 0.00152396 0.00053488 -0.00107959
0.50804579 0.14759719 0.30455536 0.00154963 -0.00071350 -0.00133762
0.36343473 0.52968830 0.62284058 -0.00155233 -0.00044452 0.00112851
0.23551024 0.28993601 0.40605101 -0.00215224 0.00068422 0.00001479
0.31468922 0.50646323 0.37929639 -0.00040357 -0.00041114 0.00061864
0.76246810 0.74749947 0.43193927 0.00194265 -0.00041873 -0.00123063
0.46020404 0.34195623 0.38017169 0.00000124 0.00024988 0.00000781
0.66099298 0.64921379 0.30451164 0.00126283 0.00005478 -0.00223394
0.35109994 0.37038898 0.35263196 -0.00010513 0.00022612 -0.00024683
0.44840690 0.29750201 0.58580744 -0.00092119 0.00029635 0.00046206
0.22936314 0.26666433 0.34904420 -0.00230796 -0.00046765 -0.00036005
0.27165756 0.11740835 0.47628617 -0.00226284 -0.00157656 0.00084831
0.69470668 0.56369728 0.67603725 0.00191221 0.00008530 0.00221986
0.41193095 0.04569650 0.43071857 0.00021410 -0.00224115 0.00024089
0.70709574 0.55040288 0.37381953 0.00208369 -0.00077902 -0.00114807
0.35042465 0.26081476 0.23496138 -0.00034251 0.00002241 -0.00253652
0.22499804 0.35517177 0.32833600 -0.00194912 0.00021378 0.00092674
0.60997796 0.62237811 0.70793790 0.00063840 0.00106680 0.00118666
0.25087327 0.78052098 0.47690943 -0.00025344 0.00008291 0.00227718
0.36746126 0.78486192 0.58863562 -0.00163468 0.00155925 0.00101161
0.57745945 0.05192883 0.39234334 0.00063740 -0.00209776 -0.00175867
0.63005918 0.78901285 0.65883297 0.00138647 0.00185624 0.00185980
0.39276007 0.23905766 0.55139434 -0.00024522 -0.00025995 0.00071555
0.25573501 0.78986037 0.39811411 -0.00152092 0.00171730 -0.00235196
0.46903411 0.40097421 0.50159258 -0.00018870 -0.00027791 -0.00013099
0.56709480 0.60390574 0.75610155 0.00123985 0.00067777 0.00256814
0.31041527 0.34661657 0.45963082 -0.00053196 0.00076570 0.00045138
0.39593410 0.04792095 0.57753479 0.00020707 -0.00305938 0.00121003
0.39232722 0.46697670 0.60009474 -0.00107022 -0.00093661 0.00052601
0.64872247 0.33085528 0.56557995 0.00202640 0.00009722 0.00038709
0.51608974 0.61278397 0.25780839 -0.00006553 -0.00013285 -0.00247243
0.43757057 0.62458211 0.68766946 -0.00108491 0.00008816 0.00078139
0.70247459 0.80640757 0.51322877 0.00054962 0.00085496 0.00054548
0.46991786 0.07536908 0.31518424 0.00049361 -0.00174371 -0.00213542
0.59464639 0.46670821 0.35400391 0.00045188 -0.00127648 -0.00081867
0.30158851 0.09929051 0.33037865 -0.00226544 -0.00117618 -0.00151016
0.53386956 0.72931504 0.27152377 0.00015218 0.00115305 -0.00247469
0.74262840 0.55903918 0.57600379 0.00251644 -0.00052983 0.00048828
0.46665373 0.81008512 0.33251521 -0.00068026 0.00203691 -0.00166473
0.66093695 0.44276422 0.49959338 0.00071081 -0.00093919 -0.00022813
0.48424676 0.52953613 0.29305303 -0.00022400 -0.00089901 -0.00139389
0.61658758 0.29936472 0.63454795 0.00174204 0.00014396 0.00214255
0.27274019 0.61449909 0.40090540 -0.00128933 -0.00030529 0.00031214
0.36251611 0.58031517 0.62435466 -0.00090645 0.00018113 0.00143422
0.60850441 0.46069837 0.66768664 0.00052092 -0.00129521 0.00107227
0.55578345 0.17199931 0.59611368 0.00070097 -0.00135563 0.00104367
0.63275206 0.38020223 0.49972233 0.00094613 -0.00000892 -0.00032017
0.58847600 0.42396337 0.62118340 0.00012210 -0.00015924 0.00047948
0.33742461 0.09370520 0.29664719 -0.00165439 -0.00160556 -0.00222758
0.22951895 0.24341591 0.42401516 -0.00260914 0.00008510 0.00019524
0.47346255 0.42421582 0.60676718 -0.00033787 -0.00057996 0.00012844
0.68386412 0.92844921 0.50939655 -0.00035465 0.00277827 0.00172909
0.35757372 0.70781767 0.32926872 -0.00080910 0.00047774 -0.00156076
0.56777143 0.04590519 0.46509063 0.00038634 -0.00271195 -0.00022921
0.28249967 0.74543625 0.47642317 -0.00044166 0.00010092 0.00103392
0.28158975 0.27104491 0.24994437 -0.00118024 -0.00093035 -0.00246792
0.28053448 0.81926095 0.47690600 -0.00097331 0.00223353 0.00169465
0.54080451 0.29061446 0.38946778 0.00030706 0.00029632 -0.00080114
0.35881722 0.21603067 0.23591323 -0.00078416 -0.00054413 -0.00261880
0.62530226 0.65819144 0.68082929 0.00067950 0.00019652 0.00123906
0.63552922 0.10480200 0.45528090 0.00231022 0.00122060 0.00023547
0.46878105 0.51140070 0.73103964 -0.00076533 -0.00091314 0.00261378
0.25424823 0.82197434 0.43366233 -0.00035034 0.00354163 -0.00115167
0.32811394 0.61557937 0.60201842 -0.00180587 -0.00003892 0.00122717
0.79204547 0.88474685 0.48344535 0.00335808 0.00150719 0.00165772
0.75322539 0.70500040 0.44508269 0.00170142 -0.00023681 -0.00061714
0.51806176 0.32084388 0.65070558 -0.00059707 0.00009895 0.00201223
0.52372974 0.19391726 0.30764648 0.00206207 -0.00032629 -0.00083593
0.65944469 0.52979720 0.33374998 0.00147612 -0.00099349 -0.00161235
0.65035415 0.48172197 0.66028464 0.00127002 -0.00132847 0.00105637
0.36069900 0.04902818 0.45026693 -0.00025222 -0.00241380 0.00013900
0.29194248 0.35535812 0.39758009 -0.00057180 0.00069365 -0.00007579
0.49886337 0.45192620 0.36946264 -0.00019111 -0.00065161 -0.00025300
0.40466565 0.04753093 0.53195697 0.00052254 -0.00231688 -0.00031984
0.52963340 0.06483545 0.61107576 0.00257438 -0.00145257 0.00236024
0.69708246 0.47430333 0.49972385 0.00151708 -0.00108602 -0.00008734
0.53274959 0.04630070 0.51320779 -0.00003373 -0.00251964 0.00020382
0.48944584 0.70689863 0.26624787 -0.00053490 0.00060442 -0.00251916
0.72508919 0.59919119 0.38182566 0.00203519 -0.00014816 -0.00141561
0.61553365 0.82582361 0.36608675 0.00031715 0.00156436 -0.00113027
0.59831160 0.20915999 0.60277343 0.00134317 -0.00188352 0.00116540
0.47910720 0.34037647 0.42115110 -0.00009152 0.00016374 0.00006168
0.22384571 0.40004015 0.31165665 -0.00244901 0.00094951 0.00053358
0.47309956 0.36688823 0.53912240 -0.00038832 0.00003284 -0.00017376
0.68181556 0.71972233 0.33969161 0.00158136 0.00061613 -0.00155825
0.59244883 0.75792962 0.69078422 0.00061426 0.00072830 0.00260550
0.62278569 0.31015939 0.45470929 0.00114116 0.00008349 -0.00126474
0.47379333 0.48015264 0.33950344 -0.00025271 -0.00070488 -0.00056646
0.57737011 0.10544354 0.53506947 0.00117053 -0.00061072 0.00120135
0.29783580 0.39372808 0.30757040 0.00042244 -0.00039929 0.00021434
0.64705253 0.74071121 0.67239434 0.00132343 0.00025192 0.00236485
0.28530598 0.54499257 0.36301067 -0.00134117 -0.00071823 0.00064114
0.39829436 0.51490939 0.66444790 -0.00169981 -0.00007782 0.00139539
0.63974214 0.25553837 0.47327656 0.00200493 -0.00061297 -0.00103264
0.32931823 0.46712357 0.31469259 0.00078782 -0.00063814 -0.00048552
0.24676880 0.36666134 0.24088296 -0.00170767 -0.00020238 -0.00318824
0.52474767 0.23773217 0.32551509 0.00145193 0.00036855 -0.00051351
0.23720297 0.72046226 0.47971490 -0.00037442 0.00047260 0.00192361
0.25301981 0.68700463 0.37572637 -0.00184408 -0.00027266 -0.00170393
0.69319993 0.66825712 0.33509964 0.00195606 0.00059616 -0.00146787
0.57116061 0.76184314 0.29484463 0.00078139 0.00121364 -0.00216326
0.46308529 0.33180395 0.32981959 0.00028895 0.00064477 -0.00039204
0.75013286 0.56345713 0.48900977 0.00243519 -0.00049236 -0.00026570
0.20871143 0.71907896 0.43629855 -0.00319183 -0.00014536 -0.00049843
0.55001855 0.46658957 0.33973992 -0.00004877 -0.00108137 -0.00090002
0.29456973 0.07668864 0.37179190 -0.00271719 -0.00161712 -0.00096043
0.37561685 0.04799205 0.40253386 -0.00026400 -0.00235877 -0.00030854
0.72730452 0.67865264 0.38647416 0.00190233 0.00034712 -0.00104318
0.23426953 0.21615781 0.37304035 -0.00248867 -0.00066822 -0.00025393
0.47210419 0.86680901 0.52965230 -0.00059331 0.00247448 0.00018342
0.42745799 0.09788665 0.60041368 -0.00095774 0.00075863 0.00086346
0.45962408 0.26149365 0.61455464 -0.00134520 -0.00008654 0.00113178
0.30912033 0.62399703 0.55704618 -0.00170332 0.00027965 0.00042752
0.58405536 0.49040270 0.71540457 0.00035644 -0.00135253 0.00197898
0.75822604 0.68808818 0.50146347 0.00178190 -0.00021155 -0.00002218
0.69174498 0.93248355 0.46155038 -0.00122753 0.00293072 -0.00125730
0.25550854 0.31574473 0.43637773 -0.00141098 0.00125274 0.00056773
0.43102297 0.23850177 0.58416170 -0.00103347 -0.00028864 0.00074313
0.73421669 0.77612907 0.52131760 0.00008890 0.00112514 0.00086226
0.22832562 0.67699730 0.41943970 -0.00233755 -0.00069946 -0.00083033
0.20645325 0.75865412 0.47317940 -0.00280480 0.00031385 0.00230616
0.73814940 0.63625211 0.40314171 0.00220330 0.00009609 -0.00085674
0.47455910 0.59748614 0.26656318 -0.00058362 -0.00044280 -0.00209671
0.34240893 0.13767093 0.26777837 -0.00095727 -0.00121289 -0.00253596
0.44236094 0.77646989 0.31236243 -0.00115246 0.00159616 -0.00178367
0.41658947 0.84300190 0.53589827 -0.00117922 0.00214469 0.00027889
0.73987442 0.57763869 0.42066219 0.00235846 -0.00038409 -0.00083252
0.62249178 0.53736961 0.30516732 0.00086437 -0.00075298 -0.00203252
0.35785076 0.49091890 0.51145703 -0.00071409 -0.00067772 -0.00005252
0.53751516 0.52319783 0.73232460 -0.00008485 -0.00087516 0.00180926
0.50709581 0.36256143 0.62821627 -0.00098126 0.00037549 0.00065409
0.51462674 0.42075744 0.42372182 -0.00025277 -0.00040009 -0.00006809
0.44436091 0.06143861 0.51588130 -0.00011616 -0.00124524 -0.00029219
0.53523195 0.77553171 0.69160897 0.00033290 0.00141033 0.00244943
0.33651060 0.65489393 0.33065981 -0.00065908 0.00021736 -0.00125458
0.66661519 0.68315804 0.65866798 0.00039226 -0.00001149 0.00173522
0.57308292 0.20248613 0.40950254 0.00077045 -0.00037006 -0.00100526
0.75386232 0.60812318 0.46101597 0.00235129 -0.00016624 -0.00041778
0.31045309 0.29742682 0.51850677 -0.00044523 0.00088447 0.00140059
0.47698209 0.47426453 0.69956905 -0.00079635 -0.00169909 0.00109412
0.60846019 0.19055687 0.45468947 0.00135322 -0.00035419 -0.00077913
0.64310116 0.42383170 0.54886460 0.00074050 -0.00037230 0.00019417
0.64241540 0.74054402 0.31757134 0.00101668 0.00112456 -0.00187593
0.23127867 0.30551362 0.28386632 -0.00272744 -0.00066116 -0.00116978
0.62050021 0.19412091 0.50158560 0.00158173 -0.00085861 -0.00019013
0.30275086 0.56275499 0.44630778 -0.00093149 -0.00054363 -0.00021076
0.41147575 0.49830666 0.35247886 -0.00030220 -0.00041224 -0.00027757
0.59069824 0.16286997 0.42448348 0.00100839 -0.00019395 -0.00107007
0.68593282 0.51934659 0.66163248 0.00174796 -0.00141889 0.00129446
0.55659080 0.85237277 0.61076546 0.00029577 0.00224739 0.00152244
0.55466294 0.36930728 0.64184147 0.00008426 0.00012281 0.00146661
0.41605318 0.79398489 0.64125234 -0.00156339 0.00192855 0.00139640
0.72411317 0.51010841 0.55662060 0.00197189 -0.00116427 0.00040014
0.31669819 0.17648925 0.55428135 -0.00085004 -0.00047073 0.00215767
0.66006118 0.89328158 0.52621400 0.00016826 0.00068355 0.00178189
0.68147379 0.47605187 0.59766382 0.00129378 -0.00106146 0.00079119
0.45841625 0.79568124 0.66474950 -0.00087594 0.00173684 0.00213710
0.50371534 0.23334341 0.27890936 0.00189295 0.00034298 -0.00157140
0.51967800 0.04594848 0.47020307 -0.00049948 -0.00220866 -0.00029548
0.35088849 0.20514756 0.55961877 0.00011015 0.00002879 0.00166472
0.22370403 0.66624862 0.47749060 -0.00240837 -0.00019056 0.00130922
0.48910946 0.27706128 0.28463772 0.00135580 0.00086195 -0.00114187
0.25333467 0.45951656 0.32214513 -0.00207173 0.00051305 0.00060553
0.34666830 0.51809877 0.57149559 -0.00151907 -0.00063168 0.00023719
0.78398418 0.78518683 0.50569379 0.00216814 0.00035862 0.00167653
0.30941331 0.13076472 0.54148042 -0.00139474 -0.00070127 0.00185307
0.27189225 0.65479416 0.49666238 -0.00017781 0.00087508 0.00117333
0.69335663 0.62006891 0.33420700 0.00191434 -0.00018028 -0.00161080
0.55001175 0.87404734 0.44786549 0.00001819 0.00213352 -0.00062010
0.47888097 0.34818444 0.46868926 -0.00016610 0.00008609 -0.00010719
0.25959617 0.31490812 0.24489810 -0.00149668 -0.00066283 -0.00279849
0.60952413 0.87356120 0.44278687 0.00002882 0.00160316 -0.00067695
0.41923860 0.47478339 0.65743959 -0.00102223 -0.00155203 0.00081057
0.54142189 0.42490110 0.63632584 -0.00013751 -0.00036051 0.00027197
0.36349303 0.36012876 0.44333962 0.00008804 0.00030002 0.00004232
0.31736660 0.68380374 0.57541192 -0.00196750 0.00034106 0.00047836
0.63533241 0.59391570 0.29301843 0.00144728 -0.00038424 -0.00195881
0.60270268 0.15692425 0.51841015 0.00134648 -0.00083726 0.00050392
0.74529797 0.68959415 0.57098800 0.00200876 0.00074030 0.00060152
0.43367663 0.85375154 0.49462676 -0.00105669 0.00216279 0.00011388
0.43173924 0.44269812 0.61146992 -0.00043679 -0.00102881 0.00044814
0.45244598 0.64015055 0.26857531 -0.00050311 0.00016898 -0.00221875
0.60751474 0.62510610 0.27533889 0.00101999 -0.00000136 -0.00230127
0.68520558 0.47075576 0.45529550 0.00117984 -0.00127202 -0.00047092
0.44685230 0.51189679 0.31951243 -0.00049569 -0.00068373 -0.00075523
0.38433746 0.11121021 0.59296113 -0.00006535 0.00110753 0.00188676
0.54983950 0.58085281 0.26513699 0.00029993 -0.00063747 -0.00234680
0.56435502 0.24917209 0.39666560 0.00068234 -0.00023402 -0.00111841
0.27888456 0.49621898 0.33462256 -0.00133654 0.00049865 0.00011137
0.63647693 0.37669328 0.56024432 0.00111076 0.00017318 0.00017409
0.31079486 0.69133103 0.34276950 -0.00091030 0.00032696 -0.00176226
0.45871010 0.66207767 0.70449597 -0.00093051 0.00046020 0.00136470
0.72278816 0.76796663 0.38886493 0.00132258 -0.00009436 -0.00146384
0.46471390 0.20472063 0.61388755 -0.00118219 -0.00060325 0.00135413
0.46766701 0.83550471 0.62287199 -0.00079540 0.00228824 0.00148037
0.24720122 0.32648882 0.37029463 -0.00094233 0.00095528 0.00060308
0.26938435 0.11149133 0.40629068 -0.00237394 -0.00136109 -0.00043358
0.57717508 0.14841279 0.55672401 0.00106824 -0.00087457 0.00094575
0.44753462 0.55576539 0.28947988 -0.00066558 -0.00053505 -0.00145392
0.55211592 0.53529459 0.28399983 0.00026313 -0.00075830 -0.00198564
0.49571073 0.18868189 0.27050951 0.00163910 -0.00062833 -0.00217304
0.31150290 0.05264145 0.40840304 -0.00136117 -0.00310007 -0.00001319
0.34874558 0.78172988 0.54642004 -0.00168068 0.00096532 0.00036891
0.29485086 0.38325781 0.26212105 0.00152632 0.00012204 -0.00067603
0.25139317 0.44415510 0.28013641 -0.00203773 0.00126886 -0.00159736
0.48043057 0.31298757 0.62366349 -0.00146190 0.00022256 0.00078192
0.52061796 0.09871002 0.33035132 0.00191854 -0.00042342 -0.00168473
0.49822861 0.77962244 0.29676291 -0.00007393 0.00164239 -0.00226295
0.74598962 0.60257208 0.58997935 0.00253055 0.00001950 0.00061076
0.62833315 0.49559399 0.33941141 0.00083954 -0.00132421 -0.00134221
0.30200133 0.43262887 0.27683979 0.00114953 -0.00036275 -0.00126479
0.26061222 0.61142802 0.49496087 -0.00176592 -0.00052629 0.00106749
0.65830606 0.29825380 0.53098142 0.00246407 0.00014821 -0.00015626
0.46995506 0.40581092 0.56439668 -0.00035202 -0.00034482 -0.00007390
0.37068906 0.30305496 0.24703373 0.00019315 0.00099084 -0.00181182
0.72453237 0.91604012 0.42731076 0.00032671 0.00277719 -0.00246064
0.33951557 0.51734394 0.45247385 -0.00054624 -0.00053486 -0.00018527
0.48926008 0.76725304 0.69252068 -0.00095451 0.00078525 0.00261057
0.56816882 0.27811885 0.65793532 0.00019636 -0.00030468 0.00288910
0.59861416 0.57195264 0.74952930 0.00111927 0.00007666 0.00295864
0.36988348 0.48058936 0.56278324 -0.00095068 -0.00095991 0.00012452
0.73814756 0.86975288 0.49994230 0.00024028 -0.00010280 0.00191244
0.79354680 0.82667661 0.48100814 0.00302571 0.00035888 0.00076644
0.47216251 0.14236775 0.59922218 -0.00056897 0.00004675 0.00069651
0.39520234 0.83323789 0.47761863 -0.00108140 0.00181125 -0.00016853
0.30916771 0.60572058 0.32000408 -0.00062900 0.00088695 -0.00194666
0.46549812 0.11527273 0.28673416 0.00110063 -0.00113397 -0.00205910
0.47571960 0.06224237 0.46628264 -0.00041328 -0.00127569 -0.00006716
0.46991047 0.24589965 0.25254431 0.00115438 0.00030475 -0.00238756
0.40632558 0.45554981 0.46854055 -0.00017375 -0.00036438 -0.00010446
0.75697714 0.59631926 0.52102369 0.00245748 -0.00006990 0.00022012
0.46232921 0.84540725 0.39583632 -0.00101354 0.00209789 -0.00090815
0.36068034 0.81034851 0.43420449 -0.00056056 0.00156992 -0.00030069
0.63757056 0.89581454 0.48651108 -0.00068107 0.00175366 -0.00026686
0.35520801 0.04830416 0.50766933 -0.00048433 -0.00271017 -0.00021878
0.37182498 0.67600721 0.65454489 -0.00145980 -0.00018471 0.00185071
0.76526219 0.80092436 0.41804269 0.00245707 0.00037631 -0.00152298
0.28309381 0.08533725 0.44040951 -0.00253068 -0.00173718 0.00022280
0.57855481 0.28735158 0.41553253 0.00059757 0.00027561 -0.00105021
0.42131770 0.68835425 0.28568345 -0.00089790 0.00044317 -0.00199821
0.23457298 0.19802353 0.44380555 -0.00267601 -0.00066818 0.00035719
0.61143148 0.14220963 0.46822658 0.00130921 0.00019336 -0.00007282
0.26157913 0.41120347 0.24526168 -0.00056078 0.00120833 -0.00288398
0.55741829 0.09875146 0.38176370 0.00092481 0.00043989 -0.00127873
0.21131182 0.81043553 0.44958568 -0.00333468 0.00280231 0.00042592
0.41331837 0.27924287 0.55756879 -0.00058883 0.00019449 0.00055343
0.40202382 0.25990343 0.23370607 0.00039026 0.00046938 -0.00255469
0.68459642 0.57268035 0.33648798 0.00156090 -0.00047785 -0.00185881
0.40718538 0.19044296 0.55619276 -0.00026662 -0.00038281 0.00065203
0.29432276 0.73513770 0.35712647 -0.00073621 0.00099425 -0.00219759
0.43512651 0.56335461 0.71374059 -0.00195235 0.00024136 0.00134560
0.53468293 0.18927468 0.36775488 0.00089578 -0.00031263 -0.00047957
0.48763174 0.04580130 0.61723745 0.00030896 -0.00354283 0.00230991
0.42035857 0.43948063 0.56772196 -0.00037834 -0.00079036 -0.00007936
0.52827716 0.04672853 0.55816889 0.00097717 -0.00286294 0.00039481
0.36947247 0.52957118 0.34065852 0.00022179 -0.00019610 -0.00028190
0.70186722 0.78385085 0.55280048 0.00124217 0.00111196 -0.00000652
0.65300959 0.25635627 0.51609045 0.00247269 -0.00101813 -0.00041742
0.53752065 0.87819326 0.50911689 -0.00022032 0.00231617 0.00026549
0.60468519 0.67097276 0.27562687 0.00091994 0.00023430 -0.00237986
0.30515894 0.77487743 0.37688556 -0.00045407 0.00169173 -0.00173972
0.54841512 0.08375844 0.57522601 0.00225171 -0.00031904 0.00061635
0.71732956 0.73278522 0.60700274 0.00204304 0.00124367 0.00069676
0.32389235 0.53939128 0.41283831 -0.00043744 -0.00034298 0.00010923
0.31016102 0.46580788 0.35857314 -0.00016493 -0.00068780 0.00058738
0.51240897 0.85635966 0.39028609 -0.00002777 0.00249722 -0.00087607
0.59902924 0.04545454 0.43329501 0.00000725 -0.00348157 0.00078817
0.46510932 0.04582227 0.56146139 -0.00044685 -0.00246042 -0.00017726
0.43838269 0.33820671 0.50417387 -0.00005315 0.00017965 -0.00003189
0.47048530 0.42043987 0.45202982 -0.00013353 -0.00030886 -0.00003086
0.33554646 0.51238072 0.31378677 0.00042516 -0.00002844 -0.00115556
0.58084893 0.53138101 0.74177057 0.00011083 -0.00116812 0.00261724
0.22420248 0.31106523 0.33434051 -0.00245929 0.00009658 0.00018128
0.26453263 0.15069559 0.34668806 -0.00191614 -0.00160452 -0.00118207
0.75446838 0.64392245 0.55040008 0.00226451 0.00011670 0.00032001
0.26718038 0.58939433 0.35383761 -0.00248863 0.00013782 -0.00048951
0.50255644 0.86705184 0.56777298 -0.00033287 0.00261148 0.00058482
0.44308507 0.06128096 0.62236619 -0.00191015 -0.00179369 0.00255663
0.59363210 0.57814169 0.27701294 0.00071776 -0.00069850 -0.00222988
0.61675429 0.87651378 0.52428752 -0.00002255 0.00142193 0.00059258
0.42392719 0.83276308 0.58942986 -0.00137146 0.00207621 0.00107416
0.30559772 0.06804731 0.47874084 -0.00180776 -0.00246803 0.00067769
0.44434351 0.17509679 0.58697528 -0.00096523 -0.00061866 0.00062442
0.36264732 0.81398547 0.50313824 -0.00117180 0.00150365 0.00038148
0.73568523 0.66429347 0.60643780 0.00221077 0.00043664 0.00110972
0.52834278 0.04597536 0.38981405 0.00071746 -0.00242674 0.00028719
0.69290507 0.72192222 0.64585984 0.00151201 0.00064107 0.00211676
0.30898911 0.23772305 0.54608381 -0.00070198 0.00042477 0.00203717
0.57480341 0.23468436 0.64032102 0.00074689 -0.00173883 0.00229255
0.54884076 0.87046367 0.56677467 0.00007620 0.00254970 0.00046578
0.52381444 0.50136870 0.30516323 -0.00023910 -0.00105785 -0.00128981
0.49623933 0.68809366 0.71358019 -0.00068304 0.00068306 0.00157229
0.38270399 0.17525445 0.24026190 -0.00042914 -0.00126962 -0.00263576
0.47355700 0.86822742 0.47572052 -0.00051522 0.00245681 -0.00002099
0.59331954 0.86501741 0.56760305 0.00058279 0.00221118 0.00054540
0.72884142 0.81473321 0.38986099 0.00130013 0.00084003 -0.00217396
0.42839891 0.84556675 0.44725102 -0.00099295 0.00194969 -0.00061886
0.64967245 0.61116827 0.68941045 0.00069839 0.00100326 0.00133306
0.60717213 0.70381391 0.68983918 0.00064743 -0.00019899 0.00186035
0.20965005 0.76512653 0.42687777 -0.00313972 0.00036563 -0.00214084
0.58103848 0.81418413 0.33838528 0.00061928 0.00181685 -0.00156542
0.34490404 0.74267507 0.60025007 -0.00214590 0.00091634 0.00080603
0.68482512 0.50819600 0.38068336 0.00142310 -0.00126201 -0.00123257
0.31614682 0.29782096 0.23935699 0.00008824 0.00032777 -0.00242846
0.73645437 0.54080516 0.44948685 0.00216083 -0.00102155 -0.00053099
0.41223213 0.68469226 0.68179613 -0.00074662 -0.00003563 0.00212245
0.39416075 0.45606968 0.53127986 -0.00039607 -0.00068980 -0.00010244
0.61244392 0.84186101 0.60474235 0.00097222 0.00198538 0.00128214
0.61222929 0.78394651 0.32678044 0.00108000 0.00116478 -0.00174983
0.72526509 0.57264936 0.63318741 0.00244017 -0.00035485 0.00126966
0.74650729 0.55047125 0.53155690 0.00241465 -0.00067957 0.00027521
0.50185382 0.04655995 0.35306028 0.00054119 -0.00281819 -0.00176469
0.70352572 0.50216717 0.42373583 0.00176670 -0.00111403 -0.00062756
0.46642977 0.34097794 0.57747096 -0.00070246 0.00026368 0.00005726
0.59685630 0.37644452 0.62212521 0.00075173 0.00025514 0.00106950
0.41834140 0.35844785 0.38619259 0.00004079 0.00011808 -0.00002324
0.68724644 0.62093776 0.66647416 0.00100101 0.00079427 0.00186985
0.63984829 0.69921553 0.29898101 0.00129580 0.00067257 -0.00207321
0.50689274 0.55502772 0.75469494 0.00009946 -0.00102687 0.00274153
0.56149948 0.37946364 0.44510284 -0.00028931 -0.00013792 -0.00044890
0.78611249 0.85595596 0.44649124 0.00279347 0.00024108 -0.00224426
0.38403082 0.71966177 0.66114581 -0.00193457 0.00054328 0.00191540
0.68651104 0.46683672 0.54765254 0.00124362 -0.00112571 0.00010806
0.43743616 0.46303180 0.38635340 -0.00022784 -0.00039295 -0.00007484
0.38535810 0.74429715 0.32690343 -0.00106195 0.00100280 -0.00157663
0.28235021 0.20709179 0.27801445 -0.00200178 -0.00110476 -0.00147098
0.52726120 0.13828652 0.35475436 0.00130986 0.00028060 -0.00024641
0.78293526 0.77787918 0.45757362 0.00282157 -0.00020123 -0.00069925
0.73193115 0.87589228 0.40420473 0.00161956 0.00118531 -0.00254863
0.25151983 0.15213180 0.39082697 -0.00248004 -0.00106906 -0.00019283
0.41548589 0.74901128 0.67319632 -0.00092678 0.00091289 0.00253364
0.63102108 0.25635263 0.60929054 0.00231115 -0.00123724 0.00157563
0.74208570 0.95454538 0.47847277 0.00166761 0.00422418 0.00028369
0.76856422 0.91041565 0.44575351 0.00282168 0.00225802 -0.00211753
0.42104796 0.35376337 0.34143493 0.00008915 0.00039908 -0.00013373
0.33971879 0.10693580 0.56675643 -0.00164041 0.00043427 0.00166506
0.72263414 0.53225404 0.60560030 0.00200583 -0.00117372 0.00097769
0.29480255 0.47599107 0.28385127 -0.00008671 0.00094813 -0.00205116
0.57696182 0.05223776 0.51145256 0.00143739 -0.00261409 0.00128725
0.46922243 0.57796532 0.74793911 -0.00157016 0.00018560 0.00273307
0.45324564 0.15109381 0.25756097 0.00107412 -0.00119059 -0.00245109
0.66525513 0.90276539 0.43501705 -0.00094408 0.00225800 -0.00092597
0.36331350 0.27248657 0.54137284 -0.00028057 0.00027870 0.00102090
0.45873481 0.85542375 0.57114345 -0.00085391 0.00250404 0.00075401
0.55562490 0.44202179 0.38195235 0.00002737 -0.00086020 -0.00030119
0.41451627 0.04672763 0.33722475 0.00024444 -0.00289404 -0.00077214
0.31035376 0.78687042 0.49541900 -0.00088014 0.00009735 0.00120422
0.66818446 0.77023566 0.64347631 0.00202056 0.00139722 0.00143690
0.45261201 0.31329742 0.28604066 0.00072358 0.00099444 -0.00092803
0.22074275 0.36834541 0.27856806 -0.00335877 -0.00016704 -0.00114590
0.56923634 0.42244199 0.42114061 -0.00005606 -0.00054034 -0.00035367
0.61320120 0.08757629 0.49743274 0.00210493 -0.00090599 0.00150568
0.54209393 0.20089412 0.62775242 0.00036627 -0.00146776 0.00189820
0.24463136 0.27082211 0.47104159 -0.00231040 0.00035574 0.00114382
0.29520124 0.34240502 0.24364735 0.00088523 0.00074209 -0.00206922
0.44916970 0.19682883 0.24201159 0.00089129 -0.00036771 -0.00274625
0.65085942 0.25799978 0.56440490 0.00272232 -0.00073358 0.00068742
0.55349016 0.14795077 0.39486808 0.00055154 -0.00007683 -0.00089141
0.58354729 0.80951971 0.66118914 0.00033702 0.00221708 0.00177889
0.65037918 0.06093968 0.43987745 0.00380247 -0.00211138 0.00058694
0.50332367 0.22317657 0.64056563 -0.00062779 -0.00097399 0.00227286
0.34593332 0.64928901 0.62814569 -0.00151284 -0.00037393 0.00159427
0.36454648 0.04641916 0.35808516 -0.00040206 -0.00307577 0.00036649
0.63996494 0.53412354 0.71644664 0.00162708 -0.00087597 0.00224291
0.25034243 0.73900348 0.37830397 -0.00217393 0.00106256 -0.00190236
0.54735488 0.84039021 0.35976237 0.00064440 0.00229894 -0.00116781
0.43662831 0.44342619 0.43106622 -0.00010193 -0.00031999 -0.00001829
0.27784890 0.26223680 0.52002037 -0.00173266 0.00039252 0.00168790
0.38706359 0.78405410 0.35900646 -0.00106947 0.00137860 -0.00125562
0.63559759 0.84598553 0.56520402 0.00134917 0.00128163 0.00026074
0.28157836 0.19984519 0.53530186 -0.00172844 -0.00014636 0.00216816
0.62920803 0.45022073 0.62718147 0.00064866 -0.00099239 0.00049346
0.66438800 0.80581534 0.60232419 0.00153290 0.00158531 0.00057780
0.56165576 0.64450836 0.73452163 0.00126924 0.00140934 0.00132274
0.37400252 0.75721103 0.63321972 -0.00188356 0.00131981 0.00155869
0.58300412 0.71319336 0.27730137 0.00087500 0.00088873 -0.00227656
0.48771214 0.04690487 0.51508713 -0.00054781 -0.00212848 -0.00024266
0.28036451 0.64080667 0.36439675 -0.00122303 0.00027799 -0.00085003
0.32782778 0.57405818 0.58440089 -0.00169946 -0.00064227 0.00075697
0.50837713 0.80950373 0.66553825 -0.00003882 0.00231535 0.00174934
0.42215383 0.05959006 0.47493711 0.00039821 -0.00143516 0.00044147
0.29334265 0.57392788 0.40050396 -0.00080027 -0.00042164 0.00056059
0.58447313 0.32748035 0.43482035 0.00017770 0.00030967 -0.00093358
0.37403166 0.10565633 0.27363342 -0.00064851 -0.00169369 -0.00260511
0.54074258 0.67866862 0.25952661 0.00048722 0.00031824 -0.00258909
0.31009814 0.22832082 0.25000137 -0.00095503 -0.00059234 -0.00248397
0.41876972 0.14614777 0.56442171 -0.00030875 0.00003760 0.00056830
0.55950421 0.44573560 0.67128485 0.00028742 -0.00112739 0.00079795
0.29694137 0.55911207 0.31672662 -0.00110002 -0.00025146 -0.00200450
0.46064454 0.04796835 0.39173916 -0.00038193 -0.00216091 0.00048130
0.35139605 0.56768554 0.32509366 0.00011684 -0.00024459 -0.00077122
0.38614956 0.81625050 0.56221139 -0.00153788 0.00180699 0.00059378
0.51815581 0.37080455 0.45258564 -0.00039162 -0.00010488 -0.00016218
0.29830331 0.80565077 0.40977636 -0.00003468 0.00230827 -0.00118328
0.61157089 0.25479749 0.43757790 0.00105638 -0.00041699 -0.00147931
0.39910361 0.81436819 0.39698365 -0.00100412 0.00180041 -0.00043545
0.50462008 0.17492776 0.61624604 -0.00028024 -0.00112075 0.00146313
0.68131804 0.87798101 0.40114278 -0.00012579 0.00174558 -0.00210392
0.52447474 0.60663277 0.76888287 -0.00014485 -0.00022485 0.00360740
0.27265817 0.14791615 0.51198137 -0.00217206 -0.00110646 0.00158786
0.39031100 0.34298870 0.48050162 0.00007804 0.00026097 0.00009995
0.25103003 0.19313900 0.33557257 -0.00212735 -0.00076432 -0.00145619
0.50587636 0.56531709 0.27036235 -0.00017594 -0.00082289 -0.00201090
0.67259467 0.84426039 0.51834500 0.00109133 -0.00003378 0.00054977
0.29357687 0.57638061 0.49469072 -0.00110181 -0.00082818 0.00033529
0.36209282 0.07254271 0.59781832 -0.00166296 -0.00115392 0.00340447
0.35833874 0.34126681 0.28015551 -0.00007922 0.00090493 -0.00073889
0.31823328 0.35786554 0.29046044 0.00023673 0.00065877 -0.00016283
0.37575218 0.48324782 0.45082498 -0.00025380 -0.00043144 -0.00012518
0.24953640 0.62765127 0.45390931 -0.00142829 -0.00105642 -0.00060327
0.61357754 0.42062396 0.44914275 0.00025991 -0.00057562 -0.00042866
0.70778191 0.67793089 0.64247072 0.00152134 0.00030691 0.00195354
0.37777889 0.65579796 0.30609226 -0.00101829 0.00028526 -0.00146232
0.39269814 0.48459613 0.39449945 -0.00017685 -0.00033709 -0.00001365
0.25201148 0.19577584 0.50019509 -0.00258553 -0.00020431 0.00133460
0.31774387 0.81602132 0.45264718 0.00017843 0.00207210 -0.00020109
0.28684106 0.69495249 0.48381543 -0.00030310 0.00067024 0.00065726
0.48800486 0.86444914 0.43192372 -0.00044042 0.00241831 -0.00043404
0.77235472 0.73025733 0.48170596 0.00230986 -0.00033914 -0.00040498
0.52120662 0.12644608 0.60114634 0.00069375 -0.00015383 0.00132904
0.41699910 0.08648182 0.28574178 0.00034527 -0.00205539 -0.00232903
0.46997043 0.74356306 0.28239185 -0.00059454 0.00102855 -0.00245804
0.44209406 0.28171295 0.25289789 0.00075500 0.00086629 -0.00198530
0.27438322 0.29948226 0.49111685 -0.00126627 0.00129300 0.00113658
0.65508646 0.83965701 0.38257384 0.00029274 0.00136519 -0.00145401
0.58421075 0.66181338 0.69821578 0.00042972 0.00030198 0.00110455
0.41898116 0.35763043 0.43733090 0.00004164 0.00005817 -0.00000654
0.37055555 0.14494807 0.56513113 -0.00008118 0.00038671 0.00116144
0.54051107 0.67994529 0.71360528 0.00062929 0.00051711 0.00123424
0.40540653 0.21325669 0.23111710 0.00030976 -0.00021663 -0.00294786
0.64205635 0.32891878 0.49022052 0.00158886 0.00019531 -0.00066223
0.34621856 0.37236920 0.39829955 -0.00005675 0.00027498 -0.00003822
0.63884312 0.58187616 0.72225523 0.00175323 0.00086683 0.00207010
0.39941344 0.34668171 0.30031240 0.00016355 0.00078477 -0.00054198
0.50618136 0.83072543 0.34518898 -0.00039012 0.00215080 -0.00173391
0.30322927 0.09540886 0.51457769 -0.00200312 -0.00125982 0.00144779
0.75152349 0.82749313 0.50494015 -0.00017225 0.00099315 0.00185936
0.60903203 0.36921659 0.46283621 0.00037691 -0.00004826 -0.00082791
0.51191187 0.64804006 0.75488770 -0.00063729 0.00184746 0.00248547
0.31994376 0.74194509 0.50161767 -0.00116362 0.00008926 0.00004227
0.62853777 0.34123674 0.60490090 0.00152957 0.00043643 0.00109937
0.64060605 0.44957632 0.42540526 0.00062566 -0.00105497 -0.00045797
0.72691858 0.62442940 0.63231343 0.00213485 0.00038456 0.00160500
0.46090227 0.61888057 0.72829574 -0.00163387 0.00085325 0.00148965
0.32448244 0.73197240 0.54618043 -0.00159385 0.00065130 0.00007558
0.54695755 0.79843336 0.31344596 0.00017712 0.00179639 -0.00202179
0.61629593 0.40498117 0.59121460 0.00058148 0.00009100 0.00050616
0.66773248 0.76169461 0.34851611 0.00115976 0.00106627 -0.00132022
0.29701701 0.42841959 0.33812740 0.00000894 -0.00077571 0.00038574
0.52197719 0.46543586 0.70447642 0.00004208 -0.00124017 0.00177304
0.30974913 0.68318731 0.53094673 -0.00132504 0.00040835 -0.00012323
0.31638104 0.18184172 0.26349667 -0.00110045 -0.00111092 -0.00222996
0.40886989 0.56728411 0.66101229 -0.00092415 0.00041849 0.00087642
0.50929642 0.85107827 0.61037451 -0.00019616 0.00237031 0.00140797
0.39128926 0.57831436 0.30771437 -0.00059071 -0.00044357 -0.00107436
0.49864909 0.30178690 0.33382243 0.00081096 0.00039238 -0.00058388
0.34532687 0.79005176 0.39472592 -0.00043651 0.00144230 -0.00085776
0.32916373 0.52994210 0.49847609 -0.00097768 -0.00056135 0.00015347
0.63083833 0.21573815 0.54967612 0.00171348 -0.00170451 0.00037273
0.27557474 0.37154907 0.34100750 0.00013026 0.00040223 0.00031889
0.32353240 0.05815250 0.34139207 -0.00183794 -0.00296771 -0.00126363
0.64472502 0.47175422 0.38392848 0.00083357 -0.00127324 -0.00089791
0.41383553 0.62320191 0.28512570 -0.00093054 -0.00027390 -0.00172884
0.62761420 0.49448371 0.69711500 0.00119870 -0.00135002 0.00173677
0.42566776 0.73667371 0.29724953 -0.00116758 0.00094504 -0.00199377
0.34748620 0.74533969 0.35195988 -0.00083225 0.00105101 -0.00120422
0.41115862 0.31598029 0.26534659 0.00037669 0.00106774 -0.00135397
0.72971535 0.51479381 0.50200689 0.00197628 -0.00113242 -0.00021843
0.40154314 0.31654939 0.52042413 -0.00012802 0.00032746 0.00030356
0.59050137 0.11998003 0.40491280 0.00100112 0.00034319 -0.00143275
0.36013857 0.61288929 0.31934291 -0.00037912 -0.00006915 -0.00102494
0.34909827 0.32693902 0.50098944 -0.00009859 0.00052830 0.00063522
0.75050467 0.65417671 0.44551587 0.00204836 0.00030821 -0.00045177
0.31162453 0.58107239 0.54021186 -0.00136871 -0.00049320 0.00043113
0.46945167 0.10401236 0.63080567 -0.00021662 0.00069081 0.00272288
0.49667448 0.43436787 0.64518178 -0.00042134 -0.00073148 0.00053230
0.33716354 0.69282413 0.61858344 -0.00209992 0.00066041 0.00136920
0.62625045 0.05695052 0.39993259 0.00203200 -0.00193245 -0.00328186
0.43176979 0.43069783 0.52259386 -0.00012789 -0.00048451 -0.00012392
0.56338406 0.62624925 0.26033309 0.00049733 0.00008306 -0.00252895
0.24993373 0.14932956 0.45355043 -0.00256412 -0.00133627 0.00030804
0.34057492 0.05489282 0.55579817 -0.00235924 -0.00261906 0.00114337
0.58386534 0.87843066 0.49279144 0.00031346 0.00192783 0.00011592
0.52654260 0.72610182 0.70958459 0.00005239 0.00037212 0.00234471
0.68272638 0.80272692 0.37285626 0.00073662 0.00062942 -0.00175374
0.30446362 0.14017700 0.29505926 -0.00199019 -0.00121506 -0.00153905
0.76719636 0.73050112 0.52658534 0.00197870 0.00038581 0.00115438
0.40321261 0.61328429 0.65702540 -0.00074895 -0.00008615 0.00116549
0.75716990 0.64239508 0.49161571 0.00215551 0.00025767 0.00001368
0.73443860 0.91955680 0.50704300 0.00142184 0.00002028 0.00354878
0.36557534 0.05455472 0.31165436 -0.00078035 -0.00295773 -0.00222516
0.49765196 0.26888242 0.64597327 -0.00101433 -0.00022268 0.00212188
0.52605891 0.32685745 0.41502175 -0.00009983 0.00033672 -0.00022740
0.57961369 0.50361103 0.30883616 0.00052850 -0.00115574 -0.00156806
0.43178982 0.81537521 0.36319837 -0.00098642 0.00189150 -0.00116372
0.49890545 0.66063464 0.25823212 -0.00035826 0.00008817 -0.00249623
0.43460205 0.49840540 0.69637001 -0.00157098 -0.00094348 0.00159071
0.50311029 0.31736815 0.37543157 0.00021592 0.00039699 -0.00018268
0.25423867 0.25468266 0.28406727 -0.00211990 -0.00111169 -0.00120926
