ply
format ascii 1.0
element vertex 822
property float x
property float y
property float z
property float nx
property float ny
property float nz
element face 0
property list uchar int vertex_index
end_header
-0.209867 0.462473 0.146848 -0.702121 -0.660203 0.266755
0.173045 0.460195 -0.0352641 0.822247 -0.563863 -0.0772541
-1.4215e-05 -0.962999 0.311732 -0.00783375 -0.0343042 0.999381
0.196811 0.852477 0.151808 0.654897 0.751373 0.0809199
-1.63954e-05 0.662972 -0.223736 -0.00884135 0.286784 -0.957955
-0.193932 0.452398 0.0679842 -0.727683 -0.66884 -0.15209
-0.144894 -0.440518 -0.214187 -0.989772 0.0584233 0.130147
0.0918863 -0.431283 -0.127519 0.574906 0.317621 0.754056
0.192836 -0.597394 0.182539 0.40274 0.587032 0.702278
-0.0793951 -1.05284 0.191965 -0.393504 -0.914 0.0987813
0.148696 -0.623162 -0.17314 0.948683 0.210709 -0.235802
0.144043 0.620346 -0.203793 0.678492 0.105208 -0.727035
-0.191673 -0.995217 0.170874 -0.64585 -0.762777 0.0323904
0.193706 -0.993593 0.170324 0.655297 -0.753642 0.0510817
0.270447 -0.842912 0.0572494 0.933529 -0.228069 -0.276601
0.231904 -0.623219 0.0764921 0.844386 0.482266 -0.233308
0.170175 0.489396 0.210206 0.132031 -0.324599 0.936591
0.188828 0.438336 0.164368 0.543204 -0.714499 0.440932
-0.24401 0.68064 -0.038181 -0.912666 0.0628694 -0.403841
0.125601 0.70425 -0.201695 0.466835 0.273936 -0.840847
-0.139257 -0.209734 -0.27727 -0.981986 -0.0154998 -0.188319
-1.63954e-05 0.349909 -0.073257 0.0187143 -0.788373 0.614913
0.144742 0.747997 0.271028 0.0160336 -0.270293 0.962645
0.108786 0.477688 -0.268944 0.454577 0.165513 -0.875194
-0.183322 -0.563706 0.134433 -0.527402 0.753936 0.391698
-0.138383 -0.35698 -0.268576 -0.95008 0.000953569 -0.312005
-1.4215e-05 -0.0469458 -0.333519 0.0749257 0.0294876 -0.996753
0.175864 -0.903069 -0.12469 0.754946 -0.46212 -0.465298
-0.18984 0.46145 0.0282057 -0.779837 -0.605439 -0.159051
-1.4215e-05 -1.06965 0.101546 -0.0206232 -0.982413 -0.185579
0.193827 0.692572 -0.120817 0.862749 0.104219 -0.494776
-1.4215e-05 -1.07124 0.127939 -0.025068 -0.992367 -0.120742
-1.4215e-05 -0.740622 -0.248601 0.0151319 -0.262692 -0.964761
0.265035 -0.849134 0.0384318 0.919232 -0.259833 -0.295802
0.0893444 0.913854 0.111284 0.276434 0.957699 -0.0799827
0.141201 -0.683334 -0.214661 0.774807 -0.013222 -0.632059
0.190951 0.858458 0.0834686 0.6331 0.76454 -0.121094
-0.0739568 0.235198 -0.311246 -0.222323 0.130573 -0.96619
0.139558 -0.139454 -0.279053 0.986883 -0.00632451 -0.161311
0.173511 0.573212 0.220062 -0.126314 -0.176706 0.976125
-0.148415 0.460973 -0.185517 -0.962973 -0.210577 -0.168348
0.0577545 0.22357 -0.129112 0.317007 -0.157443 0.935264
-0.148439 -0.623597 -0.175219 -0.943284 0.203854 -0.262027
-0.0660042 0.467581 -0.272851 -0.184641 0.192103 -0.963849
-1.63954e-05 0.773069 0.261965 -0.00491837 -0.497207 0.867618
0.193553 -0.907346 0.285862 0.500085 -0.211133 0.839844
-0.138684 -0.336201 -0.270329 -0.939281 -0.00592493 -0.343099
0.174473 0.428999 0.0698645 0.673704 -0.72797 -0.127208
0.135232 0.822674 -0.11838 0.452468 0.716351 -0.531144
-1.63954e-05 0.855529 -0.102012 0.00203238 0.846843 -0.53184
0.0370832 0.478573 -0.273355 0.0416762 0.207601 -0.977325
-0.119238 -0.431169 -0.140131 -0.734959 0.232287 0.637085
0.185572 -0.570318 0.0814713 0.659399 0.745003 -0.100817
-1.4215e-05 -0.525313 -0.022234 -0.00141742 0.985311 0.170765
0.262568 -0.899576 0.140787 0.860393 -0.508226 -0.0378033
0.129062 0.899529 0.106645 0.399459 0.913324 -0.079192
0.0659757 0.481658 -0.273196 0.14566 0.202306 -0.968429
0.0747924 0.792625 0.28404 -0.0148637 -0.249254 0.968324
-1.4215e-05 -0.57579 -0.286636 -5.01491e-05 -0.195465 -0.980711
0.285498 0.654202 0.144893 0.998172 0.0334576 0.050335
0.100452 0.70525 -0.208622 0.296012 0.312769 -0.902526
0.1399 0.166986 -0.269547 0.973029 -0.00896137 -0.230511
-0.160878 0.461841 -0.104182 -0.90649 -0.415903 -0.0728078
-0.140198 -0.603571 -0.230337 -0.877087 -0.0289363 -0.479458
-0.213156 -0.88195 0.277397 -0.540916 -0.129902 0.830984
-1.63954e-05 0.222542 -0.31476 -0.00555444 0.116609 -0.993162
-1.4215e-05 -0.599482 -0.282138 0.00536013 -0.198953 -0.979994
0.280514 0.645714 0.202034 0.906247 -0.0405163 0.420803
0.21324 0.837116 0.0945925 0.768745 0.632791 -0.0927708
0.258977 0.763582 0.0852948 0.907675 0.394597 -0.142896
-1.4215e-05 -0.9084 0.281682 -0.00249491 0.312599 0.949882
0.146025 0.408311 0.158915 0.399702 -0.793143 0.459524
0.141951 0.56647 -0.213427 0.716717 0.0465657 -0.695808
0.118417 -0.922538 -0.18357 0.491144 -0.526931 -0.693629
-0.238619 0.505928 0.0682537 -0.852811 -0.473631 -0.219971
0.0173198 0.368929 0.151762 0.0814868 -0.885022 0.458363
0.0701959 -1.05524 0.193022 0.328503 -0.937663 0.113465
0.140211 0.483383 -0.226636 0.821637 0.0070283 -0.569967
-0.13649 0.826476 -0.111324 -0.465737 0.717638 -0.517769
0.0123829 -0.989043 0.313096 0.0489691 -0.294131 0.95451
0.275875 -0.714505 0.093003 0.945181 0.264087 -0.192068
-1.4215e-05 0.09844 -0.127247 0.0531215 -0.0364365 0.997923
-1.4215e-05 -1.06044 0.0549353 0.00918645 -0.968954 -0.247072
-1.4215e-05 -0.864231 0.271779 -0.00467192 0.339722 0.940514
-0.141005 0.429736 -0.234469 -0.899715 0.0068272 -0.436424
-1.4215e-05 -0.504768 -0.299189 0.000337768 -0.16742 -0.985886
0.246616 -0.803186 0.251141 0.499295 0.110673 0.859334
-0.166335 0.641865 0.230213 0.211752 -0.28373 0.935232
-0.285294 -0.800737 0.113679 -0.990284 -0.0159706 -0.138139
-0.222857 -0.611502 0.0751485 -0.830684 0.508522 -0.22665
-0.14038 0.348137 -0.246987 -0.906216 0.0674534 -0.4174
-0.239355 -0.942875 0.153916 -0.764332 -0.644763 0.0088238
0.208421 -0.614778 0.188334 0.44371 0.557579 0.701589
-1.4215e-05 -0.623151 -0.277382 0.00326668 -0.208104 -0.978101
-0.229713 -0.877336 -0.0468627 -0.867784 -0.357034 -0.345654
0.147154 0.222186 -0.19411 0.905647 -0.076907 0.417001
-0.150185 -0.546739 0.0706299 -0.541465 0.835723 -0.091559
-0.14002 0.226361 -0.26419 -0.903249 0.0439304 -0.426861
-0.193553 0.857354 0.105594 -0.661156 0.748019 -0.0578002
-0.140117 -0.582897 -0.23409 -0.905054 -0.0153374 -0.42502
-1.4215e-05 -0.320447 -0.323579 -0.0564132 -0.0879904 -0.994523
-1.4215e-05 -0.966814 -0.16934 -0.00854819 -0.770769 -0.637057
0.158059 0.461044 -0.126492 0.915516 -0.395451 -0.0738175
3.54983e-05 0.364814 0.102673 -0.00626721 -0.999935 0.00949918
-0.208803 0.461849 0.123707 -0.758486 -0.651625 0.0091497
-0.172791 0.848471 0.238861 -0.524011 0.686529 0.504074
-0.140161 0.111806 -0.273133 -0.969335 -0.00866429 -0.245591
-1.4215e-05 -1.01088 -0.103474 -0.011935 -0.924226 -0.38166
0.138636 -0.333592 -0.270507 0.971934 -0.00707261 -0.235149
0.174959 -0.589443 0.00696277 0.783672 0.579917 -0.222607
-1.63954e-05 0.815798 -0.16205 0.00297111 0.706097 -0.708109
0.150946 -0.80714 -0.185673 0.700369 -0.0972976 -0.707118
-1.63954e-05 0.798519 -0.176079 0.00703301 0.648144 -0.761485
-0.165147 -0.601312 -0.0623487 -0.860568 0.486629 -0.150382
-0.0567571 -0.45727 -0.30571 -0.153251 -0.14323 -0.977752
-0.0134852 -0.457404 -0.306377 -0.0420218 -0.152859 -0.987354
-0.140484 0.0199444 -0.277306 -0.977539 -0.00767098 -0.210616
-0.1107 -0.966215 0.305488 -0.284952 -0.29843 0.910902
-0.140188 -0.0928631 -0.279687 -0.987842 -0.00196884 -0.155448
-0.211195 -0.977663 0.16503 -0.687258 -0.726312 0.0121375
-1.4215e-05 -0.554481 -0.290547 0.0203066 -0.184019 -0.982713
-1.4215e-05 -0.807554 -0.228216 -0.00544965 -0.265746 -0.964028
0.0109676 0.647846 0.188905 -0.0682367 -0.290672 0.954386
-0.183299 0.858276 0.035531 -0.622324 0.74697 -0.233984
0.145219 -0.436509 -0.191722 0.928485 0.121214 0.351032
0.220803 0.80323 0.230644 0.752701 0.440443 0.489338
-0.130481 0.22359 -0.150958 -0.740208 -0.110046 0.663311
-0.0819202 -0.530919 0.16038 -0.104778 0.719356 0.686694
0.0992073 0.489771 0.195735 -0.134484 -0.119805 0.983647
-0.0939378 0.383245 0.0813637 -0.347145 -0.936861 0.0422113
-0.279649 -0.797935 0.193278 -0.964732 -0.0253585 0.262009
-1.63954e-05 0.377507 0.177136 -0.00897763 -0.652926 0.757369
-1.4215e-05 -1.06576 0.0780629 -0.0130162 -0.977066 -0.212539
0.14263 0.587551 -0.209647 0.684171 0.0789784 -0.725032
0.235831 0.639463 0.246961 0.351435 -0.176984 0.919331
-0.18403 0.673312 0.249249 0.0065347 -0.268569 0.963238
0.187793 0.47588 0.204112 0.318377 -0.425656 0.847026
-0.0791245 0.646658 0.197136 0.269582 -0.300123 0.915015
-0.216366 -0.625462 0.191896 -0.498599 0.526611 0.688535
0.138535 -0.384521 -0.265949 0.974764 0.0115061 -0.222943
-0.117251 -0.781454 0.243121 0.0138311 0.298626 0.95427
-1.4215e-05 -1.05441 0.0342834 -0.0423814 -0.963047 -0.265977
0.196327 -0.782093 0.241189 0.124616 0.270787 0.954539
0.0586714 0.705511 -0.210421 0.0944917 0.328322 -0.939828
-1.63954e-05 0.910663 0.0335015 -0.000199742 0.961248 -0.275684
0.0335597 0.902525 0.248677 0.162068 0.824037 0.54286
-1.4215e-05 -0.878906 -0.204143 0.00963321 -0.327516 -0.944796
0.0798357 -0.976549 0.308932 0.237971 -0.287961 0.927603
-1.4215e-05 -0.706514 0.228064 0.00537297 0.299224 0.954168
0.285427 -0.777078 0.10772 0.983823 0.0611962 -0.168367
-0.140012 -0.559802 -0.238295 -0.90752 -0.0493064 -0.417104
-1.4215e-05 -0.0921262 -0.334702 -0.0647107 0.0114732 -0.997838
0.0435699 -0.430902 -0.122759 0.29939 0.303045 0.904726
0.141302 0.525007 -0.220533 0.75258 0.0342257 -0.65761
-0.124217 0.765446 0.276116 -0.00932812 -0.212427 0.977132
-1.4215e-05 -0.423117 -0.311083 -0.0163829 -0.141914 -0.989743
0.283755 -0.814863 0.14208 0.988969 -0.148086 0.00333648
-1.63954e-05 0.919032 0.210771 -0.00134604 0.952531 0.304439
0.130452 0.22359 -0.150958 0.742579 -0.118675 0.65916
-0.049348 -0.523602 0.15794 -0.0741194 0.730786 0.678571
0.138221 -0.918052 -0.170006 0.583736 -0.549316 -0.597917
-1.4215e-05 0.118062 -0.126897 0.0301157 -0.0363645 0.998885
0.147896 0.769531 0.280085 0.0700198 -0.159667 0.984685
-1.4215e-05 -0.796366 0.256699 -0.00436698 0.319675 0.947517
-1.4215e-05 -0.212601 -0.332095 -0.00859005 -0.0531384 -0.99855
0.0698983 -0.457139 -0.305213 0.235339 -0.165582 -0.957705
0.138688 -0.424897 -0.261119 0.911665 -0.0231762 -0.41028
-0.167214 0.462087 -0.0632021 -0.876363 -0.475086 -0.0792529
-1.63954e-05 0.829832 0.299117 -0.0114227 -0.0124277 0.999858
-1.4215e-05 -0.477392 -0.10201 -0.0208189 0.705022 0.70888
-1.4215e-05 -0.00442158 -0.33193 0.0344 0.0354676 -0.998779
0.126928 0.397858 0.157016 0.35146 -0.837838 0.417735
-0.148263 0.769902 0.280272 -0.0811665 -0.147951 0.985658
-0.281698 -0.824128 0.114057 -0.976981 -0.183641 -0.108555
0.257808 0.640769 0.237926 0.644176 -0.127833 0.754119
-1.63954e-05 0.359985 -0.054678 0.0219915 -0.848246 0.529145
0.154375 -0.893458 -0.159506 0.69922 -0.406582 -0.588033
0.155327 0.844717 -0.0598499 0.527394 0.743919 -0.410415
0.110862 -1.04281 0.18781 0.479592 -0.871974 0.0982531
0.208775 0.45175 0.124117 0.732903 -0.67965 0.0304731
-0.201791 -0.78179 0.242106 -0.108231 0.260379 0.959421
-0.248031 0.512182 0.177779 -0.761911 -0.483181 0.431308
-1.4215e-05 -1.04781 0.013628 -0.0340566 -0.959255 -0.28048
0.275627 -0.835596 0.0793779 0.951071 -0.203478 -0.232509
-0.104998 -0.538721 0.16298 -0.14965 0.712112 0.685932
-0.13953 -0.16865 -0.278468 -0.976546 -0.00933518 -0.215106
0.0348609 0.235672 -0.313028 0.0578255 0.129653 -0.989872
-0.167141 -0.906835 -0.13608 -0.695787 -0.517129 -0.498455
-0.139334 -0.190157 -0.277894 -0.979831 -0.0109583 -0.199528
-0.23246 -0.845886 0.265375 -0.529141 0.0235788 0.848206
0.177712 -0.583285 0.177836 0.32896 0.595025 0.733301
0.233112 0.496775 0.0691799 0.847999 -0.483171 -0.217814
-0.197046 0.847984 0.176545 -0.669294 0.726516 0.155629
-1.63954e-05 0.841306 -0.126484 0.0104017 0.815871 -0.57814
-0.126096 0.644396 0.212796 0.302528 -0.309168 0.901605
0.251179 -0.702424 0.217552 0.527668 0.368161 0.765522
0.193524 0.857359 0.105242 0.66703 0.743345 -0.0500957
0.14045 0.085289 -0.274541 0.972027 -0.0101526 -0.234649
-0.123769 0.508378 0.201159 0.165142 -0.0922584 0.981945
-0.0545189 -0.982812 0.311019 -0.186027 -0.298106 0.93623
0.140261 -0.642345 -0.223014 0.818066 -0.0305402 -0.574313
0.253275 -0.657341 0.0815852 0.892024 0.399185 -0.212001
0.140105 0.317166 -0.252005 0.93023 0.0696302 -0.36031
-0.176252 -0.587729 0.0132857 -0.778685 0.586752 -0.222198
0.193939 0.833422 0.23099 0.637306 0.591966 0.493373
0.15551 0.860237 0.240998 0.460221 0.708785 0.534623
0.138906 -0.47199 -0.254002 0.912935 -0.0709777 -0.401885
-0.000711944 -0.505793 0.0693739 -0.0152629 0.995339 -0.0952269
-0.171561 -0.593711 -0.0144861 -0.798643 0.56231 -0.214422
0.0803773 -0.530466 0.160229 0.141558 0.723888 0.675238
0.1901 0.823611 0.257416 0.576475 0.48478 0.657773
-0.285435 0.657691 0.120734 -0.998037 0.0425161 -0.0459851
-1.63954e-05 0.319951 -0.104491 0.0201569 -0.691919 0.721694
-0.280946 0.656402 0.0759362 -0.977703 0.00130538 -0.209986
0.271574 -0.875482 0.133816 0.899458 -0.434741 -0.0444594
0.278115 0.666373 0.0607768 0.969141 0.0298798 -0.24469
-0.187644 0.859023 0.0593777 -0.643894 0.743517 -0.180505
-1.63954e-05 0.753648 0.245268 0.00623536 -0.538885 0.842356
-1.63954e-05 0.722243 0.22053 0.024812 -0.56141 0.827166
-0.0973571 0.234635 -0.308206 -0.42517 0.130022 -0.895726
-1.4215e-05 -0.595256 0.17721 0.00858438 0.339999 0.940387
0.0317245 0.806171 0.287989 0.0222855 -0.228082 0.973387
0.134048 0.51579 0.203321 -0.13253 -0.127295 0.982971
0.0795991 0.646638 0.197273 -0.281913 -0.276491 0.918737
0.26158 0.674605 0.00360132 0.930448 0.0277189 -0.365375
0.17011 0.795176 0.2835 0.31127 0.109641 0.943976
0.249199 0.524415 0.0696173 0.882217 -0.417473 -0.217736
0.109673 0.883481 0.245219 0.350832 0.774943 0.525719
-0.135208 0.703218 -0.194542 -0.577431 0.239233 -0.780603
-1.63954e-05 0.922349 0.0833077 0.00451461 0.983371 -0.181553
-1.4215e-05 -0.986966 -0.151431 -0.0118108 -0.869394 -0.493979
0.0359596 0.647666 0.190157 -0.182998 -0.299401 0.936414
-0.282052 -0.804084 0.174677 -0.987685 -0.0834208 0.132361
0.193624 0.453877 0.0433772 0.774847 -0.605539 -0.18148
0.266175 0.744069 0.0832835 0.930045 0.334728 -0.151572
0.0152917 0.235816 -0.313253 0.0233847 0.129077 -0.991359
0.140179 -0.432906 -0.167353 0.838485 0.179512 0.514508
-1.4651e-05 0.864887 -0.0843821 0.0174781 0.883379 -0.468333
-0.221432 0.472675 0.170604 -0.711094 -0.587778 0.385826
-0.147183 0.222186 -0.19411 -0.911905 -0.068573 0.404633
0.0975851 0.782656 0.281133 -0.0202574 -0.219433 0.975417
-0.142765 -0.444305 -0.234825 -0.997292 0.0221699 -0.0701156
-0.139323 -0.447986 -0.255212 -0.904619 -0.0400629 -0.424334
-1.4215e-05 -0.714636 -0.255686 -0.0101366 -0.262694 -0.964826
-1.4215e-05 -0.390989 -0.315293 -0.032601 -0.12754 -0.991298
-1.4215e-05 0.0195236 -0.330974 0.0400609 0.0342713 -0.998609
-0.177068 -0.582703 0.177642 -0.323571 0.580175 0.747462
-1.4215e-05 -0.257997 -0.329161 -0.0228963 -0.0710373 -0.997211
-1.63954e-05 0.609914 0.179358 -0.00275451 -0.120227 0.992743
0.0908302 -1.04985 0.190644 0.418474 -0.901917 0.106887
-1.63954e-05 0.544153 0.172013 -0.00180393 0.0233735 0.999725
0.140698 0.445593 -0.232135 0.889901 -0.000770957 -0.456153
0.12206 -0.531321 0.0698994 0.434111 0.900241 -0.033371
-0.140046 -0.0705314 -0.279613 -0.980411 -0.00290611 -0.19694
-0.179734 0.475866 0.208393 -0.213926 -0.394258 0.893754
-0.154103 -0.912281 -0.15255 -0.6433 -0.508419 -0.572429
-1.4215e-05 -0.686197 0.219364 0.00954343 0.311784 0.950105
-0.17779 0.693263 0.255067 -0.040505 -0.279137 0.959396
-0.157947 0.846051 -0.053397 -0.553302 0.724928 -0.410289
0.0428235 -0.646523 -0.271997 0.0949971 -0.222931 -0.970195
-0.271803 0.703347 0.212499 -0.880615 0.18602 0.435791
0.153673 -0.845903 -0.175101 0.711009 -0.171545 -0.681937
0.280176 0.622951 0.197898 0.888768 -0.182821 0.420319
-0.046725 0.370206 0.0820574 -0.190808 -0.981243 0.02745
-0.270932 -0.87773 0.134448 -0.892406 -0.448267 -0.0516442
-0.174974 -0.567315 0.159243 -0.386847 0.682326 0.620307
0.0996756 0.645821 0.202943 -0.285652 -0.295883 0.911513
0.0328379 -0.924216 -0.18865 0.107535 -0.56067 -0.821027
0.17468 0.847164 0.238623 0.535 0.671341 0.51291
0.171621 0.697004 -0.151508 0.812615 0.143192 -0.564936
-0.0609522 0.797841 0.285561 -0.00244907 -0.201004 0.979587
-0.200324 -0.899683 0.283307 -0.502284 -0.172715 0.847278
-1.4215e-05 -0.362555 -0.318755 -0.0345373 -0.10598 -0.993768
-0.246546 -0.682418 0.210882 -0.585182 0.408808 0.700313
-0.207385 -0.888903 -0.0818439 -0.831008 -0.390182 -0.396465
0.233259 0.78639 0.227585 0.774199 0.380945 0.505467
-0.265113 0.673154 0.0136501 -0.936593 0.0418974 -0.347905
0.0438174 -0.457381 -0.306138 0.0937586 -0.161147 -0.982467
0.280639 -0.735404 0.0977382 0.956823 0.198664 -0.212183
-0.279987 0.677983 0.0776276 -0.970039 0.142714 -0.196616
0.184648 0.858593 0.0426662 0.615728 0.753597 -0.230151
0.184207 0.813175 0.274421 0.427104 0.293911 0.855101
-0.240255 0.639724 0.245154 -0.362718 -0.201606 0.90983
0.0179 -0.430352 -0.121917 0.15586 0.304132 0.939793
-0.0230785 0.903627 0.248878 -0.105656 0.846117 0.52242
-0.141979 0.56647 -0.213427 -0.708939 0.0491807 -0.703553
0.110671 -0.966215 0.305488 0.316808 -0.300421 0.899655
-0.155538 0.860237 0.240998 -0.45569 0.718604 0.525315
0.271819 0.724889 0.081437 0.944638 0.285995 -0.16083
-0.171739 0.569433 0.218961 0.0810989 -0.170562 0.982004
-1.4215e-05 -0.646753 -0.272341 -0.00304866 -0.221869 -0.975072
-1.4215e-05 0.0662204 -0.128629 0.0205567 -0.0326708 0.999255
-1.63954e-05 0.905081 0.0146471 0.00839109 0.952288 -0.305084
0.186502 0.657044 0.244506 -0.111839 -0.272753 0.955561
-0.139137 -0.495394 -0.249992 -0.900277 -0.0804977 -0.42781
0.277615 -0.855246 0.128125 0.938734 -0.339029 -0.0619532
-1.63954e-05 0.118258 -0.325097 -0.0205186 0.073507 -0.997084
0.252577 0.521809 0.179528 0.797088 -0.437592 0.41613
-0.219798 0.804439 0.230863 -0.764976 0.431052 0.478546
0.163824 0.642053 0.229034 -0.223033 -0.275987 0.934926
-0.0359881 0.647666 0.190157 0.168534 -0.298903 0.939284
-0.103903 0.645601 0.204457 0.302939 -0.297601 0.905351
-0.108814 0.463373 -0.268404 -0.480656 0.156912 -0.862756
0.125373 0.764555 0.275856 0.010654 -0.229473 0.973257
-0.274061 -0.790744 0.215025 -0.889683 0.049535 0.453884
-0.144344 0.667168 -0.195483 -0.66451 0.146937 -0.732691
-0.265063 -0.849134 0.0384318 -0.92617 -0.25687 -0.27609
-0.284032 -0.756563 0.102709 -0.972863 0.142954 -0.181939
0.180836 -0.580937 0.0375847 0.732464 0.646942 -0.212044
-1.4215e-05 -0.511206 0.0457427 -9.0269e-05 0.998039 -0.0626011
0.035937 0.705481 -0.210214 0.0343824 0.336469 -0.941067
-0.190128 0.823611 0.257416 -0.563584 0.473839 0.676646
-0.0713156 0.918783 0.113128 -0.226537 0.971228 -0.073465
-0.152843 -0.831237 -0.179258 -0.697827 -0.125342 -0.705214
0.104025 -0.538349 0.162856 0.152282 0.685105 0.712349
0.0634515 0.92029 0.114106 0.208995 0.973558 -0.0922313
0.0283957 -0.778651 0.2516 -0.0065851 0.314092 0.94937
-0.139584 -0.518679 -0.245845 -0.889806 -0.0872216 -0.447926
0.128316 0.397561 0.0719231 0.487528 -0.872937 -0.017242
0.0429555 0.923828 0.116233 0.146103 0.985338 -0.0881027
0.0195076 0.222261 -0.12797 0.117844 -0.124734 0.985167
-0.272032 0.585436 0.0713843 -0.938309 -0.26107 -0.226755
-0.140431 -0.00628386 -0.278246 -0.977504 -0.0100691 -0.210677
-0.0649257 0.375768 0.153003 -0.234384 -0.847092 0.476969
0.0752337 -0.77968 0.248485 -0.0171341 0.314837 0.948991
0.258214 0.742133 0.219547 0.84078 0.275309 0.466148
0.267899 0.671954 0.0219615 0.942774 0.0407019 -0.330938
-0.251208 -0.702424 0.217552 -0.552995 0.373212 0.744923
-0.13825 -0.918052 -0.170006 -0.568085 -0.521747 -0.636443
0.138741 -0.404053 -0.263791 0.955027 0.00809818 -0.296408
-0.139155 -0.2314 -0.276425 -0.984941 -0.0135813 -0.172355
0.221404 0.472675 0.170604 0.716053 -0.583831 0.382636
-0.190979 0.858456 0.0835858 -0.654571 0.74671 -0.118159
-1.4215e-05 -0.637982 0.196548 0.0142608 0.324488 0.945782
-1.4215e-05 -0.617557 0.186511 0.0100887 0.327951 0.944641
0.242862 -0.63953 0.0787375 0.872793 0.440934 -0.209306
0.139943 0.289852 -0.256145 0.945782 0.0688004 -0.317432
0.128948 -0.431353 -0.148165 0.760519 0.241024 0.602925
-0.109355 -0.526056 0.069652 -0.354209 0.934934 -0.0208565
-0.0660136 0.373966 0.0823067 -0.262077 -0.964991 0.0104216
-0.154478 -0.888752 -0.161246 -0.665956 -0.380816 -0.641469
0.080893 0.705483 -0.210233 0.171618 0.31118 -0.934727
-0.245511 -0.80773 0.252656 -0.511094 0.118785 0.851277
-0.189394 0.835371 0.236482 -0.6121 0.631362 0.476146
0.0988959 -0.923767 -0.187288 0.412975 -0.550385 -0.725623
0.20538 0.690175 -0.104215 0.881976 0.0940325 -0.461818
-1.63954e-05 0.271957 -0.124015 -0.00393678 -0.423381 0.905943
-1.4215e-05 -1.07094 0.152227 -0.0147393 -0.998794 -0.0468379
-0.0727918 0.224039 -0.130208 -0.377177 -0.165139 0.911299
-0.00201219 0.367621 0.154707 -0.00363089 -0.862271 0.506435
-1.4215e-05 -0.391274 -0.124709 0.0138883 0.0845185 0.996325
0.1545 -0.614758 -0.131252 0.930023 0.319543 -0.181522
0.17544 -0.566997 0.158408 0.407681 0.684891 0.603921
0.037625 -0.522394 0.157538 0.0339272 0.702503 0.710872
0.229684 -0.877336 -0.0468627 0.868207 -0.340945 -0.360519
-0.0798814 0.480002 0.192886 0.10922 -0.115673 0.987264
0.24027 0.681664 -0.0452754 0.911412 0.0662903 -0.406121
-0.182926 0.810856 0.2782 -0.377451 0.243152 0.893537
0.139006 -0.259679 -0.27509 0.985425 -0.0149152 -0.169453
0.2392 0.49803 0.175209 0.758141 -0.508727 0.407945
-0.0257194 0.367572 0.0818188 -0.115881 -0.993259 -0.0030312
-1.63954e-05 0.928669 0.137655 -0.000517358 0.999484 -0.0321144
-1.63954e-05 0.92835 0.16481 -0.00818901 0.996367 0.0847727
-0.2649 0.725461 0.216517 -0.865605 0.234145 0.44261
-0.142938 0.222109 -0.173537 -0.819628 -0.0880012 0.566097
-1.4215e-05 -0.84328 0.267716 -0.00685671 0.345023 0.938569
0.0557137 0.37238 0.0768429 0.224722 -0.974368 0.0103545
0.194239 0.447345 0.0696209 0.727455 -0.666127 -0.164569
-0.139024 -0.262611 -0.274944 -0.970754 -0.0128697 -0.239731
0.219227 -0.882971 -0.0639044 0.85212 -0.363863 -0.376159
-0.253587 -0.768621 0.239618 -0.531421 0.208085 0.821153
0.177008 -1.00675 0.174779 0.630574 -0.770029 0.0971171
-1.63954e-05 0.504845 -0.266108 -0.0175887 0.223854 -0.974464
-1.63954e-05 0.637418 -0.231618 -0.0132642 0.2693 -0.962965
-1.4215e-05 -1.0195 0.297749 -0.00107552 -0.666662 0.745359
-0.0823434 -0.645699 -0.270061 -0.318616 -0.212257 -0.923813
0.270036 0.566968 0.18773 0.821548 -0.348771 0.451018
0.238978 -0.871581 -0.0294564 0.876123 -0.335964 -0.34574
0.0934227 -0.456627 -0.303163 0.417839 -0.155565 -0.895103
-1.4215e-05 -0.524459 -0.000750044 -0.00135472 0.997107 0.0759941
-1.4215e-05 -0.0681504 -0.131396 0.0309444 -0.0058761 0.999504
-0.123888 -1.03722 0.185678 -0.501192 -0.86242 0.0709798
-0.168328 -0.597607 -0.0390183 -0.84215 0.502701 -0.19513
0.246691 -0.683159 0.211129 0.530838 0.411778 0.740709
-0.144595 0.460807 -0.204991 -0.93665 -0.0865891 -0.339396
-0.208034 0.46789 0.0675867 -0.787562 -0.582338 -0.201565
-0.226229 -0.780386 0.246349 -0.310452 0.222407 0.924205
-0.0821505 -0.975907 0.308718 -0.231482 -0.282502 0.930918
-0.126153 0.39715 0.0771733 -0.481393 -0.876482 0.00640069
-1.4215e-05 -0.478696 -0.303253 -0.00295027 -0.166797 -0.985987
-0.17333 0.428288 0.0704191 -0.670382 -0.736926 -0.0867692
-0.15799 -0.567064 0.172429 -0.255463 0.621974 0.740194
-0.252922 0.677835 -0.0187687 -0.925214 0.0413484 -0.377187
0.241002 -0.822454 0.257564 0.516337 0.0548277 0.854629
-0.171649 0.697004 -0.151508 -0.799886 0.129966 -0.585911
-0.270475 -0.842912 0.0572494 -0.941232 -0.22249 -0.254127
-0.183423 0.612018 0.231377 0.162336 -0.225805 0.960551
0.145684 -0.754564 -0.198408 0.704653 -0.0639593 -0.706664
-0.13272 -0.431871 -0.154561 -0.785503 0.21123 0.581693
-0.230493 0.684308 -0.0635932 -0.902054 0.0616824 -0.427193
-0.0964093 -0.780513 0.245968 0.00957779 0.305095 0.952274
0.106998 0.388782 0.155367 0.305113 -0.83056 0.465914
-0.140913 0.408597 -0.237512 -0.90749 0.0174327 -0.419712
-0.145236 -0.436868 -0.193739 -0.946058 0.091304 0.310866
0.164881 -0.783059 0.238265 0.0208881 0.30632 0.951699
-1.63954e-05 0.828096 -0.146528 0.00549779 0.762352 -0.64714
-1.4215e-05 -0.311736 -0.126102 0.00927036 0.0360166 0.999308
-0.181581 0.432685 0.163341 -0.535651 -0.756969 0.374267
-1.4215e-05 -0.755446 0.2453 -0.00180993 0.296519 0.955025
-1.63954e-05 0.395157 0.191341 0.00238168 -0.437956 0.898993
-0.231405 0.814346 0.0918836 -0.825258 0.553211 -0.113608
-1.4215e-05 -0.572168 0.173625 0.0104885 0.38383 0.923344
0.254956 -0.753424 0.234553 0.535728 0.244205 0.808307
-1.4215e-05 -0.884987 0.275337 -0.00224824 0.33462 0.94235
-0.107086 0.495138 0.197299 0.161246 -0.105396 0.98127
-1.63954e-05 0.612053 -0.238946 -0.0260846 0.258928 -0.965544
-0.137855 0.870207 0.242808 -0.406997 0.739609 0.536034
0.0103678 -0.924069 -0.188203 0.0127576 -0.519564 -0.854337
-1.4215e-05 -0.826216 -0.222104 0.00205862 -0.275083 -0.961418
-0.161852 0.55193 0.213858 0.114921 -0.134269 0.984259
-0.149216 0.842118 -0.0715538 -0.517752 0.735385 -0.437197
0.131211 0.231921 -0.28814 0.779287 0.0762787 -0.622008
-0.189149 0.693526 -0.127425 -0.855274 0.103966 -0.507639
0.141939 -0.704131 -0.210075 0.752596 -0.0252831 -0.657997
-1.63954e-05 0.896372 0.267507 -0.0136512 0.758023 0.652085
-0.18339 -0.576462 0.0538979 -0.727268 0.655172 -0.204526
-0.139893 -0.114462 -0.27947 -0.972619 -0.00178107 -0.232398
0.168937 -0.596842 -0.034095 0.826232 0.527642 -0.197319
-1.63954e-05 0.257265 -0.310609 -0.00864739 0.138316 -0.99035
-0.283951 0.660778 0.0993523 -0.988513 0.0554612 -0.140591
0.154324 -0.866266 -0.168838 0.695315 -0.284215 -0.66012
-0.15801 -0.783007 0.238422 0.00396015 0.301751 0.953379
0.13982 -0.117193 -0.279438 0.984126 -0.000324298 -0.177473
0.247782 0.787583 0.0879867 0.87431 0.467736 -0.129637
-1.4215e-05 -0.287349 -0.126504 0.0256943 0.0316124 0.99917
-0.100596 -0.431167 -0.130268 -0.636555 0.285127 0.716589
0.264275 -0.785292 0.231507 0.723532 0.106574 0.682014
-0.141694 -0.696428 -0.211774 -0.776003 -0.00106624 -0.630728
0.135616 0.871453 0.243034 0.409944 0.723477 0.555451
-0.140182 0.324329 -0.250884 -0.911477 0.0749495 -0.404464
-0.139922 0.478214 -0.227153 -0.823584 0.0122119 -0.567062
-0.239336 -0.663395 0.20454 -0.546363 0.462551 0.698236
-1.63954e-05 0.429574 -0.282101 -0.0215826 0.190446 -0.98146
-1.4215e-05 -1.04029 -0.00949914 -0.0122904 -0.955899 -0.293438
0.270232 -0.696202 0.0890626 0.931381 0.316989 -0.179016
0.0561229 0.79934 0.285998 0.00348724 -0.215718 0.976449
0.155477 -1.02131 0.17982 0.581063 -0.810677 0.071899
-0.138716 -0.424897 -0.261119 -0.903554 -0.01999 -0.428008
-1.63954e-05 0.883766 0.289608 -0.000118036 0.581592 0.813481
0.140159 -0.599686 -0.231043 0.875764 -0.0330052 -0.481609
-0.140413 0.0901116 -0.274287 -0.968583 -0.00802415 -0.24856
-0.283345 -0.810211 0.156148 -0.994641 -0.0938995 0.0432737
0.278777 0.623775 0.0737897 0.960461 -0.144736 -0.237837
0.274268 0.694243 0.210845 0.879098 0.139082 0.455898
-1.4215e-05 -0.500593 0.112106 0.00631471 0.994063 0.108626
-0.111004 0.906783 0.108898 -0.334664 0.940256 -0.0625946
-0.0752622 -0.77968 0.248485 0.0141364 0.295485 0.955243
-0.285536 0.654512 0.142744 -0.999015 0.0318284 0.0309275
-0.0259588 -0.521186 0.157135 -0.0198578 0.696223 0.717551
0.28251 -0.821735 0.121293 0.983283 -0.158864 -0.0889714
-0.0498421 -0.924312 -0.18894 -0.182836 -0.571385 -0.800057
-1.4215e-05 -0.85604 -0.212103 0.00656566 -0.298466 -0.954398
-0.271512 0.726164 0.0819343 -0.945482 0.27999 -0.166339
0.139109 -0.495394 -0.249992 0.906746 -0.083756 -0.413275
0.184252 -0.56397 0.127457 0.52039 0.759742 0.389854
0.105672 0.234273 -0.305906 0.517539 0.112811 -0.84819
0.143622 -0.63036 -0.205874 0.925941 0.0999405 -0.364205
-1.63954e-05 0.88313 -0.0448766 0.0162377 0.919018 -0.39388
-1.4215e-05 -1.01743 -0.0849442 -0.0144349 -0.934286 -0.356232
-0.0746865 -0.514311 0.0691428 -0.2437 0.969224 -0.034856
0.142438 0.222101 -0.171251 0.833912 -0.0936167 0.543899
0.243681 0.769877 0.224586 0.802871 0.335708 0.492644
-1.63954e-05 0.912272 0.231647 -0.016116 0.908777 0.416972
-0.131691 -0.452445 -0.280363 -0.719862 -0.0973199 -0.687261
-0.079029 0.894027 0.247134 -0.286553 0.787064 0.546276
-0.080605 -0.431318 -0.125645 -0.514534 0.318858 0.79598
0.140175 -0.0953444 -0.279696 0.979175 0.00353927 -0.202986
-0.140889 0.834778 -0.0932984 -0.491783 0.73254 -0.470674
0.138864 -0.448446 -0.257761 0.900677 -0.0527396 -0.431276
0.140133 0.112074 -0.273118 0.966906 -0.0119214 -0.254852
-0.281197 -0.737726 0.0982643 -0.962665 0.194032 -0.188754
-0.139741 0.205168 -0.266291 -0.931121 0.0115508 -0.364527
-0.150975 -0.80714 -0.185673 -0.686408 -0.0928644 -0.721263
0.0895873 0.481876 -0.272178 0.318372 0.189534 -0.928825
0.19698 0.848801 0.172048 0.672014 0.722978 0.160315
-0.13006 -0.957607 0.302616 -0.37063 -0.324767 0.870149
-1.4215e-05 -0.191315 -0.130386 0.00599168 0.0208612 0.999764
0.174039 0.873137 0.100687 0.552889 0.829394 -0.0801202
-1.4215e-05 -0.527631 0.16564 0.00627004 0.549528 0.835452
0.146602 0.531882 0.208013 -0.165546 -0.113476 0.979652
-0.0777682 -0.456968 -0.30453 -0.340409 -0.146002 -0.928873
0.14096 0.419144 -0.235963 0.910776 0.00117275 -0.4129
-1.63954e-05 0.418058 0.197632 0.00499518 -0.255014 0.966924
-0.194648 0.46767 0.197635 -0.444697 -0.514697 0.733029
0.214546 -0.879943 0.276728 0.525311 -0.123442 0.841909
0.139354 -0.18478 -0.278038 0.983603 -0.012386 -0.179921
0.0387461 0.371181 0.15217 0.154185 -0.858064 0.48985
0.139502 -0.161356 -0.278617 0.977342 -0.00929827 -0.211463
-0.139949 0.162735 -0.269876 -0.967097 -0.0104914 -0.254193
-0.223631 -0.864192 0.271478 -0.549377 -0.0692621 0.832699
-1.63954e-05 0.202233 -0.31707 0.00364187 0.111719 -0.993733
-0.142028 -0.55498 0.168399 -0.241153 0.683009 0.689452
-1.63954e-05 0.544624 -0.2564 -0.0148803 0.240163 -0.970618
-0.139033 0.775709 -0.165325 -0.50178 0.506246 -0.701378
-1.63954e-05 0.674245 0.197252 0.00765033 -0.473567 0.880724
-0.141474 0.535544 -0.218822 -0.745975 0.0289354 -0.665345
-0.279899 0.633562 0.0743171 -0.969398 -0.0964323 -0.22576
0.254007 0.677485 -0.0163421 0.925195 0.0446016 -0.376861
-0.195012 0.837356 0.217478 -0.643213 0.680011 0.351941
-0.283503 -0.816409 0.137403 -0.99062 -0.129294 -0.0442252
0.27932 -0.797398 0.194903 0.942605 -0.0401723 0.331484
0.138687 0.831431 -0.101177 0.488599 0.714979 -0.500076
-0.140235 -0.0476895 -0.279328 -0.982188 -0.00618243 -0.187799
0.263911 0.548454 0.184368 0.80813 -0.400494 0.431892
0.144536 0.639826 -0.200309 0.706515 0.105941 -0.699724
-1.63954e-05 0.917863 0.0621285 0.00895573 0.973519 -0.228429
0.186587 0.456052 0.0166147 0.787836 -0.593588 -0.164217
0.165483 -0.556653 0.0711008 0.596733 0.796377 -0.0984563
-1.4215e-05 -0.169551 -0.334145 0.00713552 -0.0272652 -0.999603
-0.178907 0.461836 -0.012069 -0.824436 -0.545569 -0.150532
0.271425 0.583232 0.0716535 0.941434 -0.256918 -0.218391
0.131663 -0.452445 -0.280363 0.766342 -0.0956013 -0.635279
-0.123686 -0.546546 0.165588 -0.209456 0.699594 0.683152
-0.138639 -0.390669 -0.265284 -0.947519 0.00797255 -0.319601
0.184036 -0.574909 0.0603307 0.703562 0.683062 -0.196027
0.284387 0.651378 0.164447 0.980445 0.00433221 0.196747
0.144315 0.667168 -0.195483 0.65611 0.149665 -0.739676
-1.4215e-05 -0.899459 -0.196854 -0.0100194 -0.38764 -0.921756
0.0109777 0.705433 -0.209883 0.0117401 0.342121 -0.939583
-0.185994 -0.568123 0.0931576 -0.65144 0.754638 -0.0784068
0.207654 -0.888763 -0.0814198 0.828387 -0.399527 -0.392625
0.109074 0.907437 0.109027 0.338339 0.937642 -0.0797164
-0.132919 0.23171 -0.286486 -0.746097 0.0917503 -0.659485
0.0774854 0.894452 0.247211 0.291563 0.77499 0.560697
-0.154243 0.886537 0.103755 -0.467984 0.88139 -0.0643596
-0.158756 0.731301 0.26616 -0.0602517 -0.292093 0.95449
0.225867 -0.860254 0.270165 0.533952 -0.0561445 0.843649
-0.149115 0.506501 0.209619 0.100761 -0.153775 0.982955
0.113308 0.224235 -0.138694 0.620664 -0.135648 0.772253
0.0530219 0.46896 0.189667 -0.083592 -0.05888 0.994759
0.143721 0.686751 -0.191969 0.636078 0.183082 -0.74959
0.0637678 0.23536 -0.311971 0.191499 0.124816 -0.973524
0.225782 0.822272 0.0924121 0.796898 0.593938 -0.110413
-0.140469 0.0691264 -0.275262 -0.951867 -0.00443768 -0.306481
0.253368 -0.860156 0.00509562 0.884932 -0.340345 -0.317901
0.27739 0.599147 0.193574 0.848953 -0.27471 0.451457
0.206181 0.451377 0.103643 0.739385 -0.665234 -0.103795
0.0690981 -0.646112 -0.271135 0.232715 -0.217145 -0.947994
0.0586526 0.64725 0.193032 -0.245399 -0.298607 0.922287
-1.4215e-05 -0.251228 -0.127717 -0.0170568 0.0265311 0.999502
-1.4215e-05 -0.140483 -0.131001 0.00133077 0.0131046 0.999913
0.139087 -0.238615 -0.276121 0.992729 -0.012477 -0.119721
0.18343 0.612382 0.231483 -0.128957 -0.239328 0.962337
0.202604 0.452068 0.166293 0.603678 -0.669372 0.433029
-0.14646 -0.947096 0.299114 -0.398852 -0.290224 0.869877
-0.269401 0.564726 0.187323 -0.829095 -0.366113 0.422568
0.0574981 -0.510743 0.0690558 0.197284 0.978993 -0.0514872
-1.4215e-05 -1.03793 0.267344 -0.000374371 -0.852252 0.523131
0.080966 0.378758 0.0749667 0.305083 -0.951505 0.039536
0.100571 -0.644815 -0.267296 0.430302 -0.196753 -0.880982
0.0281283 0.4652 0.18857 -0.0655546 0.0274054 0.997473
0.248973 -0.926777 0.148965 0.803635 -0.595117 -0.00274625
-0.139586 -0.139454 -0.279053 -0.982291 -0.00768577 -0.187206
0.0213101 -0.646703 -0.272317 0.057791 -0.219405 -0.973921
0.219803 -0.607596 0.0747007 0.810067 0.544628 -0.217188
-1.63954e-05 0.874228 -0.0650916 0.0131279 0.903924 -0.427493
-0.236854 0.494211 0.174515 -0.762139 -0.529374 0.372702
0.139244 -0.204909 -0.277428 0.984951 -0.0128916 -0.17235
0.225744 -0.639395 0.196541 0.482682 0.506386 0.714557
0.18301 0.67673 0.250246 -0.00447785 -0.264826 0.964286
-0.262523 0.75463 0.0848151 -0.915163 0.380316 -0.133554
-0.0838726 0.380666 0.153893 -0.291707 -0.847332 0.443774
-0.125411 0.46166 -0.257157 -0.658574 0.11499 -0.743678
0.0224374 -0.457435 -0.306421 0.0357003 -0.159087 -0.986619
-0.146241 -1.02625 0.181616 -0.56602 -0.821399 0.0701766
-0.259389 0.641039 0.236053 -0.653261 -0.151488 0.741823
-1.4215e-05 -0.662612 0.208606 0.0078878 0.318206 0.947989
-1.63954e-05 0.570541 -0.249928 -0.0237124 0.246727 -0.968795
0.153532 0.461062 -0.156209 0.946441 -0.305973 -0.103103
0.0884884 0.224449 -0.131827 0.448431 -0.151309 0.880917
0.139775 0.269462 -0.258952 0.922543 0.0697035 -0.379546
-1.63954e-05 0.294596 -0.305661 -0.010738 0.150846 -0.988499
-1.4215e-05 -1.04829 0.244883 -0.00742505 -0.914183 0.405235
-0.0216338 0.369348 0.151838 -0.0897801 -0.879952 0.466501
0.16995 -0.930162 0.293469 0.446925 -0.232525 0.863823
0.273672 0.669118 0.0415946 0.952157 0.0415335 -0.302774
-0.0411083 0.222955 -0.128443 -0.215252 -0.1485 0.965202
-1.22768e-05 0.453302 -0.277407 -0.0141923 0.196723 -0.980356
-0.0115013 0.647844 0.188921 0.074314 -0.301062 0.950705
0.163967 0.849163 -0.0383402 0.554579 0.743315 -0.374066
-1.4215e-05 -1.02599 -0.0565802 -0.00973198 -0.941729 -0.336233
0.141544 0.643479 0.219155 -0.271668 -0.28561 0.919034
-0.157875 0.699718 -0.170309 -0.714758 0.185107 -0.674431
-0.282527 0.648409 0.184325 -0.947505 -0.0330711 0.318026
-1.4215e-05 -1.05709 0.221863 0.00480708 -0.954072 0.29954
0.280729 0.6435 0.0749783 0.976432 -0.0719602 -0.203477
-1.4215e-05 -0.114468 -0.334965 0.0339301 0.0031195 -0.999419
-1.4215e-05 -0.944174 0.3016 0.00253559 0.133755 0.991011
0.192768 -0.895663 -0.102289 0.797154 -0.420616 -0.433161
0.258767 0.543817 0.0700848 0.90488 -0.36382 -0.220969
-1.63954e-05 0.441384 0.195401 0.0183835 -0.0914426 0.995641
0.15163 -0.618751 -0.151852 0.939945 0.276073 -0.200716
-1.63954e-05 0.372662 0.0141552 0.00112999 -0.978273 0.207317
-1.63954e-05 0.149511 -0.126819 0.0126655 -0.0367094 0.999246
-0.194828 0.461348 0.0476446 -0.780129 -0.59915 -0.180052
0.216726 0.687652 -0.0867401 0.890361 0.0864497 -0.446972
-0.192797 -0.895663 -0.102289 -0.790363 -0.439982 -0.426313
0.139556 -0.518679 -0.245845 0.914789 -0.0791252 -0.396106
-0.140227 0.748666 -0.176292 -0.571653 0.401946 -0.715299
-0.0451282 0.923596 0.115686 -0.167535 0.983479 -0.0685607
-1.63954e-05 0.368929 0.0609968 -0.00263423 -0.999369 0.0354187
-0.0305987 -0.778688 0.251489 0.0117554 0.298302 0.954399
0.271611 0.643172 0.221279 0.809738 -0.0824405 0.580972
0.140227 -0.0451515 -0.279297 0.984555 0.00408501 -0.175028
-0.191184 -0.595735 0.181986 -0.379317 0.568381 0.730111
-0.146513 0.74629 0.27053 -0.0255894 -0.26914 0.962761
0.276714 0.702715 0.0794494 0.959676 0.221654 -0.172892
-0.185427 -0.564987 0.114999 -0.600296 0.785987 0.147881
-0.054796 -0.646347 -0.271631 -0.147092 -0.217046 -0.965016
0.119435 0.644789 0.210071 -0.288716 -0.297834 0.909911
0.0530721 -0.924321 -0.188966 0.197204 -0.567175 -0.79964
0.274353 -0.791005 0.214234 0.829032 0.054125 0.556576
0.171313 0.709251 0.259728 0.0186657 -0.288222 0.957382
-0.0176485 -0.430348 -0.121906 -0.129843 0.29129 0.947782
-0.186461 0.6536 0.243502 0.0955377 -0.264778 0.959565
-1.4215e-05 -0.147997 -0.334775 -0.0640268 -0.013698 -0.997854
-0.135224 0.460904 -0.238292 -0.808035 0.0492853 -0.587069
0.115883 -0.455406 -0.296997 0.568382 -0.13735 -0.81122
0.140445 0.0365548 -0.276648 0.986535 -0.00194897 -0.163539
-0.14524 -0.628269 -0.196533 -0.926664 0.121834 -0.355599
-0.0794437 0.790886 0.283532 0.0153514 -0.22769 0.973613
0.157415 0.732962 0.266644 0.0412301 -0.29278 0.955291
-1.4215e-05 -0.279474 -0.327515 -0.0447432 -0.0769954 -0.996027
-0.18007 -0.58223 0.033118 -0.7417 0.634947 -0.216155
-0.165429 0.849956 -0.0338146 -0.568036 0.738403 -0.363451
0.146217 0.224102 -0.220018 0.977104 -0.0450553 0.207935
0.12939 -0.549181 0.166466 0.224321 0.667883 0.709657
0.0501416 -0.779019 0.250489 -0.0189154 0.30757 0.951337
-0.0693925 -0.924365 -0.189096 -0.247669 -0.556231 -0.793263
0.12391 -0.781767 0.242173 -0.0119591 0.3155 0.94885
0.0167814 -0.520929 0.157049 0.0257906 0.651828 0.757928
-1.63954e-05 0.0987471 -0.326536 0.00648015 0.0614323 -0.99809
-0.266615 0.565646 0.0703627 -0.92215 -0.309274 -0.232353
-1.4215e-05 -0.520872 -0.0432121 -0.00134481 0.969967 0.243232
-0.113336 0.224235 -0.138694 -0.638121 -0.132673 0.758419
0.13987 0.217089 -0.265109 0.937347 0.00928598 -0.348273
0.1719 -0.59326 -0.012109 0.803888 0.552494 -0.220261
-0.262536 0.544802 0.183705 -0.826756 -0.385796 0.409435
-0.23975 -0.826661 0.258967 -0.568491 0.0418107 0.821627
-0.046725 0.901146 0.248427 -0.221292 0.83002 0.511954
0.239173 -0.943087 0.153983 0.774987 -0.631964 0.00395105
-1.63954e-05 0.47358 0.185837 -0.0126813 0.0618388 0.998006
0.265648 0.563019 0.0707825 0.920867 -0.327717 -0.211202
-0.20133 0.639877 0.243648 -0.0588666 -0.247401 0.967123
0.103617 -0.780817 0.245049 -0.0168808 0.316123 0.948568
0.0587137 -0.525442 0.158554 0.0975166 0.713614 0.693718
-0.275903 -0.714505 0.093003 -0.948227 0.256177 -0.187719
-0.226929 -0.960049 0.159324 -0.72857 -0.684966 0.00255553
-1.63954e-05 0.178477 -0.127173 0.00413294 -0.0504698 0.998717
-0.187004 -0.914821 0.288354 -0.485534 -0.216556 0.846971
0.195472 0.855541 0.127248 0.662427 0.749113 0.00450993
0.145103 -0.440097 -0.211894 0.977535 0.0827668 0.193843
-0.115911 -0.455406 -0.296997 -0.556429 -0.121657 -0.821941
-1.4215e-05 -0.494112 -0.0884895 -0.00119757 0.827871 0.560917
0.0601606 0.374544 0.152781 0.216921 -0.860421 0.461109
-1.4215e-05 -0.670293 -0.266842 -0.00330987 -0.244239 -0.969709
0.275849 0.604234 0.0727034 0.955143 -0.200298 -0.218132
-1.4215e-05 -0.502159 0.0906031 -0.00317088 0.999286 -0.0376438
-0.255283 -0.749198 0.233144 -0.528778 0.245666 0.81243
-0.0524008 -0.509677 0.0690298 -0.183963 0.981598 -0.0512133
-1.63954e-05 0.890542 -0.0267078 0.0135602 0.929954 -0.367426
-0.279433 0.658198 0.204301 -0.898837 0.0107788 0.43815
-1.4215e-05 -0.549903 0.172437 0.00361506 0.489015 0.872268
0.0559816 0.89932 0.248095 0.239838 0.801821 0.547321
-0.140247 0.133445 -0.271923 -0.971229 -0.0072656 -0.238036
0.0719449 -0.431324 -0.124524 0.455216 0.318477 0.831475
0.168429 0.461239 -0.0562686 0.850687 -0.518013 -0.0894129
-0.16395 0.462012 -0.0827231 -0.887893 -0.455262 -0.0661982
-0.157738 0.461572 -0.128945 -0.927906 -0.364809 -0.076842
-1.4215e-05 -0.726225 0.235667 0.00405682 0.295912 0.955207
-1.4215e-05 -0.528453 -0.295227 0.00117507 -0.175517 -0.984476
-0.208221 -0.594764 0.0735682 -0.790191 0.568198 -0.229673
0.178729 0.856728 0.0143774 0.607219 0.743628 -0.279825
-0.276981 0.678536 0.207993 -0.88546 0.108637 0.45184
0.154075 -0.912281 -0.15255 0.660289 -0.523925 -0.538072
0.143971 -0.734744 -0.203052 0.704194 -0.061648 -0.707326
-0.0913792 0.913302 0.111033 -0.297387 0.9521 -0.0711787
0.142973 -0.443884 -0.232532 0.99855 0.0441256 0.0308282
0.15618 0.700015 -0.172366 0.715643 0.198058 -0.669797
-1.4215e-05 -0.787039 -0.234788 -0.0172458 -0.257367 -0.96616
-1.63954e-05 0.780399 -0.183993 0.000166567 0.585468 -0.810695
0.0254573 -0.506464 0.0691188 0.0749802 0.993062 -0.0905846
-1.4215e-05 -0.94737 -0.179103 -0.00790496 -0.690844 -0.72296
-0.13356 0.897684 0.106325 -0.42223 0.904728 -0.0564688
-1.63954e-05 0.56512 0.172598 -0.00307331 -0.00238901 0.999992
0.285317 -0.799162 0.113278 0.990326 -0.032979 -0.134786
-0.253397 -0.860156 0.00509562 -0.89938 -0.309839 -0.308407
0.144409 -0.543021 0.0704532 0.528259 0.8454 -0.0790075
0.140071 -0.58033 -0.234554 0.904414 -0.0330691 -0.425372
-0.138934 -0.47199 -0.254002 -0.892947 -0.0667208 -0.44519
-0.175181 -1.00821 0.175274 -0.60578 -0.793479 0.0585041
-0.20674 0.819024 0.233512 -0.692433 0.528724 0.490905
-0.1383 -0.782377 0.240329 0.0157882 0.301316 0.953394
0.160725 0.549986 0.213292 -0.0914539 -0.14537 0.985141
-0.145763 -0.755072 -0.198288 -0.694748 -0.062366 -0.716544
0.00706362 -0.778505 0.25204 0.00669785 0.303727 0.952736
0.145367 -0.782671 0.239438 -0.00406863 0.309908 0.950758
0.14732 0.890262 0.104327 0.443726 0.893302 -0.0715387
0.138479 -0.312726 -0.271929 0.970274 -0.00689446 -0.241913
-0.16197 0.785543 0.283772 -0.213213 -0.0281907 0.976599
-0.0329043 0.471105 -0.273173 -0.0715127 0.203015 -0.976561
-1.4215e-05 -0.0439785 -0.131219 0.0216732 -0.0102738 0.999712
0.140157 -0.620643 -0.227164 0.87216 -0.0242027 -0.488621
-1.63954e-05 0.898046 -0.00635804 0.00956094 0.943146 -0.332241
0.282024 -0.804084 0.174677 0.985031 -0.0841975 0.150417
-0.0940442 -0.924075 -0.188217 -0.376653 -0.560903 -0.737238
-1.63954e-05 0.862147 0.301352 -0.0129393 0.250692 0.96798
0.140438 0.0634695 -0.275515 0.960646 -0.00467622 -0.277737
-0.0599067 -0.4312 -0.123533 -0.362736 0.326375 0.87287
-0.139661 0.248044 -0.26163 -0.899409 0.0743509 -0.430739
-0.0369481 0.805337 0.287746 -0.0178781 -0.230106 0.973001
-0.118445 -0.922538 -0.18357 -0.453475 -0.53812 -0.710484
0.17064 0.424209 0.161801 0.457203 -0.738439 0.495655
0.10139 0.385648 0.0735695 0.394032 -0.919081 0.00543519
-1.4215e-05 -0.0259546 -0.332762 -0.0404364 0.0363895 -0.998519
-0.219255 -0.882971 -0.0639044 -0.844548 -0.387701 -0.369361
-0.140348 -0.0259599 -0.278811 -0.990508 -0.00809295 -0.137216
-1.63954e-05 0.519788 0.174254 -0.00641274 0.0675185 0.997697
-1.4215e-05 -0.300911 -0.325596 -0.0201508 -0.0860558 -0.996087
-1.63954e-05 0.203076 -0.127466 0.0317671 -0.0721563 0.996887
-1.4215e-05 -0.118815 -0.131223 0.0167196 0.00673798 0.999838
-0.248179 -0.6478 0.0799358 -0.881467 0.414947 -0.225465
-0.134703 0.816261 -0.128568 -0.468975 0.680576 -0.56292
0.140683 -0.662479 -0.219031 0.78527 -0.0343087 -0.618203
-0.227876 0.489278 0.0679117 -0.827432 -0.518898 -0.214712
-0.139976 0.290912 -0.255993 -0.926541 0.0775361 -0.368117
-1.63954e-05 0.696698 0.206098 -0.0014039 -0.519681 0.854359
-1.63954e-05 0.591215 -0.244615 -0.020818 0.247445 -0.968678
0.140422 0.364689 -0.244268 0.893119 0.0549925 -0.446446
-0.0339835 -1.06129 0.196162 -0.209211 -0.968734 0.13336
0.21704 0.474057 0.0691192 0.802987 -0.558003 -0.20939
0.149265 0.409779 0.0708464 0.577017 -0.81452 -0.0600731
0.185802 -0.566607 0.103214 0.604817 0.783233 0.144022
-0.184444 0.46163 0.00833134 -0.803313 -0.576911 -0.147859
-1.4215e-05 -1.03304 -0.032911 -0.0294362 -0.951219 -0.30711
0.14828 0.461589 -0.1861 0.960481 -0.19372 -0.19987
-1.4215e-05 -0.926877 0.289766 -0.00193682 0.266968 0.963703
-0.239007 -0.871581 -0.0294564 -0.870117 -0.357433 -0.339319
-0.164707 0.420238 0.16108 -0.455784 -0.766553 0.452391
0.1647 0.461598 -0.0776289 0.871293 -0.483968 -0.0813804
-1.4215e-05 -1.00437 0.310172 -0.00532154 -0.485557 0.874189
0.142025 0.716477 -0.185441 0.568289 0.317333 -0.759176
-0.149082 0.537673 0.209701 0.154703 -0.111847 0.98161
-0.259709 -0.669266 0.0836469 -0.907324 0.368299 -0.202779
0.195448 0.839105 0.211472 0.654099 0.673719 0.343885
-0.278956 -0.830263 0.0955061 -0.962253 -0.196629 -0.188168
0.136711 0.464731 -0.234024 0.839551 0.0268946 -0.542614
-0.153093 -0.616755 -0.141552 -0.937236 0.284257 -0.201957
0.0326009 0.36856 0.0787004 0.132367 -0.991173 -0.00747804
-0.135712 -0.637735 -0.238198 -0.776901 -0.0744548 -0.625205
0.196256 0.640037 0.242312 -0.0633648 -0.245431 0.967341
-1.4215e-05 -0.07086 -0.334246 -0.0166212 0.0210397 -0.99964
-0.117061 0.704794 -0.20546 -0.453046 0.266744 -0.850645
-1.63954e-05 0.0771133 -0.327969 -0.0122022 0.0526035 -0.998541
0.262727 -0.67672 0.0851237 0.910547 0.36415 -0.195704
-0.0367191 -0.457399 -0.306233 -0.0748208 -0.150466 -0.98578
0.265399 0.724052 0.216261 0.847992 0.209512 0.486841
-0.171765 0.85343 -0.0134058 -0.595471 0.732737 -0.329409
-1.4215e-05 -0.33319 -0.125807 0.010193 0.0402069 0.999139
-1.63954e-05 0.179778 -0.319511 -0.00589085 0.103339 -0.994629
-1.63954e-05 0.240867 -0.127125 0.0321705 -0.231833 0.972223
0.138322 -0.359289 -0.268382 0.951745 0.00321667 -0.306874
-0.0896158 0.465087 -0.271707 -0.322636 0.177171 -0.929794
-0.214836 0.835252 0.0948367 -0.78008 0.618548 -0.0942017
-1.63954e-05 0.683385 -0.217162 -0.000856248 0.297385 -0.954757
-0.10905 -0.644206 -0.265201 -0.467406 -0.190954 -0.863174
0.137086 0.793132 -0.154296 0.502699 0.588856 -0.632884
-0.0389122 -0.430798 -0.122608 -0.243482 0.274535 0.93024
-0.117808 0.233609 -0.301376 -0.550485 0.115934 -0.826756
0.140378 -0.0139652 -0.278507 0.968996 0.00203527 -0.24707
0.141589 0.546048 -0.217018 0.750911 0.0317887 -0.659638
-0.163878 0.490614 0.210849 -0.0556859 -0.272558 0.960526
-0.0319244 0.705473 -0.210163 -0.0343563 0.330524 -0.943172
0.0557823 -0.982544 0.31093 0.169036 -0.241975 0.955445
-0.170902 -0.560869 0.0713214 -0.626632 0.76358 -0.155812
-1.63954e-05 0.360397 -0.294987 -0.0108682 0.176518 -0.984237
0.196499 0.844142 0.192561 0.66987 0.699712 0.248349
-0.15356 0.461269 -0.156014 -0.955141 -0.274648 -0.11079
-0.272104 0.669971 0.0356915 -0.948512 0.055542 -0.311834
-0.153895 -0.851442 -0.173416 -0.68252 -0.209229 -0.700278
-0.0906074 0.705454 -0.210034 -0.245922 0.303479 -0.920556
-0.120479 0.394908 0.15648 -0.337541 -0.837723 0.429285
-0.0930521 0.224422 -0.132894 -0.475856 -0.138169 0.868602
0.206534 -0.592931 0.0734064 0.77085 0.599429 -0.215581
-1.4215e-05 -0.693787 -0.261082 -0.00620484 -0.252796 -0.9675
0.170336 0.852687 -0.0182262 0.581205 0.74123 -0.335826
0.149367 -0.560557 0.170259 0.260396 0.634285 0.727926
-0.234957 -0.627125 0.0769399 -0.855799 0.463682 -0.229363
0.130032 -0.957607 0.302616 0.379446 -0.32554 0.866051
-1.63954e-05 0.495499 0.179657 -0.00127794 0.0703892 0.997519
0.16151 -0.60603 -0.0853236 0.880446 0.454124 -0.136335
-0.204285 0.464206 0.180045 -0.568146 -0.610794 0.551489
-0.240395 0.775565 0.225619 -0.802586 0.346726 0.485425
0.143904 0.462407 -0.207582 0.954957 -0.124243 -0.269483
-1.4215e-05 -0.511718 0.151875 -0.00928655 0.788112 0.615461
0.278295 0.670682 0.206567 0.909294 0.0474568 0.413439
-1.63954e-05 0.292569 -0.1191 0.0194152 -0.494097 0.86919
-1.63954e-05 0.371404 0.037588 0.00618252 -0.987722 0.156098
-1.63954e-05 0.371689 -0.00928197 -0.00151263 -0.961322 0.275424
-0.0207782 -0.924134 -0.188398 -0.0581653 -0.531443 -0.845095
0.0326548 -0.986711 0.312319 0.102326 -0.240788 0.965169
-0.17893 0.856792 0.0151582 -0.63416 0.724295 -0.270626
0.139682 0.245665 -0.261917 0.928842 0.0476588 -0.367399
0.140461 0.0116393 -0.277635 0.985843 -0.00172942 -0.16766
-0.141724 -0.433852 -0.173907 -0.876607 0.158326 0.454416
0.216279 0.639538 0.246447 0.159395 -0.215591 0.963387
-0.137988 0.403785 0.158093 -0.402487 -0.802505 0.440442
0.139843 0.759934 -0.172165 0.541519 0.467961 -0.698405
0.0209465 0.926047 0.118332 0.0850504 0.993452 -0.0762861
-0.254155 0.77458 0.0870067 -0.895339 0.426968 -0.126748
0.283922 0.660778 0.0993523 0.991271 0.0359565 -0.12684
0.17917 0.591441 0.225378 -0.126858 -0.206436 0.970202
