0.64874732 0.20572659 0.50588763 0.00012498 0.00034269 0.00000430
0.27272731 0.04545460 0.50005370 -0.00060279 -0.00018344 -0.00000001
0.39137441 0.67677164 0.45506442 -0.00027969 0.00014716 -0.00011678
0.44695777 0.04545460 0.27904442 0.00007308 -0.00022871 -0.00060850
0.50000000 0.54413033 0.34540084 0.00000006 -0.00018927 0.00003919
0.55826771 0.59856832 0.37367573 0.00002110 0.00010538 -0.00003188
0.57276309 0.59856832 0.38129923 0.00002462 0.00010942 -0.00002712
0.59928417 0.61675018 0.44443449 0.00002802 0.00006256 -0.00001142
0.55780244 0.17780966 0.32217252 0.00012649 0.00032773 -0.00032059
0.39069438 0.20572659 0.39901575 -0.00009210 0.00034733 -0.00006220
0.44130278 0.49420187 0.44135648 -0.00013587 0.00004657 -0.00010809
0.37945598 0.55458128 0.62059766 -0.00016444 -0.00009323 0.00015906
0.55826771 0.59856832 0.62643158 0.00002120 0.00010545 0.00003180
0.58937007 0.65118110 0.57049036 0.00010084 -0.00009286 0.00007197
0.52333575 0.57108092 0.33129922 0.00002512 0.00012194 -0.00021865
0.50000000 0.29659989 0.41408375 0.00000002 -0.00001737 -0.00027754
0.40934145 0.26263425 0.52950966 -0.00029286 0.00018116 0.00009108
0.62258410 0.60765922 0.49039012 0.00011835 -0.00002630 -0.00000866
0.50000000 0.22813177 0.38434145 0.00000001 0.00009410 -0.00024217
0.28539729 0.04545460 0.57446313 -0.00054714 -0.00018502 0.00023119
0.37755907 0.04545460 0.69135642 -0.00020120 -0.00020111 0.00055769
0.63690048 0.54559773 0.58770573 0.00008402 -0.00021561 0.00004860
0.46220472 0.58926272 0.36608806 0.00001987 0.00008288 0.00005623
0.42079458 0.26263425 0.44711885 -0.00025288 0.00016647 -0.00016289
0.50000000 0.06313534 0.27220833 0.00000001 0.00033312 -0.00062847
0.61875451 0.59856832 0.57281673 0.00003754 0.00010759 0.00001811
0.50000000 0.10522553 0.72263777 0.00000001 0.00032529 0.00052553
0.58221185 0.54559773 0.64031851 0.00006189 -0.00021000 0.00008681
0.47773802 0.26263425 0.40735504 -0.00012658 0.00006208 -0.00025559
0.50000000 0.51882607 0.60427696 0.00000003 0.00007798 0.00022639
0.66392267 0.55458128 0.45381173 0.00021616 -0.00009599 -0.00005887
0.68088758 0.17780966 0.45284536 0.00031738 0.00035294 -0.00007754
0.33886904 0.58017182 0.49371868 -0.00016930 0.00015730 -0.00000637
0.67018610 0.55458128 0.49336079 0.00022385 -0.00009650 -0.00000840
0.56803864 0.60765922 0.38903004 0.00006958 0.00000516 -0.00009818
0.56793129 0.44770938 0.51082677 0.00020937 0.00004282 0.00002832
0.35186115 0.58017182 0.49421975 0.00002586 0.00006169 0.00000125
0.28385827 0.04545460 0.57027555 -0.00055987 -0.00018474 0.00021973
0.45633501 0.17780966 0.31816393 -0.00012796 0.00033048 -0.00032855
0.38568363 0.67677164 0.52750540 -0.00029572 0.00015110 0.00007164
0.66914815 0.55458128 0.52006084 0.00022281 -0.00009647 0.00002535
0.47874016 0.44770938 0.43462777 -0.00013998 0.00016717 -0.00013035
0.34531140 0.55458128 0.42875805 -0.00020467 -0.00009467 -0.00009140
0.37491056 0.55458128 0.38444886 -0.00016796 -0.00009325 -0.00015024
0.50000000 0.91195416 0.54157120 -0.00000084 0.00027213 0.00010428
0.58661419 0.65118110 0.42607373 0.00009926 -0.00009026 -0.00007649
0.52179670 0.58926272 0.63763422 -0.00001372 0.00007345 -0.00006057
0.70436651 0.04545460 0.40091270 0.00051062 -0.00018626 -0.00030330
0.58432353 0.58017182 0.36247316 0.00009547 0.00015785 -0.00014597
0.68385828 0.04545460 0.36648175 0.00043709 -0.00018890 -0.00041097
0.27326414 0.04545460 0.48666787 -0.00059280 -0.00018360 -0.00003999
0.65862560 0.57108092 0.56215101 0.00021876 0.00013015 0.00008325
0.59710091 0.65118110 0.55957407 0.00010800 -0.00009565 0.00006339
0.58314240 0.67677164 0.41691124 0.00020846 0.00013141 -0.00020819
0.58357191 0.61675018 0.57729065 0.00002586 0.00005564 0.00001508
0.46481749 0.61675018 0.60835713 -0.00001837 0.00002571 0.00001958
0.50000000 0.30790988 0.58290982 0.00000002 0.00000052 0.00025384
0.46020043 0.55458128 0.66580170 -0.00006037 -0.00009603 0.00020628
0.60887617 0.58017182 0.39940947 -0.00001494 0.00006274 0.00002145
0.52122402 0.90869713 0.54167861 0.00010312 0.00039308 0.00003301
0.50583392 0.58017182 0.64819252 -0.00000840 0.00003228 -0.00005427
0.58278453 0.04545460 0.28852898 0.00005952 -0.00021660 -0.00059060
0.51492482 0.26263425 0.59421974 0.00008966 0.00005486 0.00025458
0.50730139 0.90869713 0.45388332 0.00004711 0.00038364 -0.00005412
0.41385111 0.58926272 0.60935932 0.00003612 0.00008968 -0.00005683
0.61267000 0.54559773 0.61723334 0.00007295 -0.00021318 0.00006807
0.50000000 0.21152472 0.63688260 0.00000001 0.00021643 0.00017716
0.54498923 0.67677164 0.60867929 0.00013777 0.00005393 0.00023942
0.48908374 0.59856832 0.36118469 -0.00000371 0.00008980 -0.00004176
0.56592703 0.04545460 0.28269506 -0.00003424 -0.00022487 -0.00060205
0.38478887 0.67677164 0.52295995 -0.00029713 0.00015152 0.00005937
0.41188261 0.17780966 0.66490692 -0.00018138 0.00032378 0.00029001
0.50000000 0.08432362 0.27363995 0.00000001 0.00059520 -0.00059788
0.40225485 0.17780966 0.34056908 -0.00020467 0.00032533 -0.00027727
0.27813172 0.04545460 0.45137796 -0.00057536 -0.00018415 -0.00014997
0.61807448 0.57108092 0.37725484 0.00016676 0.00012784 -0.00016758
0.51896924 0.58017182 0.33992487 0.00001352 0.00015632 -0.00014869
0.72727269 0.04545460 0.50005370 0.00060277 -0.00018343 -0.00000001
0.49105224 0.65118110 0.61358267 -0.00001488 -0.00006043 0.00010906
0.46750179 0.59856832 0.63548672 -0.00001064 0.00009533 0.00004297
0.57652110 0.60765922 0.39472082 0.00007614 0.00000673 -0.00009359
0.63056546 0.58926272 0.45187902 -0.00005853 0.00008383 0.00002457
0.49108803 0.04545460 0.27313888 0.00007530 -0.00018340 -0.00057899
0.62734431 0.57108092 0.38688260 0.00017876 0.00012856 -0.00015352
0.50000000 0.62104511 0.38616681 -0.00000010 0.00005110 -0.00001357
0.63335717 0.54559773 0.40710449 0.00008222 -0.00021521 -0.00005198
0.45977092 0.60765922 0.62389046 -0.00004449 -0.00000279 0.00011296
0.38840371 0.61675018 0.52224410 -0.00003016 0.00006336 0.00000419
0.61370790 0.61675018 0.49557981 0.00003066 0.00006368 -0.00000080
0.50000000 0.16041522 0.69930208 0.00000001 0.00041220 0.00037521
0.50000000 0.85669285 0.40510023 0.00000003 0.00057595 -0.00015115
0.38647103 0.61675018 0.50900143 -0.00003159 0.00006318 0.00000169
0.48063707 0.94545448 0.48817107 -0.00038355 0.00021107 -0.00024692
0.52670008 0.04545460 0.72557265 -0.00013462 -0.00019430 0.00059160
0.48217610 0.61675018 0.38756263 -0.00000948 0.00001936 -0.00002254
0.41191840 0.26263425 0.46358269 -0.00028645 0.00017808 -0.00011072
0.40955621 0.58926272 0.39414817 0.00003806 0.00008970 0.00005421
0.62959915 0.55458128 0.38935217 0.00017509 -0.00009415 -0.00014483
0.61302793 0.65118110 0.48666787 0.00012346 -0.00010392 -0.00001467
0.51839656 0.67677164 0.61615962 0.00009929 -0.00008299 0.00021708
0.53987116 0.26263425 0.58656049 0.00015759 0.00009054 0.00025604
0.62920541 0.60765922 0.48477092 0.00012493 0.00001232 -0.00001397
0.50000000 0.61675018 0.61394054 -0.00000009 0.00001646 0.00002362
0.53088760 0.61675018 0.39053330 0.00001631 0.00002438 -0.00001928
0.50000000 0.07730859 0.27288833 0.00000001 0.00056322 -0.00061897
0.56467432 0.17780966 0.67539370 0.00013106 0.00032566 0.00031481
0.52927703 0.17780966 0.31530067 0.00010151 0.00033206 -0.00033923
0.53478879 0.20572659 0.35517180 0.00010798 0.00033149 -0.00010588
0.49627775 0.26263425 0.59525770 -0.00002325 0.00004908 0.00025160
0.36753762 0.58926272 0.54311019 0.00005852 0.00008478 -0.00002153
0.55329275 0.59856832 0.37138513 0.00001938 0.00010502 -0.00003429
0.60722977 0.60765922 0.43999642 0.00010395 -0.00002658 -0.00005412
0.62383682 0.60765922 0.54028273 0.00012018 0.00001281 0.00003645
0.64377236 0.58017182 0.57331783 0.00015273 0.00015792 0.00007422
0.42602006 0.65118110 0.41343951 -0.00008157 -0.00007854 -0.00009356
0.50000000 0.76907659 0.62503582 -0.00000004 0.00023603 0.00034561
0.48661417 0.65118110 0.38702577 -0.00002036 -0.00005925 -0.00010936
0.44420189 0.58017182 0.65134209 -0.00006161 0.00016426 0.00016428
0.32591268 0.17780966 0.43190768 -0.00030765 0.00035054 -0.00011356
0.38063708 0.54559773 0.61039728 -0.00007570 -0.00021511 0.00006334
0.50000000 0.07022195 0.27242306 0.00000001 0.00047566 -0.00062759
0.64677876 0.17780966 0.38434145 0.00026889 0.00034076 -0.00019419
0.70032215 0.04545460 0.39296708 0.00049500 -0.00018677 -0.00032848
0.43249822 0.58017182 0.64647460 -0.00007531 0.00016000 0.00015836
0.43285611 0.49420187 0.45127058 -0.00015314 0.00004637 -0.00008718
0.42508948 0.17780966 0.67131352 -0.00014769 0.00032391 0.00030714
0.61159629 0.61675018 0.52224410 0.00003023 0.00006341 0.00000417
0.46352899 0.26263425 0.58813530 -0.00016042 0.00008246 0.00025697
0.53940588 0.65118110 0.39328921 0.00003234 -0.00004810 -0.00011726
0.42247674 0.58017182 0.62657475 0.00000528 0.00006845 -0.00002215
0.46220472 0.90869713 0.47260198 -0.00006439 0.00039306 -0.00003420
0.64760196 0.04545460 0.67285252 0.00030190 -0.00019496 0.00051700
0.34974948 0.57108092 0.58036870 -0.00020815 0.00013015 0.00010788
0.59216172 0.20572659 0.61694700 0.00008470 0.00034867 0.00006777
0.50000000 0.78289187 0.62274516 -0.00000004 0.00028975 0.00033097
0.58650684 0.26263425 0.53992486 0.00028117 0.00017610 0.00012022
0.35930568 0.58017182 0.42127776 -0.00014908 0.00015666 -0.00007924
0.47838226 0.94878310 0.49303865 -0.00043369 0.00027177 -0.00015244
0.42863280 0.88707942 0.48290980 -0.00028921 0.00032844 -0.00006229
0.30404443 0.04545460 0.61490691 -0.00047837 -0.00018736 0.00035032
0.39005011 0.17780966 0.65137798 -0.00022433 0.00032821 0.00026007
0.50701505 0.94545448 0.52167141 0.00014010 0.00026607 0.00043348
0.34051540 0.17780966 0.40230852 -0.00028970 0.00034547 -0.00016219
0.42519689 0.26263425 0.55903727 -0.00023229 0.00016015 0.00018524
0.50000000 0.80103791 0.61852181 -0.00000004 0.00035986 0.00029924
0.41302794 0.60765922 0.41308162 -0.00008412 -0.00003007 -0.00007898
0.38428777 0.59856832 0.42274517 -0.00003661 0.00010593 -0.00001947
0.66574806 0.55458128 0.53985327 0.00022104 -0.00009635 0.00005123
0.62143880 0.59856832 0.43205082 0.00003844 0.00010629 -0.00001684
0.50000000 0.18661423 0.32106301 0.00000001 0.00039838 -0.00024092
0.57723689 0.61675018 0.58362561 0.00002562 0.00005102 0.00001575
0.39778098 0.58926272 0.40556550 0.00004453 0.00008703 0.00004767
0.48217610 0.04545460 0.27349681 0.00012251 -0.00018430 -0.00059208
0.68188971 0.17780966 0.45638868 0.00032003 0.00035341 -0.00007216
0.43994272 0.60765922 0.60728341 -0.00006252 -0.00003895 0.00009281
0.53088760 0.65118110 0.39053330 0.00002884 -0.00005006 -0.00011527
0.48922691 0.44770938 0.56798494 -0.00007829 0.00018886 0.00013943
0.51607013 0.94545448 0.51612383 0.00031898 0.00023007 0.00033854
0.33360773 0.57108092 0.46354687 -0.00022948 0.00013023 -0.00004872
0.66070145 0.04545460 0.33935219 0.00035411 -0.00019251 -0.00048390
0.64162487 0.55458128 0.59468502 0.00018859 -0.00009449 0.00012171
0.47462419 0.60765922 0.62764853 -0.00002787 -0.00000894 0.00011939
0.36130995 0.54559773 0.41505012 -0.00008668 -0.00021773 -0.00004803
0.45497495 0.60765922 0.37800646 -0.00005026 -0.00000209 -0.00011024
0.51728702 0.94878310 0.48530778 0.00034553 0.00028485 -0.00031765
0.44323552 0.58017182 0.36297423 0.00000781 0.00007374 0.00001982
0.37383682 0.04545460 0.68888688 -0.00021193 -0.00020009 0.00055219
0.50000000 0.33099505 0.42149249 0.00000001 0.00007701 -0.00022236
0.57738006 0.55458128 0.65191478 0.00011292 -0.00008870 0.00020862
0.50000000 0.50726557 0.59278816 -0.00000001 0.00006382 0.00017767
0.58808160 0.26263425 0.46358269 0.00028646 0.00017807 -0.00011070
0.44420189 0.57108092 0.33910167 -0.00008769 0.00013689 -0.00023426
0.50000000 0.19058703 0.32550108 0.00000001 0.00041474 -0.00019769
0.55701506 0.20572659 0.63770580 0.00008035 0.00034893 0.00008007
0.34753042 0.54559773 0.55631709 -0.00009051 -0.00021904 0.00003042
0.57247669 0.88707942 0.51154262 0.00029355 0.00032827 0.00004174
0.66088045 0.58017182 0.51272368 0.00016990 0.00015838 0.00001280
0.47097352 0.20572659 0.64604509 -0.00011095 0.00032577 0.00011254
0.55329275 0.58926272 0.37138513 -0.00002271 0.00009058 0.00005883
0.38389406 0.67677164 0.51845026 -0.00030091 0.00015231 0.00004773
0.34259129 0.04545460 0.33630994 -0.00033616 -0.00019320 -0.00048749
0.50000000 0.49420187 0.58305299 -0.00000002 0.00004113 0.00012893
0.60669291 0.67677164 0.45087689 0.00027341 0.00014576 -0.00012654
0.57662851 0.54559773 0.64343232 0.00005845 -0.00020898 0.00008985
0.63543308 0.58926272 0.53255188 -0.00006067 0.00008468 -0.00001625
0.66914815 0.55458128 0.48004651 0.00022281 -0.00009648 -0.00002535
0.41947031 0.60765922 0.39790624 -0.00007950 0.00000649 -0.00009117
0.44695777 0.04545460 0.72106296 0.00007279 -0.00022814 0.00060849
0.42723694 0.59856832 0.38129923 -0.00002488 0.00010927 -0.00002727
0.50000000 0.16041522 0.30080530 0.00000001 0.00040948 -0.00037705
0.40289906 0.61675018 0.55957407 -0.00002850 0.00006163 0.00001259
0.57043666 0.65118110 0.41068360 0.00007444 -0.00007488 -0.00009723
0.50000000 0.05254124 0.27245885 0.00000001 0.00005616 -0.00060552
0.64026487 0.54559773 0.41784179 0.00008592 -0.00021608 -0.00004572
0.59982103 0.58017182 0.62668216 0.00010999 0.00015552 0.00013031
0.57984966 0.60765922 0.59357548 0.00007797 -0.00003236 0.00008387
0.55869722 0.49420187 0.44135648 0.00013586 0.00004651 -0.00010813
0.50447387 0.61675018 0.61376160 0.00000189 0.00001698 0.00002244
0.50000000 0.36574808 0.57310307 0.00000001 0.00030855 0.00016229
0.48332143 0.57108092 0.33051181 -0.00001313 0.00011530 -0.00021196
0.64677876 0.17780966 0.61576587 0.00026899 0.00034074 0.00019414
0.42269152 0.58926272 0.38434145 0.00003133 0.00009082 0.00005994
0.61370790 0.61675018 0.50452757 0.00003066 0.00006368 0.00000078
0.63167500 0.57108092 0.39196494 0.00018427 0.00012891 -0.00014611
0.50000000 0.23317829 0.61132783 0.00000002 0.00007719 0.00024310
0.61696488 0.60765922 0.53806370 0.00011344 -0.00002658 0.00003425
0.62977809 0.60765922 0.48985323 0.00012539 0.00001293 -0.00000932
0.66821760 0.17780966 0.58162135 0.00030002 0.00034845 0.00013516
0.51020044 0.60765922 0.37027559 0.00001075 -0.00001188 -0.00012271
0.58625627 0.67677164 0.42031136 0.00021745 0.00013340 -0.00019872
0.39409450 0.58926272 0.40960985 0.00004576 0.00008694 0.00004510
0.50000000 0.45994991 0.56998926 0.00000001 0.00013243 0.00013523
0.46199000 0.60765922 0.61701858 -0.00004082 -0.00004521 0.00010145
0.28264141 0.04545460 0.43412670 -0.00055798 -0.00018469 -0.00020342
0.53518254 0.61675018 0.60835713 0.00001816 0.00002569 0.00001975
0.40536866 0.61675018 0.56326056 -0.00002709 0.00006137 0.00001271
0.48997855 0.57108092 0.33001077 -0.00000620 0.00011177 -0.00020760
0.63221186 0.58017182 0.56741232 -0.00001942 0.00006206 -0.00001411
0.35357913 0.58017182 0.43255189 -0.00015417 0.00015674 -0.00006785
0.50511807 0.60765922 0.37006083 0.00000518 -0.00001305 -0.00012294
0.32111672 0.17780966 0.55431283 -0.00031417 0.00035222 0.00009012
0.54162490 0.90869713 0.52127773 0.00008688 0.00038666 0.00002456
0.38478887 0.67677164 0.47714743 -0.00029712 0.00015152 -0.00005937
0.68403721 0.17780966 0.53290981 0.00032187 0.00035405 0.00005338
0.55952042 0.61675018 0.40295276 0.00002578 0.00003744 -0.00001766
0.38400146 0.60765922 0.44096279 -0.00011303 0.00001250 -0.00005333
0.54005009 0.17780966 0.68265927 0.00013202 0.00033014 0.00032959
0.52927703 0.17780966 0.68480670 0.00010226 0.00033343 0.00033878
0.39183965 0.60765922 0.57231569 -0.00010506 0.00001136 0.00006564
0.37265572 0.57108092 0.38688260 -0.00017887 0.00012878 -0.00015353
0.36592701 0.58017182 0.41046885 -0.00014300 0.00015645 -0.00009013
0.38192555 0.57108092 0.62285250 -0.00016685 0.00012808 0.00016764
0.64427346 0.58017182 0.46540803 -0.00002332 0.00006192 0.00000709
0.38629207 0.65118110 0.50452757 -0.00012407 -0.00010463 0.00000480
0.55153900 0.20572659 0.36039728 0.00008320 0.00034436 -0.00008609
0.43743736 0.88707942 0.46172154 -0.00026380 0.00033432 -0.00013438
0.58321404 0.55458128 0.64865780 0.00011936 -0.00008978 0.00020075
0.33514675 0.17780966 0.41193628 -0.00029569 0.00034725 -0.00014503
0.36091629 0.58017182 0.55137795 0.00002341 0.00006179 -0.00001130
0.65329272 0.57108092 0.57439154 0.00021194 0.00013015 0.00009994
0.35214746 0.20572659 0.48255190 -0.00012381 0.00034315 -0.00001301
0.33324984 0.04545460 0.65420544 -0.00036905 -0.00019164 0.00046013
0.53249824 0.58926272 0.63548672 -0.00001851 0.00008015 -0.00005629
0.63464564 0.58017182 0.56211519 -0.00002201 0.00006153 -0.00001388
0.53303504 0.90869713 0.53308874 0.00009000 0.00039774 0.00002398
0.68632787 0.04545460 0.62993914 0.00044146 -0.00018866 0.00039532
0.52219039 0.65118110 0.38845742 0.00002682 -0.00005538 -0.00011178
0.37970653 0.60765922 0.54987472 -0.00011708 0.00001264 0.00004501
0.60282743 0.57108092 0.63588047 0.00014742 0.00012760 0.00018822
0.46234789 0.58017182 0.34314603 -0.00005161 0.00017596 -0.00015976
0.58937007 0.65118110 0.42961705 0.00010083 -0.00009285 -0.00007197
0.52745169 0.90869713 0.46225840 0.00010597 0.00039815 -0.00001963
0.55268431 0.55458128 0.33795634 0.00007919 -0.00008595 -0.00021987
0.68604147 0.17780966 0.48172870 0.00032461 0.00035474 -0.00002949
0.41062993 0.65118110 0.42961705 -0.00010089 -0.00009305 -0.00007190
0.37079459 0.60765922 0.48477092 -0.00012501 0.00001219 -0.00001399
0.38904798 0.04545460 0.30191484 -0.00016425 -0.00020480 -0.00056729
0.38979959 0.67677164 0.54071224 -0.00028266 0.00014799 0.00010537
0.69377238 0.04545460 0.38129923 0.00047577 -0.00018753 -0.00036674
0.44434503 0.44770938 0.45960990 -0.00019373 0.00006300 -0.00008481
0.61689329 0.20572659 0.40789190 0.00009685 0.00034659 -0.00005861
0.61739439 0.67677164 0.50467074 0.00030381 0.00015305 0.00001186
0.27308521 0.04545460 0.50896567 -0.00059110 -0.00018361 0.00002730
0.37730852 0.58017182 0.60484964 -0.00013277 0.00015714 0.00010687
0.50368649 0.17780966 0.31315318 0.00001328 0.00036227 -0.00032376
0.47820330 0.59856832 0.36247316 -0.00000664 0.00009201 -0.00004316
0.39069438 0.58926272 0.58620262 0.00004772 0.00008561 -0.00004338
0.43256980 0.26263425 0.56748390 -0.00020057 0.00014856 0.00021570
0.42276308 0.61675018 0.41648173 -0.00002566 0.00005095 -0.00001565
0.33790267 0.55458128 0.55273801 -0.00021611 -0.00009534 0.00006803
0.68632787 0.04545460 0.37016824 0.00044143 -0.00018865 -0.00039535
0.59928417 0.65118110 0.44443449 0.00010869 -0.00009720 -0.00005956
0.49516821 0.60765922 0.62285250 -0.00000483 -0.00005352 0.00010824
0.66875446 0.57108092 0.47671795 0.00023283 0.00013003 -0.00003114
0.60808879 0.57108092 0.36837867 0.00015413 0.00012752 -0.00018131
0.61667860 0.67677164 0.48623836 0.00030180 0.00015264 -0.00003563
0.63396561 0.58926272 0.53784895 -0.00006042 0.00008402 -0.00001910
0.62279886 0.57108092 0.61812812 0.00017281 0.00012815 0.00016058
0.47329992 0.04545460 0.72557265 0.00013466 -0.00019430 0.00059160
0.39455977 0.55458128 0.36630282 -0.00014483 -0.00009238 -0.00017608
0.45697924 0.57108092 0.33520046 -0.00008024 0.00014101 -0.00023464
0.57723689 0.65118110 0.41648173 0.00008600 -0.00008291 -0.00008792
0.56800288 0.59856832 0.62149245 0.00002358 0.00010775 0.00002835
0.72605580 0.04545460 0.52231568 0.00059116 -0.00018366 0.00006938
0.35572657 0.58017182 0.53469932 0.00002303 0.00006234 -0.00000704
0.52945596 0.26263425 0.59071225 0.00015143 0.00007046 0.00025652
0.59133857 0.17780966 0.66311741 0.00018963 0.00032407 0.00028473
0.46811026 0.67677164 0.61311734 -0.00014432 -0.00001777 0.00022374
0.45454547 0.90869713 0.48913744 -0.00010037 0.00038534 -0.00000746
0.52809590 0.88707942 0.56784177 0.00024611 0.00041077 0.00017245
0.56163204 0.04545460 0.71862918 -0.00005041 -0.00022624 0.00060069
0.50000000 0.84030056 0.60384750 -0.00000006 0.00059737 0.00015380
0.50000000 0.93962055 0.47639585 -0.00000041 0.00020074 -0.00038573
0.66209733 0.55458128 0.44736937 0.00021608 -0.00009598 -0.00006794
0.48103079 0.58017182 0.33992487 -0.00001396 0.00015644 -0.00014871
0.41567644 0.58017182 0.63763422 -0.00009573 0.00015786 0.00014615
0.41642806 0.65118110 0.57729065 -0.00009486 -0.00008907 0.00007925
0.40551183 0.59856832 0.39783466 -0.00002913 0.00010758 -0.00002446
0.35139585 0.55458128 0.58326769 -0.00019706 -0.00009423 0.00010658
0.58278453 0.04545460 0.71157837 0.00005959 -0.00021640 0.00059061
0.41657123 0.60765922 0.59028268 -0.00008081 -0.00003134 0.00008134
0.50000000 0.78747308 0.62195778 -0.00000004 0.00030549 0.00032943
0.50000000 0.37158200 0.57253039 0.00000001 0.00034496 0.00015933
0.50000000 0.06313534 0.72789901 0.00000001 0.00033664 0.00062846
0.58697206 0.60765922 0.41308162 0.00008400 -0.00003001 -0.00007902
0.41968504 0.57108092 0.34980318 -0.00011878 0.00012995 -0.00021488
0.50000000 0.30225489 0.58448464 0.00000002 -0.00001142 0.00026751
0.54327130 0.26263425 0.41512170 0.00015505 0.00009917 -0.00025602
0.59767359 0.67677164 0.56533641 0.00025037 0.00014031 0.00016407
0.37630638 0.54559773 0.39439872 -0.00007943 -0.00021605 -0.00006158
0.58614886 0.57108092 0.35309595 0.00012617 0.00012885 -0.00020808
0.50000000 0.14187549 0.29042596 0.00000001 0.00042385 -0.00041373
0.38428777 0.58926272 0.42274517 0.00005040 0.00008461 0.00003913
0.57326412 0.58017182 0.64382607 0.00008324 0.00015993 0.00015516
0.42863280 0.88707942 0.51719755 -0.00028988 0.00032799 0.00006314
0.50000000 0.38324985 0.42875805 0.00000001 0.00038955 -0.00015358
0.40017897 0.58017182 0.62668216 -0.00011035 0.00015572 0.00013046
0.47283465 0.59856832 0.63656050 -0.00000848 0.00009208 0.00004343
0.65948457 0.17780966 0.59779888 0.00028976 0.00034545 0.00016213
0.44609877 0.49420187 0.56318897 -0.00012921 0.00004724 0.00011565
0.33886904 0.58017182 0.50638866 -0.00016930 0.00015730 0.00000636
0.68332142 0.17780966 0.53652465 0.00032041 0.00035377 0.00005964
0.46406588 0.44770938 0.44139227 -0.00018950 0.00012432 -0.00011152
0.39663565 0.65118110 0.54769146 -0.00011232 -0.00009912 0.00005243
0.50000000 0.86843234 0.41272369 0.00000006 0.00053862 -0.00015801
0.63056546 0.59856832 0.54822832 0.00004066 0.00010607 0.00001204
0.55604869 0.26263425 0.57718325 0.00016670 0.00012760 0.00024315
0.66954184 0.57108092 0.51676810 0.00023399 0.00013002 0.00002226
0.65980667 0.55458128 0.55900139 0.00021114 -0.00009568 0.00007543
0.50000000 0.83174664 0.39250180 -0.00000000 0.00056845 -0.00017416
0.46821761 0.49420187 0.42335361 -0.00011974 0.00004413 -0.00012322
0.62279886 0.60765922 0.50488549 0.00011827 -0.00002628 0.00000429
0.53554046 0.90869713 0.46970293 0.00007363 0.00039626 -0.00002917
0.36535433 0.58017182 0.56211519 0.00002172 0.00006180 -0.00001378
0.38929850 0.55458128 0.37045458 -0.00015231 -0.00009282 -0.00017174
0.45533288 0.44770938 0.44776306 -0.00019179 0.00009340 -0.00010150
0.51743019 0.58017182 0.35280958 -0.00001708 0.00004668 0.00005028
0.57315671 0.88707942 0.50581604 0.00029654 0.00032808 0.00002085
0.54377234 0.58017182 0.34486404 0.00005192 0.00017058 -0.00016280
0.50000000 0.16642812 0.30456337 0.00000001 0.00038351 -0.00037006
0.36725128 0.20572659 0.56769860 -0.00010888 0.00034594 0.00004674
0.40447387 0.60765922 0.41175735 -0.00009214 0.00000957 -0.00008030
0.39069438 0.59856832 0.58620262 -0.00003395 0.00010630 0.00002181
0.60382956 0.17780966 0.65545809 0.00021482 0.00032642 0.00026636
0.61828917 0.60765922 0.53341085 0.00011437 -0.00002663 0.00003001
0.36091629 0.58926272 0.49457768 0.00006289 0.00008397 0.00000272
0.48217610 0.04545460 0.72661060 0.00012217 -0.00018273 0.00059203
0.41800287 0.49420187 0.48706153 -0.00018534 0.00004799 -0.00001643
0.42956334 0.61675018 0.58942378 -0.00002554 0.00004576 0.00001592
0.44259128 0.67677164 0.39754832 -0.00014168 0.00009484 -0.00024242
0.35930568 0.58017182 0.57882965 -0.00014909 0.00015666 0.00007922
0.36349323 0.58926272 0.47288832 0.00006167 0.00008398 0.00001360
0.35207590 0.58017182 0.51168573 0.00002372 0.00006223 -0.00000241
0.41764495 0.58017182 0.62331784 0.00000730 0.00006680 -0.00002445
0.64627773 0.54559773 0.42911598 0.00008847 -0.00021684 -0.00003912
0.47974232 0.94878310 0.51036149 -0.00040700 0.00027872 0.00023509
0.50894773 0.65118110 0.38652468 0.00001474 -0.00006039 -0.00010908
0.40490338 0.67677164 0.56916606 -0.00024436 0.00013895 0.00017355
0.50000000 0.31943455 0.58076233 0.00000001 0.00003524 0.00024017
0.57226199 0.60765922 0.39189336 0.00007284 0.00000497 -0.00009588
0.53038657 0.60765922 0.37346101 0.00003289 -0.00000623 -0.00011741
0.39974949 0.67677164 0.56147099 -0.00025801 0.00014192 0.00015571
0.71460271 0.04545460 0.42564425 0.00054712 -0.00018501 -0.00023118
0.50000000 0.21904086 0.62571585 0.00000001 0.00014657 0.00021489
0.57730848 0.58926272 0.61576587 -0.00003165 0.00009077 -0.00006011
0.49516821 0.60765922 0.37725484 -0.00000479 -0.00005348 -0.00010821
0.58625627 0.67677164 0.57979602 0.00021746 0.00013341 0.00019873
0.48557624 0.90869713 0.54450607 -0.00008316 0.00038779 0.00004780
0.59416610 0.26263425 0.48512885 0.00030034 0.00018513 -0.00004904
0.39477453 0.65118110 0.45646027 -0.00011509 -0.00009936 -0.00004888
0.56692916 0.65118110 0.59217966 0.00006862 -0.00006969 0.00010259
0.61828917 0.60765922 0.46669650 0.00011437 -0.00002663 -0.00003001
0.60690761 0.17780966 0.34668934 0.00021974 0.00032733 -0.00026258
0.61410165 0.58017182 0.61415529 0.00012422 0.00015676 0.00011679
0.50000000 0.72720116 0.62625265 -0.00000004 -0.00001981 0.00033437
0.56324261 0.59856832 0.37596637 0.00002243 0.00010821 -0.00002993
0.40730137 0.26263425 0.52231568 -0.00029732 0.00018351 0.00007090
0.66771650 0.57108092 0.53001076 0.00023156 0.00013012 0.00003997
0.31324270 0.17780966 0.50739086 -0.00032513 0.00035495 0.00001185
0.59506083 0.04545460 0.70628130 0.00011576 -0.00021083 0.00057715
0.66177523 0.54559773 0.48412669 0.00009540 -0.00021895 -0.00000828
0.52523261 0.58017182 0.65943086 0.00002765 0.00016842 0.00015305
0.31524697 0.17780966 0.47077668 -0.00032415 0.00035443 -0.00004797
0.49251968 0.26263425 0.59507871 -0.00004635 0.00005036 0.00025272
0.64223331 0.17780966 0.37857911 0.00026299 0.00033925 -0.00020658
0.50000000 0.89219755 0.43133500 0.00000004 0.00050574 -0.00010761
0.31596279 0.17780966 0.46719757 -0.00032187 0.00035406 -0.00005346
0.36027202 0.17780966 0.37589478 -0.00025810 0.00033824 -0.00021058
0.38672155 0.20572659 0.40331066 -0.00009421 0.00034803 -0.00006027
0.50000000 0.64255548 0.61394054 -0.00000007 0.00004332 0.00005626
0.36775234 0.17780966 0.63230139 -0.00024817 0.00033561 0.00022710
0.50000000 0.90869713 0.54679674 -0.00000049 0.00038274 0.00006128
0.28539729 0.04545460 0.42564425 -0.00054713 -0.00018502 -0.00023120
0.54985684 0.58017182 0.34658200 0.00005618 0.00016827 -0.00016593
0.45640659 0.65118110 0.60527915 -0.00003608 -0.00004877 0.00011806
0.35508236 0.54559773 0.42621690 -0.00008917 -0.00021844 -0.00004129
0.57272726 0.20572659 0.37016824 0.00007898 0.00035083 -0.00007141
0.47802436 0.17780966 0.31444168 -0.00007666 0.00033956 -0.00033533
0.49330708 0.55458128 0.32986760 -0.00000093 -0.00010430 -0.00017030
0.47677168 0.58017182 0.35348961 0.00001116 0.00006262 0.00004733
0.63543308 0.58926272 0.46755546 -0.00006068 0.00008469 0.00001623
0.48088762 0.54559773 0.33863637 0.00000598 -0.00021664 -0.00005181
0.66002148 0.54559773 0.47149250 0.00009452 -0.00021882 -0.00001506
0.56324261 0.58926272 0.37596637 -0.00002521 0.00009235 0.00006055
0.46664280 0.60765922 0.38180029 -0.00003563 -0.00004701 -0.00010271
0.37065139 0.58017182 0.57249463 0.00002006 0.00006175 -0.00001613
0.43793842 0.58017182 0.63469929 0.00000729 0.00007204 -0.00002172
0.52125984 0.44770938 0.56547958 0.00014001 0.00016715 0.00013033
0.66095203 0.57108092 0.44425556 0.00022190 0.00013017 -0.00007485
0.51335001 0.94545448 0.48165712 0.00026654 0.00023953 -0.00036956
0.50000000 0.79198283 0.62081242 -0.00000004 0.00032041 0.00031835
0.39781675 0.60765922 0.43180028 -0.00009876 -0.00002699 -0.00006190
0.59463131 0.55458128 0.64167857 0.00013284 -0.00009179 0.00018887
0.50000000 0.63396561 0.61394054 -0.00000007 0.00009265 0.00002221
0.47677168 0.58017182 0.64661777 0.00001095 0.00006294 -0.00004736
0.55293489 0.26263425 0.42084825 0.00016070 0.00012101 -0.00024735
0.62566215 0.54559773 0.39693987 0.00007850 -0.00021438 -0.00005859
0.41728705 0.20572659 0.37628850 -0.00008119 0.00034984 -0.00006961
0.35830352 0.20572659 0.54608089 -0.00011692 0.00034504 0.00003344
0.54656404 0.26263425 0.58316034 0.00015463 0.00010695 0.00025372
0.66836077 0.55458128 0.47338939 0.00022433 -0.00009655 -0.00003420
0.56320685 0.65118110 0.59468502 0.00006156 -0.00006552 0.00010608
0.61302793 0.61675018 0.51343948 0.00003080 0.00006350 0.00000245
0.60479599 0.58017182 0.62274516 0.00011542 0.00015656 0.00012645
0.65812451 0.58017182 0.53151393 0.00016529 0.00015685 0.00003162
0.33697212 0.57108092 0.54951680 -0.00022499 0.00013034 0.00006636
0.40658554 0.26263425 0.48147815 -0.00029797 0.00018424 -0.00005998
0.50000000 0.83600575 0.39439872 0.00000000 0.00058465 -0.00016123
0.56857550 0.44770938 0.50545812 0.00021141 0.00004217 0.00001439
0.51936293 0.49420187 0.41934502 0.00008185 0.00003810 -0.00012364
0.50000000 0.86453110 0.58992481 -0.00000010 0.00055262 0.00015307
0.38496780 0.54559773 0.38502148 -0.00007544 -0.00021522 -0.00006818
0.50000000 0.93664998 0.52442735 -0.00000084 0.00017224 0.00036718
0.68110234 0.04545460 0.63713312 0.00042100 -0.00018940 0.00041750
0.47329992 0.04545460 0.27453473 0.00013501 -0.00019563 -0.00059167
0.38185397 0.60765922 0.55452752 -0.00011514 0.00001190 0.00004916
0.31811026 0.17780966 0.45638868 -0.00032004 0.00035342 -0.00007217
0.50547600 0.58926272 0.36096993 -0.00000372 0.00006558 0.00007069
0.33360773 0.57108092 0.53656048 -0.00022948 0.00013022 0.00004873
0.46352899 0.17780966 0.68337506 -0.00012607 0.00032962 0.00033281
0.62415886 0.17780966 0.63978171 0.00023755 0.00033265 0.00023938
0.50000000 0.27959916 0.59071225 0.00000002 0.00000388 0.00028402
0.40547603 0.17780966 0.33877951 -0.00019723 0.00032464 -0.00028024
0.42329994 0.49420187 0.53183609 -0.00017634 0.00004735 0.00004854
0.50000000 0.74115962 0.62661058 -0.00000004 0.00005942 0.00034350
0.47670007 0.20572659 0.64719039 -0.00010205 0.00032343 0.00011928
0.61302793 0.65118110 0.51343948 0.00012346 -0.00010392 0.00001466
0.38733003 0.58926272 0.58190763 0.00004847 0.00008581 -0.00004089
0.46445957 0.90869713 0.53040445 -0.00007530 0.00039802 0.00003013
0.48532569 0.17780966 0.31358272 -0.00005295 0.00035096 -0.00033208
0.50000000 0.81438792 0.61437011 -0.00000004 0.00045227 0.00024894
0.51338583 0.55458128 0.33011815 0.00000296 -0.00010505 -0.00017477
0.40490338 0.67677164 0.43094128 -0.00024435 0.00013893 -0.00017355
0.37362206 0.58926272 0.44178599 0.00005574 0.00008388 0.00002971
0.40515393 0.58017182 0.63058335 -0.00010618 0.00015686 0.00013631
0.52226198 0.54559773 0.33903006 -0.00000733 -0.00021690 -0.00005152
0.65025055 0.57108092 0.58036870 0.00020813 0.00013008 0.00010787
0.63407296 0.58017182 0.58963853 0.00014273 0.00015637 0.00009004
0.66979241 0.04545460 0.65091264 0.00038073 -0.00019111 0.00045404
0.37730852 0.58017182 0.39525771 -0.00013280 0.00015714 -0.00010683
0.50000000 0.39491770 0.42993915 0.00000001 0.00040540 -0.00014747
0.43675736 0.59856832 0.37596637 -0.00002271 0.00010805 -0.00003009
0.59849679 0.58926272 0.40155691 -0.00004257 0.00008835 0.00004964
0.57397991 0.65118110 0.58666784 0.00008150 -0.00007834 0.00009362
0.50733715 0.17780966 0.68681097 0.00002693 0.00036127 0.00032429
0.40787405 0.61675018 0.56698281 -0.00002738 0.00006004 0.00001395
0.40325698 0.20572659 0.38677523 -0.00008612 0.00034930 -0.00006649
0.34670725 0.57108092 0.42571583 -0.00021200 0.00013023 -0.00009985
0.40232643 0.67677164 0.56533641 -0.00025044 0.00014025 0.00016403
0.52902645 0.20572659 0.35406229 0.00011047 0.00032583 -0.00011256
0.36091629 0.58926272 0.50552970 0.00006290 0.00008397 -0.00000273
0.56424475 0.60765922 0.39518613 0.00006565 -0.00003749 -0.00009157
0.45293486 0.60765922 0.61365426 -0.00005148 -0.00004287 0.00009795
0.28020763 0.04545460 0.44268075 -0.00056773 -0.00018439 -0.00017896
0.33933431 0.54559773 0.47460628 -0.00009701 -0.00022067 -0.00001386
0.51528275 0.60765922 0.37084824 0.00001641 -0.00001149 -0.00012191
0.50000000 0.78747308 0.37814960 -0.00000002 0.00030502 -0.00032954
0.52036506 0.60765922 0.62865067 0.00002209 -0.00000949 0.00012088
0.50000000 0.69033647 0.62099141 -0.00000004 -0.00011059 0.00026439
0.55923402 0.54559773 0.34865782 0.00004216 -0.00020633 -0.00009494
0.45279169 0.17780966 0.68094128 -0.00012460 0.00033037 0.00032495
0.27727276 0.04545460 0.45574445 -0.00057546 -0.00018409 -0.00013681
0.52226198 0.54559773 0.66107726 -0.00000712 -0.00021719 0.00005149
0.48271295 0.94545448 0.51479959 -0.00034491 0.00022503 0.00031398
0.61095202 0.04545460 0.30191484 0.00016427 -0.00020479 -0.00056726
0.43836793 0.04545460 0.71862918 0.00005045 -0.00022625 0.00060070
0.37795278 0.60765922 0.51451325 -0.00011772 -0.00002647 0.00001303
0.46911240 0.65118110 0.39053330 -0.00002900 -0.00005018 -0.00011521
0.41929135 0.49420187 0.48069078 -0.00018362 0.00004792 -0.00002582
0.58342880 0.60765922 0.40982464 0.00008071 -0.00003127 -0.00008135
0.41349322 0.26263425 0.46018252 -0.00028116 0.00017609 -0.00012030
0.52226198 0.04545460 0.27399787 -0.00013268 -0.00018861 -0.00059098
0.58697206 0.04545460 0.29006800 0.00008524 -0.00021447 -0.00059292
0.57723689 0.61675018 0.41648173 0.00002561 0.00005100 -0.00001578
0.38589835 0.58017182 0.61415529 -0.00012452 0.00015697 0.00011696
0.51782387 0.65118110 0.61254478 0.00002460 -0.00005728 0.00011135
0.68260556 0.17780966 0.54010379 0.00031970 0.00035355 0.00006604
0.38926271 0.61675018 0.52664638 -0.00003122 0.00006279 0.00000546
0.50000000 0.66410166 0.38523620 -0.00000004 -0.00011816 -0.00016141
0.45994991 0.17780966 0.68265927 -0.00013199 0.00033014 0.00032960
0.61363631 0.60765922 0.45298856 0.00011041 -0.00002654 -0.00004241
0.66703647 0.55458128 0.53326774 0.00021981 -0.00009631 0.00004211
0.46828920 0.54559773 0.65946674 0.00001091 -0.00022354 0.00005223
0.62659270 0.60765922 0.53044021 0.00012266 0.00001271 0.00002760
0.48722261 0.54559773 0.33788475 0.00000331 -0.00021349 -0.00005629
0.50000000 0.17494638 0.68920898 0.00000001 0.00036296 0.00033869
0.34971368 0.54559773 0.56229419 -0.00009199 -0.00021930 0.00003478
0.50000000 0.43596995 0.56902289 0.00000002 0.00028512 0.00015162
0.43471727 0.67677164 0.40238011 -0.00015520 0.00011083 -0.00023825
0.51120257 0.26263425 0.40545812 0.00006840 0.00005189 -0.00025295
0.48525411 0.94545448 0.51734072 -0.00029584 0.00023780 0.00036135
0.50000000 0.65118110 0.38616681 -0.00000006 -0.00006175 -0.00010838
0.48969221 0.94878310 0.52031136 -0.00020718 0.00031149 0.00043077
0.56356478 0.60765922 0.61354691 0.00006630 0.00000312 0.00010041
0.37852541 0.17780966 0.35782033 -0.00023614 0.00033191 -0.00024451
0.40647817 0.60765922 0.42016822 -0.00009024 -0.00002831 -0.00007294
0.52856117 0.54559773 0.34003225 -0.00001036 -0.00022067 -0.00005132
0.50000000 0.10178960 0.27657482 0.00000001 0.00035171 -0.00053815
0.59767359 0.67677164 0.43477094 0.00025037 0.00014031 -0.00016406
0.57859701 0.04545460 0.71311742 0.00003486 -0.00021848 0.00059201
0.53249824 0.58926272 0.36462063 -0.00001842 0.00008020 0.00005622
0.40447387 0.60765922 0.58835000 -0.00009210 0.00000955 0.00008034
0.55229062 0.44770938 0.45538655 0.00019277 0.00007110 -0.00009058
0.50730139 0.90869713 0.54622406 0.00004712 0.00038321 0.00005788
0.60830349 0.65118110 0.46487117 0.00011814 -0.00010083 -0.00003986
0.53482461 0.54559773 0.65882248 -0.00001164 -0.00022126 0.00005659
0.34481031 0.58017182 0.54382604 -0.00016273 0.00015718 0.00004414
0.64813882 0.58017182 0.50588763 -0.00002624 0.00006126 -0.00000123
0.50547600 0.59856832 0.36096993 0.00000172 0.00008800 -0.00004096
0.54763782 0.65118110 0.39668933 0.00003947 -0.00005106 -0.00011652
0.63765204 0.20572659 0.44303867 0.00011313 0.00034548 -0.00004060
0.50000000 0.62534004 0.61394054 -0.00000008 0.00008446 0.00000535
0.50000000 0.21152472 0.36322477 0.00000001 0.00021610 -0.00017785
0.51714391 0.88707942 0.42868647 0.00016334 0.00045736 -0.00015984
0.59899789 0.60765922 0.58459198 0.00009537 0.00001104 0.00007697
0.50000000 0.26263425 0.59540087 0.00000002 0.00004918 0.00025205
0.50000000 0.45994991 0.43011811 0.00000002 0.00013242 -0.00013524
0.42269152 0.59856832 0.61576587 -0.00002591 0.00010788 0.00002622
0.53593415 0.44770938 0.44139227 0.00018953 0.00012430 -0.00011149
0.56005722 0.60765922 0.60728341 0.00006227 -0.00003895 0.00009296
0.51467431 0.17780966 0.68652463 0.00005347 0.00035343 0.00033106
0.31395853 0.17780966 0.48172870 -0.00032462 0.00035475 -0.00002950
0.57730848 0.59856832 0.61576587 0.00002556 0.00010796 0.00002620
0.47340730 0.61675018 0.38931638 -0.00001473 0.00002244 -0.00002097
0.59710091 0.65118110 0.44053331 0.00010800 -0.00009564 -0.00006338
0.51782387 0.65118110 0.38756263 0.00002461 -0.00005725 -0.00011134
0.43775949 0.54559773 0.34976739 -0.00004650 -0.00020843 -0.00009666
0.56356478 0.60765922 0.38656047 0.00006633 0.00000314 -0.00010037
0.63725841 0.17780966 0.62693268 0.00025423 0.00033731 0.00021599
0.60952038 0.65118110 0.46916607 0.00011863 -0.00010213 -0.00003468
0.39409450 0.59856832 0.40960985 -0.00003260 0.00010782 -0.00002272
0.60930562 0.59856832 0.58620262 0.00003377 0.00010646 0.00002163
0.50000000 0.22813177 0.61576587 0.00000002 0.00009476 0.00024100
0.50000000 0.39491770 0.57016820 0.00000001 0.00040541 0.00014746
0.34251970 0.55458128 0.56530064 -0.00021055 -0.00009500 0.00008450
0.46964923 0.90869713 0.46451324 -0.00009966 0.00039763 -0.00002044
0.39047959 0.61675018 0.46916607 -0.00002993 0.00006318 -0.00000603
0.50000000 0.52627057 0.38616681 -0.00000003 0.00004781 -0.00020213
0.69595557 0.04545460 0.38520044 0.00047835 -0.00018735 -0.00035030
0.58808160 0.26263425 0.53652465 0.00028646 0.00017809 0.00011065
0.50000000 0.88339299 0.57628840 -0.00000019 0.00049210 0.00016018
0.53593415 0.44770938 0.55871511 0.00018952 0.00012429 0.00011149
0.63475305 0.17780966 0.37049037 0.00025047 0.00033646 -0.00022150
0.55132425 0.58017182 0.36096993 -0.00001038 0.00007386 0.00002199
0.41843235 0.17780966 0.33183610 -0.00016446 0.00032366 -0.00029921
0.45236221 0.88707942 0.44425556 -0.00027023 0.00035454 -0.00016538
0.57480311 0.26263425 0.44107017 0.00023234 0.00016009 -0.00018526
0.40150324 0.59856832 0.40155691 -0.00003013 0.00010861 -0.00002407
0.39191127 0.57108092 0.63172871 -0.00015421 0.00012772 0.00018133
0.61757332 0.67677164 0.50005370 0.00030548 0.00015334 -0.00000000
0.56141734 0.67677164 0.60030425 0.00014809 0.00010393 0.00024204
0.44924840 0.17780966 0.32016826 -0.00012433 0.00032938 -0.00032224
0.62662846 0.58017182 0.59987473 0.00013551 0.00015601 0.00010062
0.35819614 0.54559773 0.42063349 -0.00008595 -0.00021755 -0.00004347
0.62326413 0.58017182 0.41769865 -0.00001873 0.00006159 0.00001833
0.48732999 0.58017182 0.66093409 -0.00000593 0.00014879 0.00014715
0.68332142 0.17780966 0.46358269 0.00032038 0.00035377 -0.00005970
0.36753762 0.58926272 0.45699716 0.00005852 0.00008478 0.00002154
0.41385111 0.59856832 0.60935932 -0.00002753 0.00010778 0.00002509
0.48997855 0.57108092 0.67009658 -0.00000625 0.00011172 0.00020755
0.31481749 0.17780966 0.47442734 -0.00032340 0.00035446 -0.00004207
0.44731566 0.55458128 0.33795634 -0.00007950 -0.00008557 -0.00021981
0.64452398 0.17780966 0.61866498 0.00026574 0.00033998 0.00020055
0.60146743 0.65118110 0.44833571 0.00011143 -0.00009745 -0.00005670
0.71735859 0.04545460 0.43412670 0.00055797 -0.00018468 -0.00020340
0.52265567 0.94878310 0.50184321 0.00045402 0.00026931 0.00004569
0.46220472 0.90869713 0.52750540 -0.00006556 0.00039569 0.00003438
0.61528271 0.60765922 0.45753402 0.00011163 -0.00002674 -0.00003825
0.42269152 0.59856832 0.38434145 -0.00002586 0.00010784 -0.00002628
0.44574088 0.17780966 0.67893696 -0.00012448 0.00032864 0.00032101
0.45697924 0.57108092 0.66490692 -0.00008051 0.00014131 0.00023473
0.50000000 0.13214037 0.28620258 0.00000001 0.00039056 -0.00042910
0.50000000 0.55869722 0.32958126 -0.00000005 -0.00004555 -0.00016993
0.48285609 0.88707942 0.42868647 -0.00016322 0.00045738 -0.00015980
0.55579811 0.58017182 0.65134209 0.00006141 0.00016422 0.00016399
0.57730848 0.59856832 0.38434145 0.00002560 0.00010799 -0.00002614
0.65980667 0.55458128 0.44110593 0.00021113 -0.00009568 -0.00007543
0.39466715 0.60765922 0.42353258 -0.00010199 0.00001193 -0.00006962
0.65540439 0.17780966 0.60388333 0.00028224 0.00034384 0.00017184
0.64853257 0.20572659 0.48835003 0.00012430 0.00034393 -0.00000865
0.61070150 0.55458128 0.62965280 0.00015222 -0.00009349 0.00017169
0.27448106 0.04545460 0.47335359 -0.00058614 -0.00018377 -0.00008184
0.64069432 0.58017182 0.42127776 0.00014883 0.00015661 -0.00007918
0.54817468 0.58926272 0.36948818 -0.00002198 0.00008801 0.00005828
0.51671439 0.57108092 0.33051181 0.00001280 0.00011542 -0.00021209
0.42662850 0.88707942 0.50005370 -0.00029824 0.00032742 0.00000033
0.48879743 0.26263425 0.40545812 -0.00006836 0.00005189 -0.00025296
0.43264139 0.58017182 0.36784181 0.00000528 0.00007121 0.00002087
0.65128845 0.58017182 0.44425556 0.00015874 0.00015702 -0.00005622
0.43196136 0.54559773 0.64765567 -0.00005140 -0.00020868 0.00009319
0.56231207 0.20572659 0.63523620 0.00007917 0.00034965 0.00007604
0.45586973 0.54559773 0.65649605 -0.00000628 -0.00021145 0.00008144
0.50000000 0.50411594 0.40986040 -0.00000001 0.00005516 -0.00016247
0.63886899 0.58926272 0.51096994 -0.00006241 0.00008480 -0.00000541
0.50000000 0.40665716 0.43061921 0.00000002 0.00040010 -0.00014802
0.48554045 0.60765922 0.62210089 -0.00001500 -0.00005234 0.00010756
0.47730851 0.88707942 0.43026125 -0.00020742 0.00043462 -0.00016625
0.51338583 0.04545460 0.72678953 -0.00010364 -0.00018220 0.00058358
0.55565494 0.44770938 0.45960990 0.00019373 0.00006295 -0.00008478
0.61410165 0.58017182 0.38595206 0.00012422 0.00015676 -0.00011678
0.50000000 0.49420187 0.41705438 -0.00000000 0.00004112 -0.00012892
0.56539011 0.88707942 0.53337508 0.00026928 0.00033163 0.00012083
0.43256980 0.26263425 0.43262348 -0.00020059 0.00014850 -0.00021577
0.50000000 0.05608452 0.72782743 0.00000001 0.00016292 0.00061668
0.50547600 0.58926272 0.63913745 -0.00000383 0.00006551 -0.00007066
0.66209733 0.55458128 0.55273801 0.00021608 -0.00009598 0.00006793
0.64599144 0.20572659 0.47102723 0.00012178 0.00034320 -0.00002160
0.52319252 0.58017182 0.35348961 -0.00001146 0.00006262 0.00004757
0.41506803 0.17780966 0.33337513 -0.00017375 0.00032384 -0.00029645
0.50000000 0.90522552 0.44736937 0.00000018 0.00046528 -0.00003574
0.50000000 0.12219048 0.28248033 0.00000001 0.00032810 -0.00046347
0.55866146 0.44770938 0.46411955 0.00019503 0.00005662 -0.00007841
0.55909091 0.60765922 0.61605227 0.00006292 0.00000284 0.00010278
0.50000000 0.54312813 0.65073371 0.00000009 -0.00017766 -0.00007307
0.66113096 0.58017182 0.49371868 0.00016892 0.00015708 -0.00000639
0.58321404 0.55458128 0.35144958 0.00011924 -0.00008978 -0.00020081
0.51335001 0.94545448 0.51845026 0.00026628 0.00024405 0.00037957
0.42519689 0.26263425 0.44107017 -0.00023231 0.00016010 -0.00018529
0.50000000 0.80994987 0.61587328 -0.00000004 0.00041793 0.00026896
0.39409450 0.59856832 0.59049749 -0.00003256 0.00010781 0.00002276
0.50000000 0.56696492 0.32958126 -0.00000011 0.00006341 -0.00018180
0.50000000 0.24423771 0.39643878 0.00000002 0.00006044 -0.00024022
0.62519681 0.60765922 0.53537941 0.00012146 0.00001192 0.00003202
0.61281312 0.58017182 0.59640300 -0.00001472 0.00006276 -0.00001978
0.50447387 0.04545460 0.72714740 -0.00003885 -0.00018277 0.00057886
0.53554046 0.04545460 0.27557266 -0.00010589 -0.00021646 -0.00060268
0.32874021 0.17780966 0.42514315 -0.00030389 0.00034952 -0.00012386
0.50966352 0.60765922 0.37746957 0.00000959 -0.00005293 -0.00010831
0.42122406 0.58017182 0.64074802 -0.00008909 0.00015762 0.00014970
0.40819615 0.58017182 0.61648172 0.00000955 0.00006536 -0.00002409
0.51671439 0.57108092 0.66959554 0.00001284 0.00011553 0.00021215
0.37491056 0.55458128 0.61565852 -0.00016793 -0.00009324 0.00015025
0.32981390 0.55458128 0.49336079 -0.00022400 -0.00009576 -0.00000844
0.38733003 0.59856832 0.41819972 -0.00003537 0.00010744 -0.00002064
0.62508947 0.55458128 0.38444886 0.00016780 -0.00009390 -0.00015030
0.45397279 0.20572659 0.35835719 -0.00008842 0.00034124 -0.00009243
0.55171794 0.61675018 0.39858627 0.00002478 0.00003275 -0.00001810
0.31295636 0.17780966 0.50005370 -0.00032723 0.00035520 -0.00000002
0.51607013 0.44770938 0.43316036 0.00011208 0.00017889 -0.00013542
0.36642808 0.04545460 0.31619543 -0.00024419 -0.00019809 -0.00054714
0.43174660 0.57108092 0.65613812 -0.00010188 0.00013252 0.00022672
0.43647102 0.44770938 0.52636003 -0.00019960 0.00004839 0.00006292
0.42559054 0.04545460 0.28545097 -0.00001085 -0.00022079 -0.00059723
0.41302794 0.04545460 0.71003938 -0.00008520 -0.00021429 0.00059298
0.37133145 0.58926272 0.55334646 0.00005635 0.00008471 -0.00002690
0.47877598 0.90869713 0.45842877 -0.00010180 0.00039220 -0.00003118
0.32211888 0.17780966 0.44225127 -0.00031401 0.00035197 -0.00009628
0.65336430 0.17780966 0.60696137 0.00027959 0.00034316 0.00017798
0.65748024 0.55458128 0.56530064 0.00021049 -0.00009563 0.00008446
0.51381534 0.67677164 0.61673230 0.00007710 -0.00009964 0.00021416
0.50000000 0.08432362 0.72646743 0.00000001 0.00059912 0.00059781
0.50000000 0.88707942 0.57342517 -0.00000021 0.00049471 0.00014641
0.46886185 0.04545460 0.27507159 0.00012702 -0.00020522 -0.00059530
0.60930562 0.58926272 0.41390482 -0.00004801 0.00008555 0.00004357
0.51607013 0.44770938 0.56694698 0.00011207 0.00017889 0.00013542
0.62859696 0.60765922 0.52041876 0.00012440 0.00001294 0.00001853
0.61020041 0.67677164 0.45939511 0.00028261 0.00014807 -0.00010540
0.71306366 0.04545460 0.42145669 0.00053971 -0.00018522 -0.00024221
0.64409447 0.04545460 0.67564422 0.00028296 -0.00019578 0.00052093
0.66302788 0.57108092 0.45059055 0.00022497 0.00013024 -0.00006637
0.62029344 0.60765922 0.54987472 0.00011696 0.00001276 0.00004508
0.45694345 0.59856832 0.63251609 -0.00001518 0.00010035 0.00003952
0.58052969 0.65118110 0.58058339 0.00009160 -0.00008557 0.00008428
0.29001436 0.04545460 0.41308162 -0.00053817 -0.00018547 -0.00027085
0.63052970 0.58017182 0.59489977 0.00014018 0.00015728 0.00009608
0.63929844 0.58926272 0.50005370 -0.00006258 0.00008481 -0.00000000
0.41728705 0.20572659 0.62381887 -0.00008143 0.00034984 0.00006952
0.43310666 0.44770938 0.48398355 -0.00020650 0.00004400 -0.00004136
0.41095206 0.55458128 0.35470656 -0.00012779 -0.00009040 -0.00019725
0.50000000 0.42423055 0.56920183 0.00000002 0.00035933 0.00015385
0.53779531 0.58926272 0.36608806 -0.00002014 0.00008290 0.00005640
0.36778814 0.58017182 0.43269503 0.00001913 0.00006234 0.00001402
0.50000000 0.14813894 0.29371873 0.00000001 0.00042021 -0.00040687
0.37702218 0.60765922 0.50005370 -0.00011871 -0.00002623 0.00000000
0.58614886 0.57108092 0.64701140 0.00012630 0.00012890 0.00020803
0.52208304 0.94878310 0.49475661 0.00044275 0.00027044 -0.00011427
0.39323550 0.61675018 0.53945959 -0.00002954 0.00006311 0.00000789
0.50000000 0.18661423 0.67904437 0.00000001 0.00039828 0.00024192
0.57480311 0.26263425 0.55903727 0.00023232 0.00016013 0.00018521
0.50000000 0.20068008 0.65986037 0.00000001 0.00041555 0.00010153
0.39466715 0.20572659 0.39472082 -0.00008985 0.00034868 -0.00006362
0.43196136 0.60765922 0.38903004 -0.00006977 0.00000506 -0.00009818
0.52179670 0.59856832 0.63763422 0.00000630 0.00009209 0.00004302
0.44420189 0.57108092 0.66100568 -0.00008763 0.00013697 0.00023433
0.33124557 0.57108092 0.47671795 -0.00023294 0.00013023 -0.00003107
0.54105228 0.54559773 0.34275234 -0.00000619 -0.00021315 -0.00007464
0.32720119 0.04545460 0.35245171 -0.00039728 -0.00019054 -0.00044927
0.46481749 0.65118110 0.39175019 -0.00003071 -0.00004802 -0.00011723
0.67788112 0.17780966 0.44225127 0.00031400 0.00035196 -0.00009627
0.48700786 0.49420187 0.58205080 -0.00005539 0.00003875 0.00012603
0.53188974 0.67677164 0.38699001 0.00014421 -0.00001774 -0.00022375
0.53987116 0.26263425 0.41354689 0.00015756 0.00009048 -0.00025614
0.53146029 0.58017182 0.34192914 0.00004538 0.00017629 -0.00015282
