0.34885547 0.66944313 0.50000006 0.00005273 0.00005958 0.00000037
0.19052863 0.83230549 0.50000006 -0.00078805 0.00088625 0.00000013
0.72431499 0.53431034 0.50000006 -0.00013846 -0.00036001 -0.00000381
0.34334680 0.66445088 0.50000006 0.00002957 0.00004502 0.00000026
0.49992180 0.90404183 0.40551499 0.00000515 0.00065289 -0.00160917
0.72682953 0.50742543 0.50000006 -0.00024756 -0.00008307 -0.00000013
0.49992180 0.84462178 0.38654593 0.00000452 -0.00012821 -0.00148833
0.69036496 0.91214317 0.50000006 0.00008160 0.00128411 0.00000100
0.22246590 0.14054409 0.50000006 -0.00060445 -0.00104624 -0.00000057
0.27947953 0.44582728 0.50000006 0.00007171 0.00037867 -0.00000163
0.74247271 0.88392323 0.50000006 0.00044417 0.00113453 0.00000065
0.49992180 0.87914592 0.60686499 0.00000489 0.00032778 0.00160449
0.67015958 0.34981045 0.50000006 0.00003643 0.00000921 -0.00000025
0.49992180 0.04600183 0.48886183 -0.00002111 -0.00155588 -0.00064909
0.27334544 0.48582384 0.50000006 0.00025531 0.00016412 0.00000420
0.49992180 0.85756272 0.61227095 0.00000470 0.00009224 0.00152846
0.58057636 0.94700140 0.50000006 -0.00044989 0.00142969 0.00000420
0.20555182 0.15407820 0.50000006 -0.00064108 -0.00104771 -0.00000051
0.72312546 0.45766699 0.50000006 -0.00010772 0.00034778 -0.00000258
0.86630905 0.76810956 0.50000006 0.00099096 0.00062774 0.00000064
0.63950592 0.93224049 0.50000006 -0.00019368 0.00138194 0.00000179
0.91466546 0.31505591 0.50000006 0.00129823 -0.00006888 0.00000139
0.27319637 0.51113844 0.50000006 0.00026139 -0.00014846 0.00000400
0.66623276 0.07732274 0.50000006 0.00009331 -0.00128635 -0.00000147
0.07865954 0.50000000 0.58035320 -0.00098772 0.00001096 0.00145187
0.92770725 0.34796590 0.50000006 0.00130241 0.00006085 0.00000240
0.92836088 0.65020818 0.50000006 0.00132847 -0.00011902 0.00000261
0.41926727 0.05299863 0.50000006 0.00057511 -0.00144461 -0.00000433
0.44968271 0.72142774 0.50000006 0.00039654 -0.00007406 0.00000673
0.49992180 0.94017178 0.44483817 0.00000341 0.00125821 -0.00132531
0.32597497 0.08005457 0.50000006 -0.00008379 -0.00135657 -0.00000145
0.49992180 0.86307818 0.38854727 0.00000464 0.00014157 -0.00156591
0.49992180 0.81333095 0.61009818 0.00000462 -0.00039252 0.00126429
0.84175909 0.20112319 0.50000006 0.00096883 -0.00068751 0.00000011
0.49992180 0.95423275 0.49363536 -0.00000746 0.00156611 -0.00037675
0.25086817 0.11997455 0.50000006 -0.00048714 -0.00116639 -0.00000070
0.49992180 0.88264591 0.39438772 0.00000485 0.00037211 -0.00160081
0.50767028 0.04583502 0.50000006 -0.00017674 -0.00155229 -0.00001315
0.55999500 0.28103545 0.50000006 -0.00038034 0.00002881 -0.00000547
0.51814795 0.72637731 0.50000006 -0.00022142 -0.00022499 0.00001548
0.55049181 0.95146406 0.50000006 -0.00071488 0.00150178 0.00000248
0.80784404 0.50000000 0.60874319 -0.00036725 -0.00000047 0.00121688
0.49992180 0.94271678 0.55020726 0.00000267 0.00129636 0.00136906
0.27428907 0.47404623 0.50000006 0.00020604 0.00026569 0.00000273
0.52704144 0.04678683 0.50000006 -0.00046307 -0.00151646 -0.00001130
0.49992180 0.77180457 0.40994319 0.00000479 -0.00051579 -0.00086523
0.67186135 0.64831179 0.50000006 0.00007264 -0.00005682 0.00000079
0.29081592 0.58880639 0.50000006 -0.00002980 -0.00020223 -0.00000119
0.76047772 0.50000000 0.41964683 -0.00054777 -0.00000121 -0.00069915
0.29948500 0.60713547 0.50000006 -0.00006709 -0.00014504 -0.00000081
0.87324089 0.75876272 0.50000006 0.00109980 0.00054199 0.00000069
0.40748182 0.94486904 0.50000006 0.00032245 0.00142642 0.00000351
0.87544680 0.24421093 0.50000006 0.00109400 -0.00060869 0.00000041
0.29255000 0.40752774 0.50000006 -0.00001538 0.00017712 -0.00000153
0.89986449 0.50000000 0.59694231 0.00060292 0.00000222 0.00158043
0.39354318 0.05862274 0.50000006 0.00026805 -0.00135998 -0.00000316
0.91705275 0.50000000 0.58409768 0.00089795 0.00000346 0.00146334
0.59239405 0.70737183 0.50000006 -0.00018804 0.00004055 0.00000224
0.81832951 0.82413542 0.50000006 0.00094427 0.00080533 0.00000050
0.04727954 0.53874189 0.50000006 -0.00151814 -0.00050459 0.00001025
0.37539497 0.69001269 0.50000006 0.00010692 0.00007614 0.00000094
0.93536592 0.63006639 0.50000006 0.00142008 -0.00023392 0.00000368
0.49992180 0.92970043 0.57081050 0.00000498 0.00112162 0.00134204
0.86977500 0.76343632 0.50000006 0.00104028 0.00058137 0.00000067
0.92225409 0.50000000 0.42082727 0.00094882 0.00000383 -0.00145307
0.05214819 0.50000000 0.53823686 -0.00133045 0.00000347 0.00154781
0.26999864 0.89149183 0.50000006 -0.00027726 0.00120872 0.00000053
0.49992180 0.23236136 0.58677185 0.00000231 0.00055156 0.00079659
0.90339589 0.70877272 0.50000006 0.00124809 0.00027310 0.00000115
0.30397955 0.90954226 0.50000006 -0.00020802 0.00122294 0.00000081
0.69827360 0.61061364 0.50000006 0.00005041 -0.00010301 0.00000061
0.70115274 0.60545546 0.50000006 0.00006701 -0.00014654 0.00000058
0.37387499 0.06354909 0.50000006 0.00014311 -0.00137217 -0.00000249
0.49992180 0.92875087 0.42791000 0.00000500 0.00109229 -0.00137531
0.37549955 0.93685776 0.50000006 0.00018013 0.00138057 0.00000213
0.49992180 0.27225819 0.50954705 0.00000474 0.00025892 0.00016183
0.30999589 0.62467182 0.50000006 -0.00006277 -0.00009150 -0.00000047
0.45758879 0.27679682 0.50000006 0.00036353 0.00010710 -0.00000971
0.13841908 0.50000000 0.61168635 -0.00005273 0.00000564 0.00157599
0.48574567 0.72657639 0.50000006 0.00017983 -0.00024241 0.00001444
0.49992180 0.90404224 0.59448498 0.00000522 0.00063279 0.00160577
0.60553139 0.05843000 0.50000006 -0.00028060 -0.00136689 -0.00000312
0.34788769 0.07221409 0.50000006 0.00014510 -0.00133569 -0.00000185
0.66437227 0.65657449 0.50000006 0.00005481 -0.00002494 0.00000084
0.10204001 0.28073820 0.50000006 -0.00121118 -0.00037480 -0.00000052
0.70751041 0.59201407 0.50000006 0.00005227 -0.00022841 0.00000045
0.89580959 0.27741137 0.50000006 0.00121685 -0.00029720 0.00000075
0.41294819 0.70997268 0.50000006 0.00019759 0.00002724 0.00000226
0.39828500 0.29696229 0.50000006 0.00019143 -0.00005983 -0.00000215
0.49992180 0.77649677 0.59353590 0.00000488 -0.00051660 0.00092761
0.40534410 0.05566683 0.50000006 0.00042596 -0.00142838 -0.00000363
0.49992180 0.95055544 0.47061896 -0.00000155 0.00143911 -0.00133447
0.93032086 0.64472997 0.50000006 0.00134883 -0.00015194 0.00000285
0.85011274 0.50000000 0.38681957 -0.00000160 0.00000018 -0.00150648
0.26775590 0.50000000 0.53298688 0.00035357 -0.00000245 0.00046160
0.93913585 0.61501586 0.50000006 0.00137815 -0.00033805 0.00000486
0.49992180 0.72763771 0.49257460 -0.00000555 -0.00026004 -0.00013832
0.84268725 0.50000000 0.38645500 -0.00007147 0.00000000 -0.00146742
0.63215905 0.31545818 0.50000006 -0.00006103 -0.00004661 -0.00000091
0.61227459 0.30269048 0.50000006 -0.00013429 -0.00007123 -0.00000145
0.49992180 0.16227318 0.61347997 0.00000486 0.00014827 0.00143671
0.30573952 0.38242954 0.50000006 -0.00004626 0.00011323 -0.00000122
0.05098001 0.56757456 0.50000006 -0.00143445 -0.00060958 -0.00000066
0.83526182 0.50000000 0.38663727 -0.00014865 -0.00000016 -0.00141948
0.04662500 0.50000000 0.48413411 -0.00151541 -0.00001742 -0.00092744
0.49992180 0.19657774 0.39286682 0.00000395 0.00041900 -0.00118222
0.36768454 0.68454182 0.50000006 0.00009640 0.00007042 0.00000076
0.19203091 0.16633275 0.50000006 -0.00077419 -0.00088634 -0.00000048
0.17566638 0.50000000 0.38772911 0.00026738 0.00000350 -0.00136101
0.67753500 0.08178865 0.50000006 0.00013112 -0.00130704 -0.00000127
0.11216545 0.50000000 0.60339683 -0.00039681 0.00000753 0.00162278
0.45536864 0.95235682 0.50000006 0.00072033 0.00154938 -0.00000087
0.49992180 0.74974549 0.56761134 0.00000520 -0.00051371 0.00057411
0.27093318 0.50000000 0.48098233 0.00028938 -0.00000393 -0.00035247
0.49992180 0.16068228 0.38644183 0.00000477 0.00011404 -0.00143142
0.94635409 0.50000000 0.45801324 0.00135500 0.00000322 -0.00133647
0.09407317 0.70375180 0.50000006 -0.00126302 0.00018460 -0.00000037
0.49992180 0.07873774 0.41964683 0.00000622 -0.00090867 -0.00148414
0.73208773 0.50000000 0.53298688 -0.00033462 0.00000071 0.00045589
0.82654369 0.81566405 0.50000006 0.00090922 0.00080246 0.00000051
0.49992180 0.06792729 0.56761134 0.00000600 -0.00112885 0.00134383
0.05268774 0.57908499 0.50000006 -0.00141978 -0.00041077 -0.00000102
0.95198131 0.45344135 0.50000006 0.00152987 0.00075049 0.00001887
0.16625455 0.80789089 0.50000006 -0.00092474 0.00073849 0.00000003
0.38756862 0.69730949 0.50000006 0.00011958 0.00005443 0.00000127
0.70433182 0.59873456 0.50000006 0.00006005 -0.00019538 0.00000052
0.40744954 0.70737183 0.50000006 0.00017067 0.00002311 0.00000199
0.89349812 0.72644496 0.50000006 0.00122483 0.00026835 0.00000094
0.68853223 0.08699000 0.50000006 0.00012847 -0.00126256 -0.00000111
0.74966729 0.50000000 0.56761134 -0.00050433 -0.00000077 0.00056821
0.92509407 0.34066182 0.50000006 0.00128255 -0.00002573 0.00000212
0.67386866 0.91994542 0.50000006 0.00016212 0.00132461 0.00000119
0.49992180 0.73404408 0.46176323 0.00000413 -0.00036512 -0.00048309
0.49992180 0.05410454 0.54348683 0.00000364 -0.00132159 0.00139042
0.95079094 0.44541866 0.50000006 0.00149402 0.00083368 0.00001645
0.21156137 0.85136819 0.50000006 -0.00079086 0.00100302 0.00000022
0.38866863 0.94015640 0.50000006 0.00017120 0.00134433 0.00000262
0.95079094 0.55458140 0.50000006 0.00147419 -0.00070113 0.00001649
0.18301682 0.17450273 0.50000006 -0.00088472 -0.00084342 -0.00000046
0.28243548 0.56597364 0.50000006 0.00001417 -0.00033979 -0.00000155
0.31497726 0.08525591 0.50000006 -0.00013306 -0.00126679 -0.00000129
0.62998813 0.06455592 0.50000006 -0.00022506 -0.00142279 -0.00000230
0.55409449 0.27955773 0.50000006 -0.00040915 0.00004860 -0.00000654
0.36614862 0.06568047 0.50000006 0.00014669 -0.00140203 -0.00000227
0.49992180 0.80792230 0.60874319 0.00000464 -0.00040634 0.00123019
0.12681226 0.75904590 0.50000006 -0.00113560 0.00050657 -0.00000014
0.58689547 0.70997268 0.50000006 -0.00020238 0.00003761 0.00000249
0.52219838 0.95345086 0.50000006 -0.00049872 0.00152587 -0.00000684
0.36249590 0.93301272 0.50000006 0.00020950 0.00140346 0.00000176
0.27701589 0.54433864 0.50000006 0.00010183 -0.00037941 -0.00000081
0.49992180 0.83719635 0.61345410 0.00000461 -0.00013953 0.00143046
0.49992180 0.93444538 0.56441230 0.00000453 0.00118395 0.00133488
0.80480820 0.83639044 0.50000006 0.00071731 0.00092905 0.00000050
0.08412272 0.31728685 0.50000006 -0.00129069 -0.00012362 -0.00000064
0.49992180 0.72781998 0.51113820 -0.00000533 -0.00026887 0.00023499
0.14991499 0.78986275 0.50000006 -0.00099177 0.00077069 -0.00000003
0.49992180 0.78734136 0.39978182 0.00000462 -0.00048051 -0.00105007
0.18752363 0.17041773 0.50000006 -0.00082520 -0.00085994 -0.00000047
0.06353546 0.62630367 0.50000006 -0.00138281 -0.00018414 -0.00000085
0.62596905 0.93645096 0.50000006 -0.00019673 0.00138732 0.00000216
0.04647092 0.47772342 0.50000006 -0.00153152 0.00049872 0.00000435
0.49992180 0.12790683 0.39080545 0.00000538 -0.00030867 -0.00155263
0.64410222 0.67568409 0.50000006 -0.00001405 0.00003868 0.00000104
0.72937816 0.50000000 0.52216911 -0.00028295 0.00000267 0.00038742
0.05879454 0.50000000 0.44643226 -0.00126113 0.00001072 -0.00141224
0.20681998 0.50000000 0.60294276 0.00044206 0.00000225 0.00109939
0.61749232 0.30581772 0.50000006 -0.00010563 -0.00005767 -0.00000129
0.47086540 0.04688182 0.50000006 0.00050626 -0.00151843 -0.00001085
0.43394816 0.28251365 0.50000006 0.00036561 -0.00000315 -0.00000477
0.16418272 0.19439502 0.50000006 -0.00092977 -0.00073257 -0.00000043
0.72583771 0.10610637 0.50000006 0.00030852 -0.00119216 -0.00000068
0.29601726 0.40019593 0.50000006 -0.00002297 0.00014877 -0.00000143
0.88281769 0.50000000 0.39447680 0.00036990 0.00000124 -0.00160061
0.61923134 0.69314003 0.50000006 -0.00013883 0.00007788 0.00000145
0.49992180 0.21744137 0.59735185 0.00000328 0.00050605 0.00096904
0.49992180 0.04879957 0.47319448 -0.00000564 -0.00144355 -0.00126267
0.49992180 0.93317950 0.43388137 0.00000463 0.00116139 -0.00133045
0.49992180 0.27054363 0.52216911 0.00000667 0.00029182 0.00034790
0.49435261 0.27300093 0.50000006 0.00008333 0.00025380 -0.00002044
0.75673318 0.50000000 0.57622182 -0.00052727 -0.00000096 0.00065465
0.64332408 0.06912591 0.50000006 -0.00017696 -0.00135571 -0.00000195
0.17850953 0.82141227 0.50000006 -0.00084423 0.00096310 0.00000008
0.95337313 0.52227658 0.50000006 0.00152064 -0.00047397 0.00002212
0.73530769 0.50000000 0.45801324 -0.00037705 0.00000077 -0.00048027
0.28391135 0.10016910 0.50000006 -0.00030026 -0.00127623 -0.00000094
0.26587772 0.50000000 0.53823686 0.00037943 -0.00000242 0.00047115
0.94781590 0.42536229 0.50000006 0.00143800 0.00063408 0.00001098
0.49992180 0.95353037 0.51428992 -0.00001387 0.00152126 0.00082973
0.06699819 0.63767499 0.50000006 -0.00138731 -0.00017754 -0.00000077
0.08948182 0.50000000 0.41026002 -0.00077628 0.00000967 -0.00153948
0.72491002 0.46970069 0.50000006 -0.00016546 0.00031776 -0.00000383
0.72312546 0.54233295 0.50000006 -0.00008766 -0.00041277 -0.00000241
0.09656090 0.70901179 0.50000006 -0.00125962 0.00026575 -0.00000034
0.17850953 0.17858773 0.50000006 -0.00091336 -0.00088427 -0.00000045
0.55982316 0.04992000 0.50000006 -0.00075938 -0.00146277 -0.00000592
0.21623453 0.85483408 0.50000006 -0.00076934 0.00095942 0.00000024
0.39278635 0.29956320 0.50000006 0.00016468 -0.00007483 -0.00000196
0.69618905 0.38590819 0.50000006 0.00008133 0.00016490 0.00000005
0.49992180 0.72727275 0.50000006 -0.00000528 -0.00025978 0.00001329
0.49992180 0.21265864 0.60021818 0.00000351 0.00049788 0.00102327
0.70869458 0.09652593 0.50000006 0.00025560 -0.00125851 -0.00000086
0.94377363 0.50000000 0.45219275 0.00131086 0.00000415 -0.00130220
0.20104501 0.15816274 0.50000006 -0.00067443 -0.00098673 -0.00000050
0.04927272 0.55606365 0.50000006 -0.00147018 -0.00066551 0.00000065
0.94989860 0.56059819 0.50000006 0.00145807 -0.00072664 0.00001471
0.09656090 0.29098818 0.50000006 -0.00123307 -0.00030570 -0.00000054
0.06002228 0.38772047 0.50000006 -0.00136313 0.00024127 -0.00000105
0.49992180 0.10074046 0.59735185 0.00000599 -0.00057729 0.00159730
0.50599724 0.95424682 0.50000006 -0.00020675 0.00155901 0.00000601
0.12602592 0.50000000 0.39125684 -0.00023505 0.00000633 -0.00161703
0.56854272 0.94878638 0.50000006 -0.00061065 0.00143036 0.00000467
0.86763632 0.50000000 0.38970864 0.00021078 0.00000068 -0.00156289
0.76873952 0.86586273 0.50000006 0.00062274 0.00101089 0.00000056
0.49992180 0.14795274 0.61308908 0.00000511 -0.00002397 0.00150859
0.67782044 0.64119458 0.50000006 0.00007190 -0.00006201 0.00000075
0.73581910 0.11208864 0.50000006 0.00041121 -0.00112355 -0.00000060
0.71839362 0.43796000 0.50000006 -0.00002917 0.00032795 -0.00000064
0.53637445 0.95275456 0.50000006 -0.00054544 0.00152005 -0.00000979
0.27869409 0.89670366 0.50000006 -0.00023442 0.00127123 0.00000059
0.25260726 0.88106769 0.50000006 -0.00045417 0.00116824 0.00000042
0.15901272 0.50000000 0.61363637 0.00013489 0.00000449 0.00149204
0.21258044 0.50000000 0.39978182 0.00050054 0.00000176 -0.00103875
0.53824347 0.72379816 0.50000006 -0.00034389 -0.00013607 0.00001224
0.41325000 0.94610906 0.50000006 0.00042495 0.00145510 0.00000382
0.49992180 0.17495683 0.38761228 0.00000449 0.00028668 -0.00133667
0.13043590 0.76393181 0.50000006 -0.00109694 0.00052045 -0.00000012
0.49992180 0.73864728 0.54924726 0.00000493 -0.00043268 0.00047485
0.68446362 0.63223732 0.50000006 0.00005900 -0.00006888 0.00000072
0.60705727 0.70043683 0.50000006 -0.00017899 0.00009150 0.00000175
0.32673407 0.64693457 0.50000006 -0.00004715 -0.00003783 -0.00000007
0.49992180 0.74863815 0.43388137 0.00000508 -0.00054640 -0.00053025
0.23523454 0.50000000 0.41590229 0.00056459 0.00000052 -0.00075795
0.74634546 0.50000000 0.56313276 -0.00048871 -0.00000059 0.00053783
0.04577455 0.49189940 0.50000006 -0.00155772 0.00022575 -0.00000683
0.95401132 0.50000000 0.50928187 0.00155340 -0.00002614 0.00056123
0.94309276 0.50000000 0.54924726 0.00127467 0.00000436 0.00135790
0.18301682 0.82549727 0.50000006 -0.00082570 0.00091529 0.00000010
0.78978449 0.85000682 0.50000006 0.00056746 0.00115617 0.00000052
0.95416856 0.49392456 0.50000006 0.00155863 0.00014912 0.00002607
0.43932363 0.94997686 0.50000006 0.00078994 0.00146998 0.00000445
0.36022002 0.67900550 0.50000006 0.00007210 0.00006610 0.00000060
0.90599632 0.29672638 0.50000006 0.00126865 -0.00016963 0.00000103
0.47764501 0.27382183 0.50000006 0.00022803 0.00020509 -0.00001537
0.04786272 0.45344135 0.50000006 -0.00153927 0.00076136 0.00000382
0.29114908 0.90347409 0.50000006 -0.00028338 0.00124911 0.00000069
0.70642680 0.40569499 0.50000006 0.00007464 0.00024160 0.00000004
0.72750133 0.89289683 0.50000006 0.00038380 0.00114572 0.00000072
0.49992180 0.18125999 0.38854727 0.00000435 0.00036186 -0.00129603
0.49992180 0.73216587 0.46701321 0.00000462 -0.00033548 -0.00047781
0.22470455 0.50000000 0.40741271 0.00055013 0.00000114 -0.00089075
0.24685456 0.50000000 0.57209003 0.00056741 -0.00000013 0.00059917
0.92742449 0.50000000 0.57346725 0.00107149 0.00000435 0.00136364
0.49992180 0.25521410 0.56040001 -0.00000073 0.00046808 0.00053261
0.41469818 0.28940091 0.50000006 0.00024200 -0.00003492 -0.00000298
0.70319545 0.90607458 0.50000006 0.00012384 0.00129233 0.00000089
0.88256770 0.50000000 0.60561270 0.00036669 0.00000135 0.00158463
0.40378365 0.29436180 0.50000006 0.00021294 -0.00004862 -0.00000238
0.86095321 0.22466819 0.50000006 0.00104909 -0.00057988 0.00000026
0.30214682 0.09132455 0.50000006 -0.00011795 -0.00126913 -0.00000113
0.49992180 0.09446502 0.40662229 0.00000604 -0.00062431 -0.00161437
0.87381774 0.50000000 0.39125684 0.00027167 0.00000089 -0.00158667
0.95367140 0.48379886 0.50000006 0.00153267 0.00038428 0.00002304
0.94900584 0.56661505 0.50000006 0.00144633 -0.00070286 0.00001304
0.49992180 0.11392409 0.39580819 0.00000566 -0.00046595 -0.00157776
0.27592501 0.53698468 0.50000006 0.00014685 -0.00035351 0.00000034
0.04841864 0.55030864 0.50000006 -0.00149652 -0.00063720 0.00000220
0.04568910 0.50000000 0.50636476 -0.00156921 -0.00001442 0.00038870
0.53022087 0.72498816 0.50000006 -0.00030570 -0.00017664 0.00001535
0.85360044 0.78524500 0.50000006 0.00102409 0.00071774 0.00000057
0.57455957 0.94789404 0.50000006 -0.00053007 0.00142413 0.00000449
0.49992180 0.06051093 0.55630046 0.00000518 -0.00124089 0.00132328
0.28994909 0.41302636 0.50000006 -0.00001068 0.00018732 -0.00000162
0.10544500 0.50000000 0.60021818 -0.00053122 0.00000811 0.00160639
0.49992180 0.95236182 0.52216911 -0.00001516 0.00147398 0.00117807
0.81505549 0.50000000 0.38945046 -0.00032467 -0.00000054 -0.00127515
0.72520775 0.52829337 0.50000006 -0.00017181 -0.00030022 -0.00000330
0.72184223 0.45172772 0.50000006 -0.00008535 0.00034785 -0.00000169
0.44935182 0.04853592 0.50000006 0.00081311 -0.00151283 -0.00000732
0.05805181 0.39558774 0.50000006 -0.00137762 0.00027644 -0.00000110
0.23804364 0.12899092 0.50000006 -0.00059876 -0.00104939 -0.00000064
0.79429179 0.84592175 0.50000006 0.00059476 0.00108478 0.00000051
0.11001635 0.73256999 0.50000006 -0.00114603 0.00038683 -0.00000024
0.05561590 0.50000000 0.45315272 -0.00128802 0.00000865 -0.00146512
0.49992180 0.23668955 0.41715047 0.00000177 0.00052295 -0.00074470
0.49992180 0.92126226 0.58035320 0.00000529 0.00094460 0.00144911
0.15158726 0.50000000 0.38672864 0.00002761 0.00000473 -0.00151090
0.49992180 0.10005729 0.40305772 0.00000594 -0.00057617 -0.00160858
0.49992180 0.12010409 0.39340365 0.00000553 -0.00039254 -0.00156856
0.58859909 0.94581133 0.50000006 -0.00030506 0.00144849 0.00000376
0.32091635 0.36029822 0.50000006 -0.00004452 0.00005763 -0.00000107
0.04584545 0.50000000 0.49045300 -0.00155770 -0.00002053 -0.00059295
0.49992180 0.17574456 0.61227095 0.00000459 0.00025314 0.00135090
0.06370818 0.50000000 0.43823317 -0.00121202 0.00001175 -0.00136123
0.49992180 0.07249729 0.57346725 0.00000619 -0.00105096 0.00138801
0.06494910 0.36805227 0.50000006 -0.00142257 0.00016998 -0.00000091
0.05411045 0.41132227 0.50000006 -0.00148041 0.00043821 -0.00000114
0.29861817 0.39469728 0.50000006 -0.00003782 0.00012620 -0.00000136
0.48574582 0.95384908 0.50000006 0.00034990 0.00153774 0.00000139
0.49992180 0.72836542 0.48518488 -0.00000067 -0.00027185 -0.00027100
0.49992180 0.19053228 0.39086953 0.00000412 0.00039617 -0.00123240
0.15400000 0.79437000 0.50000006 -0.00096223 0.00074222 -0.00000001
0.72251093 0.89588767 0.50000006 0.00037862 0.00117175 0.00000075
0.19503544 0.83639002 0.50000006 -0.00076629 0.00089074 0.00000015
0.76024270 0.12783591 0.50000006 0.00055776 -0.00108978 -0.00000041
0.42528409 0.05210592 0.50000006 0.00066193 -0.00144045 -0.00000470
0.08456181 0.50000000 0.41429728 -0.00087072 0.00001023 -0.00149546
0.95228368 0.50000000 0.52216911 0.00147811 -0.00000569 0.00116411
0.84083092 0.50000000 0.61363637 -0.00008672 0.00000012 0.00146006
0.74746364 0.11906818 0.50000006 0.00048093 -0.00115492 -0.00000050
0.49992180 0.15537819 0.61345410 0.00000498 0.00006766 0.00147326
0.52403712 0.27409455 0.50000006 -0.00032453 0.00018184 -0.00001506
0.68335634 0.36626956 0.50000006 0.00004316 0.00006027 -0.00000007
0.56252593 0.94967908 0.50000006 -0.00068791 0.00144878 0.00000460
0.08163501 0.32254636 0.50000006 -0.00134562 -0.00007789 -0.00000066
0.46962255 0.27501181 0.50000006 0.00030478 0.00017122 -0.00001337
0.49992180 0.26729727 0.53448689 -0.00000053 0.00033462 0.00045738
0.49992180 0.91171956 0.58879095 0.00000530 0.00076169 0.00154633
0.18272728 0.50000000 0.38893455 0.00031556 0.00000316 -0.00131458
0.72639865 0.48379871 0.50000006 -0.00022238 0.00020820 -0.00000094
0.56196177 0.71847183 0.50000006 -0.00031454 -0.00004020 0.00000450
0.76647359 0.13245729 0.50000006 0.00054136 -0.00107136 -0.00000037
0.49992180 0.18486637 0.61054957 0.00000439 0.00033927 0.00127740
0.65912545 0.66206771 0.50000006 0.00002908 0.00001096 0.00000089
0.14613771 0.78510314 0.50000006 -0.00099791 0.00073858 -0.00000005
0.36067045 0.06764092 0.50000006 0.00017628 -0.00137885 -0.00000214
0.52123010 0.04650138 0.50000006 -0.00040185 -0.00152223 -0.00001262
0.05113545 0.43137911 0.50000006 -0.00144394 0.00067912 -0.00000077
0.93293446 0.36257455 0.50000006 0.00138188 0.00016588 0.00000312
0.55606139 0.71994996 0.50000006 -0.00034221 -0.00006246 0.00000545
0.04619636 0.50000000 0.51297671 -0.00154634 -0.00001933 0.00078002
0.07409637 0.34248728 0.50000006 -0.00131401 0.00003368 -0.00000076
0.70136273 0.09305865 0.50000006 0.00015507 -0.00126680 -0.00000094
0.94526178 0.40944135 0.50000006 0.00144857 0.00040828 0.00000784
0.94022995 0.50000000 0.55493408 0.00123794 0.00000478 0.00133788
0.07724410 0.66631043 0.50000006 -0.00131258 0.00005717 -0.00000057
0.49992180 0.26203364 0.45219275 -0.00000193 0.00042312 -0.00045625
0.94635409 0.50000000 0.54198688 0.00132524 0.00000325 0.00140889
0.30712909 0.61988908 0.50000006 -0.00006405 -0.00011925 -0.00000055
0.58116817 0.71202177 0.50000006 -0.00023039 0.00001501 0.00000279
0.61870044 0.06172866 0.50000006 -0.00022565 -0.00136451 -0.00000265
0.49992180 0.73796642 0.45219275 0.00000477 -0.00043256 -0.00047059
0.95321858 0.50000000 0.48413411 0.00153870 -0.00000630 -0.00080916
0.15376319 0.20589091 0.50000006 -0.00094748 -0.00077738 -0.00000043
0.49992180 0.80267227 0.39313546 0.00000453 -0.00037623 -0.00120031
0.49992180 0.20257774 0.39501363 0.00000376 0.00043428 -0.00114115
0.49992180 0.16704683 0.38675454 0.00000465 0.00020262 -0.00138886
0.71831137 0.56236774 0.50000006 -0.00000924 -0.00038340 -0.00000037
0.42440271 0.71407092 0.50000006 0.00029144 0.00000454 0.00000296
0.27210182 0.50000000 0.51113820 0.00027901 -0.00000689 0.00022819
0.15808500 0.79887682 0.50000006 -0.00090677 0.00076417 0.00000000
0.41325000 0.05389091 0.50000006 0.00048189 -0.00145967 -0.00000400
0.82811677 0.50000000 0.38714454 -0.00022134 -0.00000030 -0.00137381
0.47156984 0.95315272 0.50000006 0.00055226 0.00152496 -0.00001179
0.82263637 0.81997544 0.50000006 0.00094126 0.00083109 0.00000051
0.71052086 0.58522362 0.50000006 0.00004419 -0.00025133 0.00000034
0.49992180 0.95372546 0.48702326 -0.00001002 0.00155225 -0.00073729
0.08338137 0.50000000 0.58463228 -0.00090143 0.00001045 0.00148754
0.69769681 0.90867543 0.50000006 0.00006520 0.00129806 0.00000093
0.49992180 0.19807774 0.60659635 0.00000404 0.00042918 0.00115730
0.22470455 0.50000000 0.59258682 0.00055752 0.00000136 0.00089087
0.31537998 0.36776274 0.50000006 -0.00004634 0.00007770 -0.00000110
0.09075636 0.69673908 0.50000006 -0.00128472 0.00008079 -0.00000040
0.80184406 0.50000000 0.60659635 -0.00041462 -0.00000056 0.00115793
0.94573325 0.58867723 0.50000006 0.00146977 -0.00043894 0.00000822
0.51409787 0.95384908 0.50000006 -0.00037927 0.00153856 0.00000140
0.49992180 0.21265864 0.39978182 0.00000337 0.00046936 -0.00104408
0.49992180 0.25072911 0.56697136 0.00000006 0.00050958 0.00056501
0.39944363 0.05714454 0.50000006 0.00034641 -0.00139047 -0.00000339
0.61117494 0.05984366 0.50000006 -0.00025534 -0.00135906 -0.00000291
0.49992180 0.92554176 0.57563138 0.00000518 0.00103947 0.00138187
0.81382227 0.82822043 0.50000006 0.00090177 0.00079409 0.00000050
0.46311703 0.04726274 0.50000006 0.00059519 -0.00152449 -0.00001122
0.49992180 0.74069089 0.44643226 0.00000496 -0.00047392 -0.00047842
0.28931636 0.09739320 0.50000006 -0.00025300 -0.00128047 -0.00000099
0.83340544 0.50000000 0.61327136 -0.00015781 -0.00000003 0.00140549
0.43130091 0.05121364 0.50000006 0.00074398 -0.00144755 -0.00000514
0.24583228 0.12321456 0.50000006 -0.00054526 -0.00114855 -0.00000068
0.93489450 0.36805272 0.50000006 0.00142774 0.00018930 0.00000345
0.49992180 0.26783410 0.46701321 -0.00000011 0.00032708 -0.00047012
0.49992180 0.27272728 0.50000006 0.00000567 0.00025168 -0.00002087
0.12318863 0.75416040 0.50000006 -0.00119205 0.00048802 -0.00000016
0.12002590 0.50000000 0.60659635 -0.00029721 0.00000691 0.00161283
0.65787363 0.33679771 0.50000006 0.00001163 -0.00002853 -0.00000043
0.35519183 0.93039912 0.50000006 0.00021729 0.00137228 0.00000159
0.05202773 0.42536181 0.50000006 -0.00144263 0.00062227 -0.00000100
0.20249954 0.50000000 0.39501363 0.00043702 0.00000224 -0.00115337
0.70295948 0.39836320 0.50000006 0.00008203 0.00020887 0.00000006
0.08660999 0.31202683 0.50000006 -0.00124555 -0.00017182 -0.00000062
0.91206449 0.30955681 0.50000006 0.00128541 -0.00007371 0.00000127
0.49992180 0.05034775 0.46701321 -0.00000078 -0.00140432 -0.00137621
0.12313683 0.24591047 0.50000006 -0.00116558 -0.00052634 -0.00000045
0.14235908 0.50000000 0.38772911 -0.00006117 0.00000527 -0.00155375
0.49992180 0.74164641 0.55516183 0.00000511 -0.00047169 0.00048474
0.38114318 0.93827134 0.50000006 0.00018104 0.00135782 0.00000233
0.76874089 0.50000000 0.41215774 -0.00054931 -0.00000119 -0.00080779
0.76222497 0.87069410 0.50000006 0.00060302 0.00104839 0.00000058
0.49992180 0.04879957 0.52680528 -0.00000563 -0.00144804 0.00123931
0.49992180 0.86925954 0.39009547 0.00000470 0.00020709 -0.00157714
0.68993455 0.62452686 0.50000006 0.00005268 -0.00006330 0.00000068
0.13405909 0.76881778 0.50000006 -0.00106884 0.00054152 -0.00000010
0.94243461 0.39815366 0.50000006 0.00135488 0.00021055 0.00000621
0.92313361 0.33518362 0.50000006 0.00128956 -0.00007186 0.00000193
0.89281863 0.27242091 0.50000006 0.00116908 -0.00034105 0.00000069
0.32962683 0.92125177 0.50000006 -0.00005532 0.00133666 0.00000112
0.92640042 0.65568686 0.50000006 0.00131645 -0.00008255 0.00000239
0.49992180 0.73592269 0.54348683 0.00000462 -0.00039603 0.00048120
0.44181544 0.71945727 0.50000006 0.00037131 -0.00004719 0.00000496
0.49992180 0.27009183 0.47602761 0.00000681 0.00028513 -0.00041334
0.65477860 0.07322409 0.50000006 -0.00003778 -0.00129169 -0.00000169
0.04699409 0.53293061 0.50000006 -0.00151694 -0.00049756 0.00001207
0.05961364 0.50000000 0.55493408 -0.00126136 0.00001103 0.00136456
0.80784404 0.50000000 0.39125684 -0.00039214 -0.00000067 -0.00121559
0.05835181 0.60560906 0.50000006 -0.00136823 -0.00025563 -0.00000101
0.90236956 0.50000000 0.40455955 0.00055658 0.00000228 -0.00164283
0.91293180 0.68861043 0.50000006 0.00125395 0.00013551 0.00000148
0.12660272 0.24123682 0.50000006 -0.00112886 -0.00050903 -0.00000044
0.49992180 0.74396682 0.44096637 0.00000505 -0.00050531 -0.00049442
0.85129040 0.21163957 0.50000006 0.00109478 -0.00066822 0.00000018
0.49992180 0.15431729 0.38659817 0.00000489 0.00003751 -0.00146207
0.20404953 0.84455997 0.50000006 -0.00075752 0.00093372 0.00000018
0.54426044 0.72290593 0.50000006 -0.00035924 -0.00010013 0.00000897
0.89599270 0.50000000 0.40073729 0.00048509 0.00000189 -0.00163595
0.32047635 0.08265547 0.50000006 -0.00008370 -0.00131503 -0.00000137
0.06784911 0.50000000 0.43238863 -0.00116387 0.00001182 -0.00134635
0.19649956 0.50000000 0.39286682 0.00040483 0.00000253 -0.00120114
0.89880085 0.28240228 0.50000006 0.00128021 -0.00024696 0.00000082
0.06347090 0.37395275 0.50000006 -0.00139053 0.00019301 -0.00000095
0.28744453 0.42002636 0.50000006 0.00000225 0.00024795 -0.00000171
0.49992180 0.12160409 0.60713315 0.00000559 -0.00031834 0.00158808
0.90524316 0.50000000 0.59353590 0.00068011 0.00000256 0.00156848
0.49992180 0.04740455 0.47940645 -0.00001418 -0.00149738 -0.00106532
0.42344818 0.28627047 0.50000006 0.00029617 -0.00001334 -0.00000364
0.72797549 0.50000000 0.51271403 -0.00025658 0.00001016 0.00025086
0.31095135 0.37373409 0.50000006 -0.00005672 0.00008244 -0.00000114
0.31578273 0.63278043 0.50000006 -0.00006290 -0.00009012 -0.00000032
0.08163501 0.67745316 0.50000006 -0.00133418 0.00008489 -0.00000050
0.07148274 0.34979182 0.50000006 -0.00132177 0.00008007 -0.00000080
0.49992180 0.22670227 0.40883636 0.00000259 0.00050960 -0.00087341
0.67196000 0.07937182 0.50000006 0.00011071 -0.00132386 -0.00000136
0.49992180 0.04623546 0.51271403 -0.00001675 -0.00154536 0.00070493
0.56749678 0.05105820 0.50000006 -0.00067733 -0.00143798 -0.00000519
0.49992180 0.26899546 0.52835065 0.00000317 0.00030951 0.00041145
0.22090819 0.85829997 0.50000006 -0.00065676 0.00101026 0.00000026
0.49992180 0.27241454 0.49363536 0.00000522 0.00024970 -0.00014607
0.32414180 0.91907811 0.50000006 -0.00009342 0.00133963 0.00000105
0.90686321 0.70144087 0.50000006 0.00122454 0.00022735 0.00000125
0.49992180 0.23255819 0.41340593 0.00000215 0.00051982 -0.00080203
0.49992180 0.87739593 0.39250910 0.00000478 0.00029199 -0.00159496
0.71672499 0.43211728 0.50000006 -0.00000587 0.00030591 -0.00000040
0.28194273 0.43599316 0.50000006 0.00003186 0.00034116 -0.00000182
0.45536864 0.04764318 0.50000006 0.00074718 -0.00154796 -0.00000876
0.08826862 0.69147909 0.50000006 -0.00127885 0.00008572 -0.00000043
0.49992180 0.72945637 0.47783098 0.00000529 -0.00029305 -0.00038077
0.09407317 0.29624820 0.50000006 -0.00120363 -0.00029406 -0.00000056
0.07801636 0.33153093 0.50000006 -0.00133298 -0.00006836 -0.00000070
0.16643819 0.50000000 0.61327136 0.00019884 0.00000412 0.00144423
0.33796728 0.65932912 0.50000006 -0.00000978 0.00001409 0.00000016
0.04686865 0.46962282 0.50000006 -0.00152936 0.00058176 0.00001090
0.57989544 0.28752273 0.50000006 -0.00025179 -0.00001690 -0.00000314
0.49992180 0.88439590 0.60498637 0.00000495 0.00038602 0.00162614
0.04794728 0.50000000 0.47628522 -0.00145728 -0.00000821 -0.00126704
0.27647045 0.45933831 0.50000006 0.00012894 0.00036622 -0.00000054
0.18659090 0.50000000 0.61009818 0.00031645 0.00000318 0.00128892
0.10702499 0.72757959 0.50000006 -0.00117734 0.00034577 -0.00000026
0.48878339 0.27327457 0.50000006 0.00014517 0.00024637 -0.00001936
0.42127272 0.94729906 0.50000006 0.00051953 0.00143215 0.00000426
0.71752000 0.89887911 0.50000006 0.00033406 0.00123679 0.00000078
0.47764522 0.95345086 0.50000006 0.00049379 0.00152727 -0.00000685
0.86299998 0.50000000 0.61145270 0.00015147 0.00000067 0.00155277
0.44534045 0.95086908 0.50000006 0.00081928 0.00149704 0.00000362
0.62006861 0.93792862 0.50000006 -0.00022399 0.00137020 0.00000235
0.66623223 0.92267770 0.50000006 0.00005767 0.00130558 0.00000129
0.28619227 0.57647365 0.50000006 -0.00000006 -0.00027676 -0.00000143
0.49992180 0.08464000 0.58570224 0.00000625 -0.00083028 0.00151587
0.78013951 0.85740769 0.50000006 0.00060781 0.00105813 0.00000053
0.49992180 0.86307859 0.61145270 0.00000473 0.00016258 0.00155824
0.49992180 0.04576729 0.50636476 -0.00002266 -0.00156298 0.00036040
0.85612184 0.21815364 0.50000006 0.00106121 -0.00061870 0.00000022
0.94850081 0.50000000 0.46401322 0.00139734 0.00000289 -0.00133978
0.05693771 0.59996504 0.50000006 -0.00139076 -0.00028350 -0.00000104
0.94960093 0.43739593 0.50000006 0.00146537 0.00080656 0.00001409
0.49992180 0.05410454 0.45651320 0.00000362 -0.00131337 -0.00139176
0.91553229 0.68311179 0.50000006 0.00127676 0.00012413 0.00000159
0.05183363 0.57332951 0.50000006 -0.00142180 -0.00050964 -0.00000090
0.88284773 0.25578591 0.50000006 0.00109987 -0.00051586 0.00000052
0.27849409 0.55023909 0.50000006 0.00007940 -0.00039146 -0.00000125
0.49992180 0.94652128 0.45826319 0.00000132 0.00133868 -0.00142261
0.12002590 0.50000000 0.39340365 -0.00030911 0.00000679 -0.00162038
0.49992180 0.26515046 0.54048687 -0.00000179 0.00036744 0.00046546
0.95189637 0.50000000 0.47628522 0.00149862 -0.00000161 -0.00109203
0.69306183 0.61930954 0.50000006 0.00003576 -0.00006465 0.00000066
0.26478136 0.88836449 0.50000006 -0.00033381 0.00117670 0.00000049
0.49992180 0.95236182 0.47783050 -0.00001517 0.00150759 -0.00112121
0.85669678 0.50000000 0.38761228 0.00007915 0.00000035 -0.00152963
0.04651817 0.52324516 0.50000006 -0.00152428 -0.00047547 0.00000532
0.58476275 0.05361955 0.50000006 -0.00045127 -0.00144393 -0.00000405
0.49992180 0.06460591 0.56313276 0.00000574 -0.00118951 0.00132694
0.68303359 0.08438955 0.50000006 0.00014763 -0.00126922 -0.00000119
0.27173772 0.10746592 0.50000006 -0.00033196 -0.00117832 -0.00000084
0.88683593 0.26244000 0.50000006 0.00110163 -0.00045600 0.00000058
0.82814229 0.18610001 0.50000006 0.00089330 -0.00080611 0.00000001
0.05402635 0.50000000 0.54348683 -0.00131214 0.00000701 0.00148764
0.35336590 0.07025409 0.50000006 0.00020288 -0.00136100 -0.00000197
0.65286905 0.92745906 0.50000006 -0.00009780 0.00132016 0.00000151
0.49992180 0.12790683 0.60919499 0.00000547 -0.00024199 0.00157719
0.49992180 0.25136137 0.43388137 -0.00000017 0.00051982 -0.00053275
0.44476590 0.27980366 0.50000006 0.00040073 0.00004596 -0.00000648
0.92760271 0.50000000 0.42672956 0.00105880 0.00000430 -0.00137346
0.11599863 0.74255091 0.50000006 -0.00111912 0.00047965 -0.00000020
0.30947864 0.08785684 0.50000006 -0.00011722 -0.00126193 -0.00000122
0.40183771 0.94345504 0.50000006 0.00024005 0.00138327 0.00000322
0.49992180 0.10720318 0.60101277 0.00000587 -0.00051217 0.00159416
0.95073545 0.50000000 0.52835065 0.00142180 -0.00000003 0.00132976
0.84998769 0.78979731 0.50000006 0.00103026 0.00073772 0.00000056
0.34058365 0.07482772 0.50000006 0.00005531 -0.00131454 -0.00000170
0.94811320 0.57263225 0.50000006 0.00143915 -0.00063902 0.00001151
0.67560589 0.35581955 0.50000006 0.00004561 0.00001431 -0.00000017
0.49992180 0.81333095 0.38990229 0.00000449 -0.00031770 -0.00128761
0.49992180 0.73081088 0.47242206 0.00000571 -0.00030751 -0.00044272
0.76460958 0.50000000 0.41590229 -0.00054805 -0.00000121 -0.00074894
0.33172682 0.65244317 0.50000006 -0.00002490 -0.00001726 0.00000003
0.73249179 0.88990545 0.50000006 0.00042581 0.00111400 0.00000069
0.49992180 0.05887273 0.44643226 0.00000485 -0.00123652 -0.00136058
0.93818271 0.50000000 0.44164956 0.00121960 0.00000484 -0.00129935
0.60040003 0.94285554 0.50000006 -0.00025201 0.00138001 0.00000316
0.67892772 0.36029822 0.50000006 0.00002214 0.00001515 -0.00000013
0.05321774 0.41733909 0.50000006 -0.00144842 0.00047926 -0.00000112
0.93960673 0.38686591 0.50000006 0.00133924 0.00018218 0.00000495
0.72084731 0.10311501 0.50000006 0.00029999 -0.00122461 -0.00000073
0.04794728 0.50000000 0.52371454 -0.00145753 -0.00000819 0.00129543
0.32302999 0.64255184 0.50000006 -0.00005427 -0.00004890 -0.00000015
0.22713910 0.86292136 0.50000006 -0.00059431 0.00103022 0.00000029
0.26399910 0.50000000 0.45651320 0.00039786 -0.00000230 -0.00049943
0.71615589 0.56947368 0.50000006 0.00000904 -0.00034150 -0.00000006
0.93151999 0.50000000 0.56825137 0.00112709 0.00000467 0.00133675
0.49992180 0.04717046 0.51901746 -0.00001217 -0.00150498 0.00098957
0.64260954 0.32320863 0.50000006 -0.00001966 -0.00003957 -0.00000070
0.73822868 0.50000000 0.45147273 -0.00042405 0.00000022 -0.00046669
0.63962358 0.67900550 0.50000006 -0.00002716 0.00002786 0.00000110
0.05657364 0.40148818 0.50000006 -0.00141679 0.00037121 -0.00000113
0.77362496 0.86223912 0.50000006 0.00061640 0.00101951 0.00000055
0.95277590 0.53442746 0.50000006 0.00150907 -0.00050937 0.00002011
0.37365592 0.31102955 0.50000006 0.00007890 -0.00006038 -0.00000147
0.65461862 0.66615272 0.50000006 0.00000461 0.00002116 0.00000093
0.61401367 0.69626725 0.50000006 -0.00015104 0.00007520 0.00000157
0.95247763 0.54050291 0.50000006 0.00151424 -0.00055340 0.00002072
0.54447496 0.95235682 0.50000006 -0.00063611 0.00153612 -0.00000085
0.60155863 0.70303774 0.50000006 -0.00019039 0.00007160 0.00000191
0.49182117 0.72687453 0.50000006 0.00011152 -0.00025763 0.00001401
0.25608546 0.11684729 0.50000006 -0.00042118 -0.00116174 -0.00000074
0.95327365 0.47569826 0.50000006 0.00152304 0.00052247 0.00002169
0.72401774 0.46368387 0.50000006 -0.00013815 0.00034055 -0.00000360
0.80184406 0.50000000 0.39340365 -0.00042243 -0.00000077 -0.00116231
0.90252864 0.28939500 0.50000006 0.00129711 -0.00021506 0.00000092
0.25923091 0.50000000 0.55356771 0.00046818 -0.00000147 0.00049262
0.88982725 0.26743045 0.50000006 0.00111798 -0.00041531 0.00000063
0.45197728 0.27799729 0.50000006 0.00039101 0.00007734 -0.00000810
0.68486637 0.91474414 0.50000006 0.00007296 0.00129851 0.00000106
0.24257545 0.50000000 0.57681179 0.00058795 0.00000022 0.00064117
0.64523274 0.93019134 0.50000006 -0.00017798 0.00135559 0.00000167
0.49992180 0.23944409 0.58035320 0.00000163 0.00055442 0.00070519
0.49992180 0.83348358 0.38672864 0.00000448 -0.00021208 -0.00142254
0.94196320 0.60372776 0.50000006 0.00137850 -0.00032202 0.00000605
0.73902315 0.50000000 0.55020726 -0.00042556 0.00000024 0.00047783
0.49992180 0.92251039 0.42102408 0.00000522 0.00098017 -0.00144557
0.11998726 0.25079501 0.50000006 -0.00113145 -0.00054987 -0.00000046
0.49992180 0.10552319 0.39978182 0.00000582 -0.00055074 -0.00159255
0.49992180 0.08562364 0.41340593 0.00000618 -0.00077610 -0.00155739
0.49992180 0.75306726 0.57209003 0.00000518 -0.00052233 0.00062560
0.49992180 0.74546868 0.56153864 0.00000519 -0.00050117 0.00051915
0.05552408 0.59432137 0.50000006 -0.00142200 -0.00031233 -0.00000107
0.49992180 0.94902587 0.53473687 0.00000041 0.00137310 0.00147846
0.16939273 0.18864682 0.50000006 -0.00094449 -0.00073311 -0.00000044
0.49992180 0.76645815 0.58570224 0.00000500 -0.00053019 0.00080243
0.31940636 0.63766593 0.50000006 -0.00005464 -0.00007004 -0.00000023
0.34240907 0.92582548 0.50000006 0.00002748 0.00130131 0.00000133
0.90946412 0.69594228 0.50000006 0.00125267 0.00013239 0.00000134
0.49992180 0.77777588 0.40551457 0.00000472 -0.00050934 -0.00094228
0.38235134 0.69418228 0.50000006 0.00011115 0.00005597 0.00000112
0.25349775 0.50000000 0.43686682 0.00052451 -0.00000096 -0.00053564
0.93531585 0.50000000 0.56313276 0.00117874 0.00000486 0.00133583
0.94054955 0.60937184 0.50000006 0.00137436 -0.00033355 0.00000542
0.74746317 0.88093227 0.50000006 0.00051936 0.00113220 0.00000063
0.75401181 0.12321502 0.50000006 0.00052325 -0.00116933 -0.00000045
0.95416856 0.50607544 0.50000006 0.00155880 -0.00018133 0.00002607
0.49992180 0.72875500 0.51744187 0.00000296 -0.00027840 0.00033634
0.04736592 0.45949706 0.50000006 -0.00153855 0.00066139 0.00000831
0.53029901 0.95305312 0.50000006 -0.00052714 0.00151879 -0.00001182
0.73262453 0.50000000 0.46551323 -0.00032919 0.00000091 -0.00048876
0.75408232 0.87673312 0.50000006 0.00058016 0.00113314 0.00000060
0.72609997 0.52227634 0.50000006 -0.00019639 -0.00023952 -0.00000226
0.06904726 0.64340180 0.50000006 -0.00135429 -0.00015402 -0.00000073
0.49992180 0.25930911 0.44643226 -0.00000156 0.00046371 -0.00046380
0.85037774 0.50000000 0.61316729 0.00001184 0.00000034 0.00150552
0.90079498 0.71427137 0.50000006 0.00128265 0.00031713 0.00000107
0.46561131 0.72439319 0.50000006 0.00035445 -0.00015249 0.00001418
0.12602592 0.50000000 0.60874319 -0.00022158 0.00000646 0.00160627
0.23181227 0.86638731 0.50000006 -0.00057218 0.00104399 0.00000031
0.95415449 0.50000000 0.49363536 0.00156600 -0.00003252 -0.00033739
0.27046543 0.50000000 0.52216911 0.00030664 -0.00000140 0.00038475
0.68114179 0.63671589 0.50000006 0.00006661 -0.00007300 0.00000073
0.11998683 0.74920499 0.50000006 -0.00116493 0.00049712 -0.00000018
0.54426044 0.27709407 0.50000006 -0.00042566 0.00007884 -0.00000900
0.59449953 0.94433314 0.50000006 -0.00026760 0.00140749 0.00000345
0.94850081 0.50000000 0.53598684 0.00136134 0.00000292 0.00143660
0.28431410 0.57122368 0.50000006 0.00000785 -0.00031239 -0.00000151
0.49992180 0.88943636 0.39739773 0.00000494 0.00045434 -0.00160673
0.49992180 0.79310185 0.60294276 0.00000472 -0.00046381 0.00109652
0.21156137 0.14863136 0.50000006 -0.00061444 -0.00114643 -0.00000053
0.33547136 0.34342545 0.50000006 -0.00002009 0.00001278 -0.00000106
0.27283138 0.50371277 0.50000006 0.00027236 -0.00005775 0.00000414
0.73082817 0.10909774 0.50000006 0.00037175 -0.00114346 -0.00000064
0.92117363 0.67029494 0.50000006 0.00133984 0.00004331 0.00000191
0.35298726 0.32681227 0.50000006 0.00005150 -0.00005550 -0.00000117
0.88863814 0.50000000 0.60294276 0.00045028 0.00000162 0.00158529
0.49992180 0.75734633 0.42318821 0.00000499 -0.00057215 -0.00063782
0.04594727 0.51162255 0.50000006 -0.00154714 -0.00032619 -0.00000544
0.81702316 0.17468092 0.50000006 0.00085610 -0.00088816 -0.00000006
0.49182126 0.95414764 0.50000006 0.00018460 0.00155064 0.00000517
0.22713910 0.13707820 0.50000006 -0.00059489 -0.00103409 -0.00000059
0.49992180 0.94840002 0.46351323 0.00000080 0.00137883 -0.00143356
0.77893591 0.14170001 0.50000006 0.00056584 -0.00107433 -0.00000029
0.27347001 0.51670760 0.50000006 0.00024273 -0.00020133 0.00000448
0.49992180 0.04545455 0.50000006 -0.00002134 -0.00158258 -0.00001319
0.33693090 0.92386550 0.50000006 -0.00001513 0.00130648 0.00000124
0.49992180 0.22222364 0.40551457 0.00000288 0.00048441 -0.00094323
0.11599909 0.25744909 0.50000006 -0.00113458 -0.00046828 -0.00000047
0.82405728 0.18159273 0.50000006 0.00088862 -0.00087034 -0.00000001
0.83045089 0.81135315 0.50000006 0.00094977 0.00071984 0.00000052
0.49992180 0.75306684 0.42791000 0.00000504 -0.00057120 -0.00058216
0.93293446 0.63742590 0.50000006 0.00138154 -0.00016682 0.00000323
0.88863814 0.50000000 0.39705729 0.00042798 0.00000151 -0.00161075
0.60537726 0.29876867 0.50000006 -0.00015380 -0.00007749 -0.00000171
0.49992180 0.24479364 0.57445091 0.00000097 0.00054668 0.00062688
0.04949545 0.50000000 0.52989614 -0.00139761 0.00000076 0.00146974
0.33327910 0.07744092 0.50000006 0.00001155 -0.00133385 -0.00000157
0.55650908 0.95057184 0.50000006 -0.00072779 0.00147279 0.00000402
0.23181227 0.13361229 0.50000006 -0.00058535 -0.00103795 -0.00000061
0.74919271 0.50000000 0.43302816 -0.00052127 -0.00000095 -0.00054650
0.92243224 0.50000000 0.57897586 0.00099288 0.00000392 0.00140914
0.92313361 0.66481680 0.50000006 0.00132732 -0.00001581 0.00000207
0.92966771 0.35344410 0.50000006 0.00131722 0.00008617 0.00000265
0.27233636 0.50000000 0.49363536 0.00026986 -0.00000488 -0.00012797
0.47667664 0.04659636 0.50000006 0.00040894 -0.00151841 -0.00001232
0.49992180 0.77137816 0.58973998 0.00000494 -0.00053162 0.00086116
0.13700046 0.22721682 0.50000006 -0.00101922 -0.00059715 -0.00000043
0.05675091 0.50000000 0.54924726 -0.00128598 0.00000959 0.00140888
0.41867545 0.71202177 0.50000006 0.00025080 0.00001642 0.00000258
0.90908223 0.50000000 0.40931091 0.00067552 0.00000275 -0.00160827
0.80931544 0.83230549 0.50000006 0.00080747 0.00085349 0.00000050
0.49411052 0.04574001 0.50000006 0.00013408 -0.00156043 -0.00001317
0.17329998 0.18433592 0.50000006 -0.00091491 -0.00080458 -0.00000044
0.49992180 0.91535997 0.41429728 0.00000526 0.00084579 -0.00153145
0.49992180 0.82977086 0.61308908 0.00000460 -0.00023202 0.00139303
0.59236228 0.05513091 0.50000006 -0.00036052 -0.00142788 -0.00000368
0.43932363 0.05002320 0.50000006 0.00084774 -0.00147467 -0.00000588
0.06690908 0.36257410 0.50000006 -0.00136415 0.00009921 -0.00000088
0.78828228 0.14863183 0.50000006 0.00066898 -0.00108724 -0.00000023
0.49992180 0.19207773 0.60874319 0.00000421 0.00039946 0.00121491
0.75298858 0.50000000 0.57209003 -0.00051813 -0.00000089 0.00061264
0.76874089 0.50000000 0.58784181 -0.00053062 -0.00000098 0.00082525
0.49992180 0.05222591 0.53823686 0.00000301 -0.00135382 0.00140291
0.65011138 0.67023724 0.50000006 -0.00000386 0.00002342 0.00000097
0.95198131 0.54655868 0.50000006 0.00151687 -0.00066206 0.00001890
0.48321420 0.27354819 0.50000006 0.00019227 0.00022914 -0.00001781
0.93772179 0.37934044 0.50000006 0.00136237 0.00020372 0.00000427
0.40011773 0.70390457 0.50000006 0.00013947 0.00003062 0.00000169
0.79398358 0.50000000 0.60339683 -0.00045869 -0.00000068 0.00108978
0.07929319 0.67203772 0.50000006 -0.00134965 0.00007627 -0.00000054
0.06494910 0.63194770 0.50000006 -0.00142213 -0.00017256 -0.00000081
0.27374366 0.52227682 0.50000006 0.00021788 -0.00023370 0.00000335
0.83767408 0.19661638 0.50000006 0.00094717 -0.00069710 0.00000008
0.19954272 0.84047502 0.50000006 -0.00078798 0.00087745 0.00000017
0.70035863 0.39286456 0.50000006 0.00009964 0.00019236 0.00000007
0.07382910 0.65676546 0.50000006 -0.00130809 -0.00004575 -0.00000063
0.29688457 0.60163683 0.50000006 -0.00004945 -0.00016733 -0.00000092
0.49992180 0.85204732 0.61308908 0.00000466 0.00006012 0.00150883
0.67936730 0.91734451 0.50000006 0.00011774 0.00130476 0.00000112
0.06547635 0.50000000 0.56441230 -0.00118209 0.00001189 0.00135858
0.17306319 0.81540269 0.50000006 -0.00086585 0.00086015 0.00000006
0.10066228 0.50000000 0.59735185 -0.00063727 0.00000858 0.00157112
0.32423770 0.35581955 0.50000006 -0.00005470 0.00004536 -0.00000106
0.29664820 0.09392546 0.50000006 -0.00017350 -0.00126589 -0.00000107
0.87061542 0.23769681 0.50000006 0.00106825 -0.00057568 0.00000036
0.49992180 0.24693274 0.42791000 0.00000054 0.00052053 -0.00060645
0.49992180 0.79310185 0.39705729 0.00000458 -0.00044414 -0.00110702
0.89439863 0.50000000 0.60021818 0.00053200 0.00000190 0.00159143
0.51477301 0.27345684 0.50000006 -0.00022092 0.00022630 -0.00001833
0.91813314 0.67761314 0.50000006 0.00133816 0.00005745 0.00000172
0.49992180 0.91001314 0.40994364 0.00000523 0.00074364 -0.00157754
0.27695498 0.10433863 0.50000006 -0.00034572 -0.00119194 -0.00000088
0.72669727 0.48987421 0.50000006 -0.00024031 0.00014265 -0.00000036
0.78726315 0.50000000 0.60021818 -0.00048928 -0.00000077 0.00103420
0.36714137 0.31586090 0.50000006 0.00007480 -0.00005060 -0.00000135
0.10403408 0.72258860 0.50000006 -0.00123463 0.00027951 -0.00000028
0.49992180 0.82031542 0.38831362 0.00000448 -0.00026632 -0.00134352
0.78502500 0.85378408 0.50000006 0.00058599 0.00112054 0.00000052
0.63759685 0.06707639 0.50000006 -0.00021217 -0.00139404 -0.00000209
0.11300726 0.73756045 0.50000006 -0.00112969 0.00042570 -0.00000022
0.59193587 0.29241139 0.50000006 -0.00016727 -0.00003410 -0.00000233
0.49992180 0.94589543 0.54348683 0.00000158 0.00133571 0.00143230
0.28368771 0.43052638 0.50000006 0.00001911 0.00031394 -0.00000181
0.05976547 0.61125320 0.50000006 -0.00135723 -0.00023609 -0.00000097
0.51541877 0.04621592 0.50000006 -0.00032813 -0.00153267 -0.00001288
0.26082048 0.50000000 0.44979274 0.00044927 -0.00000186 -0.00048511
0.81402546 0.50000000 0.61029136 -0.00033014 -0.00000037 0.00126212
0.27364412 0.47974834 0.50000006 0.00023204 0.00020567 0.00000413
0.54447550 0.04764318 0.50000006 -0.00071392 -0.00154266 -0.00000874
0.93677950 0.62442225 0.50000006 0.00138214 -0.00023402 0.00000407
0.16216955 0.80338413 0.50000006 -0.00091078 0.00074616 0.00000002
0.47162819 0.72528589 0.50000006 0.00031389 -0.00018156 0.00001560
0.24271683 0.87447459 0.50000006 -0.00048514 0.00115360 0.00000036
