0.60292315 0.48461655 0.89853406 0.00041133 0.00075773 0.00068114
0.35045251 0.40025234 0.46704501 -0.00022222 0.00043814 0.00004498
0.60475159 0.52532709 0.30735302 0.00046459 0.00013438 -0.00031842
0.61364502 0.58231986 0.43642250 0.00065433 -0.00026534 0.00020592
0.62282324 0.50150901 0.56006110 0.00037009 0.00007048 0.00001092
0.48864651 0.57532650 0.59211516 -0.00015998 0.00047616 0.00038832
0.54054064 0.42176536 0.94185144 0.00016290 0.00050181 0.00053736
0.54309732 0.50706315 0.90306473 0.00000711 0.00088414 0.00056217
0.39480171 0.60146630 0.50160176 -0.00028941 0.00032998 0.00021052
0.38003144 0.49724451 0.50311267 -0.00029473 0.00005511 0.00007799
0.33733153 0.51855820 0.75512499 -0.00036308 0.00100309 0.00028047
0.37970552 0.48735997 0.88215202 -0.00038716 0.00073982 0.00066402
0.70536304 0.46448606 0.21259762 0.00103519 0.00092727 0.00007315
0.29561430 0.43101025 0.14634918 -0.00115023 0.00057371 -0.00066308
0.35238317 0.41419986 0.53410739 -0.00003888 -0.00000605 -0.00005255
0.36476749 0.41936839 0.11268010 0.00003244 0.00079575 -0.00042334
0.54437017 0.52199721 0.66352177 0.00000354 0.00011804 -0.00002788
0.62467998 0.46429014 0.89537668 0.00063394 0.00014794 0.00079295
0.60529333 0.60718358 0.48223728 0.00026039 0.00036281 0.00010545
0.38250405 0.50611281 0.59091622 -0.00029184 0.00011419 0.00012262
0.52162743 0.53896695 0.79649073 -0.00003808 0.00061144 0.00028624
0.61802614 0.48687971 0.88466752 0.00038562 0.00073144 0.00067871
0.60623366 0.54481381 0.31962609 0.00057910 0.00036020 -0.00034091
0.45943043 0.48204011 0.93216801 -0.00021902 0.00045119 0.00097060
0.38729757 0.50851810 0.59931844 -0.00020679 0.00015648 0.00020557
0.35532427 0.47216752 0.18603890 0.00022060 0.00086413 -0.00020687
0.54220265 0.59821224 0.34629688 -0.00000554 0.00081028 -0.00045890
0.49755093 0.49008381 0.92727858 -0.00001262 0.00063707 0.00065948
0.58290428 0.43900886 0.92944175 0.00022519 0.00040683 0.00079181
0.34829938 0.50025272 0.66655040 0.00006313 0.00047593 -0.00014579
0.38752100 0.51601434 0.68248212 -0.00011603 0.00031160 -0.00008903
0.34063908 0.41057718 0.58062536 0.00012246 -0.00017991 0.00025605
0.58400077 0.45866930 0.92733473 0.00035840 0.00015988 0.00103695
0.61507785 0.52029622 0.45004913 0.00036104 0.00028272 0.00000851
0.51818210 0.47559848 0.17443156 -0.00006572 0.00054175 -0.00000916
0.51990604 0.53844512 0.80708802 -0.00004283 0.00063604 0.00028303
0.60781789 0.52169424 0.70358896 0.00009594 0.00041509 -0.00000702
0.54460084 0.44506824 0.10470186 0.00038285 0.00046504 -0.00074907
0.35124013 0.47437638 0.22870167 0.00014780 0.00063618 0.00013174
0.61414826 0.61126733 0.44416669 0.00072451 0.00066149 -0.00009616
0.35391226 0.47548127 0.20619677 0.00017593 0.00078528 -0.00006692
0.51401985 0.47127828 0.16298304 -0.00006239 0.00049832 -0.00009524
0.38406807 0.51880229 0.41876283 -0.00038107 0.00023494 0.00009583
0.29657161 0.37122658 0.58543897 -0.00033777 -0.00086769 -0.00036764
0.54271632 0.45880410 0.93501347 0.00017785 -0.00016496 0.00091229
0.55850863 0.52368021 0.86871290 0.00014943 0.00071079 0.00068986
0.36139184 0.39181077 0.91356391 -0.00063158 -0.00051142 0.00087331
0.60780811 0.56949258 0.34333596 0.00065886 0.00050364 -0.00029385
0.41078135 0.47350410 0.23325914 -0.00026439 0.00015001 0.00010875
0.32328433 0.44029808 0.85430986 -0.00071624 0.00044729 0.00086916
0.39271748 0.56174880 0.33462903 -0.00063979 0.00048387 -0.00029473
0.35085908 0.39377102 0.35839862 0.00006270 0.00016730 0.00005175
0.69035810 0.49327555 0.69711965 0.00089903 0.00040987 -0.00002962
0.37609065 0.47190255 0.36592972 -0.00027512 0.00000848 0.00003358
0.36755005 0.46534035 0.88845336 -0.00068083 0.00010393 0.00079099
0.39198881 0.39321685 0.93085498 -0.00033460 -0.00058121 0.00096434
0.48714697 0.60422987 0.56037641 -0.00022688 0.00066398 0.00045083
0.57538992 0.38392383 0.06427186 0.00017599 -0.00044048 -0.00099203
0.61149788 0.57588863 0.48778123 0.00044913 -0.00056781 -0.00022455
0.37711766 0.47165510 0.34412158 -0.00022646 0.00014903 0.00006030
0.61528951 0.52084333 0.45985180 0.00036360 0.00030409 0.00000201
0.35808846 0.49567372 0.84691888 -0.00042198 0.00083835 0.00044052
0.34992990 0.40098023 0.48857382 -0.00018790 0.00046425 -0.00001397
0.65877187 0.38630420 0.56322300 -0.00038408 -0.00014992 0.00044890
0.52991724 0.48150292 0.93538225 0.00015989 0.00043823 0.00098190
0.70433819 0.45149204 0.16972195 0.00104732 0.00069751 -0.00061147
0.29864529 0.44701704 0.26058048 -0.00074982 0.00017665 0.00068345
0.31887487 0.39826697 0.85665387 -0.00077434 -0.00063344 0.00050475
0.46858528 0.48159298 0.93502301 -0.00017450 0.00043753 0.00098266
0.45831355 0.52594841 0.67863750 -0.00001261 0.00022459 0.00001050
0.62087536 0.49657813 0.49344543 0.00034191 0.00003383 0.00008603
0.52959794 0.47475418 0.16929343 0.00001844 0.00059199 -0.00009541
0.29565263 0.44605631 0.16138665 -0.00107894 0.00059054 -0.00072869
0.34648117 0.48795807 0.63743055 -0.00003378 0.00041962 -0.00005327
0.61457020 0.60790068 0.50357234 0.00063385 0.00058000 0.00032494
0.54615968 0.43810663 0.09694127 0.00040759 0.00044363 -0.00076661
0.61215430 0.60101414 0.39719811 0.00077392 0.00074633 -0.00012517
0.62245423 0.47754952 0.49106321 0.00024571 -0.00012030 0.00002199
0.72042805 0.37454152 0.61095792 0.00100118 -0.00088665 0.00043265
0.36685970 0.47710201 0.53114557 -0.00035870 0.00014494 -0.00001391
0.64519477 0.44499013 0.13422786 -0.00018615 0.00053712 -0.00087188
0.70023507 0.43976831 0.26769066 0.00069497 -0.00002618 0.00064719
0.60481304 0.55559683 0.55785245 0.00033581 0.00035756 0.00041072
0.47954699 0.53864765 0.80370998 0.00003927 0.00062776 0.00028392
0.55138469 0.40725723 0.06603338 0.00039238 0.00091576 -0.00068027
0.51643753 0.62652069 0.52893132 0.00028834 0.00083350 0.00048760
0.29976496 0.43976831 0.26769066 -0.00069496 -0.00002613 0.00064686
0.29525304 0.46055102 0.19096059 -0.00101886 0.00091803 -0.00021827
0.29566184 0.45149204 0.16972195 -0.00104652 0.00069683 -0.00061228
0.52249569 0.63870829 0.50171840 0.00030368 0.00097370 0.00041250
0.43619183 0.42060652 0.08485471 -0.00058413 0.00098084 -0.00025153
0.40246344 0.46008933 0.91436470 -0.00040709 0.00012506 0.00084347
0.63860816 0.39181077 0.91356391 0.00063129 -0.00051254 0.00087437
0.48897320 0.52461380 0.86504203 0.00016565 0.00061842 0.00052360
0.38878092 0.53315377 0.55277300 -0.00039148 0.00006992 0.00011015
0.37113941 0.45966679 0.35588044 -0.00028545 0.00005582 0.00016317
0.37358508 0.37720847 0.08134246 -0.00058450 -0.00042564 -0.00072957
0.70367658 0.45890972 0.24263124 0.00089583 0.00060144 0.00055726
0.38559598 0.61092466 0.48420188 -0.00064126 0.00054331 0.00015599
0.37192321 0.46087235 0.37608746 -0.00031787 -0.00006762 0.00009717
0.66197354 0.35879350 0.35656062 0.00006974 -0.00083740 0.00002893
0.42589375 0.48900509 0.26672053 -0.00000250 0.00016503 0.00008602
0.62131792 0.47173661 0.32231259 0.00023748 0.00012410 0.00005828
0.65451807 0.50765926 0.80578959 0.00045833 0.00061382 0.00077158
0.67671567 0.44029808 0.85430986 0.00071743 0.00044660 0.00086970
0.54262066 0.52461559 0.67336321 0.00001111 0.00018889 -0.00001113
0.61161786 0.56376952 0.51360470 0.00050165 -0.00010181 -0.00024180
0.29856780 0.46489623 0.76686811 -0.00102493 0.00003258 0.00023772
0.46026796 0.40073377 0.94977540 -0.00012161 -0.00039855 0.00087177
0.49167469 0.53269452 0.62558925 0.00002430 0.00005002 0.00015784
0.61219120 0.54666340 0.53793555 0.00050973 0.00011234 0.00001341
0.43559694 0.47716451 0.20155664 -0.00032362 0.00038187 -0.00006829
0.38013029 0.49789751 0.51341677 -0.00027145 0.00007751 0.00007883
0.53934520 0.47757947 0.18381807 0.00007775 0.00053677 -0.00004228
0.60831952 0.44466925 0.91976947 0.00058546 0.00022387 0.00088474
0.40434039 0.53136373 0.75349349 -0.00013893 0.00058403 0.00012086
0.53869301 0.48940066 0.25102326 -0.00001237 0.00011853 0.00007586
0.62345809 0.47174177 0.35504872 0.00024524 0.00009408 0.00007025
0.63105702 0.47010827 0.54697442 0.00018939 0.00006457 0.00005486
0.61626619 0.52258033 0.49011827 0.00038865 0.00027886 0.00004069
0.60524100 0.60486710 0.49143526 0.00026979 0.00033032 0.00018566
0.49412557 0.50738806 0.90138704 0.00009069 0.00084016 0.00035195
0.35470805 0.47429729 0.19637872 0.00019749 0.00082669 -0.00014277
0.61145353 0.56827283 0.50517750 0.00047378 -0.00032506 -0.00026910
0.61471337 0.47141188 0.29242796 0.00023076 -0.00001224 0.00001373
0.65240413 0.50724524 0.68484610 0.00001943 0.00057597 -0.00011423
0.52199847 0.45731178 0.93931305 0.00012121 -0.00015540 0.00090126
0.45637909 0.38788718 0.05531093 -0.00019868 -0.00042910 -0.00111360
0.34564206 0.36594400 0.50156665 -0.00009748 -0.00065369 -0.00000789
0.61217684 0.58194399 0.46602958 0.00050646 -0.00052637 -0.00000486
0.32049137 0.44728166 0.84789222 -0.00077991 0.00043261 0.00083266
0.61414403 0.58027339 0.42576453 0.00070134 -0.00025892 0.00022741
0.70434737 0.43897134 0.15300325 0.00111270 0.00054288 -0.00076283
0.34502459 0.47752717 0.62050372 -0.00012780 0.00026832 -0.00011325
0.51513851 0.62151951 0.53722107 0.00027027 0.00079591 0.00047827
0.37746394 0.50252986 0.56985599 -0.00039005 0.00005404 0.00000425
0.65714747 0.37517914 0.09411001 0.00035834 -0.00069875 -0.00094047
0.29714057 0.42512879 0.79832596 -0.00101451 -0.00049094 0.00001119
0.61773318 0.51789725 0.39754537 0.00041064 0.00027503 -0.00001582
0.64543849 0.42487839 0.53442019 0.00016126 -0.00018909 -0.00006893
0.49642923 0.49647427 0.91858608 -0.00000689 0.00085680 0.00039590
0.37368789 0.46273252 0.31779748 -0.00025868 0.00007916 0.00000709
0.62807685 0.46087235 0.37608746 0.00031766 -0.00006793 0.00009692
0.45384037 0.43810663 0.09694127 -0.00041220 0.00044097 -0.00076863
0.38303784 0.52458346 0.53101599 -0.00047849 0.00001536 -0.00006226
0.64582121 0.41717115 0.11277696 -0.00017656 0.00096994 -0.00052922
0.34452397 0.47131521 0.61298007 -0.00014472 0.00017034 -0.00015300
0.48456252 0.62285268 0.53511965 -0.00023855 0.00078851 0.00051748
0.69597691 0.36720788 0.31063962 0.00081758 -0.00084784 -0.00006282
0.60676849 0.60702538 0.42858586 0.00050008 0.00062289 0.00002771
0.29487541 0.46411243 0.22307564 -0.00100749 0.00085791 0.00023709
0.32610822 0.47515398 0.83231211 -0.00085040 0.00047038 0.00059612
0.65497541 0.47752717 0.62050372 0.00012603 0.00026869 -0.00011548
0.63536537 0.43278715 0.32645667 0.00019768 -0.00031922 -0.00006444
0.70347130 0.43404064 0.79049385 0.00102276 -0.00030562 -0.00001490
0.40172037 0.52988952 0.74334973 -0.00012756 0.00055824 0.00009599
0.57939184 0.51644063 0.62025076 -0.00005390 0.00014563 0.00020829
0.65771604 0.36182788 0.41943818 0.00037379 -0.00073259 0.00011360
0.39487922 0.59204203 0.52015108 -0.00029055 0.00034013 0.00035114
0.64036632 0.41182011 0.33135462 -0.00001178 -0.00029179 -0.00003502
0.30839720 0.38023522 0.11312801 -0.00109953 -0.00101454 -0.00073892
0.38878968 0.49137288 0.32344091 -0.00024121 0.00002615 0.00014865
0.53301430 0.46844202 0.15681145 0.00011195 0.00051135 -0.00011357
0.54397857 0.51659721 0.27623445 0.00003986 0.00027631 -0.00023372
0.47504902 0.40257320 0.95222658 -0.00007653 -0.00036379 0.00091213
0.62288237 0.47165510 0.34412158 0.00022624 0.00014887 0.00006003
0.53933680 0.62028813 0.37875760 0.00005197 0.00091518 -0.00039094
0.43394887 0.52984500 0.84993052 -0.00022164 0.00075668 0.00053704
0.41948551 0.53425050 0.80648977 -0.00022840 0.00068799 0.00029869
0.40488976 0.38128445 0.07052813 -0.00017445 -0.00041444 -0.00093279
0.35417885 0.41717115 0.11277696 0.00017640 0.00096803 -0.00053018
0.44650152 0.46001506 0.93246251 -0.00027732 -0.00012357 0.00091592
0.31005809 0.48540434 0.67587799 -0.00078936 0.00038295 -0.00001183
0.38150859 0.49452385 0.44430169 -0.00030689 0.00005179 0.00001625
0.38854644 0.56827283 0.50517750 -0.00047549 -0.00032321 -0.00026906
0.65722060 0.44846886 0.59346294 0.00013756 -0.00007779 -0.00010529
0.67950863 0.44728166 0.84789222 0.00078118 0.00043204 0.00083309
0.65527695 0.36397243 0.46324882 0.00032471 -0.00075557 0.00005755
0.38461566 0.51923561 0.42877138 -0.00037157 0.00023776 0.00007952
0.34747064 0.46791741 0.86729825 -0.00076555 0.00017032 0.00073282
0.47173706 0.53844488 0.75638723 0.00001108 0.00053087 0.00025702
0.34170046 0.51295918 0.78850329 -0.00047120 0.00073390 0.00066073
0.29938954 0.44206780 0.63966054 -0.00072754 -0.00000906 0.00014948
0.65936089 0.41057718 0.58062536 -0.00012286 -0.00018059 0.00025553
0.64565384 0.40336058 0.10469585 -0.00007978 0.00131495 -0.00018930
0.56229544 0.52707243 0.85958046 0.00018842 0.00073844 0.00061701
0.38319722 0.37837905 0.07788613 -0.00047571 -0.00044310 -0.00079762
0.57324952 0.41940954 0.93585515 0.00012091 0.00032640 0.00069141
0.39665672 0.52605081 0.72275394 -0.00009949 0.00049958 0.00009254
0.45648232 0.52329344 0.66831172 -0.00000940 0.00015196 -0.00002489
0.37778249 0.50039369 0.54739201 -0.00032876 0.00008794 0.00001515
0.61079329 0.48561862 0.89185780 0.00038848 0.00073786 0.00069304
0.32467422 0.47848609 0.82083845 -0.00078347 0.00047188 0.00062226
0.40978408 0.48935094 0.28072956 -0.00003463 0.00013180 -0.00000600
0.38544002 0.57713580 0.41545984 -0.00073682 -0.00021253 0.00024155
0.60562921 0.60963142 0.46050203 0.00035215 0.00047310 -0.00010403
0.58407229 0.53428066 0.79474902 0.00020374 0.00066706 0.00026413
0.46547502 0.53739393 0.61846542 -0.00003607 0.00021246 0.00011465
0.51164788 0.52325785 0.63033056 -0.00007216 -0.00006325 0.00007652
0.46387047 0.64221334 0.43506217 -0.00019375 0.00110008 -0.00001714
0.64916682 0.39923748 0.44391668 0.00020149 0.00046037 0.00003885
0.60474896 0.54668760 0.56497514 0.00029093 0.00032941 0.00038770
0.65917718 0.51423281 0.78378451 0.00046480 0.00078114 0.00060569
0.65959841 0.36043403 0.39062130 0.00033690 -0.00073720 0.00003043
0.64575726 0.42847854 0.12030347 -0.00016499 0.00058427 -0.00080878
0.29632342 0.45890972 0.24263124 -0.00089572 0.00060139 0.00055671
0.41148409 0.51437962 0.61692977 0.00003236 0.00015454 0.00026387
0.53914791 0.63633114 0.41079837 0.00016614 0.00106135 -0.00024139
0.42664319 0.53310484 0.82902336 -0.00025643 0.00074044 0.00036931
0.61220425 0.54505366 0.37169492 0.00056861 -0.00013716 0.00024805
0.65007013 0.40098023 0.48857382 0.00018751 0.00046438 -0.00001435
0.46109608 0.50168014 0.91154963 -0.00003156 0.00086159 0.00057447
0.65170062 0.50025272 0.66655040 -0.00006547 0.00047577 -0.00015149
0.62816691 0.46009234 0.36572084 0.00029373 -0.00001496 0.00012676
0.50816077 0.53125089 0.62644809 -0.00002436 0.00003153 0.00014892
0.70452607 0.46221989 0.23312254 0.00095930 0.00075197 0.00040030
0.66606814 0.43125010 0.86892873 0.00056965 0.00047929 0.00075557
0.61051619 0.59216201 0.37745258 0.00073459 0.00064981 -0.00020730
0.39524844 0.52532709 0.30735302 -0.00046450 0.00013446 -0.00031813
0.35517311 0.37718228 0.09124295 -0.00044016 -0.00042591 -0.00063028
0.48106766 0.39077160 0.04900772 -0.00009268 -0.00035623 -0.00140272
0.66311657 0.51876807 0.74799865 0.00030815 0.00105205 0.00019171
0.58201623 0.42928368 0.93094921 0.00018111 0.00054181 0.00067467
0.46698570 0.46844202 0.15681145 -0.00010964 0.00051221 -0.00011020
0.33730197 0.50984472 0.67848158 -0.00013662 0.00087099 -0.00020917
0.39271128 0.60502684 0.41794509 -0.00053796 0.00064890 -0.00006072
0.55657256 0.47774604 0.19484128 0.00029073 0.00044878 -0.00007719
0.45280692 0.51738399 0.64775866 0.00001970 -0.00001121 0.00000141
0.38050669 0.39231822 0.92562377 -0.00046204 -0.00059001 0.00095609
0.33664197 0.35787311 0.33741480 0.00047322 -0.00096055 0.00015050
0.34451178 0.50895584 0.80161458 -0.00046564 0.00062800 0.00076426
0.32914877 0.37015840 0.54740232 -0.00016612 -0.00060755 0.00008555
0.61205643 0.55297935 0.53001386 0.00052689 0.00011729 -0.00008282
0.36142561 0.45778126 0.53319001 -0.00031386 -0.00000376 -0.00004117
0.53470629 0.53426969 0.71852899 0.00000330 0.00043382 0.00017722
0.68349338 0.38689327 0.59473944 -0.00089044 -0.00014502 0.00013342
0.53873199 0.52985483 0.69540858 0.00000695 0.00032916 0.00009245
0.41716865 0.48912826 0.27342454 -0.00001479 0.00015161 0.00002568
0.34514859 0.36654630 0.51188630 -0.00001452 -0.00064964 -0.00001089
0.39020416 0.58758485 0.36913085 -0.00071146 0.00058755 -0.00027732
0.53084838 0.52257609 0.62867630 -0.00008062 -0.00000740 0.00001572
0.65415567 0.42133841 0.29718629 -0.00025311 -0.00018120 -0.00004132
0.61140621 0.57231390 0.49655646 0.00045534 -0.00046898 -0.00025640
0.39219189 0.56949258 0.34333596 -0.00065827 0.00050369 -0.00029346
0.44839108 0.52131104 0.62623185 0.00004384 0.00007643 0.00002622
0.61265987 0.58310246 0.45567515 0.00055709 -0.00040389 0.00006152
0.45837644 0.50073540 0.26451331 -0.00004915 0.00016415 -0.00006606
0.32809857 0.43481725 0.86156601 -0.00063756 0.00047590 0.00082854
0.37533519 0.47312146 0.40806550 -0.00034565 -0.00009189 0.00012580
0.60022146 0.52314264 0.58736169 0.00007870 0.00021898 0.00024800
0.70342839 0.37122658 0.58543897 0.00033784 -0.00086808 -0.00036779
0.66548002 0.36934626 0.53972268 0.00008551 -0.00061275 0.00007396
0.64482683 0.37718228 0.09124295 0.00044206 -0.00042650 -0.00062966
0.34767655 0.46132445 0.25839502 0.00017138 0.00025083 0.00026194
0.33625975 0.51624858 0.71302658 -0.00015312 0.00100363 0.00000214
0.33393189 0.43125010 0.86892873 -0.00056884 0.00048058 0.00075481
0.32311955 0.37059933 0.55474699 -0.00021880 -0.00061112 0.00004607
0.29544574 0.41865069 0.13892849 -0.00129979 0.00047446 -0.00043338
0.39326409 0.55271077 0.32599419 -0.00061050 0.00043085 -0.00032391
0.65329778 0.39299238 0.89920342 0.00076607 -0.00042675 0.00067616
0.57723248 0.53390658 0.81700373 0.00024402 0.00071265 0.00032335
0.37538633 0.47274667 0.39783230 -0.00033475 -0.00009100 0.00011648
0.62928492 0.42942569 0.90717012 0.00055048 0.00069732 0.00057669
0.30861750 0.49480584 0.70801997 -0.00097448 0.00042460 0.00001242
0.65079838 0.40128535 0.50951511 0.00009444 0.00041952 -0.00006036
0.71329451 0.40121448 0.62283301 0.00070116 -0.00000394 0.00058752
0.51789230 0.49003088 0.24658701 -0.00003677 0.00014859 0.00002484
0.35447317 0.43763438 0.12740925 0.00016864 0.00045416 -0.00092014
0.57642353 0.48294070 0.91557550 0.00044395 0.00058684 0.00078151
0.44600147 0.38662928 0.05810966 -0.00022293 -0.00043831 -0.00104999
0.67688048 0.37059933 0.55474699 0.00021870 -0.00061164 0.00004579
0.59303021 0.53249878 0.76332855 0.00014923 0.00060784 0.00014789
0.49531156 0.50205457 0.91015774 0.00003826 0.00097093 0.00021871
0.46106634 0.46152234 0.12890956 -0.00025800 0.00078263 -0.00030249
0.32089356 0.46324393 0.83596659 -0.00082714 0.00044968 0.00067881
0.29557532 0.45665896 0.18023154 -0.00101900 0.00083680 -0.00040262
0.35146436 0.40747771 0.55023026 0.00019775 0.00000579 0.00013074
0.64503437 0.42771047 0.89342523 0.00056782 0.00068342 0.00055440
0.62379330 0.47566462 0.46010262 0.00034322 -0.00014258 0.00008311
0.53090566 0.53717268 0.74072975 -0.00000169 0.00049645 0.00022413
0.62641495 0.37720847 0.08134246 0.00059689 -0.00042789 -0.00072571
0.66212350 0.51808292 0.76171392 0.00039478 0.00097034 0.00032480
0.34704471 0.44724610 0.27468243 0.00021488 0.00000726 0.00018928
0.62217224 0.47165051 0.33319402 0.00022328 0.00015832 0.00005278
0.54687434 0.51147920 0.89498997 0.00003907 0.00079267 0.00065181
0.30265635 0.38932818 0.61101085 0.00033603 -0.00031778 0.00041867
0.35105160 0.39816952 0.42309120 -0.00015826 0.00047798 0.00000719
0.53390437 0.64375925 0.44743672 0.00020761 0.00109954 0.00006813
0.35271704 0.41725582 0.54887229 0.00001809 -0.00013104 0.00003501
0.46817228 0.53658575 0.73530918 0.00000119 0.00048308 0.00021717
0.60471582 0.53858215 0.57119572 0.00022763 0.00035462 0.00030629
0.37589893 0.47509786 0.45001459 -0.00035306 -0.00012901 0.00005814
0.49883738 0.47968107 0.93991351 -0.00000548 0.00035002 0.00103951
0.53157908 0.64433914 0.45907357 0.00022070 0.00108412 0.00013820
0.39203393 0.47156206 0.27223852 -0.00021541 -0.00000695 0.00003078
0.37782779 0.47165051 0.33319402 -0.00022349 0.00015845 0.00005302
0.47871783 0.52292097 0.62956154 0.00010250 -0.00004282 0.00003541
0.59918088 0.47220588 0.25202772 0.00021453 0.00006994 0.00011164
0.31016690 0.49012893 0.68635362 -0.00083077 0.00039914 -0.00002542
0.69734365 0.38932818 0.61101085 -0.00033592 -0.00031838 0.00041817
0.38539904 0.56738484 0.39602169 -0.00073696 -0.00020825 0.00022915
0.56349945 0.42058256 0.93906808 0.00007352 0.00041552 0.00071273
0.64552683 0.43763438 0.12740925 -0.00016911 0.00045556 -0.00091954
0.61705339 0.46316805 0.90165824 0.00060233 0.00016361 0.00079671
0.45599428 0.58438605 0.33067128 0.00002599 0.00072463 -0.00049488
0.38110581 0.51739478 0.38710928 -0.00044518 0.00025063 -0.00001922
0.38838211 0.56376952 0.51360470 -0.00050325 -0.00010014 -0.00024192
0.33451998 0.36934626 0.53972268 -0.00008573 -0.00061225 0.00007424
0.70455426 0.41865069 0.13892849 0.00130103 0.00047562 -0.00043226
0.38585174 0.61126733 0.44416669 -0.00072500 0.00066032 -0.00009565
0.64101511 0.44669515 0.53385043 0.00028698 -0.00014685 -0.00005146
0.34290224 0.36739120 0.52290094 0.00002208 -0.00063872 0.00003226
0.34068260 0.42924094 0.87711805 -0.00052496 0.00053486 0.00068564
0.70143217 0.46489623 0.76686811 0.00102712 0.00002576 0.00024654
0.35416284 0.49852696 0.83656287 -0.00042672 0.00077110 0.00050443
0.29551265 0.39084306 0.12397148 -0.00172402 -0.00058100 -0.00038066
0.63789064 0.42222503 0.32915059 0.00011074 -0.00034269 -0.00004117
0.45602143 0.51659721 0.27623445 -0.00004048 0.00027662 -0.00023325
0.38226685 0.51789725 0.39754537 -0.00041084 0.00027529 -0.00001547
0.66355336 0.51460266 0.70239460 0.00012822 0.00096809 -0.00006693
0.65149212 0.50397605 0.81787378 0.00043292 0.00063692 0.00071971
0.29857421 0.41785073 0.80636191 -0.00099042 -0.00064060 0.00008154
0.31993121 0.45494059 0.84229892 -0.00081895 0.00043049 0.00076033
0.64228135 0.43892160 0.54771608 0.00016761 -0.00022293 0.00003208
0.59830993 0.51218736 0.61228967 0.00002258 0.00016954 0.00028571
0.54187661 0.52207327 0.62749630 -0.00005600 0.00003806 0.00001240
0.65470386 0.41190416 0.30432484 -0.00031302 -0.00017558 -0.00005220
0.54635394 0.55230838 0.30290261 -0.00004573 0.00056836 -0.00040882
0.48908165 0.56712204 0.59977537 -0.00012251 0.00041626 0.00035907
0.33423123 0.37539002 0.09833157 -0.00028263 -0.00083398 -0.00102766
0.46026495 0.52858353 0.68969911 -0.00000938 0.00029636 0.00006686
0.35572788 0.46905866 0.17541808 0.00024032 0.00089327 -0.00027074
0.29737079 0.45456496 0.77492338 -0.00101018 -0.00005820 0.00015657
0.67591232 0.39682376 0.86616790 0.00080631 -0.00053152 0.00045302
0.59041381 0.53332788 0.77281523 0.00016487 0.00062695 0.00017969
0.54793555 0.47790200 0.18873519 0.00019409 0.00050292 -0.00007355
0.38635498 0.58231986 0.43642250 -0.00065445 -0.00026421 0.00020625
0.51125926 0.57328039 0.59408987 0.00015065 0.00046031 0.00038327
0.62143111 0.43253332 0.91275495 0.00052678 0.00057961 0.00067579
0.62338614 0.47631401 0.47107968 0.00032469 -0.00015007 0.00009233
0.57387286 0.46396860 0.92840791 0.00034292 0.00013365 0.00101494
0.67587519 0.37322271 0.31633192 -0.00020198 -0.00044370 -0.00005713
0.61662710 0.52370578 0.51120114 0.00041346 0.00017669 0.00000911
0.38782313 0.58194399 0.46602958 -0.00050744 -0.00052448 -0.00000447
0.45690268 0.50706315 0.90306473 -0.00000902 0.00087868 0.00056702
0.65295529 0.44724610 0.27468243 -0.00021502 0.00000723 0.00018941
0.30073389 0.41214418 0.81453729 -0.00095258 -0.00075085 0.00018094
0.64464772 0.45341790 0.14420965 -0.00021741 0.00070827 -0.00070576
0.34381464 0.38480148 0.32110742 0.00066763 -0.00013976 -0.00011237
0.46429941 0.53329718 0.71278393 -0.00000359 0.00041241 0.00016386
0.60640347 0.37974977 0.07430159 0.00030362 -0.00043570 -0.00087945
0.34409001 0.46449962 0.60604060 -0.00014724 0.00007674 -0.00017115
0.38523808 0.49243584 0.34498104 -0.00022214 0.00013414 0.00002534
0.52930152 0.64416605 0.46995601 0.00023410 0.00106597 0.00022060
0.38337296 0.52370578 0.51120114 -0.00041447 0.00017624 0.00000856
0.46230945 0.63997781 0.42424324 -0.00018519 0.00107982 -0.00013102
0.37532002 0.46429014 0.89537668 -0.00063508 0.00014900 0.00079106
0.30402309 0.36720788 0.31063962 -0.00081754 -0.00084782 -0.00006278
0.56497580 0.39773536 0.94449276 0.00021161 -0.00044440 0.00085753
0.60592318 0.60945213 0.45005354 0.00040965 0.00051358 -0.00007006
0.45906937 0.45700866 0.12080950 -0.00029944 0.00071570 -0.00042998
0.37983313 0.51683843 0.37730402 -0.00048690 0.00022048 -0.00000672
0.59753656 0.46008933 0.91436470 0.00040849 0.00012504 0.00084261
0.64458048 0.49754128 0.84008574 0.00042508 0.00079694 0.00047577
0.69988978 0.47441971 0.75842112 0.00105283 0.00013481 0.00026881
0.38590166 0.43748641 0.91757685 -0.00057586 0.00039105 0.00078101
0.36072224 0.46615887 0.88193858 -0.00070144 0.00008623 0.00080071
0.58586472 0.39542529 0.93873519 0.00022812 -0.00052598 0.00091436
0.38850212 0.57588863 0.48778123 -0.00045080 -0.00056587 -0.00022421
0.52487189 0.64158374 0.49107540 0.00027894 0.00101648 0.00035322
0.44699657 0.39913222 0.94719583 -0.00013700 -0.00041521 0.00086126
0.57585943 0.39651084 0.94167107 0.00022323 -0.00049179 0.00088410
0.62177640 0.51607800 0.36691484 0.00054480 0.00018534 0.00001758
0.55048090 0.42151213 0.94121337 0.00011929 0.00049080 0.00062874
0.41599923 0.45866930 0.92733473 -0.00035785 0.00016171 0.00103582
0.45421696 0.53494245 0.28979018 0.00001353 0.00043883 -0.00034001
0.62131715 0.49950746 0.53623754 0.00029572 0.00008887 0.00003404
0.57856607 0.47525680 0.21733581 0.00031537 0.00024624 0.00001695
0.62296897 0.47690371 0.48067847 0.00029692 -0.00014514 0.00007995
0.48658127 0.61012948 0.55305237 -0.00023511 0.00070633 0.00046309
0.44951913 0.42151213 0.94121337 -0.00012021 0.00049155 0.00062828
0.30087328 0.43090442 0.27494559 -0.00065904 -0.00016988 0.00053194
0.45539916 0.44506824 0.10470186 -0.00038715 0.00046065 -0.00075400
0.30346811 0.40777066 0.82273114 -0.00090600 -0.00082030 0.00029171
0.65523505 0.40275192 0.31073526 -0.00041371 -0.00012899 -0.00007012
0.70061046 0.44206780 0.63966054 0.00072782 -0.00001021 0.00014736
0.70442468 0.45665896 0.18023154 0.00101970 0.00083736 -0.00040185
0.59565961 0.53136373 0.75349349 0.00013485 0.00058646 0.00012348
0.49035251 0.52045196 0.87463844 0.00017522 0.00059571 0.00059024
0.37969038 0.47192129 0.31152368 -0.00026447 0.00006893 0.00006421
0.34040165 0.36043403 0.39062130 -0.00033708 -0.00073697 0.00003064
0.39504513 0.57148975 0.54402113 -0.00035895 0.00039860 0.00038771
0.47953019 0.63558751 0.51021165 -0.00029017 0.00093212 0.00043593
0.54777402 0.48226914 0.92928678 0.00025693 0.00045329 0.00094687
0.59827965 0.52988952 0.74334973 0.00012419 0.00056095 0.00010045
0.69688392 0.37077025 0.57710707 0.00021899 -0.00078336 -0.00039754
0.62461609 0.48841378 0.87693655 0.00039660 0.00076295 0.00062194
0.34050789 0.39390180 0.89139611 -0.00080845 -0.00040670 0.00056637
0.64821351 0.50060278 0.82930321 0.00041953 0.00071374 0.00059975
0.40572348 0.47276783 0.24229217 -0.00023382 0.00010874 0.00012056
0.70411593 0.39071408 0.61743587 0.00005234 -0.00037894 0.00057738
0.47128555 0.48967624 0.24858777 0.00002375 0.00012572 0.00004679
0.35535225 0.45341790 0.14420965 0.00021642 0.00070711 -0.00070614
0.64736444 0.47565442 0.21811540 -0.00015640 0.00071965 0.00003986
0.58851588 0.51437962 0.61692977 -0.00003534 0.00015646 0.00026297
0.46827134 0.45788589 0.93758148 -0.00015621 -0.00016145 0.00090706
0.39126295 0.49090317 0.31434315 -0.00021422 0.00002203 0.00010686
0.34336653 0.37446302 0.32418355 0.00079709 -0.00038372 -0.00012342
0.60908419 0.58232206 0.36063862 0.00068916 0.00053038 -0.00032586
0.61561960 0.52140528 0.46956998 0.00037112 0.00031025 0.00001460
0.46227950 0.53107452 0.70118499 -0.00000540 0.00036074 0.00012402
0.66320950 0.51247990 0.69089770 0.00013181 0.00091781 -0.00014001
0.67085123 0.37015840 0.54740232 0.00016597 -0.00060807 0.00008528
0.39365190 0.60842568 0.43832821 -0.00046203 0.00057538 0.00001403
0.38848773 0.47143483 0.28191915 -0.00022318 -0.00002101 0.00000207
0.65958482 0.39883348 0.57870728 -0.00038165 -0.00006426 0.00045471
0.37725726 0.49577156 0.48408806 -0.00041100 0.00002586 0.00009259
0.61593193 0.51880229 0.41876283 0.00038069 0.00023476 0.00009546
0.68112516 0.39826697 0.85665387 0.00077436 -0.00063408 0.00050558
0.66078341 0.51647699 0.77349716 0.00044431 0.00087686 0.00047416
0.39914191 0.52808714 0.73301452 -0.00011382 0.00052943 0.00009018
0.61398107 0.56155771 0.38812372 0.00069467 -0.00022761 0.00020951
0.45945939 0.42176536 0.94185144 -0.00016461 0.00050291 0.00053685
0.47130814 0.47673020 0.17876217 0.00002728 0.00055024 -0.00001110
0.55065161 0.51559317 0.88661140 0.00007666 0.00071546 0.00072135
0.66521364 0.39482799 0.88332343 0.00082823 -0.00041294 0.00048312
0.63314027 0.47710201 0.53114557 0.00035792 0.00014511 -0.00001376
0.51226014 0.59593308 0.57013714 0.00020646 0.00061300 0.00042950
0.65115738 0.40112922 0.51919633 0.00002274 0.00036353 -0.00006122
0.62454998 0.47396180 0.42765367 0.00035668 -0.00009779 0.00007520
0.48796615 0.59175909 0.57485890 -0.00020263 0.00058533 0.00042357
0.37822360 0.51607800 0.36691484 -0.00054486 0.00018546 0.00001800
0.46801874 0.38926366 0.05228514 -0.00027206 -0.00041983 -0.00119819
0.48746532 0.52871478 0.85468245 0.00014315 0.00065835 0.00042734
0.38326988 0.51836133 0.40822548 -0.00039341 0.00024993 0.00007176
0.52510953 0.53794563 0.62098545 0.00002286 0.00017702 0.00014781
0.65877962 0.43022865 0.58488727 0.00008123 -0.00019189 0.00004248
0.46969980 0.63580894 0.50606239 -0.00031762 0.00092069 0.00043525
0.56605119 0.52984500 0.84993052 0.00022098 0.00075783 0.00053559
0.39208028 0.60237771 0.40632817 -0.00059216 0.00067724 -0.00010938
0.62030965 0.47192129 0.31152368 0.00026421 0.00006884 0.00006392
0.62886059 0.45966679 0.35588044 0.00028526 0.00005558 0.00016293
0.38601890 0.56155771 0.38812372 -0.00069453 -0.00022761 0.00021005
0.48831800 0.58351022 0.58381265 -0.00018548 0.00052981 0.00041042
0.65485144 0.36654630 0.51188630 0.00001415 -0.00065000 -0.00001118
0.61680275 0.37837905 0.07788613 0.00048798 -0.00044548 -0.00079397
0.35771862 0.43892160 0.54771608 -0.00016839 -0.00022305 0.00003269
0.30721059 0.49460632 0.71887743 -0.00102262 0.00043340 0.00004816
0.54308015 0.59154499 0.33838212 -0.00001659 0.00076776 -0.00048256
0.35115364 0.39689144 0.40125072 -0.00009764 0.00045622 0.00001172
0.50793135 0.51500702 0.88665855 -0.00015453 0.00064828 0.00055658
0.65628821 0.36299929 0.44348815 0.00036441 -0.00075833 0.00010812
0.39091584 0.58232206 0.36063862 -0.00068847 0.00053038 -0.00032535
0.52311301 0.46993694 0.15999679 -0.00004367 0.00050302 -0.00010603
0.61913759 0.47221267 0.30087328 0.00028159 0.00004135 0.00003020
0.53276908 0.53590935 0.72979820 0.00000226 0.00046838 0.00019905
0.55239755 0.40031844 0.05929966 0.00039095 0.00056644 -0.00104415
0.48149160 0.63185972 0.51863301 -0.00028151 0.00088448 0.00047168
0.47688702 0.46993694 0.15999679 0.00004135 0.00050289 -0.00010546
0.53769058 0.63997781 0.42424324 0.00018729 0.00108093 -0.00013767
0.61447191 0.60968477 0.49363589 0.00063198 0.00054792 0.00025501
0.34228396 0.36182788 0.41943818 -0.00037400 -0.00073233 0.00011383
0.48319101 0.62765199 0.52688587 -0.00025939 0.00083571 0.00050232
0.44861531 0.40725723 0.06603338 -0.00035736 0.00090204 -0.00070131
0.42990002 0.51841223 0.62285060 0.00004924 0.00012715 0.00013836
0.54658985 0.51842064 0.65111214 -0.00001342 0.00001799 -0.00000269
0.54849231 0.51495892 0.64059192 -0.00004185 -0.00005756 0.00000303
0.53612953 0.64221334 0.43506217 0.00019757 0.00110034 -0.00002857
0.40958619 0.53332788 0.77281523 -0.00016921 0.00062501 0.00017931
0.31358290 0.37296912 0.31407657 -0.00032144 -0.00052098 0.00001081
0.64983362 0.39782962 0.55248785 -0.00038623 0.00004739 0.00027095
0.61696213 0.52458346 0.53101599 0.00047750 0.00001527 -0.00006184
0.44342741 0.47774604 0.19484128 -0.00028586 0.00044873 -0.00007706
0.49380884 0.49046963 0.24504517 0.00002008 0.00018360 0.00002244
0.65663350 0.37446302 0.32418355 -0.00079715 -0.00038385 -0.00012354
0.41413525 0.39542529 0.93873519 -0.00022948 -0.00052540 0.00091348
0.29024205 0.37200877 0.59422159 -0.00055923 -0.00090180 -0.00012622
0.42675042 0.41940954 0.93585515 -0.00012197 0.00032626 0.00069086
0.35019451 0.40068007 0.47868890 -0.00020855 0.00046927 0.00003269
0.35476974 0.42804337 0.54809332 -0.00010573 -0.00022687 0.00000624
0.50956422 0.54828268 0.61500156 0.00004618 0.00020972 0.00028380
0.52912241 0.53809768 0.75127488 -0.00000694 0.00052001 0.00024403
0.34837586 0.50364715 0.67560518 0.00002503 0.00050115 -0.00014632
0.29565263 0.43897134 0.15300325 -0.00111176 0.00054192 -0.00076370
0.43085879 0.41034555 0.08099420 -0.00043557 0.00104017 -0.00002672
0.63872337 0.44971713 0.54746264 0.00018657 -0.00012435 0.00005328
0.68006879 0.45494059 0.84229892 0.00082036 0.00042957 0.00076101
0.61456001 0.57713580 0.41545984 0.00073700 -0.00021311 0.00024110
0.54578298 0.53494245 0.28979018 -0.00001424 0.00043827 -0.00034066
0.50656241 0.51014763 0.89639872 -0.00011096 0.00075919 0.00044106
0.39855921 0.49002832 0.29681927 -0.00012481 0.00006092 0.00001346
0.69772029 0.41442192 0.28633124 0.00064383 -0.00017585 0.00025297
0.52764344 0.42176217 0.94199961 0.00012763 0.00044512 0.00044532
0.50888985 0.47444946 0.17092432 -0.00002916 0.00052470 -0.00003246
0.65709776 0.36739120 0.52290094 -0.00002243 -0.00063915 0.00003197
0.46540132 0.49575758 0.91986436 -0.00007385 0.00074830 0.00066482
0.45860848 0.60431951 0.35420400 -0.00000722 0.00085190 -0.00042733
0.38402575 0.52198422 0.47955877 -0.00038079 0.00030262 0.00003254
0.64875984 0.47437638 0.22870167 -0.00014829 0.00063647 0.00013272
0.34175518 0.46910360 0.85961813 -0.00081269 0.00024574 0.00064543
0.48908964 0.48025063 0.93846953 -0.00006708 0.00036991 0.00099779
0.64467573 0.47216752 0.18603890 -0.00022166 0.00086505 -0.00020586
0.38948381 0.59216201 0.37745258 -0.00073376 0.00064989 -0.00020652
0.51160294 0.58146155 0.58594906 0.00017801 0.00051404 0.00040825
0.63584518 0.49235734 0.85974318 0.00042215 0.00084676 0.00046796
0.62942892 0.45360282 0.32052734 0.00024236 -0.00002404 -0.00003341
0.36461973 0.39635390 0.09300350 -0.00037692 0.00108199 -0.00032052
0.69160277 0.38023522 0.11312801 0.00110221 -0.00101468 -0.00073768
0.65949214 0.39390180 0.89139611 0.00080838 -0.00040734 0.00056722
0.30232167 0.45207953 0.64499402 -0.00072391 0.00012904 0.00014393
0.47774252 0.53908372 0.79263341 0.00003563 0.00060291 0.00028943
0.35065460 0.39288515 0.34856480 0.00014323 0.00008725 -0.00000854
0.58921862 0.47350410 0.23325914 0.00026256 0.00015019 0.00010725
0.62390941 0.47190255 0.36592972 0.00027489 0.00000826 0.00003328
0.40481508 0.39445117 0.93568641 -0.00024818 -0.00054442 0.00094113
0.35480529 0.44499013 0.13422786 0.00018542 0.00053590 -0.00087229
0.70836502 0.41679412 0.62860537 0.00062888 0.00000254 0.00032993
0.43910840 0.52008110 0.62475729 0.00004105 0.00010475 0.00007205
0.36481404 0.45940757 0.54724121 -0.00018787 -0.00001540 0.00006438
0.64523023 0.42804337 0.54809332 0.00010506 -0.00022685 0.00000571
0.35263556 0.47565442 0.21811540 0.00015582 0.00071920 0.00003878
0.42414060 0.39651084 0.94167107 -0.00022445 -0.00049121 0.00088335
0.69902807 0.38496721 0.11877660 0.00147251 -0.00083404 -0.00053612
0.45812342 0.52207327 0.62749630 0.00005726 0.00003575 0.00000133
0.65824479 0.46910360 0.85961813 0.00081203 0.00024607 0.00064575
0.39168048 0.44466925 0.91976947 -0.00058685 0.00022424 0.00088321
0.38701320 0.55351394 0.37929854 -0.00061673 -0.00013046 0.00022613
0.37032342 0.39182657 0.91989273 -0.00056233 -0.00055499 0.00092457
0.55160892 0.52131104 0.62623185 -0.00004552 0.00007846 0.00003127
0.39492732 0.58558488 0.52901703 -0.00030441 0.00034765 0.00039286
0.43006280 0.53191668 0.83914715 -0.00024814 0.00075772 0.00043988
0.38542980 0.60790068 0.50357234 -0.00063822 0.00057645 0.00032324
0.59021586 0.48935094 0.28072956 0.00003449 0.00013152 -0.00000644
0.37868208 0.47173661 0.32231259 -0.00023771 0.00012422 0.00005852
0.65916485 0.42030236 0.58238149 0.00000858 -0.00022366 0.00013796
0.61440402 0.61092466 0.48420188 0.00063803 0.00054620 0.00015721
0.54891425 0.42307237 0.08153655 0.00034263 0.00092807 -0.00044517
0.34529617 0.41190416 0.30432484 0.00031302 -0.00017550 -0.00005209
0.44065484 0.48251376 0.92413342 -0.00037331 0.00046739 0.00088271
0.48111495 0.53795230 0.81342757 0.00005125 0.00065039 0.00028186
0.54279459 0.45166278 0.11292950 0.00034596 0.00058687 -0.00061207
0.58283138 0.48912826 0.27342454 0.00001473 0.00015129 0.00002529
0.61183935 0.55870545 0.52187145 0.00052290 0.00005381 -0.00016636
0.35720703 0.40220374 0.33274871 0.00015239 -0.00022272 -0.00005636
0.59511024 0.38128445 0.07052813 0.00016126 -0.00041424 -0.00093853
0.69053143 0.37064084 0.56974792 0.00022461 -0.00070023 -0.00023213
0.38869303 0.52419466 0.35632840 -0.00045890 -0.00012900 0.00023650
0.62464023 0.47352925 0.41802135 0.00035288 -0.00009414 0.00010294
0.38734010 0.58310246 0.45567515 -0.00055771 -0.00040218 0.00006188
0.63677114 0.42794433 0.90123075 0.00058436 0.00070144 0.00053636
0.45364603 0.55230838 0.30290261 0.00004497 0.00056929 -0.00040781
0.53670770 0.53222722 0.70698977 0.00000395 0.00038826 0.00014508
0.62016690 0.51683843 0.37730402 0.00048681 0.00022031 -0.00000712
0.36127660 0.44971713 0.54746264 -0.00018749 -0.00012457 0.00005388
0.41600299 0.47435799 0.22495578 -0.00029731 0.00019436 0.00007020
0.36322883 0.42794433 0.90123075 -0.00058476 0.00070157 0.00053548
0.56914121 0.41034555 0.08099420 0.00040783 0.00103943 -0.00003953
0.67689818 0.38602301 0.58601451 -0.00066297 -0.00014632 0.00025078
0.68639934 0.40027049 0.84621519 0.00077673 -0.00074456 0.00051559
0.69653189 0.40777066 0.82273114 0.00090623 -0.00082177 0.00029287
0.37722769 0.49054512 0.54634100 -0.00021864 0.00009065 0.00002844
0.62277234 0.49054512 0.54634100 0.00021747 0.00009088 0.00002896
0.34083518 0.42030236 0.58238149 -0.00000901 -0.00022275 0.00013877
0.49155009 0.40468299 0.95454550 -0.00003003 -0.00026736 0.00096849
0.48583958 0.53237474 0.84373915 0.00012029 0.00068379 0.00035392
0.34759584 0.50724524 0.68484610 -0.00002173 0.00056753 -0.00012526
0.38414955 0.49295923 0.35717827 -0.00021719 0.00017443 -0.00005630
0.45507604 0.57671738 0.32322764 0.00003667 0.00068717 -0.00048798
0.36465427 0.37627429 0.08473130 -0.00059135 -0.00048123 -0.00074756
0.37703103 0.47690371 0.48067847 -0.00029739 -0.00014456 0.00007995
0.48445028 0.53475392 0.83460724 0.00009990 0.00068615 0.00031809
0.60841137 0.57631201 0.35202435 0.00067385 0.00051978 -0.00030809
0.38340151 0.49337441 0.36906457 -0.00022146 0.00018788 -0.00006978
0.53459871 0.49575758 0.91986436 0.00006183 0.00074842 0.00066715
0.70474696 0.46055102 0.19096059 0.00101945 0.00091848 -0.00021751
0.35588524 0.46493816 0.16475692 0.00025026 0.00090274 -0.00035493
0.55215651 0.48912448 0.25543913 -0.00001488 0.00013293 0.00011548
0.60634553 0.51050210 0.60660034 0.00011014 0.00017675 0.00026332
0.60634810 0.60842568 0.43832821 0.00046088 0.00057627 0.00001380
0.60475278 0.52987736 0.57763433 0.00019915 0.00027020 0.00024906
0.61780226 0.49405256 0.40269271 0.00026185 0.00007700 0.00009862
0.55399853 0.38662928 0.05810966 0.00027686 -0.00044183 -0.00103015
0.31360069 0.40027049 0.84621519 -0.00077668 -0.00074374 0.00051466
0.39525104 0.54668760 0.56497514 -0.00029281 0.00033009 0.00038638
0.38672465 0.48600945 0.88951939 -0.00038370 0.00073118 0.00069469
0.61298680 0.55351394 0.37929854 0.00061683 -0.00013048 0.00022560
0.34476498 0.40275192 0.31073526 0.00041370 -0.00012888 -0.00007001
0.35666466 0.43541217 0.53427911 -0.00024417 -0.00024743 -0.00006695
0.60673594 0.55271077 0.32599419 0.00061091 0.00043069 -0.00032428
0.40267512 0.48408556 0.90271264 -0.00043359 0.00076513 0.00066981
0.30097193 0.38496721 0.11877660 -0.00146964 -0.00083427 -0.00053760
0.36389086 0.46772391 0.53235370 -0.00033891 0.00009761 -0.00003195
0.30311605 0.37077025 0.57710707 -0.00021894 -0.00078291 -0.00039733
0.65011281 0.47184861 0.23817164 -0.00015001 0.00053599 0.00020559
0.65273541 0.45408392 0.26748818 -0.00019099 0.00010961 0.00023356
0.61156893 0.53371215 0.36294046 0.00051278 -0.00014452 0.00026613
0.45728371 0.45880410 0.93501347 -0.00017976 -0.00016480 0.00091164
0.65618533 0.38480148 0.32110742 -0.00066767 -0.00013988 -0.00011249
0.55480170 0.51997811 0.87727123 0.00011455 0.00069580 0.00072725
0.47466660 0.64202428 0.48890531 -0.00025680 0.00103095 0.00031468
0.39407682 0.60945213 0.45005354 -0.00041164 0.00051229 -0.00007017
0.37754583 0.47754952 0.49106321 -0.00024621 -0.00011975 0.00002188
0.66581827 0.37321094 0.31956300 -0.00067987 -0.00038785 -0.00011003
0.47235653 0.42176217 0.94199961 -0.00013077 0.00044579 0.00044490
0.64884639 0.39689144 0.40125072 0.00009738 0.00045616 0.00001150
0.33850831 0.51737744 0.76781982 -0.00042856 0.00091799 0.00041312
0.29652870 0.43404064 0.79049385 -0.00102214 -0.00030541 -0.00001521
0.60728872 0.60502684 0.41794509 0.00053811 0.00064922 -0.00006112
0.39459443 0.60885227 0.47204539 -0.00029591 0.00041709 -0.00006828
0.61676425 0.52421242 0.52155834 0.00043879 0.00009914 -0.00002065
0.59637910 0.48965666 0.28855464 0.00007683 0.00008867 -0.00000988
0.60559052 0.53574884 0.31339818 0.00053287 0.00024521 -0.00034796
0.30831453 0.40319008 0.83479196 -0.00082827 -0.00082842 0.00044048
0.61889422 0.51739478 0.38710928 0.00044504 0.00025041 -0.00001960
0.61130697 0.52419466 0.35632840 0.00045881 -0.00012912 0.00023604
0.39620018 0.47181147 0.26214233 -0.00020794 0.00003014 0.00007059
0.33622020 0.51745290 0.72284859 -0.00016698 0.00105299 0.00006620
0.70335174 0.44406617 0.78274590 0.00101355 -0.00016202 0.00005338
0.64595413 0.46694428 0.87500733 0.00074339 0.00010295 0.00077288
0.65547603 0.47131521 0.61298007 0.00014305 0.00017071 -0.00015475
0.57410628 0.48900509 0.26672053 0.00000246 0.00016467 0.00008561
0.63534576 0.37627429 0.08473130 0.00059900 -0.00048275 -0.00074522
0.58583999 0.38253993 0.06751872 0.00019455 -0.00045494 -0.00096191
0.38683307 0.58316153 0.44579104 -0.00060823 -0.00031019 0.00013080
0.67488152 0.37613648 0.10312167 0.00029285 -0.00097847 -0.00107831
0.34564981 0.36542064 0.49181089 -0.00017690 -0.00067584 -0.00002776
0.41709572 0.43900886 0.92944175 -0.00022572 0.00040793 0.00079090
0.61151224 0.47143483 0.28191915 0.00022273 -0.00002108 0.00000168
0.60791969 0.60237771 0.40632817 0.00059282 0.00067731 -0.00010992
0.62461370 0.47274667 0.39783230 0.00033449 -0.00009131 0.00011624
0.51996535 0.63470721 0.51232803 0.00032361 0.00091857 0.00045942
0.28100276 0.38346112 0.61686391 -0.00093991 -0.00058467 0.00058781
0.34707665 0.42827263 0.88470411 -0.00053165 0.00061145 0.00061679
0.50844991 0.40468299 0.95454550 0.00002630 -0.00026761 0.00096873
0.43770453 0.52707243 0.85958046 -0.00018923 0.00073744 0.00061781
0.51019484 0.55674082 0.60853255 0.00007945 0.00029879 0.00032986
0.49159861 0.51653868 0.88335443 0.00016428 0.00062333 0.00057947
0.56759644 0.48268890 0.92016155 0.00044755 0.00050015 0.00083232
0.36760697 0.49090818 0.86574018 -0.00041721 0.00082353 0.00051565
0.45708120 0.50890714 0.27056006 -0.00005508 0.00022577 -0.00015579
0.55300343 0.39913222 0.94719583 0.00013549 -0.00041599 0.00086190
0.47040212 0.47475418 0.16929343 -0.00002510 0.00059342 -0.00009229
0.67006505 0.38547903 0.57704723 -0.00046081 -0.00015524 0.00038545
0.66374022 0.51624858 0.71302658 0.00013648 0.00102335 0.00002089
0.37535977 0.47352925 0.41802135 -0.00035318 -0.00009375 0.00010310
0.37661383 0.47631401 0.47107968 -0.00032512 -0.00014950 0.00009238
0.65430480 0.48301521 0.62857306 0.00008892 0.00035549 -0.00007469
0.46922770 0.49012414 0.92688441 -0.00010977 0.00062967 0.00077520
0.32935327 0.39574319 0.87498254 -0.00082829 -0.00045879 0.00044275
0.45504931 0.53662270 0.61595595 -0.00004248 0.00026251 0.00010396
0.70438570 0.43101025 0.14634918 0.00115125 0.00057485 -0.00066210
0.51519185 0.53420955 0.83693928 -0.00010709 0.00068735 0.00032522
0.65812880 0.43907377 0.58830780 0.00012099 -0.00014533 -0.00002899
0.60552037 0.49044946 0.30544233 0.00017277 0.00003720 0.00005649
0.51222336 0.52791774 0.85680687 -0.00015163 0.00065045 0.00044708
0.35424277 0.42847854 0.12030347 0.00016476 0.00058277 -0.00080950
0.34041521 0.39883348 0.57870728 0.00038124 -0.00006378 0.00045502
0.59427655 0.47276783 0.24229217 0.00023295 0.00010877 0.00012023
0.64279294 0.40220374 0.33274871 -0.00015259 -0.00022285 -0.00005646
0.65464348 0.36477160 0.47919732 0.00025793 -0.00071480 0.00003780
0.61849141 0.49452385 0.44430169 0.00030644 0.00005127 0.00001611
0.41798377 0.42928368 0.93094921 -0.00018238 0.00054173 0.00067391
0.60085809 0.52808714 0.73301452 0.00011152 0.00053231 0.00009577
0.42829230 0.47629306 0.20902807 -0.00033588 0.00031252 -0.00002892
0.59518498 0.39445117 0.93568641 0.00024678 -0.00054514 0.00094215
0.40696979 0.53249878 0.76332855 -0.00015362 0.00060567 0.00014670
0.35069174 0.39968759 0.45364603 -0.00021593 0.00044402 0.00005164
0.59442770 0.48385891 0.90472203 0.00042798 0.00074628 0.00068728
0.37183315 0.46009234 0.36572084 -0.00029393 -0.00001468 0.00012702
0.60379982 0.47181147 0.26214233 0.00020756 0.00003007 0.00007064
0.65232348 0.46132445 0.25839502 -0.00017169 0.00025085 0.00026235
0.38219774 0.49405256 0.40269271 -0.00026220 0.00007725 0.00009896
0.61470956 0.60550690 0.51402283 0.00064462 0.00063749 0.00046959
0.70516753 0.46324614 0.20182505 0.00103426 0.00095181 -0.00006094
0.33109963 0.47267973 0.84214681 -0.00084388 0.00040442 0.00057121
0.46107352 0.62481391 0.38807836 -0.00007789 0.00093251 -0.00035624
0.35065919 0.50169277 0.82556564 -0.00042502 0.00068436 0.00064009
0.52742583 0.53872174 0.76138467 -0.00001378 0.00054091 0.00026229
0.44149137 0.52368021 0.86871290 -0.00015068 0.00070984 0.00069018
0.53172863 0.45788589 0.93758148 0.00016118 -0.00016381 0.00090715
0.60512078 0.59204203 0.52015108 0.00028491 0.00034291 0.00035246
0.45482865 0.52074271 0.65903264 0.00000038 0.00008192 -0.00002252
0.64641005 0.39224613 0.90663135 0.00070380 -0.00046652 0.00078662
0.56392956 0.46174559 0.93024009 0.00030869 -0.00001522 0.00095385
0.70285946 0.42512879 0.79832596 0.00101505 -0.00049168 0.00001170
0.69615620 0.37746826 0.30662650 0.00073684 -0.00051091 -0.00003119
0.42461008 0.38392383 0.06427186 -0.00020265 -0.00044752 -0.00098520
0.34850129 0.46723983 0.24877089 0.00016022 0.00039638 0.00025328
0.34358856 0.45726246 0.59978175 -0.00014374 -0.00000202 -0.00015577
0.62410104 0.47509786 0.45001459 0.00035270 -0.00012952 0.00005809
0.57010001 0.51841223 0.62285060 -0.00005190 0.00012965 0.00014146
0.63538027 0.39635390 0.09300350 0.00038130 0.00108397 -0.00031816
0.29738182 0.45397285 0.25170723 -0.00082473 0.00041299 0.00065754
0.60796607 0.47156206 0.27223852 0.00021497 -0.00000701 0.00003057
0.36894295 0.47010827 0.54697442 -0.00019054 0.00006408 0.00005498
0.40081915 0.47220588 0.25202772 -0.00021496 0.00006999 0.00011148
0.48598015 0.47127828 0.16298304 0.00006351 0.00049852 -0.00009407
0.53452498 0.53739393 0.61846542 0.00003964 0.00021242 0.00011756
0.46065477 0.47757947 0.18381807 -0.00007043 0.00053739 -0.00004074
0.60334331 0.52605081 0.72275394 0.00009800 0.00050259 0.00009862
0.51193643 0.58968604 0.57715881 0.00019797 0.00056985 0.00042232
0.34277943 0.44846886 0.59346294 -0.00013847 -0.00007665 -0.00010326
0.38246673 0.49389744 0.39178193 -0.00024349 0.00013088 0.00003203
0.33999145 0.51541704 0.77880055 -0.00046103 0.00082470 0.00055249
0.39518693 0.55559683 0.55785245 -0.00033772 0.00035788 0.00040965
0.36463472 0.43278715 0.32645667 -0.00019788 -0.00031908 -0.00006430
0.60873705 0.49090317 0.31434315 0.00021397 0.00002198 0.00010655
0.65435797 0.36594400 0.50156665 0.00009712 -0.00065403 -0.00000820
0.54291880 0.50890714 0.27056006 0.00005451 0.00022541 -0.00015635
0.38859379 0.57231390 0.49655646 -0.00045709 -0.00046706 -0.00025616
0.35114944 0.39617896 0.39025247 -0.00006474 0.00041110 0.00004634
0.38947305 0.51858896 0.69151771 -0.00010495 0.00035476 -0.00006546
0.52360284 0.53921431 0.78443289 -0.00003156 0.00058609 0.00028782
0.61949331 0.39231822 0.92562377 0.00046122 -0.00059123 0.00095728
