-0.681872  0.707283 -0.089539 -0.686289  0.659898 -0.305847
-0.066917  0.988733 -0.061453 0.0059437  0.953608 -0.300991
-0.178161   0.94697 -0.128623 -0.121098  0.826396 -0.549913
-0.021426 -0.955907 -0.140117 -0.0110601  -0.882629   -0.46994
-0.692803 -0.662046  0.136851 -0.488767 -0.667005  0.562326
-0.454239  0.574747   0.24917  -0.0495647 -0.00720692    0.998745
-0.056435 -0.865077  -0.22048 -0.0562934  -0.561415  -0.825617
 0.549324 -0.430936  0.244581  -0.162987 -0.0378886   0.985901
-0.713777  0.532606  0.205816 -0.548913  0.381994  0.743488
 0.020351 -0.921623  0.180542 0.0505886 -0.649716  0.758492
0.734494 0.522935 0.197738 0.605742 0.285511 0.742671
0.781674  0.50022 0.174602 0.701292 0.327862 0.633005
0.064444 0.746834     0.25 0.0434867  0.194222  0.979993
-0.931567  -0.35371  0.033418 -0.915319 -0.365125  0.169924
-0.482854  0.835689  0.124999 -0.461565  0.752033  0.470537
-0.911278  0.157113 -0.177859  -0.75844  0.175915 -0.627553
  0.32238 -0.406325  0.095671 -0.613878  0.623243  0.484481
 0.410234 -0.316205 -0.094164 -0.807552  0.474387 -0.350451
 0.70148 0.535917 0.210953 0.532023  0.26862 0.802991
 0.418483  0.743695 -0.227002  0.225808  0.573043 -0.787802
       -0 -0.503505 -0.040016   0.121175   0.991049 -0.0560204
 0.522559 -0.428853  0.238726 -0.247689 0.0086412  0.968801
0.303408 0.917509 -0.12323  0.258057  0.798277 -0.544206
 0.071315 -0.536826  0.138892 0.0508808  0.751249  0.658054
 -0.8971 0.408716  0.07908 -0.893331  0.393912  0.216319
 0.951192  0.303294 -0.020975   0.964256    0.25175 -0.0826589
-0.304909 -0.877729  0.172932 -0.346273 -0.595384  0.724992
 0.725316 -0.629587  0.133021  0.562979 -0.619824  0.546692
-0.579319 -0.427504  0.248106  0.0835862 -0.0843985    0.99292
-0.704596  -0.25915  -0.24992 -0.0823542  0.0176847  -0.996446
0.114274 0.808172 0.240586 0.0161224  0.312272  0.949856
-0.148076 -0.911667  0.178713 -0.181387 -0.611226   0.77039
 0.927937   0.36484 -0.031176    0.94683   0.310185 -0.0854281
-0.09874 0.496398 -0.05404 0.0791552  -0.97561 -0.204742
 0.931681 -0.324059 -0.077196  0.923763 -0.283446 -0.257526
-0.777979 -0.414601  0.212232 -0.517635 -0.353233  0.779282
-0.193913  0.466133 -0.049139  0.300684 -0.935083 -0.187639
-0.448105  -0.41448  0.207867 0.463189 0.212602 0.860381
-0.346487  0.903156  -0.12156 -0.270596  0.838702 -0.472606
-0.557621  0.829401  0.008963  -0.628655   0.777452 -0.0189917
  0.64037  0.741941 -0.095671  0.620766  0.679461 -0.391129
 0.765829  0.085436 -0.248968  0.204594 0.0699063 -0.976347
-0.109689 -0.916436  0.179543 -0.130496 -0.627786  0.767369
 0.038057  0.766164 -0.249114  -0.01006  0.284045 -0.958758
 0.655357  0.730188 -0.091877   0.64166  0.675005 -0.364199
 0.182386  0.946615 -0.128173  0.189409  0.797994 -0.572127
 0.897957 -0.384716  0.103201  0.811216 -0.380563  0.443959
-0.582858  0.136004 -0.199006  0.535979 -0.146468 -0.831429
 0.093871 -0.581857  0.192022 0.0518566  0.611798  0.789313
-0.294803 -0.428545  0.098676 0.650301 0.617574 0.442393
-0.950531  0.237647 -0.095671 -0.903271  0.291068 -0.315248
 0.472047 -0.811067  0.162752  0.365804 -0.639415  0.676266
0.274921 0.471349 0.144491 -0.319081 -0.687216  0.652627
0.375111  0.56401 0.239235 -0.0849055    -0.1131   0.989949
-0.124014  0.857893  -0.22048 0.0324372  0.445902 -0.894494
0.087102  -0.9545 0.137372  0.123221 -0.784178  0.608179
-0.450518  0.804314 -0.180556 -0.375607  0.601275 -0.705257
 0.43458 -0.82947 0.165754  0.377783 -0.608422  0.697928
-0.461346  0.237052 -0.095671  0.832617 -0.428572 -0.350821
-0.41008 0.571193 0.245595 0.0208139 -0.099258  0.994844
-0.445958  -0.24623  0.068368 0.855729 0.408819 0.317166
0.479009 0.779428 0.186634 0.341445 0.574662  0.74376
-0.929565  0.360771  0.030082 -0.918149  0.389251 0.0740656
-0.364976  -0.38555  0.121014 0.685282 0.519384 0.510518
-0.807492  -0.26595 -0.228492 -0.447529 -0.172971 -0.877382
-0.634992  0.557143   0.23097 -0.39345 0.296219 0.870317
-0.453676 -0.229918  0.065663 0.865861 0.387545 0.316375
 0.882079  0.460443 -0.047032  0.906615  0.379963 -0.183514
-0.009171  0.962176 -0.130953 0.0523088  0.829483 -0.556077
 0.594847 -0.270856  -0.23097  -0.28269  0.138987 -0.949088
 0.623986  0.756423 -0.096249  0.597595  0.686487 -0.414266
0.616507 0.559801 0.235237 0.342318 0.217696 0.914017
-0.669024 -0.683327  0.140395 -0.454195 -0.681578  0.573723
-0.352203 -0.362509  0.052491  0.79952 0.549699 0.242071
 0.114549 -0.660632   0.23697 0.0780219  0.269589   0.95981
-0.729676  -0.62662  0.130954 -0.551376 -0.634957  0.541123
-0.803032 -0.409703  0.198005 -0.582654 -0.386156  0.715121
-0.871552 -0.443503  0.100524 -0.748562 -0.448853  0.488044
 0.928437 -0.326782  0.083176   0.86427 -0.320571  0.387648
 0.018496   0.76743 -0.249099 -0.0180425   0.273036  -0.961835
0.057372 0.819753 0.239235 0.0557571  0.308303  0.949653
0.904731 0.415154 -0.03952  0.928223  0.345134 -0.138868
 0.119555 -0.696746  0.246141 0.103884 0.114094 0.988024
-0.542559  -0.27461 -0.206016  0.505519  0.180206 -0.843787
  0.93675 -0.337553 -0.037216  0.935661 -0.331445  -0.12117
 0.782011 -0.269502 -0.237261   0.392085 -0.0614872  -0.917872
 0.033197 -0.998135 -0.004759 0.0656888 -0.993842 0.0892405
 0.399738 -0.323053  0.081986 -0.723286  0.460688  0.514417
-0.306141  0.916244 -0.123681 -0.231412  0.839609 -0.491431
0.855087 0.450571 0.123994 0.840491 0.329784 0.429905
-0.947988  0.312504 -0.019228  -0.938092   0.336385 -0.0826327
-0.473541 -0.179496  0.057305 0.892203 0.334301 0.303672
  0.91968 -0.311387 -0.114651  0.884276 -0.252468  -0.39283
-0.073139 -0.721701 -0.248796  -0.0321599 -0.00287823   -0.999479
 0.180468 -0.907274  0.178343  0.243317 -0.597215  0.764285
-0.027509 -0.944896 -0.154559 -0.0240081  -0.844472  -0.535062
-0.499651  0.200488 -0.133056  0.770856 -0.322128 -0.549559
 0.380324 -0.851536  0.169344 0.393042 -0.57985 0.713647
0.162528 -0.90954 0.178698  0.194146 -0.608958  0.769076
 0.360813 -0.387947   0.11931 -0.719074  0.482579   0.50005
-0.484808 -0.141973  0.051089 0.916432 0.273041 0.292577
-0.431772  0.267858 -0.064177  0.794064 -0.575091 -0.196808
0.226591  -0.8975 0.176777  0.301646 -0.572683  0.762263
-0.072689 -0.697264 -0.245196 -0.0376466  0.0173424  -0.999141
-0.037957  0.501092 -0.036321  0.172732 -0.979064  -0.10769
-0.114734  0.621279  -0.22048  0.070934 -0.238219 -0.968618
 -0.93636   -0.3197 -0.067436 -0.923998 -0.319165 -0.210622
-0.787127  0.597743 -0.071542 -0.797412  0.550524 -0.247098
-0.951318  0.298425  -0.03361  -0.9347 0.333029 -0.12421
-0.262816  0.928596 -0.125676 -0.188699  0.840067 -0.508606
 0.841439 -0.488903  0.109886 0.743974 -0.36797 0.557765
-0.501524 -0.005667  0.028534   0.977039 -0.0438178   0.208505
-0.030464 -0.529602 -0.120484  0.127187  0.884162 -0.449534
 0.050951  0.960344 -0.130585 0.0907953  0.813024 -0.575107
-0.454692  0.859019  -0.11438 -0.431346  0.787489  -0.44023
 0.381629 -0.345569  0.085689 -0.770619  0.373385   0.51646
-0.824403  0.099904 -0.236169 -0.400288  0.114907 -0.909157
-0.991226 -0.097627  0.043208  -0.967074 -0.0775398   0.242395
  0.5559 0.152949 -0.18029 -0.563305   -0.3003 -0.769745
-0.029095  0.505032 -0.055392  0.151534 -0.972557 -0.176553
-0.131228  0.756233 -0.249105 0.0240027  0.193989  -0.98071
0.328407 0.792844 0.225059 0.163101 0.426762 0.889535
-0.358835 -0.379965   0.10437 0.716798 0.541273 0.439574
0.019363 0.814352 0.241056 0.0735806  0.291552  0.953721
 0.640252  0.105417 -0.228721 -0.252494 -0.118161 -0.960357
 0.411198  0.878406 -0.116647  0.336336  0.765157 -0.549011
 0.322183  0.911442 -0.122206 0.271033 0.795949  -0.5413
-0.072384  0.773367 -0.248437 -0.0225699   0.249316  -0.968159
-0.959122 -0.242807  0.067246 -0.932103 -0.195771  0.304725
 0.823132 -0.515434  0.114253  0.737629 -0.448684  0.504565
-0.022249 -0.519252 -0.098451  0.134365  0.931088 -0.339147
 0.556091 -0.763809   0.15503  0.364016 -0.693643  0.621572
 -0.0355  -0.5265 0.115152 0.0657665  0.794207  0.604078
0.400194 0.786868 0.211106 0.238446 0.487091  0.84017
-0.756573  -0.59858  0.126289 -0.600427 -0.599371  0.529379
 0.398364  0.303726 -0.026521  -0.635564  -0.766718 -0.0905665
 0.934746 -0.329975 -0.059676  0.935228 -0.293566 -0.197909
0.481682 0.574422     0.25 0.0797789 0.0844838  0.993226
 0.344306 -0.864982  0.171528  0.393297 -0.574929  0.717478
-0.093876  0.561564 -0.173162 0.0718447 -0.596968 -0.799042
0.542417 0.811785 -0.10549  0.421533  0.761003 -0.493138
-0.291645  0.436477  0.108179  0.423077 -0.776124  0.467587
0.457283 0.573686 0.249217 0.0497965 0.0233568  0.998486
-0.467669  0.175531 -0.001388  0.927047 -0.366403 0.0795822
 0.578945  0.787116 -0.101372  0.492969  0.739994 -0.457591
 -0.99587 -0.034581  0.032779 -0.979586  -0.02572  0.199375
-0.356933 -0.861714  0.170228 -0.352182 -0.609651  0.710136
  -0.4086  0.292919 -0.038557  0.774605 -0.617484  -0.13675
0.489318 -0.12158 0.048772 -0.911948  0.302464  0.277249
-0.024376  0.498893 -0.001834  0.0903467  -0.995408 -0.0316143
-0.283821  0.447869  0.119822  0.395198 -0.762194  0.512717
-0.374324  0.330637        -0  0.713571 -0.700435 0.0143895
0.634449 0.758449 0.072571 0.631493 0.730787 0.259166
 0.460865  0.194009 -0.003437  -0.81522 -0.578581 0.0257041
 0.352404  0.746943 -0.237687   0.16018   0.50302 -0.849301
-0.986248  0.157939  0.000959 -0.982501  0.184118 0.0281634
 0.246962  0.752957 -0.246038 0.0666064  0.390718 -0.918097
  0.48892  0.841144 -0.110403  0.379104  0.749648 -0.542502
-0.378801 -0.331034  -0.04058  0.858919  0.497512 -0.121413
0.661718 0.548939 0.224201 0.439361 0.248391 0.863287
0.872424 0.434188 0.107286 0.872678 0.319869 0.368941
-0.505594 -0.282645  -0.18262  0.621847  0.245987 -0.743503
 0.246685 -0.461516  0.104714 -0.363817  0.714206  0.597952
-0.316856  0.791161 -0.227652 -0.0950069   0.433867  -0.895954
-0.073834   0.82016    0.2388 0.0627488  0.345186  0.936434
0.283139 0.796314 0.230734  0.13537 0.395347 0.908502
-0.998151 -0.003605  0.027655 -0.985442 0.0046583  0.169949
  0.92147  0.381686 -0.033968   0.94167  0.318866 -0.107624
-0.423922  0.872431 -0.116564  -0.38088  0.815831 -0.435144
 0.935282  0.345708 -0.028004   0.950892   0.300317 -0.0749316
-0.441452  0.235961 -0.011351   0.870411  -0.489695 -0.0508248
  0.80754 -0.272945 -0.227355   0.482559 -0.0852338  -0.871706
-0.885802  0.133497 -0.201941 -0.660085  0.142552 -0.737541
-0.769125 -0.584079  0.123877 -0.622979 -0.581598  0.523106
-0.394995 -0.328907  0.082093 0.808358 0.473686  0.34954
-0.983292  0.177436 -0.002261 -0.979037  0.203399 0.0107521
  0.49324 -0.104173  0.045899 -0.921272  0.270929  0.279025
-0.666874 -0.426492  0.246169 -0.183783 -0.219961   0.95804
 0.994612 -0.047321  0.037042   0.978618 -0.0223688   0.204468
 0.370954  0.745986 -0.235156  0.173053  0.512716 -0.840937
-0.942255  0.331327        -0  -0.932832   0.359983 -0.0153742
 0.657969   0.09904 -0.235211   -0.17954 -0.0680948  -0.981391
 0.979072 -0.161722   0.05594   0.960943 -0.0750422   0.266378
 0.863476 -0.399106  0.146318  0.672346 -0.477526  0.565614
0.367096 0.339327 0.009794 -0.559163 -0.826152 0.0693499
0.042683 0.571126 0.176777 -0.00546268   -0.592454    0.805586
      -0 0.507959 0.061367 0.0206637 -0.959757   0.28007
-0.449662   0.21827 -0.008435    0.906756   -0.421561 -0.00891312
-0.987993 -0.116303  0.046299   -0.96234 -0.0923778   0.255671
-0.353825  0.355012  0.024916  0.647946 -0.751838  0.122089
 0.398752 -0.321744 -0.077591 -0.827359  0.478883  -0.29351
0.763375 0.510071 0.184638 0.665351 0.314749 0.676935
0.272956 0.491045 0.164602 -0.284052 -0.615645  0.735048
 0.474935 -0.175923  0.057742 -0.876203  0.377549  0.299542
  0.48921 -0.802292  0.161319  0.359536 -0.660606   0.65904
0.037147 0.557323 0.161246 -0.00124505   -0.675974    0.736924
-0.792975 -0.556525  0.119296 -0.668656  -0.53809  0.513184
-0.472946  0.225536 -0.107445  0.820298 -0.385766  -0.42225
 0.703301 -0.650776    0.1365  0.531147 -0.640107  0.555108
-0.628637 -0.262724 -0.240238  0.199896  0.079319 -0.976601
-0.062175  0.515384  -0.09678  0.112942 -0.861846 -0.494434
  0.38739  0.888691 -0.118373  0.322617   0.77389 -0.544988
0.643341 0.756219 0.055306 0.645255 0.741624 0.183411
 0.924745  0.171315 -0.161077  0.808699  0.147659 -0.569388
0.200944 0.755786 -0.24755 0.0533504  0.355558  -0.93313
-0.794753  0.493653   0.16594 -0.713275  0.411883  0.567091
 0.861993 -0.284661 -0.193253  0.682607 -0.169051 -0.710963
-0.273588  0.473135  0.145634  0.336426 -0.707239  0.621797
 0.912113 -0.306118 -0.130191  0.859279  -0.23857 -0.452465
-0.542485  0.164561 -0.169795  0.672462  -0.22677 -0.704536
-0.597331  0.127343 -0.207868  0.481408 -0.114166  -0.86903
0.484067 -0.14684 0.052943 -0.897036  0.339533  0.282921
-0.741554 -0.419904  0.227526 -0.409303 -0.305608  0.859695
-0.500919 -0.030226  0.032596  0.973499 0.0180187  0.227981
-0.061448  -0.60738  -0.20746 0.0374756  0.514129 -0.856894
 0.754155 -0.599966  0.128155  0.611565 -0.587039  0.530446
 0.262625 -0.451015  0.102995 -0.439908   0.68101  0.585411
 0.608128  0.739868 -0.139046  0.520807  0.654389 -0.548211
-0.199118  0.943112 -0.128008 -0.129872  0.830088 -0.542299
-0.384902 -0.850391  0.168325  -0.34628 -0.622259  0.702057
 0.024012 -0.997079 -0.028125   0.0531089   -0.998584 -0.00309974
-0.979291 -0.163392  0.054094 -0.954326 -0.128049  0.269936
-0.847656 -0.398305  0.164726 -0.664028  -0.40718  0.627113
-0.897221 -0.396987  0.092805 -0.814705 -0.389094  0.429955
 0.431328  0.869653 -0.115179  0.347119  0.759339 -0.550375
 0.370519  0.337223 -0.027213  -0.564513  -0.821298 -0.0824261
-0.070131 -0.782078 -0.247162 -0.0685698  -0.244151   -0.96731
-0.609239   0.76595  -0.09916  -0.6175 0.716292 -0.32499
 0.223884 -0.473305  0.106638 -0.268003  0.747023  0.608385
-0.527803  0.175508 -0.158598  0.710731 -0.267614 -0.650572
-0.034465 -0.930424 -0.170884 -0.0335732  -0.796853   -0.60324
-0.928709  0.362005 -0.032719  -0.922826   0.372065 -0.0998008
 0.438862 -0.416784  0.203932 -0.501664  0.215054  0.837905
-0.055588 -0.525007  0.114884 0.0786229  0.781537  0.618885
-0.50436 0.835119 0.104542 -0.504638  0.772849  0.384765
 0.766275 -0.422185   0.21598  0.499692 -0.341604  0.795999
0.744766 0.084451    -0.25   0.14596 0.0909652 -0.985099
 0.28292 0.519091 0.193252  -0.22623 -0.470198  0.853073
-0.405822   0.88032 -0.117849 -0.348875  0.831774 -0.431785
 0.459184 -0.217666  0.064626 -0.848112  0.414258  0.330298
-0.003057  -0.98082 -0.095671 0.0207434 -0.960177 -0.278622
 0.685815 -0.265048 -0.249308 0.0578249 0.0636568 -0.996295
-0.473972 -0.290871 -0.158598  0.708909   0.29527 -0.640519
-0.592393 -0.266637 -0.229065 0.329626 0.122272 -0.93616
 0.112861 -0.514772  0.113374 -0.0198545   0.809197   0.587202
 0.657813  0.745309 -0.048773 0.689676 0.688072 -0.22562
-0.906362  0.397484    0.0676 -0.898444  0.403439  0.173307
 0.524042  0.177862 -0.154888  -0.63995 -0.392847 -0.660405
-0.877338  0.468947 -0.050345 -0.893124  0.428142 -0.137928
-0.340295  0.833587  0.199196 -0.238154  0.579292  0.779554
-0.379839  0.834747  0.184632 -0.285375  0.630616  0.721724
 0.554594 -0.276608 -0.213412 -0.436805  0.189048 -0.879467
 -0.41866  0.282205 -0.049511  0.785887 -0.597968  -0.15753
-0.052302 -0.880348 -0.211449 -0.0594013  -0.615423  -0.785956
-0.932118   0.18541 -0.148989 -0.836504   0.21476 -0.504123
-0.119936  0.879745 -0.207867 0.0119081  0.510885 -0.859566
-0.936232  -0.34643  0.011877 -0.933962 -0.349662 0.0738293
 0.725471  0.666229 -0.081226  0.730942  0.598774 -0.327406
0.099583 -0.59833 0.204967 0.0487731  0.544828  0.837128
 -0.48248 -0.806672  0.160991 -0.320023 -0.692298  0.646768
 0.144587 -0.911805  0.179053  0.189893 -0.623448  0.758455
 0.403923 -0.407749  0.177546 -0.598727  0.311953  0.737707
-0.938852 -0.325466 -0.050297 -0.936128 -0.320064 -0.145683
-0.896121  0.431732 -0.044212 -0.907382  0.404697 -0.113486
-0.191893  0.826856  0.229052 -0.0850349   0.420543   0.903279
 -0.33173 -0.397978  0.093582 0.702057 0.591051 0.397209
-0.006961 -0.506808 -0.058137  0.128366  0.981633 -0.141133
 0.421409 -0.311657 -0.107797 -0.792166  0.452203 -0.409861
 0.674958  0.713744 -0.089137  0.671225  0.650399 -0.355581
-0.426949 -0.281089  0.074153 0.837835 0.433496 0.331834
 -0.95967  0.275658 -0.018476  -0.946854   0.312914 -0.0745102
 0.416546 -0.836804  0.166947  0.385414 -0.597141  0.703476
-0.154943   0.77895 -0.245873 0.0497931  0.264475 -0.963106
-0.367968  0.563458   0.23775 0.0926887 -0.205595  0.974238
-0.555579  -0.42662  0.245196   0.156784 -0.0352886   0.987002
 0.567773 -0.431865  0.247115  -0.111049 -0.0849782   0.990175
-0.16418  0.82539 0.232441 -0.0519315   0.408917   0.911093
0.099416 -0.92566  0.17173  0.143821 -0.672647  0.725852
0.576244 0.567141 0.242682 0.262961  0.18871 0.946171
-0.59326  0.77676 -0.10093   -0.6156  0.713978 -0.333576
  0.71759 -0.428131  0.234213  0.357258 -0.303734  0.883239
-0.446841   0.83598  0.152321 -0.392484  0.709941  0.584756
 0.774598  0.614203 -0.072571  0.789678  0.525598 -0.316474
-0.292005  0.409523 -0.039886  0.490555 -0.859274 -0.144929
-0.913985 -0.369735  0.080758 -0.851685 -0.373364  0.367739
-0.375344  0.331883 -0.027139   0.702149  -0.707885 -0.0767171
 0.772262 -0.579013   0.12471  0.641253 -0.560413  0.524149
-0.358754   0.83421  0.193252 -0.25868 0.602664 0.754904
0.260115 0.430891 -0.04282 -0.450678 -0.871867 -0.191671
0.832912 0.467664 0.141421  0.79718 0.319624 0.512196
-0.897153 -0.289138 -0.158598 -0.777075 -0.259814 -0.573281
-0.230752  0.828851  0.223664 -0.126181  0.460357  0.878721
-0.279635 -0.439443  0.100494 0.598726 0.630885 0.493469
-0.819257 -0.405992  0.187191 -0.615985 -0.404631  0.675896
 0.027918 -0.500884  0.031591  0.08458 0.962653 0.257187
-0.598044 -0.427835  0.249317 0.00728883  -0.120358   0.992704
-0.413783 -0.312324 -0.095671  0.833448  0.415799 -0.363971
 0.708048  0.683889 -0.084164  0.713163  0.617905 -0.331045
 0.597888 -0.736876  0.150622  0.391199 -0.697198  0.600731
 0.119564 -0.831352  0.232673  0.171664 -0.369691  0.913159
 0.671426 -0.431643  0.245196  0.216084 -0.253883  0.942789
-0.431779 -0.831413  0.165137 -0.334155 -0.662091  0.670803
0.418665 0.785287 0.207072 0.257059 0.503395 0.824933
-0.816902 -0.525875  0.114202 -0.710541 -0.479427  0.515054
 0.011322  0.962092 -0.130917 0.0618046  0.822635 -0.565201
-0.851106  0.509465 -0.057015 -0.866719  0.467562 -0.173738
 -0.12902  0.709199 -0.248177 0.0357222  0.126109 -0.991373
  0.24771 -0.892899  0.176039  0.325246 -0.568335  0.755785
 0.919306 -0.348503  0.086757  0.864197 -0.330983  0.378964
-0.433601  0.802315 -0.190004 -0.327997  0.588173 -0.739236
0.795855 0.491754 0.165974 0.727042 0.321344 0.606751
-0.994128 -0.058223   0.03669  -0.973676 -0.0425717   0.223924
-0.486057  0.575421  0.249819 -0.102331 0.0407876  0.993914
0.114897 0.761211 -0.24898 0.0348912  0.302248  -0.95259
-0.222829 -0.473575  0.106199 0.340804 0.721985 0.602154
  0.85952  0.497308 -0.053152  0.884152  0.407549 -0.228428
-0.739748   0.08648 -0.249771 -0.0851051  0.0677616  -0.994065
 0.079936 -0.966553  0.117849  0.100218 -0.837932  0.536494
 0.399887    0.7445 -0.231145 0.206787 0.548836 -0.80995
0.015485 0.521399 0.102288 -0.00298436   -0.881518     0.47214
-0.271091  0.485827  0.158598  0.287797 -0.676368  0.678011
 0.243015  0.933403 -0.125923  0.219414  0.799724 -0.558836
-0.070765  0.524172 -0.117849 0.0968895  -0.82614 -0.555072
-0.694387  0.539654  0.213037 -0.513835  0.360805  0.778327
-0.640186  0.106903 -0.228793   0.299887 -0.0496391  -0.952682
-0.343094  0.367237  0.037412 0.610766 -0.77254 0.173626
-0.487606 -0.420535  0.226313 0.360139 0.102082 0.927297
-0.762768  0.511567  0.184272 -0.649866  0.406143  0.642435
 0.793324  0.089097 -0.245196  0.309312 0.0847586 -0.947176
 0.739266  0.652246 -0.078899  0.745192  0.579634 -0.329717
 0.519541  0.740148 -0.195868  0.317158  0.653135 -0.687623
 0.079681 -0.521202  0.114402 0.0102444  0.822414  0.568797
  -0.8404  0.526002 -0.059738 -0.857372  0.480618 -0.184171
-0.610006 -0.264592  -0.23492  0.269744  0.120477 -0.955366
-0.298069  0.789601 -0.231253 -0.0719902   0.401886  -0.912855
 0.650939 -0.432419  0.247747  0.164464 -0.203546  0.965153
-0.011203  0.816291   0.24067 0.109992 0.305446 0.945836
-0.569723 -0.756012   0.15252 -0.341228 -0.713091  0.612425
-0.060062  0.993027 -0.043504 0.00835586   0.970073  -0.242672
 0.459464  0.238684 -0.092861 -0.695558 -0.610539 -0.378737
  0.70812 -0.265021  -0.24966 0.133061 0.042422  -0.9902
-0.043229  0.997876        -0 0.0115951  0.997408 -0.071017
-0.182613  -0.49209  0.109304 0.188695 0.745699 0.639005
-0.982888 -0.144481  0.050963 -0.958885 -0.115157  0.259379
0.285317 0.446462 0.119091 -0.374686 -0.754202  0.539249
 0.023588 -0.527168  0.115327 0.0449942  0.819774  0.570917
-0.470954 -0.418334   0.21958 0.400041 0.158176 0.902745
0.859494 0.113221 -0.22048  0.560863 0.0847839 -0.823556
-0.616351  0.561046  0.234979 -0.356522  0.261979  0.896805
-0.807848  0.094776 -0.241384 -0.333985  0.110209 -0.936113
 0.071684 -0.977448  0.095671 0.0948567 -0.882122  0.461371
 0.689019  0.701948 -0.087171  0.689494  0.635613 -0.347267
 0.538579  -0.27942 -0.204873 -0.487703  0.204898 -0.848624
 0.483998  0.741103 -0.209867 0.283318 0.644364  -0.7103
 0.438233 -0.260753  0.071728 -0.817138  0.445291  0.366063
 0.871589 -0.441672   0.10211  0.715121 -0.430233   0.55091
 0.174482  0.473377 -0.049938 -0.310005  -0.91484 -0.258776
-0.414287 -0.406387  0.183443 0.540947 0.328418 0.774286
-0.088628  0.965265 -0.119286 -0.0141245   0.856251  -0.516368
0.579842 0.767508 0.130264 0.521553 0.686214 0.507044
  -0.9212  0.381573 -0.035946  -0.918924   0.383708 -0.0913603
-0.620501 -0.427904  0.249794 -0.0400423  -0.163519   0.985727
-0.050613  0.960299 -0.130688 0.0144892  0.829556 -0.558236
-0.949697  -0.27495  0.072571 -0.919096 -0.214566  0.330489
   0.9535  0.289241 -0.040623  0.962915  0.230036 -0.140986
-0.128883 -0.914052  0.179128 -0.154015 -0.620363  0.769045
-0.779703  0.502615   0.17511 -0.680824  0.424061  0.597203
-0.859184  0.115309  -0.22048 -0.542257  0.141187 -0.828265
-0.409359   0.79976 -0.200311 -0.270294  0.535526 -0.800096
-0.762315  0.628076  -0.07653  -0.77328  0.574713 -0.267849
0.131041 -0.50983 0.112577 -0.0289916   0.781867   0.622771
 0.660539  0.748209 -0.016663  0.698001  0.707772 -0.108878
-0.536624  0.833188  0.062638 -0.57356 0.793254 0.204396
-0.442237  0.256629 -0.075657   0.81349 -0.524003 -0.252299
-0.552468  0.831046  0.029606 -0.601916   0.79638 0.0589544
 0.009998     0.506 -0.055509 -0.00771065   -0.982982   -0.183542
 0.823779  -0.27567 -0.219465  0.542733 -0.122347 -0.830946
-0.309496  0.396147 -0.037693  0.534509 -0.835655 -0.126418
 0.844123  0.105675 -0.228204  0.501241 0.0842286 -0.861199
 0.276516  0.420768 -0.041129 -0.473927 -0.861731 -0.181145
-0.391353 -0.398991  0.161219 0.595809 0.410898 0.690054
  0.93092 -0.358811  0.025933  0.911212 -0.382123  0.153866
 0.947515  0.220778 -0.110541  0.909227  0.175981 -0.377275
0.534899 0.773371 0.161139 0.437315 0.637212   0.6346
-0.971873  -0.19932  0.060043 -0.942733 -0.160188  0.292563
-0.281464  0.831212  0.214094 -0.174931  0.512329  0.840784
-0.99725 0.034642 0.021332 -0.989688 0.0437901  0.136381
 0.613093  0.117998 -0.215909 -0.356432 -0.161391 -0.920277
-0.303901  0.538847  0.212698  0.181815 -0.407722  0.894822
 0.631829 -0.267469  -0.24147 -0.145772   0.10111 -0.984138
-0.579176  0.567888  0.242011 -0.288385  0.209888  0.934228
-0.994654  0.097965  0.010866 -0.990374  0.115044 0.0769669
0.032322 0.916238 0.184889 0.0897134  0.663444  0.742828
-0.053391  -0.57855 -0.183982 0.0675036  0.653004 -0.754341
 0.516228  0.826157 -0.107895 0.392234  0.75763 -0.52168
-0.494899  0.072392  0.015636  0.968192 -0.208295  0.138629
-0.534306 -0.425191  0.240698   0.219934 0.00207852   0.975513
 0.288649  0.750489 -0.243679 0.0921721  0.429457 -0.898371
  0.03208  0.961176 -0.130743 0.0760189  0.817682 -0.570629
 0.359315 -0.347292 -0.001303 -0.869548   0.49284 -0.031544
  0.5058 0.573641 0.249232  0.12861 0.120078 0.984399
-0.719585   0.08741 -0.248796 -0.0312896 0.00600811  -0.999492
 -0.16508 -0.498941  0.110456 0.143471 0.750313 0.645326
-0.014153 -0.511655 -0.077001  0.133205  0.963551 -0.232003
-0.278634  0.513725  0.187077  0.232522 -0.558373  0.796337
-0.110243 -0.515357  0.113229 0.0893428   0.75835  0.645696
0.651659 0.753705 0.034678  0.666225  0.739563 0.0958682
-0.096572  0.821493  0.237376 0.0395285  0.362303  0.931222
0.937446 0.342732 0.013979   0.96288  0.267223 0.0381232
-0.108998  0.600882 -0.207868 0.0630673 -0.355878 -0.932402
0.560751 0.739568 -0.17412  0.397059  0.649379 -0.648576
 0.452127  0.860609 -0.113661  0.360066  0.755215 -0.547725
-0.642272 -0.704109   0.14386 -0.415619 -0.696993  0.584347
0.896725 0.408139 0.080718 0.912342 0.305523 0.272559
-0.032606  0.996818  0.027041 0.0156831  0.998902 0.0441502
-0.220878 -0.899132  0.176562 -0.282281 -0.593737  0.753521
-0.662683  0.099011  -0.23688    0.20943 -0.0237571  -0.977535
0.438192 0.572783 0.248272      0.0191 0.000792682    0.999817
 0.00879   0.5146 0.084497 0.0158766 -0.923312  0.383722
 0.764017 -0.267747 -0.242251   0.337652 -0.0127686  -0.941184
0.682444  0.54259 0.217743 0.485769 0.256796 0.835515
-0.041766 -0.549314 -0.151342  0.102593  0.793929 -0.599293
 0.458323 -0.420545  0.214855 -0.443985  0.169379   0.87988
-0.326211  0.388215  0.058854  0.545736 -0.794285  0.266991
 -0.78904  0.090432 -0.245796  -0.25658  0.127654 -0.958056
0.518073 0.775352 0.170454 0.408686 0.617287  0.67226
-0.973827   0.22096 -0.009447  -0.966043   0.257568 -0.0204973
-0.071111 -0.671674 -0.238599 0.0217157  0.212766 -0.976862
 0.029993  0.504969 -0.055317 -0.0494416  -0.972432  -0.227884
 0.461553  0.741931 -0.216365  0.269162  0.621132 -0.736035
 -0.55139  0.821183 -0.072571  -0.60704   0.75159 -0.258097
 0.661135 -0.688226  0.142647 0.468594  -0.6733 0.571915
-0.493277  0.838214 -0.110982 -0.484867   0.75308 -0.444718
-0.498241  0.051043  0.019162  0.976223 -0.160417   0.14579
0.990183 0.129107 0.007867 0.989704 0.121729 0.075291
-0.504939  0.574854  0.249216 -0.138529 0.0930171   0.98598
-0.685992 -0.425306   0.24288 -0.237887 -0.247436  0.939247
-0.824341  0.550807 -0.063822 -0.838737   0.49926 -0.217394
 0.228742  0.754062 -0.246795 0.0600141  0.374927  -0.92511
 0.993188 -0.066657  0.040238    0.97649 -0.0285432   0.213667
0.996461 0.051314 0.020736 0.988483  0.04735 0.143737
 -0.32448  0.910295 -0.122717 -0.250029  0.836033 -0.488399
 0.350359 -0.361163  0.039964 -0.87112 0.395775 0.290708
-0.774761  0.613087 -0.074065 -0.787134  0.567262 -0.242146
 0.694812  0.089216 -0.245196 -0.0223478 0.00499376  -0.999738
 0.891349 -0.295183 -0.162384  0.789062  -0.20306 -0.579782
-0.676709 -0.259643 -0.248796   0.0177499 0.000150169   -0.999842
 0.178993  0.757148 -0.248146 0.0514957   0.33594 -0.940475
 0.059484 -0.988617  0.063372  0.090065 -0.933449  0.347218
-0.94031 0.203105 -0.13093 -0.869176  0.235549 -0.434798
 0.626097  0.740738 -0.117849  0.574255  0.667146 -0.474497
 0.013106  -0.99285 -0.055572 0.0410198 -0.992667  -0.11371
-0.805478 -0.541901  0.116865 -0.688462 -0.504458  0.521097
 -0.05142  0.771978 -0.248796 -0.0461681   0.273012  -0.960902
 0.122777 -0.788328  0.245196  0.159959 -0.240871  0.957285
-0.342283  0.556788   0.23097  0.121725 -0.277822  0.952889
 0.354225 -0.354225  0.019329 -0.881623   0.46494 0.0810624
-0.031344  0.499422 -0.019588   0.140478  -0.986765 -0.0810014
-0.130411 -0.509852  0.112297 0.101212 0.757398 0.645062
-0.411029 -0.839814  0.166548 -0.337721 -0.636052  0.693817
-0.695683  0.695683 -0.087636 -0.700463  0.643178 -0.309313
-0.513491  0.827098 -0.109167 -0.508812  0.750713 -0.421356
0.383452  0.32241 -0.02475  -0.668285  -0.741826 -0.0555762
 -0.72267 -0.259359  -0.24908  -0.148859 -0.0360609  -0.988201
-0.926459 -0.333298  0.082243 -0.858425 -0.334881  0.388537
0.501292  0.00722  0.02749  -0.974662 -0.0261594   0.222149
-0.49948 0.032772 0.022181  0.976534 -0.125315   0.17515
-0.173028 -0.908567  0.178173 -0.221496 -0.608588  0.761945
-0.843865   0.10775 -0.228181 -0.480948   0.11061 -0.869744
 0.790753 -0.557616  0.121193   0.67324 -0.536542  0.508793
-0.070512 -0.919631  0.180114 -0.0732649  -0.638462   0.766158
0.061161 0.790458 0.245984 0.0424975  0.236387  0.970729
-0.100242  0.576374 -0.187948 0.0702217 -0.509405 -0.857657
-0.140153  0.824005  0.234195 -0.0267793   0.392081   0.919541
 0.963939 -0.224538   0.06631  0.939952 -0.105022  0.324747
-0.769061   0.08747 -0.248796 -0.188704  0.123984 -0.974176
-0.091873 -0.519143  0.113875 0.0803201   0.76711  0.636468
 0.914515  0.158318 -0.174362  0.769422  0.136003 -0.624093
-0.848677 -0.273587 -0.205332 -0.600278   -0.2097 -0.771811
-0.940997  0.329986 -0.027438   -0.93373   0.344572 -0.0970457
-0.248138  -0.89324  0.175558 -0.307575  -0.59253  0.744517
0.499962  0.02527 0.024504  -0.975221 -0.0947141   0.199935
0.467773 0.175083  -0.0003 -0.845209 -0.531133 0.0593285
0.307659 0.794435  0.22766 0.154157 0.408494 0.899649
  0.43348 -0.307071 -0.121549 -0.781115  0.400301 -0.479185
-0.036172 -0.538606 -0.135973  0.122458  0.841388 -0.526375
-0.661922  0.724039 -0.092288 -0.664245  0.675175 -0.320807
 0.823797 -0.410831  0.181589  0.676643 -0.441188  0.589498
-0.127222  0.835023  -0.23097 0.0503595   0.38194 -0.922814
 0.484078 -0.424522  0.226343 -0.367763 0.0976505  0.924778
-0.431284 -0.410814  0.196784 0.502068  0.27178 0.821014
 0.33932  0.55424 0.229214 -0.131521 -0.207771  0.969295
0.997863 0.009492 0.027652  0.985519 0.0132572  0.169048
 0.835148   0.53493 -0.059398  0.856109  0.438133 -0.274075
-0.130584  0.792844 -0.243789 0.0116249   0.27183 -0.962275
0.461922 0.781166 0.193252 0.319112  0.55125 0.770903
0.636392 0.555598  0.23097  0.38109 0.233372 0.894599
 0.200799  0.942973 -0.127551  0.195445  0.795594 -0.573438
 0.218881  0.453877 -0.046665 -0.395493 -0.889817 -0.227621
-0.787141 -0.263414 -0.236266 -0.382302 -0.130515 -0.914774
