-0.152945 -0.813124 0.237378 -0.0063808376 -0.73850112 0.67422205
-0.255387 -0.447786 0.0871892 -0.33102945 -0.5997712 0.72848748
-0.270748 0.42036 0.00711631 -0.058588151 -0.068382578 0.99593737
-0.464248 -0.883138 0.0295921 -0.27429379 -0.85625478 0.43771071
0.534273 0.645807 -0.233601 -0.5161322 -0.76403648 0.38711214
-0.600283 -0.103088 0.206784 0.14512227 -0.0026807049 -0.9894101
0.635311 -0.443989 -0.248618 0.31324157 -0.067224737 -0.94729117
0.874768 0.478155 0.0343471 0.88792496 0.45979295 -0.013405804
-0.0203024 -0.812189 -0.241586 -0.17729177 -0.88834716 -0.42356457
0.711551 0.284684 0.249175 -0.40041967 -0.01776692 -0.91615961
-0.925116 0.342081 0.0775029 0.052920606 0.35461239 -0.93351458
-0.812014 0.170478 -0.236541 -0.095012316 0.13224995 -0.98665222
-0.662652 0.272458 0.247472 0.057730322 0.15645674 -0.9859962
0.751976 -0.63498 0.0849935 0.68378391 -0.62791681 0.37169886
0.989059 0.0983004 0.0536481 -0.98016856 -0.092643828 -0.17517622
-0.708243 -0.675748 -0.0982322 -0.027701559 -0.27985066 0.9596438
0.51961 0.845233 0.0563046 0.1883592 0.13254816 0.97311448
0.365487 -0.599877 -0.2455 -0.55523486 0.8047243 -0.21007867
-0.784092 0.61835 0.0133768 0.7882365 -0.53180147 -0.3096295
0.449054 -0.220041 0.0126803 0.28059099 0.088523012 -0.95573656
-0.438277 -0.652932 0.247021 -0.2738244 -0.26247688 0.92527082
-0.445856 -0.246051 -0.0676526 0.030343344 -0.15947816 -0.98673502
0.223679 0.606567 -0.227619 0.32639706 -0.10364749 0.93953295
-0.618374 0.427775 -0.249881 -0.074899599 -0.049306838 0.99597133
0.33247 0.522781 0.213242 -0.29456902 -0.064866639 -0.95342614
0.0927198 -0.518024 -0.111795 -0.10173482 0.0018976637 0.99480974
-0.999023 0.0124489 0.00743087 0.51422834 0.1625672 -0.84210517
0.227023 0.950237 0.10174 -0.0079728134 -0.47940533 0.87755739
0.820299 0.225896 -0.228151 0.29868241 -0.18045305 -0.93713687
-0.131969 0.964774 0.108568 -0.12751374 -0.4067382 0.90460173
-0.465599 0.718528 -0.225754 0.26968339 -0.60859642 0.74624477
0.460194 0.286623 -0.139697 -0.42749818 -0.48506094 -0.76286381
0.0355582 0.728401 0.249025 0.018270328 0.049721441 0.998596
-0.0046456 -0.999148 0.0126894 0.14919142 -0.57116524 0.80716305
0.637003 -0.393158 0.249971 0.22098723 -0.16092736 0.96190801
-0.100987 0.859039 -0.221543 0.17843616 -0.54458947 0.81950158
0.831422 -0.0862866 -0.234397 0.96345021 -0.031856891 0.26598654
0.105606 -0.597217 0.204807 0.22743815 0.019339149 0.97360047
-0.510068 0.644839 0.239161 -0.32771117 0.1656023 0.93015121
0.0500732 0.498423 0.0199338 0.03946741 0.11578187 0.99249024
0.390286 -0.919973 -0.00572716 0.37201811 -0.92166127 0.11019543
-0.859623 -0.474853 0.091031 -0.048994828 -0.09598994 -0.99417576
0.954717 -0.280953 0.0462485 0.96560677 -0.23601361 0.10909231
-0.43916 -0.60326 -0.249855 0.067557373 0.13067144 0.98912131
-0.451125 0.887029 0.0437271 -0.5733285 0.81931344 -0.0044627918
0.591402 6.10348e-11 0.193252 0.64139004 -0.19191545 -0.74282386
0.783475 -0.0814389 0.24681 0.24432143 -0.12327833 0.96182612
0.472568 -0.722052 0.222626 -0.20016869 -0.047926419 0.97858855
-0.502545 0.159082 -0.113361 -0.060254881 -0.20869805 -0.97612216
-0.892161 -0.275734 -0.168778 -0.47133615 -0.0093665273 -0.88190391
