ply
format ascii 1.0
element vertex 615
property float x
property float y
property float z
property float nx
property float ny
property float nz
end_header
-0.006369 0.460308 -0.316504 0.148034 -0.939274 0.309598 
-0.011684 0.451671 -0.335961 0.284945 -0.669169 0.686308 
-0.015161 0.440969 -0.346939 0.364154 -0.321945 0.873924 
-0.017675 0.429936 -0.350241 0.418484 0.0067276 0.908199 
-0.018141 0.416283 -0.348157 0.418763 0.392083 0.81909 
-0.015642 0.408034 -0.33412 0.388334 0.682649 0.619022 
-0.008427 0.390989 -0.277514 0.169998 0.982533 0.0756874 
-0.006203 0.400591 -0.28521 0.174647 0.982485 0.0649755 
-0.005222 0.396669 -0.254697 0.158919 0.978616 0.130598 
-0.010291 0.376127 -0.215511 0.255489 0.910866 0.324113 
-0.011227 0.337512 -0.168687 0.245949 0.629591 0.73697 
-0.011665 0.310449 -0.144801 0.242492 0.490106 0.837254 
-0.008997 0.271806 -0.124082 0.181795 0.337343 0.923661 
-0.006997 0.239901 -0.111792 0.139243 0.185788 0.972674 
-0.001121 0.186244 -0.10649 0.0306543 0.00981861 0.999482 
0.001918 0.156172 -0.110922 -0.0126772 -0.0582732 0.99822 
-0.007589 0.175128 -0.105222 0.116024 -0.0157447 0.993122 
-0.012045 0.089447 -0.124294 0.141369 -0.166309 0.975887 
-0.013327 0.049782 -0.128561 0.160547 -0.0971802 0.982233 
-0.012768 0.014372 -0.127924 0.15967 0.0884314 0.983202 
-0.013775 -0.033009 -0.117618 0.189921 0.403757 0.894936 
-0.011641 -0.069535 -0.099101 0.164386 0.665664 0.72792 
-0.010936 -0.093902 -0.079221 0.144765 0.818165 0.556461 
-0.013661 -0.106611 -0.055806 0.177824 0.816948 0.548611 
-0.013846 -0.125082 -0.006093 0.341503 0.160933 0.926 
-0.002089 -0.090016 0.087647 0.0564221 -0.201298 -0.977904 
-0.005629 -0.127047 0.093337 0.153744 -0.512465 -0.844833 
-0.005343 -0.145709 0.101157 0.132285 -0.675951 -0.724976 
-0.005112 -0.159887 0.111408 0.0992158 -0.792908 -0.60121 
-0.004232 -0.17134 0.125062 0.0606098 -0.881429 -0.468412 
-0.004435 -0.183178 0.147728 0.0272776 -0.957049 -0.288641 
-0.001154 -0.192069 0.186581 0.00131835 -0.997903 -0.0647095 
-0.003869 -0.257947 0.186656 -0.0203576 0.99065 0.134897 
-0.00475 -0.255763 0.228482 0.0265104 0.969085 -0.245299 
-0.005699 -0.257184 0.269102 0.0404638 0.50555 -0.861848 
-0.00238 0.459818 -0.313753 0.069753 -0.958572 0.276179 
-0.002946 0.458471 -0.286827 0.0859878 -0.993534 -0.0741314 
0.001273 0.442004 -0.21091 -0.00721322 -0.932393 -0.361374 
-0.003784 0.419747 -0.148294 0.13396 -0.898092 -0.41891 
-0.009062 0.402964 -0.113956 0.257489 -0.846869 -0.465308 
-0.014171 0.373372 -0.068307 0.306753 -0.701406 -0.643375 
-0.014685 0.359604 -0.055494 0.32271 -0.659116 -0.679282 
-0.011671 0.342699 -0.051523 0.324904 -0.675841 -0.661571 
-0.004063 0.346903 -0.041726 0.132626 -0.719445 -0.681769 
-0.008523 0.336921 -0.024201 0.194975 -0.754793 -0.626317 
-0.009742 0.320786 -0.000888 0.176454 -0.797654 -0.576726 
-0.011092 0.279083 0.038738 0.137729 -0.712125 -0.688411 
-0.01131 0.242817 0.061491 0.119358 -0.444159 -0.887962 
-0.008809 0.201259 0.078675 0.0979651 -0.156445 -0.982816 
-0.006099 0.16419 0.085946 0.0745743 -0.0227279 -0.996956 
-0.002644 0.138857 0.086661 0.0371749 0.0173177 -0.999159 
0.005704 0.049803 0.071112 -0.0614089 0.0778224 -0.995074 
0.00429 -0.015733 0.06273 -0.0508857 0.0337947 -0.998133 
0.003627 -0.041292 0.065832 -0.0522803 -0.0338609 -0.998058 
-0.004349 -0.081422 0.085888 0.0941584 -0.168743 -0.981152 
-0.000101 -0.260332 0.180117 0.0218183 0.99444 0.103021 
-0.004447 -0.254593 0.116614 0.00572957 0.999758 -0.0212269 
-0.003023 -0.249512 0.017945 0.00832867 0.997186 0.0745096 
-0.005149 -0.251082 -0.027258 -0.0205141 0.997072 -0.0736646 
-0.007753 -0.260519 -0.09259 -0.0135008 0.758736 0.651259 
-0.006969 -0.182109 -0.081326 0.0125316 -0.888466 0.458772 
-0.002215 -0.177171 -0.041016 0.0193627 -0.930642 0.365419 
-0.000857 -0.160393 -0.009595 0.047851 -0.633681 0.772113 
7.9e-05 -0.147295 -0.003159 0.0468709 -0.367152 0.928979 
-0.000311 -0.135919 -0.004036 0.0483824 -0.098672 0.993943 
-0.00083 -0.124319 -0.012211 0.0580519 0.260989 0.963595 
-0.004161 -0.116521 -0.027279 0.0877865 0.571406 0.815959 
-0.00227 -0.176272 -0.078526 0.0263887 -0.915904 0.400529 
-0.0061 -0.18811 -0.103103 0.0228959 -0.671523 0.74063 
-0.006735 -0.208333 -0.112346 0.0216492 -0.236624 0.97136 
-0.006508 -0.232464 -0.108983 0.0133639 0.282307 0.959231 
-0.001384 -0.261109 -0.092057 -0.00255901 0.770066 0.637959 
-0.005896 0.077472 -0.116419 0.0721271 -0.167621 0.98321 
-0.037508 0.074068 -0.10312 0.505161 -0.135304 0.852353 
-0.062066 0.073954 -0.076552 0.745675 -0.0842605 0.66096 
-0.080239 0.076565 -0.038293 0.926505 -0.0824859 0.367129 
-0.083591 0.080896 0.005729 0.950569 -0.131408 -0.281338 
-0.078586 0.083414 0.028302 0.827989 -0.0928674 -0.553 
-0.06647 0.084519 0.044746 0.686972 -0.0505444 -0.724924 
-0.037459 0.081915 0.064248 0.435599 0.0118314 -0.900063 
0.015481 0.070674 0.092899 -0.163061 0.0649931 -0.984473 
0.007675 0.077472 -0.116419 -0.118999 -0.161353 0.979696 
0.039286 0.074068 -0.10312 -0.509492 -0.111499 0.853221 
0.063845 0.073954 -0.076552 -0.736106 -0.0634124 0.67389 
0.082017 0.076565 -0.038293 -0.92249 -0.07423 0.378817 
0.08537 0.080896 0.005729 -0.950488 -0.132131 -0.281271 
0.080364 0.083414 0.028302 -0.826398 -0.0942795 -0.555138 
0.068249 0.084519 0.044746 -0.683904 -0.0515509 -0.727749 
0.039238 0.081915 0.064248 -0.433939 0.0123282 -0.900858 
-0.013703 0.070674 0.092899 0.154868 0.0623138 -0.985968 
-0.011866 -0.198561 -0.113587 0.0285031 -0.415224 0.909273 
-0.052293 -0.210279 -0.115514 0.205144 -0.173802 0.963176 
-0.067571 -0.216455 -0.11175 0.326616 -0.0944407 0.940427 
-0.08863 -0.222975 -0.096381 0.582163 -0.093159 0.807717 
-0.105257 -0.226471 -0.072732 0.895851 -0.0760634 0.437796 
-0.112116 -0.226685 -0.051094 0.990231 -0.0805094 0.113847 
-0.114665 -0.227672 -0.017895 0.986011 -0.050882 -0.158725 
-0.104144 -0.233137 0.086924 0.990789 0.134915 -0.0115894 
0.013645 -0.198561 -0.113587 -0.00739101 -0.40659 0.913581 
0.054072 -0.210279 -0.115514 -0.209788 -0.156709 0.965107 
0.06935 -0.216455 -0.11175 -0.333306 -0.0814028 0.939298 
0.090409 -0.222975 -0.096381 -0.586498 -0.0850076 0.805477 
0.107036 -0.226471 -0.072732 -0.896275 -0.0718393 0.437642 
0.113894 -0.226685 -0.051094 -0.990313 -0.0779726 0.114892 
0.116444 -0.227672 -0.017895 -0.986155 -0.0503951 -0.157986 
0.105922 -0.233137 0.086924 -0.991355 0.130742 -0.0110096 
-0.103405 -0.2127 0.078479 0.938128 -0.346215 -0.00710672 
-0.116732 -0.202243 0.173762 0.916136 -0.39495 0.0686207 
-0.112327 -0.20028 0.198641 0.883005 -0.458676 -0.0995896 
-0.100475 -0.199276 0.223898 0.732022 -0.53543 -0.421257 
-0.08694 -0.200976 0.237925 0.582167 -0.549204 -0.599547 
-0.066402 -0.207582 0.249802 0.462179 -0.521292 -0.717388 
-0.024592 -0.225813 0.26309 0.176809 -0.313048 -0.933134 
0.001843 -0.239792 0.267823 -0.00229509 0.0353447 -0.999373 
0.105183 -0.2127 0.078479 -0.938382 -0.345534 -0.00675538 
0.11851 -0.202243 0.173762 -0.916348 -0.395321 0.0634568 
0.114106 -0.20028 0.198641 -0.88165 -0.459953 -0.105533 
0.102253 -0.199276 0.223898 -0.728479 -0.538583 -0.423374 
0.088719 -0.200976 0.237925 -0.576933 -0.555575 -0.598736 
0.06818 -0.207582 0.249802 -0.454669 -0.533964 -0.712853 
0.026371 -0.225813 0.26309 -0.178279 -0.335649 -0.924963 
-6.4e-05 -0.239792 0.267823 0.00643147 0.0370205 -0.999294 
-0.004972 -0.185599 0.17691 -0.00799399 -0.993258 -0.115652 
-0.039122 -0.176569 0.175807 0.0708646 -0.99357 -0.0882961 
-0.072862 -0.18056 0.175967 0.429838 -0.90286 -0.00913261 
-0.084574 -0.193809 0.174852 0.659054 -0.750782 0.0444429 
-0.092813 -0.223231 0.176102 0.985619 -0.157113 0.0622203 
0.006751 -0.185599 0.17691 0.0306022 -0.992653 -0.117061 
0.0409 -0.176569 0.175807 -0.0778818 -0.991089 -0.108062 
0.074641 -0.18056 0.175967 -0.438805 -0.898288 -0.0230096 
0.086352 -0.193809 0.174852 -0.664159 -0.746804 0.0342928 
0.094592 -0.223231 0.176102 -0.985148 -0.162477 0.05554 
-0.003557 -0.163924 -0.034848 0.0293817 -0.875281 0.482722 
-0.032706 -0.154327 -0.032733 0.115849 -0.873493 0.472852 
-0.059023 -0.158723 -0.031164 0.322946 -0.917594 0.231791 
-0.070945 -0.169482 -0.030435 0.494673 -0.86339 0.0992787 
-0.100004 -0.21539 -0.024976 0.948074 -0.292951 -0.123832 
0.005336 -0.163924 -0.034848 0.0399546 -0.87451 0.483358 
0.034485 -0.154327 -0.032733 -0.11136 -0.880537 0.46071 
0.060801 -0.158723 -0.031164 -0.348023 -0.912378 0.215512 
0.072724 -0.169482 -0.030435 -0.514749 -0.85287 0.0874401 
0.101782 -0.21539 -0.024976 -0.949598 -0.287964 -0.123858 
-0.066535 -0.206816 -0.10389 0.358362 -0.30222 0.883312 
-0.06828 -0.180747 -0.090513 0.342104 -0.72943 0.592365 
-0.068169 -0.16636 -0.076298 0.297977 -0.876528 0.378031 
-0.068207 -0.15451 -0.040698 0.368066 -0.908453 0.19809 
-0.070507 -0.152723 -0.016688 0.573104 -0.807089 0.141982 
-0.074131 -0.159097 0.04118 0.846675 -0.523186 -0.0970455 
-0.073604 -0.167673 0.093987 0.705127 -0.693566 -0.14752 
-0.07059 -0.176086 0.14327 0.504037 -0.863645 0.00800091 
-0.061387 -0.188853 0.197967 0.306846 -0.935959 -0.172701 
-0.059735 -0.198337 0.218997 0.364949 -0.831822 -0.418191 
-0.062136 -0.208048 0.23324 0.459185 -0.628332 -0.627972 
-0.065557 -0.219523 0.241049 0.539612 -0.400523 -0.740541 
-0.07489 -0.230494 0.239049 0.671002 -0.177434 -0.719912 
0.068314 -0.206816 -0.10389 -0.368144 -0.282699 0.885749 
0.070058 -0.180747 -0.090513 -0.367209 -0.70972 0.601211 
0.069948 -0.16636 -0.076298 -0.332852 -0.862736 0.380654 
0.069985 -0.15451 -0.040698 -0.39254 -0.901845 0.180521 
0.072286 -0.152723 -0.016688 -0.585441 -0.80003 0.131186 
0.07591 -0.159097 0.04118 -0.847368 -0.520875 -0.103227 
0.075383 -0.167673 0.093987 -0.712241 -0.687909 -0.13962 
0.072369 -0.176086 0.14327 -0.517998 -0.855372 0.00422554 
0.063166 -0.188853 0.197967 -0.311055 -0.931217 -0.189947 
0.061514 -0.198337 0.218997 -0.360886 -0.828861 -0.427495 
0.063915 -0.208048 0.23324 -0.450509 -0.635837 -0.626701 
0.067335 -0.219523 0.241049 -0.531285 -0.424265 -0.733304 
0.076668 -0.230494 0.239049 -0.669959 -0.210076 -0.712056 
-0.002928 -0.183917 0.180342 -0.00234577 -0.994682 -0.102963 
0.000453 -0.191345 0.211497 -0.00657413 -0.984951 -0.172709 
0.001262 -0.204717 0.240165 -0.0178607 -0.816822 -0.576613 
0.00168 -0.22998 0.26344 -0.0109948 -0.219637 -0.97552 
-0.001067 -0.249659 0.274772 0.0187212 0.252203 -0.967493 
-0.003856 -0.25789 0.277108 0.0324629 0.429744 -0.902367 
-0.008987 -0.113929 -0.022953 0.193232 0.581305 0.790408 
-0.026619 -0.107433 -0.019454 0.499505 0.585324 0.638663 
-0.044272 -0.099153 -0.00636 0.790151 0.472281 0.390656 
-0.056539 -0.091447 0.00975 0.922053 0.373741 0.100678 
-0.05953 -0.08579 0.025856 0.941907 0.294375 -0.161727 
-0.058388 -0.082757 0.035816 0.916769 0.242806 -0.317143 
-0.054602 -0.081027 0.045567 0.8711 0.182146 -0.456079 
-0.039868 -0.079584 0.064586 0.70374 0.0345398 -0.709618 
-0.025596 -0.081296 0.075007 0.502519 -0.076343 -0.861189 
-0.001709 -0.087784 0.085861 0.0489414 -0.19059 -0.980449 
0.010766 -0.113929 -0.022953 -0.18713 0.547788 0.815421 
0.028397 -0.107433 -0.019454 -0.520302 0.524285 0.6741 
0.046051 -0.099153 -0.00636 -0.800264 0.429934 0.418014 
0.058317 -0.091447 0.00975 -0.928257 0.351478 0.121665 
0.061309 -0.08579 0.025856 -0.947718 0.282235 -0.148909 
0.060166 -0.082757 0.035816 -0.921813 0.234036 -0.30901 
0.05638 -0.081027 0.045567 -0.874733 0.175216 -0.45182 
0.041647 -0.079584 0.064586 -0.705057 0.0280788 -0.708595 
0.027375 -0.081296 0.075007 -0.505613 -0.0833414 -0.858726 
0.003487 -0.087784 0.085861 -0.0592069 -0.191975 -0.979612 
-0.04399 -0.098037 0.042529 0.924257 0.0888066 -0.371298 
-0.035831 -0.105926 0.050272 0.878121 -0.0391666 -0.476833 
-0.031098 -0.117 0.056349 0.832701 -0.179756 -0.523734 
-0.029565 -0.130778 0.061878 0.791999 -0.333471 -0.511405 
-0.033428 -0.143517 0.065154 0.781837 -0.450887 -0.430617 
-0.041631 -0.153751 0.065554 0.786886 -0.522807 -0.327846 
-0.052872 -0.159806 0.06332 0.800879 -0.549018 -0.239107 
-0.056979 -0.160322 0.062161 0.807776 -0.547936 -0.217402 
-0.067392 -0.154275 0.059835 0.830248 -0.52339 -0.191706 
0.045769 -0.098037 0.042529 -0.92559 0.0820872 -0.36952 
0.03761 -0.105926 0.050272 -0.878619 -0.0447323 -0.475424 
0.032877 -0.117 0.056349 -0.833373 -0.185964 -0.520488 
0.031343 -0.130778 0.061878 -0.792786 -0.340778 -0.505333 
0.035206 -0.143517 0.065154 -0.783049 -0.45654 -0.422382 
0.043409 -0.153751 0.065554 -0.788349 -0.524964 -0.320809 
0.05465 -0.159806 0.06332 -0.802265 -0.548555 -0.235496 
0.058757 -0.160322 0.062161 -0.809024 -0.547044 -0.214994 
0.06917 -0.154275 0.059835 -0.830427 -0.523153 -0.191579 
-0.002892 -0.147409 -0.007511 0.0719827 -0.406275 0.910911 
-0.015741 -0.145578 -0.010415 0.213068 -0.438526 0.873096 
-0.026058 -0.143961 -0.008499 0.379163 -0.458522 0.803737 
-0.033659 -0.14301 -0.003672 0.545346 -0.46094 0.700094 
-0.041005 -0.14297 0.007437 0.764333 -0.439005 0.472303 
-0.045693 -0.143018 0.023684 0.909637 -0.388958 0.145849 
-0.046839 -0.142221 0.042689 0.913859 -0.373486 -0.159279 
-0.04457 -0.140353 0.061999 0.828201 -0.426798 -0.363216 
-0.039176 -0.137651 0.072714 0.760047 -0.458695 -0.460356 
0.00467 -0.147409 -0.007511 0.00120594 -0.409789 0.91218 
0.017519 -0.145578 -0.010415 -0.177185 -0.452359 0.874058 
0.027837 -0.143961 -0.008499 -0.374714 -0.479364 0.793599 
0.035438 -0.14301 -0.003672 -0.552088 -0.483496 0.679287 
0.042784 -0.14297 0.007437 -0.769363 -0.457094 0.446258 
0.047472 -0.143018 0.023684 -0.907704 -0.399873 0.127185 
0.048618 -0.142221 0.042689 -0.910223 -0.379538 -0.165665 
0.046349 -0.140353 0.061999 -0.827467 -0.432259 -0.358401 
0.040955 -0.137651 0.072714 -0.762357 -0.46603 -0.449031 
-0.039247 -0.138137 0.066002 0.799624 -0.422716 -0.426512 
-0.040149 -0.136102 0.071828 0.76967 -0.442889 -0.459844 
-0.038661 -0.135229 0.077278 0.730352 -0.466852 -0.498634 
-0.02889 -0.133958 0.091349 0.546109 -0.541593 -0.639094 
-0.011436 -0.135173 0.103232 0.219807 -0.619741 -0.753396 
0.005487 -0.139925 0.108904 -0.0450026 -0.685447 -0.72673 
0.041026 -0.138137 0.066002 -0.800338 -0.429186 -0.41864 
0.041928 -0.136102 0.071828 -0.771559 -0.450306 -0.449356 
0.04044 -0.135229 0.077278 -0.733488 -0.475512 -0.485678 
0.030669 -0.133958 0.091349 -0.549455 -0.554837 -0.624704 
0.013214 -0.135173 0.103232 -0.195745 -0.631184 -0.750527 
-0.003709 -0.139925 0.108904 0.0913359 -0.681356 -0.726231 
-0.003518 -0.259259 -0.08775 -0.00649835 0.789843 0.613275 
-0.028703 -0.252541 -0.090187 -0.010332 0.682321 0.730979 
-0.050145 -0.241818 -0.093401 0.121931 0.443804 0.88779 
-0.059582 -0.234192 -0.095087 0.233602 0.255049 0.938286 
-0.063604 -0.228821 -0.096093 0.295016 0.125199 0.947254 
-0.068295 -0.214761 -0.099297 0.381888 -0.182598 0.905991 
-0.069604 -0.210798 -0.102268 0.390849 -0.242089 0.888048 
0.005297 -0.259259 -0.08775 0.0150094 0.789581 0.613462 
0.030482 -0.252541 -0.090187 0.0091813 0.678368 0.734665 
0.051924 -0.241818 -0.093401 -0.124139 0.445405 0.886682 
0.061361 -0.234192 -0.095087 -0.23718 0.261485 0.935613 
0.065383 -0.228821 -0.096093 -0.299593 0.134819 0.944494 
0.070073 -0.214761 -0.099297 -0.389853 -0.165574 0.90587 
0.071383 -0.210798 -0.102268 -0.399769 -0.224374 0.88873 
-0.005692 -0.262014 -0.008124 -0.0221099 0.999339 -0.0288426 
-0.030957 -0.267085 -0.009055 -0.121032 0.990187 -0.0698582 
-0.062195 -0.273621 -0.015394 0.110368 0.984836 -0.133854 
-0.094041 -0.27465 -0.022635 0.545619 0.82171 -0.1646 
0.007471 -0.262014 -0.008124 0.0797384 0.996237 -0.0339556 
0.032735 -0.267085 -0.009055 0.124724 0.989514 -0.0728469 
0.063973 -0.273621 -0.015394 -0.130015 0.982953 -0.129997 
0.095819 -0.27465 -0.022635 -0.556497 0.815223 -0.160381 
0.000933 -0.259894 0.098551 0.0197922 0.998012 -0.0598413 
-0.033773 -0.267597 0.101995 0.00479999 0.999717 -0.0232873 
-0.062962 -0.273119 0.100726 0.286935 0.957884 0.0112157 
-0.078633 -0.273186 0.09857 0.502021 0.864702 0.0162963 
0.035551 -0.267597 0.101995 -0.00374988 0.999933 -0.0109692 
0.064741 -0.273119 0.100726 -0.300034 0.953726 0.0196799 
0.080412 -0.273186 0.09857 -0.513686 0.857701 0.0217875 
-0.081189 -0.256673 0.100204 0.663384 0.748243 0.00733382 
-0.09521 -0.24752 0.094435 0.868982 0.494798 -0.00672453 
-0.105091 -0.235844 0.087374 0.981231 0.192517 -0.0110813 
-0.110848 -0.218512 0.080438 0.980647 -0.195515 -0.0102193 
-0.109599 -0.21521 0.08018 0.962793 -0.270062 -0.00980174 
-0.105445 -0.214123 0.080565 0.950672 -0.310057 -0.0093169 
0.082968 -0.256673 0.100204 -0.675695 0.737087 0.0118186 
0.096989 -0.24752 0.094435 -0.873812 0.486239 -0.0049324 
0.106869 -0.235844 0.087374 -0.982114 0.187993 -0.0105121 
0.112627 -0.218512 0.080438 -0.980543 -0.196053 -0.00994647 
0.111378 -0.21521 0.08018 -0.96283 -0.269939 -0.00952944 
0.107223 -0.214123 0.080565 -0.9508 -0.309675 -0.00895323 
-0.000595 -0.262806 0.186048 0.0247143 0.991487 0.127835 
-0.086959 -0.265106 0.177961 0.655673 0.751889 0.0689595 
0.002374 -0.262806 0.186048 0.0530844 0.990335 0.128135 
0.088737 -0.265106 0.177961 -0.681104 0.728447 0.0739043 
-0.086603 -0.259173 0.183423 0.71926 0.692842 0.0513292 
-0.097697 -0.249462 0.18364 0.900533 0.43364 0.0315551 
-0.106319 -0.235524 0.181689 0.993379 0.108109 0.0388647 
-0.104369 -0.224405 0.17935 0.992797 -0.106623 0.0546381 
-0.097266 -0.216357 0.178214 0.959555 -0.276223 0.0543513 
0.088382 -0.259173 0.183423 -0.743178 0.666797 0.0553806 
0.099476 -0.249462 0.18364 -0.909077 0.41544 0.0314479 
0.108098 -0.235524 0.181689 -0.994377 0.099869 0.0352119 
0.106147 -0.224405 0.17935 -0.992563 -0.111388 0.0491112 
0.099044 -0.216357 0.178214 -0.959056 -0.279223 0.0473911 
-0.080135 -0.260921 0.098187 0.614353 0.789013 0.00535281 
-0.086718 -0.257595 0.161991 0.728317 0.676882 0.106704 
-0.09075 -0.258261 0.191079 0.775739 0.631054 -3.74364e-05 
0.081914 -0.260921 0.098187 -0.62681 0.779109 0.00992132 
0.088496 -0.257595 0.161991 -0.746578 0.65635 0.108748 
0.092528 -0.258261 0.191079 -0.796393 0.604758 0.00502081 
-0.086983 -0.26036 0.187281 0.714776 0.698615 0.0321131 
-0.088832 -0.255227 0.216742 0.808086 0.523698 -0.2697 
-0.088516 -0.248912 0.231597 0.816321 0.305696 -0.490071 
-0.086989 -0.243716 0.237812 0.790576 0.150986 -0.593459 
-0.083859 -0.238368 0.241769 0.743941 0.0064967 -0.668214 
-0.076588 -0.232141 0.24335 0.669223 -0.149917 -0.727781 
-0.067 -0.226627 0.241393 0.583663 -0.289808 -0.758518 
-0.059536 -0.225274 0.239876 0.544264 -0.340983 -0.76649 
0.088761 -0.26036 0.187281 -0.739841 0.671741 0.0374096 
0.09061 -0.255227 0.216742 -0.831604 0.48888 -0.263497 
0.090295 -0.248912 0.231597 -0.832657 0.27056 -0.483198 
0.088768 -0.243716 0.237812 -0.801708 0.117438 -0.586065 
0.085638 -0.238368 0.241769 -0.750264 -0.0258543 -0.660632 
0.078367 -0.232141 0.24335 -0.669524 -0.182512 -0.720019 
0.068778 -0.226627 0.241393 -0.577828 -0.322142 -0.749893 
0.061315 -0.225274 0.239876 -0.534814 -0.374578 -0.757407 
-0.089233 -0.247175 0.236795 0.803017 0.230425 -0.549608 
-0.081712 -0.254286 0.257287 0.672318 0.277447 -0.686303 
-0.073012 -0.256127 0.264681 0.571161 0.306886 -0.761312 
-0.059914 -0.256501 0.271159 0.427259 0.326186 -0.843239 
-0.045265 -0.256214 0.275335 0.276472 0.343335 -0.897599 
-0.024913 -0.256468 0.276726 0.114105 0.38919 -0.914063 
-0.007272 -0.257071 0.27582 0.0384085 0.427229 -0.903327 
0.007918 -0.258785 0.272135 0.00537405 0.489263 -0.872119 
0.091012 -0.247175 0.236795 -0.816865 0.196991 -0.54215 
0.08349 -0.254286 0.257287 -0.685468 0.239555 -0.687566 
0.07479 -0.256127 0.264681 -0.581819 0.265919 -0.768618 
0.061693 -0.256501 0.271159 -0.432397 0.282105 -0.856417 
0.047044 -0.256214 0.275335 -0.273346 0.29906 -0.914246 
0.026691 -0.256468 0.276726 -0.0957277 0.353074 -0.930685 
0.00905 -0.257071 0.27582 -0.00157333 0.410867 -0.911694 
-0.00614 -0.258785 0.272135 0.0385411 0.502566 -0.863679 
-0.089765 -0.261124 -0.004304 0.636559 0.740942 -0.214003 
-0.086047 -0.258654 0.041088 0.680684 0.730215 -0.0587802 
-0.080466 -0.260676 0.099739 0.62142 0.783414 0.00997223 
0.091543 -0.261124 -0.004304 -0.649381 0.730605 -0.211 
0.087826 -0.258654 0.041088 -0.691703 0.719537 -0.0617495 
0.082245 -0.260676 0.099739 -0.633906 0.77327 0.0147137 
-0.000249 -0.258966 -0.08839 0.00288979 0.78358 0.621285 
-0.036657 -0.265952 -0.080774 -0.040229 0.848833 0.527128 
-0.060959 -0.268416 -0.079969 0.105875 0.833419 0.542404 
-0.084564 -0.271586 -0.082773 0.372412 0.752897 0.542638 
0.002027 -0.258966 -0.08839 0.00835957 0.783537 0.621289 
0.038436 -0.265952 -0.080774 0.0391689 0.842061 0.537959 
0.062738 -0.268416 -0.079969 -0.111584 0.826907 0.551156 
0.086342 -0.271586 -0.082773 -0.376707 0.7478 0.546705 
-0.108817 -0.216889 -0.029469 0.960953 -0.257373 -0.101626 
-0.113493 -0.224823 -0.024224 0.985266 -0.112228 -0.129055 
-0.109754 -0.24137 -0.015698 0.952213 0.241157 -0.18744 
-0.10082 -0.253392 -0.008515 0.815929 0.535084 -0.218962 
-0.089313 -0.264352 -0.005499 0.601393 0.770643 -0.210798 
0.110595 -0.216889 -0.029469 -0.962114 -0.253227 -0.101057 
0.115272 -0.224823 -0.024224 -0.985559 -0.110549 -0.128269 
0.111532 -0.24137 -0.015698 -0.953563 0.237173 -0.185652 
0.102598 -0.253392 -0.008515 -0.822142 0.526601 -0.216272 
0.091091 -0.264352 -0.005499 -0.614476 0.761115 -0.207662 
-0.087669 -0.252718 -0.091318 0.488642 0.457655 0.742819 
-0.09142 -0.234935 -0.098109 0.567242 0.121332 0.814564 
-0.090474 -0.222533 -0.099393 0.579388 -0.0951949 0.809474 
-0.087497 -0.214312 -0.097079 0.574435 -0.237423 0.783361 
-0.078402 -0.211015 -0.086467 0.563694 -0.342642 0.751562 
0.089448 -0.252718 -0.091318 -0.490993 0.45522 0.742766 
0.093199 -0.234935 -0.098109 -0.569671 0.124505 0.812388 
0.092253 -0.222533 -0.099393 -0.583671 -0.0874329 0.807269 
0.089275 -0.214312 -0.097079 -0.581136 -0.225732 0.781873 
0.080181 -0.211015 -0.086467 -0.574125 -0.324026 0.751922 
-0.08667 -0.260784 -0.087806 0.44786 0.595438 0.66699 
-0.090476 -0.261505 -0.007049 0.637914 0.739829 -0.213821 
0.088449 -0.260784 -0.087806 -0.450858 0.591314 0.668636 
0.092255 -0.261505 -0.007049 -0.650476 0.729728 -0.210662 
-0.0838 0.072651 0.006986 0.939819 -0.164131 -0.299668 
-0.116098 0.05279 0.005849 0.970208 -0.180187 -0.161953 
-0.122065 0.042193 0.00463 0.990282 -0.0903632 -0.105712 
-0.122857 0.027921 0.004247 0.995213 0.0732249 -0.0647313 
-0.100814 -0.002532 0.013139 0.89789 0.386565 -0.21062 
-0.061971 -0.034345 0.033951 0.774059 0.317339 -0.547841 
-0.051256 -0.048259 0.042209 0.755448 0.228804 -0.613961 
-0.044768 -0.067685 0.049596 0.771581 0.147407 -0.618817 
-0.046935 -0.090549 0.051897 0.85636 0.0943094 -0.507694 
0.085578 0.072651 0.006986 -0.939875 -0.164611 -0.299229 
0.117877 0.05279 0.005849 -0.970574 -0.179776 -0.160207 
0.123843 0.042193 0.00463 -0.990718 -0.0882922 -0.103353 
0.124635 0.027921 0.004247 -0.995041 0.0783272 -0.0613033 
0.102593 -0.002532 0.013139 -0.893217 0.400417 -0.204522 
0.063749 -0.034345 0.033951 -0.777205 0.322735 -0.54018 
0.053034 -0.048259 0.042209 -0.759999 0.227496 -0.608808 
0.046547 -0.067685 0.049596 -0.774756 0.141569 -0.616207 
0.048713 -0.090549 0.051897 -0.858059 0.0882095 -0.505919 
-0.006449 0.304822 0.002961 0.132554 -0.820166 -0.556558 
-0.028528 0.294938 0.014774 0.419762 -0.770983 -0.478942 
-0.056466 0.278022 0.016853 0.640605 -0.700504 -0.314514 
-0.08564 0.252135 0.01086 0.822027 -0.551325 -0.142522 
-0.098131 0.22701 0.000511 0.935322 -0.353784 -0.00327145 
-0.094215 0.200968 -0.020758 0.953338 -0.181976 0.240899 
-0.079332 0.173875 -0.04833 0.854019 -0.0850048 0.51325 
-0.043717 0.126929 -0.088578 0.541152 -0.0905259 0.836038 
-0.011561 0.080015 -0.119133 0.14343 -0.167922 0.97531 
0.008227 0.304822 0.002961 -0.138306 -0.818954 -0.556943 
0.030307 0.294938 0.014774 -0.418941 -0.772772 -0.476772 
0.058245 0.278022 0.016853 -0.639457 -0.703126 -0.31098 
0.087418 0.252135 0.01086 -0.822015 -0.552015 -0.139893 
0.099909 0.22701 0.000511 -0.935269 -0.353929 -0.0023913 
0.095993 0.200968 -0.020758 -0.953322 -0.182669 0.240435 
0.081111 0.173875 -0.04833 -0.854168 -0.0852467 0.512962 
0.045496 0.126929 -0.088578 -0.539134 -0.0794124 0.838468 
0.01334 0.080015 -0.119133 -0.182499 -0.156886 0.970609 
-0.009652 0.205651 -0.1099 0.153604 0.0588344 0.986379 
-0.027965 0.219761 -0.100065 0.447849 0.0541576 0.892467 
-0.043828 0.239727 -0.083368 0.748043 -0.0337021 0.662794 
-0.052884 0.261349 -0.062198 0.923463 -0.2483 0.292511 
-0.05557 0.276276 -0.045857 0.906789 -0.418308 0.0524524 
-0.051106 0.294746 -0.028262 0.84875 -0.514504 -0.122104 
-0.027674 0.310469 -0.006198 0.513025 -0.737292 -0.439551 
-0.01811 0.312447 -0.002038 0.33681 -0.785902 -0.518573 
0.011431 0.205651 -0.1099 -0.151011 0.0573396 0.986868 
0.029744 0.219761 -0.100065 -0.448165 0.0497165 0.892567 
0.045607 0.239727 -0.083368 -0.74665 -0.0366802 0.664205 
0.054663 0.261349 -0.062198 -0.922705 -0.250143 0.293332 
0.057349 0.276276 -0.045857 -0.906393 -0.4191 0.0529903 
0.052885 0.294746 -0.028262 -0.849449 -0.513252 -0.122506 
0.029452 0.310469 -0.006198 -0.512941 -0.735411 -0.442789 
0.019889 0.312447 -0.002038 -0.338532 -0.783643 -0.520865 
-0.069124 0.079893 -0.081277 0.747274 -0.0758426 0.660174 
-0.089931 0.096281 -0.055711 0.882099 -0.0376613 0.469556 
-0.103226 0.119025 -0.02493 0.987115 0.0073971 0.159842 
-0.10548 0.134338 -0.007448 0.998579 0.0348306 -0.0403305 
-0.095719 0.15773 0.021255 0.916754 0.0625034 -0.394532 
-0.082862 0.172229 0.041251 0.772069 0.0573981 -0.632941 
-0.06365 0.186398 0.057169 0.597604 -0.00888471 -0.801742 
-0.024879 0.200051 0.071018 0.255164 -0.141594 -0.956474 
0.010372 0.206366 0.079016 -0.0922513 -0.178926 -0.979528 
0.070902 0.079893 -0.081277 -0.738675 -0.0567772 0.671666 
0.091709 0.096281 -0.055711 -0.878637 -0.0299132 0.476553 
0.105004 0.119025 -0.02493 -0.986998 0.00813695 0.160525 
0.107259 0.134338 -0.007448 -0.998556 0.0345742 -0.0411123 
0.097498 0.15773 0.021255 -0.916279 0.0625198 -0.395632 
0.08464 0.172229 0.041251 -0.770922 0.0588069 -0.63421 
0.065428 0.186398 0.057169 -0.595941 -0.00441338 -0.803016 
0.026657 0.200051 0.071018 -0.254455 -0.134871 -0.957634 
-0.008594 0.206366 0.079016 0.0942146 -0.182067 -0.978762 
-0.036148 0.283161 -0.035285 0.865795 -0.490768 -0.0977028 
-0.05488 0.272696 -0.022066 0.810868 -0.584777 0.0229979 
-0.082554 0.246297 0.004961 0.841986 -0.533022 -0.0833479 
-0.093918 0.224416 0.02106 0.898408 -0.324086 -0.296365 
-0.093852 0.208095 0.031087 0.877847 -0.166802 -0.448957 
-0.085506 0.185248 0.04107 0.790769 0.00155958 -0.612113 
-0.052321 0.146365 0.040924 0.64664 0.0556253 -0.760764 
0.037927 0.283161 -0.035285 -0.865994 -0.490354 -0.0980137 
0.056659 0.272696 -0.022066 -0.810139 -0.585771 0.0234004 
0.084333 0.246297 0.004961 -0.841782 -0.533688 -0.0811157 
0.095696 0.224416 0.02106 -0.899238 -0.323418 -0.294572 
0.09563 0.208095 0.031087 -0.87863 -0.165371 -0.447953 
0.087285 0.185248 0.04107 -0.790331 0.00351236 -0.61267 
0.0541 0.146365 0.040924 -0.643783 0.0563021 -0.763134 
-0.065199 0.152972 0.049527 0.65531 0.0784443 -0.751276 
-0.073673 0.132999 0.051775 0.691051 0.0359437 -0.721911 
-0.08432 0.113674 0.04429 0.775618 0.0133063 -0.631062 
-0.092193 0.093174 0.025884 0.886381 -0.0551623 -0.459658 
-0.091896 0.074913 0.00383 0.956658 -0.16953 -0.23678 
0.066978 0.152972 0.049527 -0.652251 0.0794596 -0.753827 
0.075451 0.132999 0.051775 -0.68814 0.0359426 -0.724687 
0.086098 0.113674 0.04429 -0.773714 0.0126102 -0.63341 
0.093972 0.093174 0.025884 -0.885582 -0.0562865 -0.46106 
0.093674 0.074913 0.00383 -0.956741 -0.170061 -0.236065 
-0.009333 -0.072772 -0.087982 0.13444 0.725865 0.674571 
-0.028672 -0.04964 -0.079961 0.512831 0.561634 0.649286 
-0.05881 -0.010978 -0.046583 0.847314 0.3391 0.408742 
-0.07353 0.000289 -0.028488 0.886188 0.340827 0.31386 
-0.090612 0.007557 -0.010843 0.932743 0.327747 0.150243 
-0.127825 0.010846 0.021679 0.931249 0.219652 -0.290738 
0.011111 -0.072772 -0.087982 -0.219131 0.716803 0.661948 
0.03045 -0.04964 -0.079961 -0.553381 0.552669 0.623159 
0.060588 -0.010978 -0.046583 -0.826681 0.362098 0.430678 
0.075309 0.000289 -0.028488 -0.868881 0.362533 0.337069 
0.092391 0.007557 -0.010843 -0.923945 0.344817 0.165612 
0.129604 0.010846 0.021679 -0.929828 0.226415 -0.290098 
-0.113765 0.013894 0.025389 0.887698 0.195783 -0.416726 
-0.084546 0.025437 0.032683 0.738614 0.058821 -0.671557 
-0.044123 0.02984 0.047601 0.44284 0.0471071 -0.895363 
-0.011249 0.026377 0.068347 0.124488 0.0713835 -0.98965 
0.00223 0.018986 0.085921 -0.0198442 0.0783149 -0.996731 
0.115543 0.013894 0.025389 -0.885885 0.203422 -0.416926 
0.086324 0.025437 0.032683 -0.735766 0.065377 -0.674073 
0.045902 0.02984 0.047601 -0.440041 0.0514894 -0.8965 
0.013028 0.026377 0.068347 -0.134114 0.0715315 -0.988381 
-0.000452 0.018986 0.085921 0.00882209 0.0782439 -0.996895 
-0.003089 0.281175 -0.122916 0.0769982 0.383641 0.920267 
-0.023165 0.287278 -0.115891 0.529482 0.320747 0.785347 
-0.039525 0.296226 -0.104976 0.837858 0.178212 0.51598 
-0.050233 0.309487 -0.090061 0.985328 -0.0142373 0.170076 
-0.051795 0.318395 -0.080769 0.991581 -0.126049 -0.0296511 
-0.049287 0.32668 -0.072202 0.950008 -0.238823 -0.201118 
-0.041066 0.336101 -0.063606 0.835213 -0.391204 -0.386496 
-0.019429 0.345668 -0.053849 0.456984 -0.627937 -0.629969 
0.006275 0.349117 -0.044436 -0.108356 -0.715686 -0.689965 
0.004868 0.281175 -0.122916 -0.0955836 0.379817 0.92011 
0.024944 0.287278 -0.115891 -0.53138 0.312405 0.787425 
0.041303 0.296226 -0.104976 -0.834114 0.17624 0.522679 
0.052011 0.309487 -0.090061 -0.984527 -0.0126536 0.174778 
0.053573 0.318395 -0.080769 -0.991943 -0.123943 -0.0262146 
0.051065 0.32668 -0.072202 -0.951157 -0.237505 -0.197209 
0.042845 0.336101 -0.063606 -0.837966 -0.391861 -0.379813 
0.021207 0.345668 -0.053849 -0.471443 -0.630857 -0.616247 
-0.004496 0.349117 -0.044436 0.143251 -0.711086 -0.688357 
-0.009409 0.399799 -0.274234 0.23246 0.968989 0.0838032 
-0.039108 0.410403 -0.270256 0.846514 0.532285 -0.00928616 
-0.046436 0.419643 -0.267288 0.97104 0.22992 -0.0649445 
-0.047592 0.427286 -0.2654 0.99434 -0.0110979 -0.10566 
-0.037348 0.44121 -0.262337 0.858355 -0.481874 -0.176134 
-0.006669 0.45056 -0.256163 0.184265 -0.949593 -0.253611 
0.011187 0.399799 -0.274234 -0.200511 0.976943 0.0733315 
0.040886 0.410403 -0.270256 -0.847729 0.530098 -0.0187503 
0.048215 0.419643 -0.267288 -0.972368 0.221868 -0.0726332 
0.049371 0.427286 -0.2654 -0.993612 -0.0212386 -0.110834 
0.039127 0.44121 -0.262337 -0.852358 -0.491983 -0.177308 
0.008448 0.45056 -0.256163 -0.175695 -0.95107 -0.254159 
-0.006657 0.386716 -0.223239 0.20523 0.950944 0.231486 
-0.024099 0.39351 -0.219746 0.682538 0.719095 0.130552 
-0.031302 0.398581 -0.21687 0.846764 0.528988 0.0562412 
-0.036707 0.407205 -0.211136 0.973261 0.223838 -0.0515746 
-0.037311 0.416224 -0.204303 0.983685 -0.0910126 -0.155176 
-0.034866 0.424368 -0.199101 0.8983 -0.36763 -0.240637 
-0.027791 0.4318 -0.193772 0.697515 -0.641398 -0.319503 
-0.011346 0.435753 -0.18884 0.296298 -0.873743 -0.385722 
-0.00198 0.434772 -0.18679 0.0743927 -0.913709 -0.399501 
0.008436 0.386716 -0.223239 -0.202512 0.951779 0.230448 
0.025877 0.39351 -0.219746 -0.676679 0.725509 0.125468 
0.03308 0.398581 -0.21687 -0.84332 0.535007 0.0507756 
0.038486 0.407205 -0.211136 -0.972362 0.22672 -0.055762 
0.039089 0.416224 -0.204303 -0.983381 -0.0904694 -0.157406 
0.036645 0.424368 -0.199101 -0.89761 -0.368759 -0.241482 
0.029569 0.4318 -0.193772 -0.695664 -0.64366 -0.318988 
0.013125 0.435753 -0.18884 -0.291555 -0.875724 -0.384842 
0.003758 0.434772 -0.18679 -0.0681311 -0.914292 -0.399286 
-0.003476 0.352017 -0.166947 0.122117 0.699259 0.704361 
-0.007379 0.351443 -0.163164 0.243312 0.666188 0.704978 
-0.023664 0.358192 -0.155194 0.743884 0.42425 0.51638 
-0.033251 0.368836 -0.145887 0.966077 0.0901475 0.242009 
-0.034983 0.378056 -0.139017 0.98927 -0.133984 0.0582602 
-0.022798 0.399742 -0.125183 0.645366 -0.685051 -0.337947 
-0.008405 0.404645 -0.122297 0.26123 -0.853417 -0.451041 
0.004671 0.406304 -0.118153 -0.108431 -0.874662 -0.472451 
0.005254 0.352017 -0.166947 -0.138963 0.696916 0.703561 
0.009158 0.351443 -0.163164 -0.259239 0.662805 0.702485 
0.025443 0.358192 -0.155194 -0.741666 0.428787 0.515823 
0.035029 0.368836 -0.145887 -0.965339 0.0956831 0.242827 
0.036761 0.378056 -0.139017 -0.989887 -0.129843 0.0571335 
0.024577 0.399742 -0.125183 -0.646818 -0.679902 -0.345485 
0.010184 0.404645 -0.122297 -0.265434 -0.850075 -0.454882 
-0.002893 0.406304 -0.118153 0.10163 -0.876751 -0.470084 
-0.005977 0.447397 -0.346495 0.156308 -0.510379 0.845625 
-0.020825 0.447774 -0.338399 0.473228 -0.518733 0.712019 
-0.032729 0.447535 -0.326807 0.714202 -0.491612 0.49823 
-0.040046 0.445396 -0.314227 0.853874 -0.427011 0.297593 
-0.045056 0.440303 -0.29914 0.948866 -0.295962 0.109816 
-0.045114 0.420446 -0.255617 0.981852 0.156299 -0.107411 
-0.037232 0.413224 -0.218403 0.986601 0.127438 -0.101875 
-0.035126 0.40296 -0.175472 0.99205 -0.103725 -0.0712601 
-0.038478 0.391246 -0.15646 0.994243 -0.107152 -9.43613e-05 
-0.031623 0.376061 -0.135484 0.985258 -0.161163 0.057379 
0.007755 0.447397 -0.346495 -0.146679 -0.515953 0.843966 
0.022603 0.447774 -0.338399 -0.471652 -0.53303 0.702441 
0.034507 0.447535 -0.326807 -0.703891 -0.512989 0.491304 
0.041824 0.445396 -0.314227 -0.842151 -0.450249 0.296744 
0.046834 0.440303 -0.29914 -0.94104 -0.319118 0.112284 
0.046892 0.420446 -0.255617 -0.981727 0.150926 -0.115907 
0.03901 0.413224 -0.218403 -0.985865 0.128214 -0.107849 
0.036905 0.40296 -0.175472 -0.992698 -0.0966767 -0.0721424 
0.040256 0.391246 -0.15646 -0.995018 -0.0996864 -0.00148171 
0.033401 0.376061 -0.135484 -0.985895 -0.157514 0.0565718 
-0.031082 0.377989 -0.139615 0.988798 -0.13481 0.0640728 
-0.035289 0.371536 -0.12817 0.981782 -0.182953 0.0513141 
-0.039747 0.360402 -0.117137 0.983687 -0.167523 0.0655426 
-0.045905 0.326336 -0.097386 0.988726 -0.0488213 0.141551 
-0.055035 0.309967 -0.094266 0.977535 0.00685527 0.210663 
0.032861 0.377989 -0.139615 -0.989459 -0.130214 0.0633708 
0.037067 0.371536 -0.12817 -0.982087 -0.181588 0.0502986 
0.041526 0.360402 -0.117137 -0.983599 -0.168123 0.065323 
0.047684 0.326336 -0.097386 -0.988133 -0.0454561 0.146721 
0.056814 0.309967 -0.094266 -0.976443 0.00820306 0.215619 
-0.053061 0.309727 -0.091494 0.983319 -0.00850066 0.181692 
-0.050843 0.308335 -0.074548 0.990954 -0.127351 -0.0423314 
-0.045027 0.302876 -0.059763 0.956784 -0.238295 -0.166674 
-0.034401 0.286557 -0.041097 0.888312 -0.4391 -0.134512 
-0.034119 0.280635 -0.037204 0.871235 -0.482464 -0.0904326 
-0.036403 0.279419 -0.038733 0.879397 -0.471326 -0.0671775 
0.054839 0.309727 -0.091494 -0.982461 -0.00708057 0.186336 
0.052621 0.308335 -0.074548 -0.991287 -0.125728 -0.0392699 
0.046805 0.302876 -0.059763 -0.957733 -0.236474 -0.163789 
0.036179 0.286557 -0.041097 -0.888749 -0.438338 -0.134109 
0.035898 0.280635 -0.037204 -0.871398 -0.482145 -0.0905653 
0.038182 0.279419 -0.038733 -0.879493 -0.471158 -0.0671043 
-0.089593 -0.192553 -0.026085 0.771176 -0.632364 -0.0735036 
-0.077239 -0.190834 0.005176 0.786337 -0.603177 -0.133611 
-0.068425 -0.192113 0.032185 0.830288 -0.545733 -0.113124 
-0.065608 -0.192914 0.045557 0.830416 -0.548272 -0.099029 
-0.06354 -0.194769 0.072611 0.782137 -0.616317 -0.0917293 
-0.06427 -0.19579 0.091054 0.734037 -0.673463 -0.0873918 
-0.068499 -0.195885 0.119457 0.668415 -0.743 -0.0342487 
-0.077008 -0.194357 0.148374 0.638977 -0.765699 0.0735794 
-0.0828 -0.196863 0.168272 0.679397 -0.73042 0.0700528 
-0.086205 -0.195705 0.172805 0.69495 -0.716619 0.0591837 
0.091372 -0.192553 -0.026085 -0.779267 -0.621909 -0.0772767 
0.079017 -0.190834 0.005176 -0.79309 -0.593288 -0.137901 
0.070203 -0.192113 0.032185 -0.833673 -0.539346 -0.11872 
0.067386 -0.192914 0.045557 -0.8329 -0.543828 -0.102607 
0.065318 -0.194769 0.072611 -0.785752 -0.612175 -0.0885218 
0.066049 -0.19579 0.091054 -0.740097 -0.667593 -0.0810871 
0.070277 -0.195885 0.119457 -0.678168 -0.73431 -0.0296248 
0.078787 -0.194357 0.148374 -0.648581 -0.757965 0.0695072 
0.084579 -0.196863 0.168272 -0.685399 -0.725606 0.0610194 
0.087984 -0.195705 0.172805 -0.699615 -0.712783 0.0497936 
