ply
format ascii 1.0
element vertex 320
property float x
property float y
property float z
property float nx
property float ny
property float nz
end_header
0 0.464985 1.51776 -0.00368115 -0.989017 0.147756 
-0.273381 0.469053 1.51776 -0.0310887 -0.998758 0.0389243 
-0.536256 0.48092 1.51776 -0.0616298 -0.990589 -0.122211 
-0.778522 0.487916 1.51776 0.059435 -0.961662 -0.267718 
-0.990871 0.448474 1.51776 0.241888 -0.863789 -0.441994 
-1.16514 0.378351 1.51776 0.41906 -0.679742 -0.601946 
-1.29463 0.253511 1.51776 0.567891 -0.404813 -0.716678 
-1.37438 0.105675 1.51776 0.57074 -0.238703 -0.785669 
-1.4013 0 1.51776 0.586764 0.00251537 -0.809754 
-1.37438 -0.105675 1.51776 0.573669 0.226582 -0.787124 
-1.29463 -0.253985 1.51776 0.533467 0.440111 -0.722298 
-1.16514 -0.361288 1.51776 0.430031 0.667276 -0.608126 
-0.990871 -0.445067 1.51776 0.234903 0.861079 -0.450959 
-0.778522 -0.47072 1.52125 0.0660262 0.957802 -0.279744 
-0.536256 -0.481088 1.51776 -0.0412548 0.993173 -0.109108 
-0.273381 -0.451319 1.51776 -0.0954848 0.99516 0.0232373 
0 -0.445464 1.51776 -0.0013614 0.993023 0.117912 
0.273381 -0.448526 1.51776 0.0600942 0.997956 0.0217305 
0.536256 -0.472339 1.51776 0.0848463 0.989271 -0.118932 
0.778522 -0.484547 1.51776 0.00215557 0.965049 -0.26206 
0.990871 -0.463909 1.51776 -0.21047 0.87739 -0.431149 
1.16514 -0.387603 1.51776 -0.446732 0.673367 -0.589072 
1.3302 -0.207289 1.51776 -0.59317 0.317614 -0.739777 
1.37438 -0.105675 1.51776 -0.583562 0.223809 -0.780618 
1.4013 0 1.51776 -0.591536 0.00625459 -0.806254 
1.37438 0.105675 1.51776 -0.572159 -0.244021 -0.782999 
1.29463 0.247235 1.51776 -0.556759 -0.428527 -0.711607 
1.16514 0.365129 1.51776 -0.435407 -0.677397 -0.59292 
0.990871 0.443233 1.51776 -0.253348 -0.867279 -0.428535 
0.778522 0.480852 1.51776 -0.0821085 -0.965748 -0.246149 
0.536256 0.485033 1.51776 0.0409884 -0.996029 -0.0790362 
0.273381 0.468212 1.51776 0.0523804 -0.997004 0.0569063 
-1.34796 0.50491 0.893158 -0.00656275 -0.988539 0.150826 
-1.44809 0.495208 0.893158 0.19308 -0.980443 0.0381078 
-1.54438 0.466476 0.893158 0.375844 -0.924532 -0.0631051 
-1.63312 0.419818 0.893158 0.543347 -0.826197 -0.148908 
-1.7109 0.357025 0.893158 0.684368 -0.696683 -0.215114 
-1.77473 0.280513 0.893158 0.79942 -0.540859 -0.261535 
-1.82217 0.193221 0.893158 0.878648 -0.379831 -0.28932 
-1.85137 0.0985031 0.893158 0.932158 -0.190968 -0.307592 
-1.86124 0 0.893158 0.948982 0.000381943 -0.31533 
-1.85137 -0.0985031 0.893158 0.931586 0.189319 -0.310331 
-1.82217 -0.193221 0.893158 0.877758 0.379991 -0.291802 
-1.77473 -0.280513 0.893158 0.798889 0.540395 -0.264101 
-1.7109 -0.357025 0.893158 0.683776 0.696415 -0.217843 
-1.63312 -0.419818 0.893158 0.543062 0.825783 -0.152207 
-1.54438 -0.466476 0.893158 0.375564 0.924351 -0.0672792 
-1.44809 -0.495208 0.893158 0.193074 0.980631 0.032942 
-1.34796 -0.50491 0.893158 -0.00631642 0.989375 0.14525 
-1.24782 -0.495208 0.893158 -0.185177 0.950934 0.247858 
-1.15154 -0.466476 0.893158 -0.353382 0.865827 0.354209 
-1.0628 -0.419818 0.893158 -0.487899 0.743411 0.457488 
-0.985017 -0.357025 0.893158 -0.582738 0.594121 0.55447 
-0.921184 -0.280513 0.893158 -0.637098 0.432777 0.637817 
-0.873752 -0.193221 0.893158 -0.656199 0.276348 0.702164 
-0.844544 -0.0985031 0.893158 -0.654563 0.133834 0.744067 
-0.834681 0 0.893158 -0.645969 -7.91084e-17 0.763364 
-0.844544 0.0985031 0.893158 -0.652693 -0.133139 0.745833 
-0.873752 0.193221 0.893158 -0.653782 -0.275556 0.704725 
-0.921184 0.280513 0.893158 -0.6347 -0.431381 0.641144 
-0.985017 0.357025 0.893158 -0.580668 -0.592232 0.558647 
-1.0628 0.419818 0.893158 -0.486487 -0.741484 0.462096 
-1.15154 0.466476 0.893158 -0.35189 -0.864453 0.359019 
-1.24782 0.495208 0.893158 -0.185297 -0.948837 0.255681 
1.656 0.501057 0.00279748 0.00230886 -0.999986 0.00477084 
1.57485 0.491429 0.00279748 0.231437 -0.972837 0.00501812 
1.49681 0.462916 0.00279748 0.445005 -0.89551 0.00571967 
1.42489 0.416614 0.00279748 0.627916 -0.778252 0.00673113 
1.36186 0.354301 0.00279748 0.76763 -0.640845 0.00788676 
1.31012 0.278372 0.00279748 0.874712 -0.484559 0.00907152 
1.27168 0.191746 0.00279748 0.945426 -0.32568 0.0101002 
1.24801 0.0977514 0.00279748 0.986755 -0.161842 0.0110046 
1.24002 0 0.00279748 0.999931 9.88045e-05 0.0117561 
1.24801 -0.0977514 0.00279748 0.986762 0.161797 0.0110682 
1.27168 -0.191746 0.00279748 0.945365 0.325854 0.0102315 
1.31012 -0.278372 0.00279748 0.875062 0.483923 0.00926941 
1.36186 -0.354301 0.00279748 0.767776 0.640668 0.0081105 
1.42489 -0.416614 0.00279748 0.626595 0.779314 0.0069877 
1.49681 -0.462916 0.00279748 0.445056 0.895482 0.00599919 
1.57485 -0.491429 0.00279748 0.233336 0.972382 0.00530676 
1.656 -0.501057 0.00279748 0.00184615 0.999985 0.00506138 
1.73716 -0.491429 0.00279748 -0.230655 0.973024 0.00484932 
1.81519 -0.462916 0.00279748 -0.444543 0.895746 0.00458929 
1.88711 -0.416614 0.00279748 -0.625379 0.78031 0.00429323 
1.95014 -0.354301 0.00279748 -0.76837 0.639993 0.00396906 
2.00188 -0.278372 0.00279748 -0.873444 0.486911 0.0036277 
2.04032 -0.191746 0.00279748 -0.945077 0.326832 0.00331909 
2.06399 -0.0977514 0.00279748 -0.98656 0.163369 0.00310774 
2.07198 0 0.00279748 -0.999996 1.22464e-16 0.00293042 
2.06399 0.0977514 0.00279748 -0.986631 -0.162939 0.00307327 
2.04032 0.191746 0.00279748 -0.945122 -0.326701 0.00323441 
2.00188 0.278372 0.00279748 -0.873672 -0.486502 0.00350323 
1.95014 0.354301 0.00279748 -0.768414 -0.639941 0.00378097 
1.88711 0.416614 0.00279748 -0.625066 -0.780561 0.00404552 
1.81519 0.462916 0.00279748 -0.444304 -0.895866 0.00430991 
1.73716 0.491429 0.00279748 -0.230909 -0.972965 0.00456064 
-1.64609 0.501057 0.00279748 -0.00165019 -0.999989 -0.0043881 
-1.72724 0.491429 0.00279748 0.230028 -0.973169 -0.00544425 
-1.80527 0.462916 0.00279748 0.444708 -0.895651 -0.00663091 
-1.87719 0.416614 0.00279748 0.625105 -0.780506 -0.00736116 
-1.94023 0.354301 0.00279748 0.7679 -0.64052 -0.00796259 
-1.99196 0.278372 0.00279748 0.873968 -0.485909 -0.00848238 
-2.0304 0.191746 0.00279748 0.945244 -0.326243 -0.00889237 
-2.05407 0.0977514 0.00279748 0.986274 -0.164859 -0.00918469 
-2.06207 0 0.00279748 0.999956 0.000194279 -0.0093484 
-2.05407 -0.0977514 0.00279748 0.986401 0.164091 -0.00933192 
-2.0304 -0.191746 0.00279748 0.94527 0.32616 -0.00915875 
-1.99196 -0.278372 0.00279748 0.874093 0.485678 -0.00884264 
-1.94023 -0.354301 0.00279748 0.767389 0.641126 -0.00841767 
-1.87719 -0.416614 0.00279748 0.625392 0.780271 -0.00787556 
-1.80527 -0.462916 0.00279748 0.44452 0.89574 -0.00720679 
-1.72724 -0.491429 0.00279748 0.229984 0.973175 -0.00609511 
-1.64609 -0.501057 0.00279748 -0.00188475 0.999985 -0.00507625 
-1.56493 -0.491429 0.00279748 -0.233851 0.972264 -0.00404043 
-1.4869 -0.462916 0.00279748 -0.443206 0.896416 -0.00278291 
-1.41498 -0.416614 0.00279748 -0.6265 0.779421 -0.000774356 
-1.35194 -0.354301 0.00279748 -0.769542 0.638594 0.00140149 
-1.30021 -0.278372 0.00279748 -0.87441 0.485176 0.00349231 
-1.26177 -0.191746 0.00279748 -0.945363 0.325977 0.00521604 
-1.2381 -0.0977514 0.00279748 -0.98682 0.161689 0.00651102 
-1.2301 0 0.00279748 -0.999973 -0.000194744 0.00729093 
-1.2381 0.0977514 0.00279748 -0.986839 -0.16157 0.00663522 
-1.26177 0.191746 0.00279748 -0.945298 -0.326163 0.00547977 
-1.30021 0.278372 0.00279748 -0.874659 -0.484723 0.00389145 
-1.35194 0.354301 0.00279748 -0.76838 -0.639991 0.00192483 
-1.41498 0.416614 0.00279748 -0.62822 -0.778036 -0.000152211 
-1.4869 0.462916 0.00279748 -0.442624 -0.896705 -0.00210452 
-1.56493 0.491429 0.00279748 -0.234167 -0.972191 -0.00333345 
1.35414 0.50491 0.893158 0.00394091 -0.992202 0.124578 
1.254 0.495208 0.893158 0.187642 -0.9542 0.233009 
1.15771 0.466476 0.893158 0.353977 -0.870958 0.340782 
1.06897 0.419818 0.893158 0.490113 -0.747298 0.448703 
0.991194 0.357025 0.893158 0.585206 -0.595851 0.549997 
0.927361 0.280513 0.893158 0.637301 -0.434387 0.636518 
0.879929 0.193221 0.893158 0.655355 -0.276029 0.703077 
0.850721 0.0985031 0.893158 0.652666 -0.132329 0.746001 
0.840858 0 0.893158 0.642812 0.000176328 0.766024 
0.850721 -0.0985031 0.893158 0.651162 0.131414 0.747475 
0.879929 -0.193221 0.893158 0.653136 0.275533 0.705333 
0.927361 -0.280513 0.893158 0.634412 0.432751 0.640506 
0.991194 -0.357025 0.893158 0.582196 0.592806 0.556443 
1.06897 -0.419818 0.893158 0.487037 0.743789 0.457792 
1.15771 -0.466476 0.893158 0.353395 0.866263 0.35313 
1.254 -0.495208 0.893158 0.185608 0.951809 0.24415 
1.35414 -0.50491 0.893158 0.00396055 0.990694 0.13605 
1.45427 -0.495208 0.893158 -0.192445 0.981056 0.022223 
1.55056 -0.466476 0.893158 -0.375468 0.923536 -0.0781316 
1.6393 -0.419818 0.893158 -0.54218 0.82418 -0.163611 
1.71708 -0.357025 0.893158 -0.681745 0.694611 -0.229651 
1.78091 -0.280513 0.893158 -0.79694 0.537216 -0.276198 
1.82834 -0.193221 0.893158 -0.874089 0.379521 -0.303202 
1.85755 -0.0985031 0.893158 -0.927756 0.189059 -0.321753 
1.86742 0 0.893158 -0.944202 1.15631e-16 -0.329366 
1.85755 0.0985031 0.893158 -0.927177 -0.18812 -0.323965 
1.82834 0.193221 0.893158 -0.873306 -0.379491 -0.305487 
1.78091 0.280513 0.893158 -0.796047 -0.537209 -0.278775 
1.71708 0.357025 0.893158 -0.681177 -0.69406 -0.232976 
1.6393 0.419818 0.893158 -0.541603 -0.823695 -0.167907 
1.55056 0.466476 0.893158 -0.375136 -0.923186 -0.0836706 
1.45427 0.495208 0.893158 -0.192863 -0.981102 0.0155765 
-1.35958 0.50491 -0.894263 -0.00357086 -0.991167 -0.132572 
-1.45972 0.495208 -0.894263 0.192375 -0.981006 -0.0248721 
-1.55601 0.466476 -0.894263 0.375899 -0.923879 0.071751 
-1.64474 0.419818 -0.894263 0.542748 -0.825771 0.153381 
-1.72253 0.357025 -0.894263 0.684912 -0.695868 0.216018 
-1.78636 0.280513 -0.894263 0.797972 -0.544004 0.259424 
-1.83379 0.193221 -0.894263 0.880703 -0.376678 0.287187 
-1.863 0.0985031 -0.894263 0.932892 -0.192254 0.304552 
-1.87286 0 -0.894263 0.950065 0.00040273 0.312051 
-1.863 -0.0985031 -0.894263 0.932197 0.190498 0.307767 
-1.83379 -0.193221 -0.894263 0.87955 0.37676 0.290592 
-1.78636 -0.280513 -0.894263 0.797141 0.543357 0.263304 
-1.72253 -0.357025 -0.894263 0.684047 0.695305 0.220523 
-1.64474 -0.419818 -0.894263 0.542251 0.825039 0.15898 
-1.55601 -0.466476 -0.894263 0.3755 0.92346 0.0788752 
-1.45972 -0.495208 -0.894263 0.192412 0.981184 -0.015985 
-1.35958 -0.50491 -0.894263 -0.00359083 0.992473 -0.122408 
-1.25945 -0.495208 -0.894263 -0.185121 0.956261 -0.226485 
-1.16316 -0.466476 -0.894263 -0.356177 0.871206 -0.337843 
-1.07442 -0.419818 -0.894263 -0.490921 0.74946 -0.444191 
-0.996641 -0.357025 -0.894263 -0.58758 0.598657 -0.544389 
-0.932808 -0.280513 -0.894263 -0.641289 0.436635 -0.63095 
-0.885376 -0.193221 -0.894263 -0.660359 0.27824 -0.697502 
-0.856168 -0.0985031 -0.894263 -0.658483 0.13419 -0.740536 
-0.846305 0 -0.894263 -0.649475 -0.000604026 -0.760383 
-0.856168 0.0985031 -0.894263 -0.65682 -0.133008 -0.742224 
-0.885376 0.193221 -0.894263 -0.657816 -0.277667 -0.700128 
-0.932808 0.280513 -0.894263 -0.638431 -0.435063 -0.634922 
-0.996641 0.357025 -0.894263 -0.585064 -0.59611 -0.549866 
-1.07442 0.419818 -0.894263 -0.489453 -0.746734 -0.45036 
-1.16316 0.466476 -0.894263 -0.353509 -0.869726 -0.344395 
-1.25945 0.495208 -0.894263 -0.186377 -0.952837 -0.239509 
1.35573 0.50491 -0.894263 0.00405287 -0.98953 -0.144269 
1.25559 0.495208 -0.894263 0.186992 -0.950036 -0.24993 
1.15931 0.466476 -0.894263 0.352186 -0.86641 -0.353977 
1.07057 0.419818 -0.894263 0.487725 -0.743276 -0.457893 
0.992788 0.357025 -0.894263 0.582343 -0.593854 -0.555171 
0.928955 0.280513 -0.894263 0.636422 -0.432936 -0.638384 
0.881523 0.193221 -0.894263 0.656535 -0.276615 -0.701745 
0.852314 0.0985031 -0.894263 0.656677 -0.13379 -0.74221 
0.842452 0 -0.894263 0.64954 0.00087007 -0.760327 
0.852314 -0.0985031 -0.894263 0.655396 0.132637 -0.743548 
0.881523 -0.193221 -0.894263 0.654358 0.276175 -0.703948 
0.928955 -0.280513 -0.894263 0.6336 0.431318 -0.642274 
0.992788 -0.357025 -0.894263 0.579415 0.590719 -0.561542 
1.07057 -0.419818 -0.894263 0.484999 0.739152 -0.467366 
1.15931 -0.466476 -0.894263 0.350084 0.862147 -0.366257 
1.25559 -0.495208 -0.894263 0.186258 0.946455 -0.263687 
1.35573 -0.50491 -0.894263 0.00366601 0.987412 -0.158129 
1.45587 -0.495208 -0.894263 -0.192189 0.980409 -0.0431556 
1.55215 -0.466476 -0.894263 -0.376004 0.924787 0.058229 
1.64089 -0.419818 -0.894263 -0.54381 0.826629 0.144761 
1.71867 -0.357025 -0.894263 -0.684568 0.697512 0.211763 
1.78251 -0.280513 -0.894263 -0.800874 0.539807 0.259249 
1.82994 -0.193221 -0.894263 -0.878639 0.381578 0.28704 
1.85915 -0.0985031 -0.894263 -0.932807 0.190255 0.306062 
1.86901 0 -0.894263 -0.949427 -0.000568124 0.313987 
1.85915 0.0985031 -0.894263 -0.93221 -0.189085 0.308597 
1.82994 0.193221 -0.894263 -0.877743 -0.381507 0.289861 
1.78251 0.280513 -0.894263 -0.799864 -0.539752 0.26246 
1.71867 0.357025 -0.894263 -0.683922 -0.696868 0.215928 
1.64089 0.419818 -0.894263 -0.543193 -0.826072 0.150154 
1.55215 0.466476 -0.894263 -0.375644 -0.924468 0.0651914 
1.45587 0.495208 -0.894263 -0.192797 -0.980624 -0.0347321 
3.78944e-10 0.3225 1.93855 0.0036122 -0.696378 -0.717666 
-0.144134 0.316303 1.93855 0.0541226 -0.683854 -0.727608 
-0.282729 0.297951 1.93855 0.113692 -0.640219 -0.759733 
-0.410459 0.268149 1.93855 0.167897 -0.575915 -0.800083 
-0.522415 0.228042 1.93855 0.207258 -0.489953 -0.846753 
-0.614295 0.179171 1.93855 0.251272 -0.384621 -0.888217 
-0.682568 0.123415 1.93855 0.286509 -0.272817 -0.918413 
-0.72461 0.0629166 1.93855 0.322507 -0.145611 -0.9353 
-0.738806 0 1.93855 0.341516 0.00136256 -0.939875 
-0.72461 -0.0629166 1.93855 0.323942 0.14415 -0.935031 
-0.682568 -0.123415 1.93855 0.288764 0.273493 -0.917506 
-0.614295 -0.179171 1.93855 0.256087 0.388339 -0.885219 
-0.522415 -0.228042 1.93855 0.214346 0.500877 -0.838557 
-0.410459 -0.268149 1.93855 0.174642 0.600444 -0.780364 
-0.282729 -0.297951 1.93855 0.119935 0.682837 -0.720659 
-0.144134 -0.316303 1.93855 0.0617382 0.73593 -0.674237 
3.78944e-10 -0.3225 1.93855 -0.00328969 0.754719 -0.65604 
0.144134 -0.316303 1.93855 -0.0589206 0.738282 -0.671914 
0.282729 -0.297951 1.93855 -0.121955 0.684759 -0.718492 
0.410459 -0.268149 1.93855 -0.174597 0.601319 -0.779699 
0.522415 -0.228042 1.93855 -0.211564 0.497281 -0.841399 
0.614295 -0.179171 1.93855 -0.249976 0.383701 -0.88898 
0.682568 -0.123415 1.93855 -0.280312 0.267295 -0.921943 
0.72461 -0.0629166 1.93855 -0.312509 0.14122 -0.939359 
0.738806 0 1.93855 -0.329875 -0.00107856 -0.944024 
0.72461 0.0629166 1.93855 -0.312452 -0.139093 -0.939695 
0.682568 0.123415 1.93855 -0.276494 -0.261821 -0.924663 
0.614295 0.179171 1.93855 -0.242233 -0.367198 -0.898047 
0.522415 0.228042 1.93855 -0.20045 -0.467378 -0.861033 
0.410459 0.268149 1.93855 -0.163329 -0.554835 -0.815771 
0.282729 0.297951 1.93855 -0.110839 -0.630105 -0.768558 
0.144134 0.316303 1.93855 -0.0578314 -0.68273 -0.728379 
0 0.464985 -1.52929 -0.00357102 -0.992566 -0.121655 
-0.273381 0.469053 -1.52929 -0.0308684 -0.999437 -0.0131136 
-0.536256 0.48092 -1.52929 -0.061202 -0.98748 0.145388 
-0.778522 0.487916 -1.52929 0.0593222 -0.95669 0.284999 
-0.990871 0.448474 -1.52929 0.240317 -0.858148 0.453684 
-1.16514 0.378351 -1.52929 0.41606 -0.674941 0.609384 
-1.29463 0.253511 -1.52929 0.562858 -0.401421 0.722532 
-1.37438 0.105675 -1.52929 0.56469 -0.236239 0.79077 
-1.4013 0 -1.52929 0.580054 0.00260011 0.814574 
-1.37438 -0.105675 -1.52929 0.568315 0.224328 0.791641 
-1.29463 -0.253985 -1.52929 0.529884 0.437979 0.726221 
-1.16514 -0.361288 -1.52929 0.429746 0.663769 0.612152 
-0.990871 -0.445067 -1.52929 0.227798 0.860813 0.455092 
-0.778522 -0.47072 -1.5258 0.0588708 0.959194 0.276553 
-0.536256 -0.481088 -1.52929 -0.0358758 0.992484 0.116995 
-0.273381 -0.451319 -1.52929 -0.0965733 0.995322 -0.00275137 
0 -0.445464 -1.52929 -0.000340274 0.995834 -0.0911834 
0.273381 -0.448526 -1.52929 0.0593383 0.998226 0.00479693 
0.536256 -0.472339 -1.52929 0.0843502 0.985967 0.144062 
0.778522 -0.484547 -1.52929 0.00215967 0.958858 0.283879 
0.990871 -0.463909 -1.52929 -0.208423 0.868974 0.448825 
1.16514 -0.387603 -1.52929 -0.441475 0.665427 0.601919 
1.3302 -0.207289 -1.52929 -0.585269 0.31343 0.747812 
1.37438 -0.105675 -1.52929 -0.575635 0.2208 0.787332 
1.4013 0 -1.52929 -0.583421 0.00616429 0.812147 
1.37438 0.105675 -1.52929 -0.564542 -0.240812 0.789495 
1.29463 0.247235 -1.52929 -0.549671 -0.423098 0.720313 
1.16514 0.365129 -1.52929 -0.430257 -0.669455 0.605565 
0.990871 0.443233 -1.52929 -0.250921 -0.858946 0.446376 
0.778522 0.480852 -1.52929 -0.0815839 -0.959651 0.2691 
0.536256 0.485033 -1.52929 0.0407186 -0.993622 0.105154 
0.273381 0.468212 -1.52929 0.0522698 -0.998188 -0.0298051 
3.78944e-10 0.3225 -1.93371 0.00373082 -0.697272 0.716797 
-0.144134 0.316303 -1.93371 0.0539414 -0.684202 0.727295 
-0.282729 0.297951 -1.93371 0.113416 -0.638788 0.760978 
-0.410459 0.268149 -1.93371 0.166726 -0.572329 0.802896 
-0.522415 0.228042 -1.93371 0.204467 -0.484022 0.850832 
-0.614295 0.179171 -1.93371 0.246213 -0.377043 0.89287 
-0.682568 0.123415 -1.93371 0.278575 -0.265443 0.923004 
-0.72461 0.0629166 -1.93371 0.311794 -0.140929 0.93964 
-0.738806 0 -1.93371 0.329428 0.0012682 0.94418 
-0.72461 -0.0629166 -1.93371 0.313057 0.139464 0.939439 
-0.682568 -0.123415 -1.93371 0.280574 0.265775 0.922302 
-0.614295 -0.179171 -1.93371 0.250605 0.380002 0.890391 
-0.522415 -0.228042 -1.93371 0.211059 0.49358 0.843702 
-0.410459 -0.268149 -1.93371 0.172903 0.595742 0.784344 
-0.282729 -0.297951 -1.93371 0.119905 0.681371 0.72205 
-0.144134 -0.316303 -1.93371 0.0595232 0.73757 0.672642 
3.78944e-10 -0.3225 -1.93371 -0.00232345 0.755482 0.655165 
0.144134 -0.316303 -1.93371 -0.0593363 0.739671 0.670347 
0.282729 -0.297951 -1.93371 -0.121813 0.685374 0.717931 
0.410459 -0.268149 -1.93371 -0.174052 0.599812 0.780981 
0.522415 -0.228042 -1.93371 -0.209584 0.493209 0.844286 
0.614295 -0.179171 -1.93371 -0.246101 0.377936 0.892524 
0.682568 -0.123415 -1.93371 -0.273949 0.261399 0.925539 
0.72461 -0.0629166 -1.93371 -0.303816 0.137389 0.942773 
0.738806 0 -1.93371 -0.320149 -0.00101702 0.947367 
0.72461 0.0629166 -1.93371 -0.303885 -0.135395 0.943039 
0.682568 0.123415 -1.93371 -0.270334 -0.256062 0.928091 
0.614295 0.179171 -1.93371 -0.238409 -0.361438 0.901401 
0.522415 0.228042 -1.93371 -0.198362 -0.462966 0.863895 
0.410459 0.268149 -1.93371 -0.162559 -0.552433 0.817553 
0.282729 0.297951 -1.93371 -0.110662 -0.629636 0.768968 
0.144134 0.316303 -1.93371 -0.0578886 -0.683539 0.727615 
