-2.862709999999999866e+01 -5.167670100000000133e+01 1.031329999999999991e+01 5.897288322448730469e-01 -7.139310836791992188e-01 -3.775213062763214111e-01
-2.455150000000000077e+01 -2.508999999999999986e+01 1.947970000000000113e+01 7.023299336433410645e-01 1.021506339311599731e-01 7.044840455055236816e-01
7.609849999999999781e+00 6.117439999999999856e+01 -3.857189900000000193e+01 9.605553746223449707e-01 1.949991881847381592e-01 -1.982644945383071899e-01
-5.328229900000000185e+01 6.226699800000000096e+01 -3.857189900000000193e+01 8.797592520713806152e-01 -3.440728783607482910e-01 -3.280814886093139648e-01
-6.302279999999999660e+01 6.281779900000000083e+01 -3.857189900000000193e+01 -9.702631235122680664e-01 -1.606117635965347290e-01 1.810887902975082397e-01
4.179310000000000080e+00 6.262620199999999926e+01 -3.857189900000000193e+01 4.046509265899658203e-01 9.138839840888977051e-01 -3.276742622256278992e-02
-3.968240000000000212e+00 8.340100099999999372e+01 2.885030000000000072e+01 -1.420556306838989258e-01 7.977353930473327637e-01 5.860361456871032715e-01
-3.110599999999999810e+00 6.326039899999999960e+01 -3.857189900000000193e+01 -3.154312670230865479e-01 9.200348854064941406e-01 -2.324627190828323364e-01
-1.824149999999999938e+00 6.410420200000000079e+01 -3.897769900000000121e+01 -2.019564509391784668e-01 9.475216269493103027e-01 -2.478234320878982544e-01
3.059789999999999921e+01 -1.076140000000000096e+00 1.888970000000000127e+01 7.275064587593078613e-01 -1.303701698780059814e-01 6.736006736755371094e-01
-4.213309900000000141e+01 -4.323319999999999652e+01 1.117099999999999937e+01 -5.463661551475524902e-01 8.375076055526733398e-01 -8.069919422268867493e-03
1.606389999999999985e+00 6.496189900000000250e+01 -3.861959800000000342e+01 6.463474780321121216e-02 9.590231180191040039e-01 -2.758569121360778809e-01
2.347610099999999989e+01 -3.924100099999999713e+01 2.984120000000000061e+01 3.222492933273315430e-01 -1.621600240468978882e-01 9.326626062393188477e-01
-5.376950000000000340e-01 6.540260299999999916e+01 -3.857189900000000193e+01 -1.040503233671188354e-01 9.232359528541564941e-01 -3.698768913745880127e-01
-6.216519900000000121e+01 6.753479799999999500e+01 -3.857189900000000193e+01 -9.684608578681945801e-01 2.419122308492660522e-01 5.968427658081054688e-02
-5.166659899999999794e+01 6.882119799999999543e+01 -3.857189900000000193e+01 8.940528631210327148e-01 -1.304602622985839844e-01 -4.285437166690826416e-01
-6.152949900000000127e+01 7.096530199999999411e+01 -3.857189900000000193e+01 -9.583485722541809082e-01 2.842353582382202148e-01 2.789887413382530212e-02
5.992570099999999655e+01 7.129260299999999972e+01 -3.857189900000000193e+01 3.762761354446411133e-01 -6.324872970581054688e-01 -6.770347356796264648e-01
5.863919800000000038e+01 7.142449999999999477e+01 -3.857189900000000193e+01 4.198224470019340515e-02 -7.468465566635131836e-01 -6.636699438095092773e-01
1.833029900000000012e+01 3.430129999999999768e+01 1.031329999999999991e+01 9.384877085685729980e-01 -3.111504018306732178e-01 -1.497538983821868896e-01
-5.086759899999999845e+01 7.310939799999999877e+01 -3.857189900000000193e+01 9.523488879203796387e-01 -2.467453330755233765e-01 -1.792996972799301147e-01
6.172010000000000218e+01 7.353820000000000334e+01 -3.857189900000000193e+01 8.216266036033630371e-01 -2.136962711811065674e-01 -5.284539461135864258e-01
-1.082929999999999993e+01 5.038199999999999790e+01 3.726890199999999709e+01 -2.494028955698013306e-01 -2.344284206628799438e-01 9.395964741706848145e-01
-1.640399899999999889e+01 3.443920099999999707e+01 2.746610099999999832e+01 -7.440399527549743652e-01 -1.783304959535598755e-01 6.438965797424316406e-01
1.018280000000000030e+01 7.929039999999999644e+00 2.566349999999999909e+01 -4.958451725542545319e-03 -4.149036407470703125e-01 9.098518490791320801e-01
6.066379899999999736e+01 7.611109899999999584e+01 -3.857189900000000193e+01 8.588671684265136719e-01 3.668674230575561523e-01 -3.574289381504058838e-01
-5.869179900000000316e+01 7.696880299999999409e+01 -3.857189900000000193e+01 -7.711556553840637207e-01 6.272018551826477051e-01 1.092557236552238464e-01
-5.794409900000000135e+01 7.782640100000000416e+01 -3.857189900000000193e+01 -7.053834199905395508e-01 6.883454918861389160e-01 1.691594272851943970e-01
-2.204050099999999901e+01 2.379530000000000101e+01 1.888970000000000127e+01 -8.364760279655456543e-01 3.881837129592895508e-01 3.868089616298675537e-01
-1.040049999999999919e+01 4.236019999999999897e+00 7.311609999999999943e+00 5.260218381881713867e-01 -7.093515992164611816e-01 -4.691707789897918701e-01
-1.425990000000000002e+01 1.907829999999999870e+01 2.662719900000000095e+01 -5.120732784271240234e-01 -1.574162393808364868e-01 8.443939089775085449e-01
1.433900000000000041e+01 -2.208820000000000050e+01 1.974729900000000171e+01 -8.416384458541870117e-01 3.993714451789855957e-01 3.635204434394836426e-01
-2.626679999999999993e+01 -4.095620000000000260e+01 1.079669999999999952e+01 7.232795357704162598e-01 -3.874805867671966553e-01 -5.715991854667663574e-01
5.844680000000000319e+01 7.997049699999999461e+01 -3.857189900000000193e+01 5.390562415122985840e-01 7.936082482337951660e-01 -2.821424305438995361e-01
3.773400099999999924e+01 6.153130000000000166e+01 6.882789999999999964e+00 5.763048529624938965e-01 6.853066086769104004e-01 4.452276229858398438e-01
-2.644470000000000098e+01 4.309209800000000001e+01 1.760320099999999854e+01 -8.651561141014099121e-01 -4.529804587364196777e-01 2.152059525251388550e-01
5.606629900000000077e+01 8.261450200000000166e+01 -3.857189900000000193e+01 6.923652887344360352e-01 6.520930528640747070e-01 -3.088769018650054932e-01
1.843040099999999981e+01 2.379530000000000101e+01 1.888970000000000127e+01 9.061499834060668945e-01 1.987723708152770996e-01 3.733385503292083740e-01
-3.900479899999999844e+01 -3.966980000000000217e+01 1.117099999999999937e+01 -9.099602103233337402e-01 8.308576047420501709e-02 -4.062868654727935791e-01
-3.929470100000000343e+01 -3.924100099999999713e+01 1.117099999999999937e+01 -9.109064936637878418e-01 3.933284804224967957e-02 -4.107338488101959229e-01
3.347800099999999901e+01 4.498499999999999943e+00 7.311609999999999943e+00 9.168896079063415527e-01 3.361291587352752686e-01 -2.152457088232040405e-01
4.362289999999999779e+00 5.424140200000000078e+01 -3.814310100000000148e+01 4.224717915058135986e-01 -9.045903682708740234e-01 -5.686714127659797668e-02
-9.665139999999999842e-01 5.453820000000000334e+01 -3.814310100000000148e+01 -1.533442586660385132e-01 -9.755044579505920410e-01 -1.577229648828506470e-01
3.321670000000000122e+00 5.426419800000000038e+01 -3.814310100000000148e+01 3.421025276184082031e-01 -9.376454353332519531e-01 -6.153760850429534912e-02
3.248129999999999740e+01 -1.994409900000000135e+01 1.926059899999999914e+01 8.751111626625061035e-01 4.166768491268157959e-01 2.460909932851791382e-01
-5.683510000000000062e+00 5.610920000000000130e+01 -3.814310100000000148e+01 -6.821578741073608398e-01 -7.125480175018310547e-01 -1.641218066215515137e-01
2.386860100000000173e+01 -3.709690100000000257e+01 3.003900000000000148e+01 3.122635483741760254e-01 -5.158567056059837341e-02 9.485938549041748047e-01
7.282549999999999635e+00 5.767190200000000289e+01 -3.814310100000000148e+01 9.134716391563415527e-01 -3.902092576026916504e-01 -1.153532341122627258e-01
-3.927959800000000001e+01 -2.080180000000000007e+01 1.974729900000000171e+01 -7.212154269218444824e-01 2.212745100259780884e-01 6.564189791679382324e-01
-1.468870000000000076e+01 4.952439900000000250e+01 3.580939899999999909e+01 -4.348455667495727539e-01 -2.782920002937316895e-01 8.564243912696838379e-01
-5.542639900000000353e+01 5.926160000000000139e+01 -3.814310100000000148e+01 5.301135778427124023e-01 -8.123787045478820801e-01 -2.429414540529251099e-01
-1.607200100000000020e+01 3.494459899999999664e+01 2.746610099999999832e+01 -7.350559234619140625e-01 -1.722709089517593384e-01 6.557556986808776855e-01
-6.655149999999999899e+00 -9.223689999999999500e+00 5.533919900000000069e+01 -6.036759614944458008e-01 -6.154610514640808105e-01 5.067377090454101562e-01
-5.371110199999999679e+01 6.110250099999999662e+01 -3.849710100000000068e+01 8.274982571601867676e-01 -4.462762176990509033e-01 -3.407112658023834229e-01
7.609849999999999781e+00 6.124560199999999810e+01 -3.814310100000000148e+01 9.679114818572998047e-01 1.938966661691665649e-01 -1.598478257656097412e-01
6.752209999999999823e+00 6.178189799999999821e+01 -3.814310100000000148e+01 8.902770876884460449e-01 4.123024642467498779e-01 -1.934252381324768066e-01
6.323400000000000354e+00 6.196839899999999801e+01 -3.814310100000000148e+01 8.484443426132202148e-01 4.965615570545196533e-01 -1.832180023193359375e-01
5.036940000000000417e+00 6.250820199999999716e+01 -3.814310100000000148e+01 5.867360830307006836e-01 7.957286834716796875e-01 -1.501888632774353027e-01
-9.554080000000000350e-01 -6.221960000000000157e+00 5.319509899999999902e+01 8.710762858390808105e-01 -2.530863881111145020e-01 4.209196567535400391e-01
-3.539419999999999789e+00 6.335940200000000289e+01 -3.814310100000000148e+01 -3.917218744754791260e-01 8.832916617393493652e-01 -2.575846314430236816e-01
2.389369999999999905e+01 -3.666799900000000179e+01 3.003900000000000148e+01 3.106352686882019043e-01 -2.774291858077049255e-02 9.501242041587829590e-01
3.305109999999999992e+00 6.453299699999999461e+01 -3.814310100000000148e+01 2.346144020557403564e-01 9.399086236953735352e-01 -2.480482310056686401e-01
3.055260000000000087e+00 6.496189900000000250e+01 -3.814310100000000148e+01 1.839536577463150024e-01 9.373369812965393066e-01 -2.959059774875640869e-01
1.177580000000000071e+00 6.539070100000000707e+01 -3.841379899999999736e+01 4.286694154143333435e-02 9.400363564491271973e-01 -3.383697271347045898e-01
-3.968240000000000212e+00 -5.955090000000000217e+00 4.161710000000000065e+01 -3.588310480117797852e-01 -9.049839377403259277e-01 -2.285701781511306763e-01
-6.244449999999999790e+01 6.624829900000000293e+01 -3.814310100000000148e+01 -9.689013957977294922e-01 2.001601010560989380e-01 1.454856395721435547e-01
2.360810100000000133e+01 -3.623920100000000133e+01 3.003900000000000148e+01 2.620669901371002197e-01 -1.323920325376093388e-03 9.650487899780273438e-01
-6.194819999999999993e+01 6.882119799999999543e+01 -3.814310100000000148e+01 -9.629209041595458984e-01 2.603413462638854980e-01 7.075137645006179810e-02
-6.149100099999999713e+01 7.010769700000000171e+01 -3.814310100000000148e+01 -9.609424471855163574e-01 2.672012746334075928e-01 7.206376641988754272e-02
3.315150100000000322e+01 5.356130000000000280e+00 7.311609999999999943e+00 9.020838141441345215e-01 3.650692105293273926e-01 -2.301505208015441895e-01
6.035450000000000159e+01 7.118070199999999659e+01 -3.814310100000000148e+01 4.673202037811279297e-01 -6.520041823387145996e-01 -5.970782637596130371e-01
-6.100099900000000019e+01 7.225180100000000039e+01 -3.818560000000000088e+01 -9.443701505661010742e-01 3.219853937625885010e-01 6.701198965311050415e-02
-6.097090099999999779e+01 7.268060300000000495e+01 -3.814310100000000148e+01 -9.389986991882324219e-01 3.370733857154846191e-01 6.828650832176208496e-02
9.654600000000000681e-02 -6.473250000000000393e-01 4.547639800000000321e+01 7.432958483695983887e-01 6.382672190666198730e-01 2.003156244754791260e-01
6.185029999999999717e+01 7.353820000000000334e+01 -3.814310100000000148e+01 8.464016318321228027e-01 -1.850284934043884277e-01 -4.993683695793151855e-01
-1.554630000000000045e+01 3.556340000000000146e+01 2.746610099999999832e+01 -7.288137078285217285e-01 -1.815384924411773682e-01 6.602076888084411621e-01
-6.014339799999999769e+01 7.501439700000000244e+01 -3.814310100000000148e+01 -8.674317002296447754e-01 4.921002388000488281e-01 7.348111271858215332e-02
-5.953649899999999917e+01 7.568229700000000548e+01 -3.814310100000000148e+01 -8.249474167823791504e-01 5.578080415725708008e-01 9.117000550031661987e-02
-2.530929899999999932e+01 8.357849999999999113e+00 2.575079900000000066e+01 -2.001742571592330933e-01 1.320104002952575684e-01 9.708262085914611816e-01
-5.028060200000000179e+01 7.696880299999999409e+01 -3.851720000000000255e+01 9.506076574325561523e-01 -4.278767108917236328e-02 3.074315190315246582e-01
1.061159999999999926e+01 1.888769900000000135e+01 2.703720099999999960e+01 4.738810062408447266e-01 -2.306504249572753906e-01 8.498454093933105469e-01
-2.294930099999999840e+01 -3.538159900000000135e+01 1.117099999999999937e+01 8.716502189636230469e-01 -4.019911885261535645e-01 -2.804087400436401367e-01
-5.757049899999999809e+01 7.868399800000000255e+01 -3.839910100000000170e+01 -6.775318384170532227e-01 6.912509799003601074e-01 2.512422204017639160e-01
1.669090100000000021e+01 -1.865769999999999840e+01 1.974729900000000171e+01 -7.400742173194885254e-01 5.182455182075500488e-01 4.286158084869384766e-01
2.647779999999999845e+01 -3.538159900000000135e+01 1.093859999999999921e+01 3.088121414184570312e-01 -6.106774806976318359e-01 -7.291831374168395996e-01
-5.499760100000000307e+01 7.973709900000000061e+01 -3.814310100000000148e+01 -3.612902760505676270e-01 7.859644293785095215e-01 5.017263889312744141e-01
-2.841090000000000160e+01 -1.822890100000000047e+01 1.970649900000000088e+01 4.433825016021728516e-01 4.407565295696258545e-01 7.804778814315795898e-01
5.354719899999999910e+01 8.148090399999999534e+01 -3.862480200000000252e+01 -4.789338707923889160e-01 1.567565053701400757e-01 -8.637416958808898926e-01
-2.252959999999999852e+00 5.523259999999999614e+00 7.311609999999999943e+00 -4.654522240161895752e-02 -9.961935281753540039e-01 7.370091974735260010e-02
5.692390100000000075e+01 8.235590399999999534e+01 -3.814310100000000148e+01 7.212175726890563965e-01 6.562131047248840332e-01 -2.218774110078811646e-01
5.049470099999999917e+01 8.556430100000000039e+01 -3.814970000000000283e+01 -4.896314740180969238e-01 5.715571045875549316e-01 -6.584705114364624023e-01
1.275569999999999915e+01 3.623099899999999707e+01 2.714480000000000004e+01 7.555957436561584473e-01 -1.697231382131576538e-01 6.326683163642883301e-01
-3.956010100000000307e+01 -1.951530100000000090e+01 1.927479900000000157e+01 -7.272288203239440918e-01 3.011682331562042236e-01 6.167948246002197266e-01
2.261850000000000094e+01 -3.538159900000000135e+01 2.991500100000000018e+01 1.273456811904907227e-01 5.345602706074714661e-02 9.904167652130126953e-01
3.321670000000000122e+00 5.417710100000000040e+01 -3.771429799999999943e+01 3.415871858596801758e-01 -9.351631402969360352e-01 -9.374482184648513794e-02
-5.376950000000000340e-01 5.442909999999999826e+01 -3.771429799999999943e+01 -7.836808264255523682e-02 -9.824890494346618652e-01 -1.690378487110137939e-01
2.347610099999999989e+01 -3.508010099999999909e+01 1.117099999999999937e+01 9.533594548702239990e-02 -5.886233448982238770e-01 -8.027662038803100586e-01
-5.949629999999999974e+00 5.595669900000000041e+01 -3.771429799999999943e+01 -6.856558322906494141e-01 -7.102384567260742188e-01 -1.594910323619842529e-01
4.687039999999999651e+00 5.595669900000000041e+01 -3.771429799999999943e+01 5.601610541343688965e-01 -8.277105093002319336e-01 -3.339136391878128052e-02
-2.841090000000000160e+01 -1.780010000000000048e+01 1.948059999999999903e+01 4.401519000530242920e-01 4.536625742912292480e-01 7.748913168907165527e-01
1.704390000000000072e+01 8.116159799999999791e+01 1.846089900000000128e+01 6.614890098571777344e-01 7.308438420295715332e-01 1.682249158620834351e-01
-6.969969999999999999e+00 5.837369900000000200e+01 -3.771429799999999943e+01 -9.393969178199768066e-01 -2.904987633228302002e-01 -1.820545196533203125e-01
3.860670100000000105e+01 -5.167670100000000133e+01 1.031329999999999991e+01 9.665715098381042480e-01 -1.116992533206939697e-01 2.307874262332916260e-01
-2.612760000000000105e+01 4.480740000000000123e+01 1.760320099999999854e+01 -9.007623195648193359e-01 -4.061168730258941650e-01 1.539361476898193359e-01
3.310990100000000069e+01 5.784950000000000259e+00 7.311609999999999943e+00 8.914656639099121094e-01 3.862653672695159912e-01 -2.368291467428207397e-01
8.174269999999999925e+00 6.024490000000000123e+01 -3.771429799999999943e+01 9.896495938301086426e-01 4.950212314724922180e-04 -1.435039788484573364e-01
-5.341899899999999946e+01 6.110250099999999662e+01 -3.771429799999999943e+01 7.968450188636779785e-01 -4.393026530742645264e-01 -4.147904515266418457e-01
1.618619899999999845e+01 -4.064410000000000167e+01 1.717439999999999856e+01 -8.046275377273559570e-01 -2.976950109004974365e-01 -5.137628316879272461e-01
-1.527319999999999922e+01 3.708869899999999831e+01 2.746610099999999832e+01 -7.148522734642028809e-01 -3.307521343231201172e-01 6.161081790924072266e-01
-5.285349999999999682e+01 6.281779900000000083e+01 -3.805080000000000240e+01 8.576301932334899902e-01 -2.897867262363433838e-01 -4.248458445072174072e-01
-2.627400000000000091e+01 4.523619800000000168e+01 1.760320099999999854e+01 -9.108225107192993164e-01 -3.830730020999908447e-01 1.538096815347671509e-01
4.179310000000000080e+00 6.293939999999999912e+01 -3.771429799999999943e+01 4.307590126991271973e-01 8.910875916481018066e-01 -1.428621858358383179e-01
-2.960719999999999796e+00 6.367540000000000333e+01 -3.771429799999999943e+01 -2.870034873485565186e-01 9.188666939735412598e-01 -2.707636654376983643e-01
2.133200100000000177e+01 -3.452399799999999885e+01 2.966340100000000035e+01 -5.613992363214492798e-02 1.828736960887908936e-01 9.815322160720825195e-01
2.218969900000000095e+01 -3.452399799999999885e+01 2.967889999999999873e+01 3.265305608510971069e-02 1.448011547327041626e-01 9.889218211174011230e-01
-6.240899999999999892e+01 6.581950399999999490e+01 -3.771429799999999943e+01 -9.708971977233886719e-01 1.345861405134201050e-01 1.981039047241210938e-01
1.177580000000000071e+00 6.581950399999999490e+01 -3.790809999999999746e+01 -3.786371648311614990e-02 8.946067690849304199e-01 -4.452473223209381104e-01
-1.088760000000000006e-01 6.601239800000000457e+01 -3.771429799999999943e+01 -1.882551796734333038e-02 8.785080909729003906e-01 -4.773564636707305908e-01
-5.156710100000000097e+01 6.704620400000000302e+01 -3.771429799999999943e+01 8.834481239318847656e-01 -1.138713955879211426e-01 -4.544808864593505859e-01
-5.137630099999999800e+01 6.839240300000000161e+01 -3.771429799999999943e+01 8.862628936767578125e-01 -8.740290999412536621e-02 -4.548612236976623535e-01
2.390490000000000137e+01 -3.452399799999999885e+01 2.961520000000000152e+01 2.607844471931457520e-01 8.541452884674072266e-02 9.616110324859619141e-01
2.862190100000000115e+01 -1.699459999999999837e+01 1.974729900000000171e+01 5.171290636062622070e-01 7.328708171844482422e-01 4.421287477016448975e-01
2.905079999999999885e+01 -1.705339999999999989e+01 1.974729900000000171e+01 5.761137604713439941e-01 6.904342770576477051e-01 4.374853372573852539e-01
-5.091659899999999794e+01 7.182289900000000671e+01 -3.771429799999999943e+01 9.463447928428649902e-01 -1.392370611429214478e-01 -2.916237413883209229e-01
-1.824149999999999938e+00 -6.473250000000000393e-01 2.994190000000000040e+01 -7.229589670896530151e-02 -7.039907574653625488e-01 -7.065198421478271484e-01
3.278170000000000073e+01 6.642579999999999707e+00 7.311609999999999943e+00 8.710471391677856445e-01 4.168207049369812012e-01 -2.598794400691986084e-01
-5.044549899999999809e+01 7.353820000000000334e+01 -3.771429799999999943e+01 9.768905639648437500e-01 -1.586118340492248535e-01 -1.432728469371795654e-01
-3.055499999999999972e+01 -1.651359899999999925e+01 1.952209999999999823e+01 2.472510188817977905e-01 5.389369130134582520e-01 8.052414655685424805e-01
-5.981179800000000313e+01 7.525350199999999745e+01 -3.771429799999999943e+01 -8.540490269660949707e-01 5.057399868965148926e-01 1.217673122882843018e-01
6.108209999999999695e+01 7.568229700000000548e+01 -3.771429799999999943e+01 9.144124984741210938e-01 2.982274293899536133e-01 -2.736971080303192139e-01
6.043130099999999771e+01 7.611129800000000500e+01 -3.771509900000000215e+01 8.821695446968078613e-01 4.166263937950134277e-01 -2.195435315370559692e-01
-3.784489800000000059e+01 7.199139999999999873e+00 7.311609999999999943e+00 -8.565496802330017090e-01 4.804637432098388672e-01 -1.883542686700820923e-01
3.232039999999999935e+01 7.500219999999999665e+00 7.311609999999999943e+00 8.517128825187683105e-01 4.454439878463745117e-01 -2.759797573089599609e-01
5.778160100000000199e+01 7.777989999999999782e+01 -3.771429799999999943e+01 2.195587009191513062e-01 9.593651294708251953e-01 -1.772357374429702759e-01
5.480830000000000268e+01 7.825520299999999452e+01 -3.771429799999999943e+01 -9.655798077583312988e-01 -2.505587041378021240e-01 6.982825696468353271e-02
-1.465990000000000038e+01 4.695150000000000290e+01 3.518479899999999816e+01 -4.510707259178161621e-01 -3.237066864967346191e-01 8.317146301269531250e-01
-5.242470200000000347e+01 7.875530200000000036e+01 -3.771429799999999943e+01 3.787837028503417969e-01 5.849828124046325684e-01 7.171596288681030273e-01
-5.413999900000000309e+01 7.954170200000000079e+01 -3.782400100000000265e+01 -1.241167783737182617e-01 8.110635876655578613e-01 5.716388225555419922e-01
-5.542639900000000353e+01 7.968890399999999374e+01 -3.771429799999999943e+01 -4.011764526367187500e-01 7.926566004753112793e-01 4.590784609317779541e-01
-3.484310200000000179e+01 -1.608480099999999879e+01 1.958249999999999957e+01 -1.816833615303039551e-01 6.255404949188232422e-01 7.587425708770751953e-01
5.800059900000000113e+01 8.168579900000000293e+01 -3.771429799999999943e+01 6.995626091957092285e-01 7.086582183837890625e-01 -9.173719584941864014e-02
5.692390100000000075e+01 8.237190200000000573e+01 -3.771429799999999943e+01 7.189218401908874512e-01 6.666382551193237305e-01 -1.968367695808410645e-01
5.220690199999999948e+01 8.554509699999999839e+01 -3.794279900000000083e+01 7.711936831474304199e-01 4.554193019866943359e-01 -4.448072612285614014e-01
3.199429999999999774e-01 -5.007730000000000237e-01 3.003900000000000148e+01 3.443443775177001953e-01 -6.725844740867614746e-01 -6.550243496894836426e-01
-4.060920000000000130e+01 -3.066460000000000008e+01 1.117099999999999937e+01 -9.519363045692443848e-01 -2.531804740428924561e-01 -1.723859757184982300e-01
5.220690199999999948e+01 8.792629999999999768e+01 -3.771429799999999943e+01 1.140792593359947205e-01 7.601257562637329102e-01 -6.396834254264831543e-01
-4.724590000000000067e+00 -2.185060000000000058e-01 4.547639800000000321e+01 -5.979986786842346191e-01 7.859804034233093262e-01 1.569468528032302856e-01
-1.395329999999999959e+00 5.431689800000000190e+01 -3.728549999999999898e+01 -2.004106938838958740e-01 -9.574624896049499512e-01 -2.076082229614257812e-01
3.750490000000000101e+00 5.458620100000000264e+01 -3.728549999999999898e+01 4.163025021553039551e-01 -9.055995345115661621e-01 -8.112854510545730591e-02
-5.254690000000000083e+00 5.541249799999999937e+01 -3.728549999999999898e+01 -6.370624303817749023e-01 -7.511231899261474609e-01 -1.731051206588745117e-01
-5.950319999999999609e+00 5.595669900000000041e+01 -3.728549999999999898e+01 -7.017950415611267090e-01 -6.899968385696411133e-01 -1.771671026945114136e-01
5.036940000000000417e+00 5.638550200000000245e+01 -3.739989899999999778e+01 6.327726840972900391e-01 -7.743023633956909180e-01 -7.388594094663858414e-03
1.918790100000000010e+01 -1.608480099999999879e+01 1.937820100000000068e+01 -5.070353150367736816e-01 5.961182117462158203e-01 6.225416660308837891e-01
-4.056900000000000261e+01 -2.980699900000000113e+01 1.117099999999999937e+01 -9.557965397834777832e-01 -2.241549044847488403e-01 -1.902827918529510498e-01
-5.842819999999999681e+01 5.863209899999999664e+01 -3.728549999999999898e+01 -2.503770589828491211e-01 -9.644354581832885742e-01 8.470947295427322388e-02
-6.037459900000000346e+01 5.938719900000000251e+01 -3.728549999999999898e+01 -6.182423233985900879e-01 -7.491299510002136230e-01 2.378672063350677490e-01
-6.155860100000000301e+01 5.981600199999999745e+01 -3.728549999999999898e+01 -7.762251496315002441e-01 -5.868355035781860352e-01 2.304315119981765747e-01
-6.209159900000000221e+01 6.024490000000000123e+01 -3.728549999999999898e+01 -8.231728076934814453e-01 -5.090698003768920898e-01 2.514647841453552246e-01
-2.081599999999999895e+01 -2.937809899999999885e+01 1.117099999999999937e+01 9.803978800773620605e-01 -1.919312626123428345e-01 -4.452355951070785522e-02
-7.961050000000000182e+00 6.110250099999999662e+01 -3.728549999999999898e+01 -9.581505060195922852e-01 1.315829753875732422e-01 -2.542314529418945312e-01
-6.260909999999999798e+01 6.196009800000000212e+01 -3.728549999999999898e+01 -9.212610125541687012e-01 -2.931339144706726074e-01 2.556375563144683838e-01
-5.271900200000000325e+01 6.238900000000000290e+01 -3.728549999999999898e+01 8.105915188789367676e-01 -3.484320938587188721e-01 -4.706765413284301758e-01
-7.014429999999999943e+00 6.281779900000000083e+01 -3.728549999999999898e+01 -8.473623991012573242e-01 4.282164573669433594e-01 -3.140184283256530762e-01
9.325120000000000076e+00 8.205970000000000653e+00 2.575079900000000066e+01 4.777992889285087585e-02 -4.477216601371765137e-01 8.928955197334289551e-01
-5.230419899999999700e+01 6.367540000000000333e+01 -3.728549999999999898e+01 8.296818733215332031e-01 -2.732973694801330566e-01 -4.867613017559051514e-01
3.750490000000000101e+00 6.367540000000000333e+01 -3.755759799999999871e+01 3.056895732879638672e-01 9.235062003135681152e-01 -2.317114323377609253e-01
-3.761970000000000036e-01 -2.185060000000000058e-01 4.547639800000000321e+01 5.947248935699462891e-01 7.580661773681640625e-01 2.676526606082916260e-01
-2.252959999999999852e+00 6.496189900000000250e+01 -3.756570099999999712e+01 -1.933765709400177002e-01 8.791547417640686035e-01 -4.355369210243225098e-01
-6.232260099999999881e+01 6.581950399999999490e+01 -3.728549999999999898e+01 -9.607620835304260254e-01 1.379538327455520630e-01 2.406343370676040649e-01
2.396120099999999908e+01 4.738029900000000083e+01 1.760320099999999854e+01 9.194319844245910645e-01 -2.858947217464447021e-01 2.700165808200836182e-01
-2.080880000000000152e+01 -2.809169999999999945e+01 1.117099999999999937e+01 9.873501062393188477e-01 -1.579997390508651733e-01 -1.325853820890188217e-02
-5.124259899999999845e+01 6.796359999999999957e+01 -3.728549999999999898e+01 8.789796829223632812e-01 -8.831853419542312622e-02 -4.686090052127838135e-01
-6.157789999999999964e+01 6.967880200000000457e+01 -3.728549999999999898e+01 -9.566548466682434082e-01 2.586509287357330322e-01 1.338329315185546875e-01
3.750490000000000101e+00 1.447230000000000061e+01 2.875250099999999875e+01 2.834581136703491211e-01 -1.515876650810241699e-01 9.469280242919921875e-01
6.035450000000000159e+01 7.033190199999999948e+01 -3.728549999999999898e+01 4.338358342647552490e-01 -7.072066664695739746e-01 -5.582519173622131348e-01
6.078329800000000205e+01 7.096530199999999411e+01 -3.759759900000000243e+01 5.437955856323242188e-01 -6.033544540405273438e-01 -5.833092331886291504e-01
-4.818979999999999819e+00 2.783220000000000027e+00 3.003900000000000148e+01 -8.852149844169616699e-01 -2.013714611530303955e-01 -4.193375110626220703e-01
6.178599899999999678e+01 7.182289900000000671e+01 -3.728549999999999898e+01 7.793595194816589355e-01 -4.005771875381469727e-01 -4.818055033683776855e-01
6.199980200000000252e+01 7.268060300000000495e+01 -3.728549999999999898e+01 8.539366722106933594e-01 -2.702931463718414307e-01 -4.446727335453033447e-01
5.686959800000000342e+01 7.353820000000000334e+01 -3.728549999999999898e+01 -8.537243604660034180e-01 -4.652603566646575928e-01 -2.338536232709884644e-01
6.192770000000000152e+01 7.396700300000000539e+01 -3.728549999999999898e+01 9.359784126281738281e-01 -6.956397742033004761e-02 -3.451161980628967285e-01
-5.028060200000000179e+01 7.482469899999999541e+01 -3.754240000000000066e+01 9.945011734962463379e-01 -9.999322146177291870e-02 3.112639673054218292e-02
5.735279799999999994e+01 7.488310199999999384e+01 -3.728549999999999898e+01 -9.784450531005859375e-01 -5.699400231242179871e-02 -1.984868794679641724e-01
5.899919899999999728e+01 7.590399899999999889e+01 -3.729610100000000017e+01 6.977921128273010254e-01 7.051985263824462891e-01 -1.256233155727386475e-01
-5.928580099999999931e+01 7.671690399999999954e+01 -3.728549999999999898e+01 -7.415701150894165039e-01 6.403523087501525879e-01 2.000569850206375122e-01
-1.498210000000000042e+00 4.695150000000000290e+01 3.518479899999999816e+01 8.178064227104187012e-02 -5.141623616218566895e-01 8.537850379943847656e-01
-5.818109900000000323e+01 7.782640100000000416e+01 -3.728549999999999898e+01 -6.629000306129455566e-01 7.108206152915954590e-01 2.351543903350830078e-01
1.661499999999999844e+01 8.140910300000000177e+01 1.846089900000000128e+01 6.467288732528686523e-01 7.430270910263061523e-01 1.721993833780288696e-01
2.476259999999999906e+01 -1.351190000000000069e+01 1.972250000000000014e+01 3.540413677692413330e-01 4.188582301139831543e-01 8.361893296241760254e-01
-5.242470200000000347e+01 7.844789900000000671e+01 -3.728549999999999898e+01 4.077184200286865234e-01 6.144616603851318359e-01 6.754276156425476074e-01
-5.328229900000000185e+01 7.911280100000000459e+01 -3.760340099999999808e+01 1.068134456872940063e-01 6.969052553176879883e-01 7.091642618179321289e-01
2.470429999999999993e+01 -1.308309999999999995e+01 1.974729900000000171e+01 3.740879297256469727e-01 3.250174820423126221e-01 8.685745596885681152e-01
-3.312789899999999932e+01 1.287470000000000070e+01 7.311609999999999943e+00 -5.924764275550842285e-01 7.256211042404174805e-01 -3.499224483966827393e-01
5.844710200000000100e+01 8.125689699999999505e+01 -3.728549999999999898e+01 6.809206008911132812e-01 7.283527255058288574e-01 -7.648104429244995117e-02
5.563750100000000032e+01 8.214919999999999334e+01 -3.728549999999999898e+01 7.478301525115966797e-01 6.623589992523193359e-01 -4.506213963031768799e-02
5.177780200000000121e+01 8.477539799999999559e+01 -3.728690000000000282e+01 5.094594359397888184e-01 4.817688465118408203e-01 -7.129866480827331543e-01
5.306460200000000071e+01 8.554509699999999839e+01 -3.752809899999999743e+01 7.217118740081787109e-01 6.245717406272888184e-01 -2.983990311622619629e-01
-5.811630000000000074e+00 4.498499999999999943e+00 3.003900000000000148e+01 -9.848601818084716797e-01 3.602759214118123055e-03 -1.733131855726242065e-01
2.133200100000000177e+01 6.882119799999999543e+01 2.462379999999999924e+01 8.723996281623840332e-01 2.740553915500640869e-01 4.047376811504364014e-01
5.263579899999999867e+01 8.776629599999999698e+01 -3.728549999999999898e+01 5.263794660568237305e-01 7.686863541603088379e-01 -3.633811473846435547e-01
-9.665139999999999842e-01 5.416030099999999692e+01 -3.685670100000000105e+01 -1.549844741821289062e-01 -9.558495879173278809e-01 -2.496627867221832275e-01
3.199429999999999774e-01 5.441159799999999791e+01 -3.685670100000000105e+01 2.277391962707042694e-02 -9.728154540061950684e-01 -2.304592728614807129e-01
-5.683510000000000062e+00 5.666909999999999670e+00 3.003900000000000148e+01 -9.916653633117675781e-01 1.287947446107864380e-01 -3.425323171541094780e-03
3.149849999999999817e+00 6.213770000000000238e+00 3.003900000000000148e+01 9.813113212585449219e-01 7.184308022260665894e-02 1.785123497247695923e-01
4.054420000000000357e+00 5.595669900000000041e+01 -3.685670100000000105e+01 5.227481722831726074e-01 -8.524074554443359375e-01 -1.165536046028137207e-02
1.232680000000000042e+01 8.137050000000000338e+00 2.575079900000000066e+01 2.467929199337959290e-02 -2.483146488666534424e-01 9.683650135993957520e-01
1.287800000000000011e+01 -2.551880099999999985e+01 1.117099999999999937e+01 -8.966870307922363281e-01 6.568252295255661011e-02 -4.377649426460266113e-01
-6.541150000000000020e+00 5.829710000000000036e+01 -3.685670100000000105e+01 -9.250668883323669434e-01 -3.707624673843383789e-01 -8.237971365451812744e-02
-5.714170099999999763e+01 5.874869900000000200e+01 -3.685670100000000105e+01 8.406294509768486023e-04 -9.978031516075134277e-01 -6.624359637498855591e-02
2.090319999999999823e+01 -1.136780000000000079e+01 1.959489999999999910e+01 -1.376028656959533691e-01 -2.999613620340824127e-02 9.900331497192382812e-01
-6.141529799999999994e+01 5.981600199999999745e+01 -3.685670100000000105e+01 -7.700961232185363770e-01 -5.978431701660156250e-01 2.225657403469085693e-01
-2.078679999999999950e+01 -2.466110000000000113e+01 1.117099999999999937e+01 9.979761838912963867e-01 1.467534620314836502e-02 6.187230348587036133e-02
-8.109310000000000684e+00 6.067369800000000168e+01 -3.685670100000000105e+01 -9.764171838760375977e-01 5.125953257083892822e-02 -2.097187489271163940e-01
-6.228749799999999937e+01 6.120690199999999948e+01 -3.685670100000000105e+01 -8.740932941436767578e-01 -3.976880311965942383e-01 2.789353132247924805e-01
-7.827600000000000335e+00 6.196009800000000212e+01 -3.724789799999999929e+01 -9.273843765258789062e-01 2.337299138307571411e-01 -2.921103537082672119e-01
2.420990000000000109e+01 4.866680099999999953e+01 1.760320099999999854e+01 8.955470323562622070e-01 -3.064516484737396240e-01 3.226187825202941895e-01
5.894580000000000375e+00 6.272010000000000218e+01 -3.685670100000000105e+01 7.053261995315551758e-01 6.767179965972900391e-01 -2.111102938652038574e-01
2.004560100000000133e+01 -1.093900000000000006e+01 1.947730100000000064e+01 -2.567066252231597900e-01 -1.431351006031036377e-01 9.558315873146057129e-01
-6.112330000000000041e+00 6.345280100000000090e+01 -3.685670100000000105e+01 -7.233533263206481934e-01 5.783856511116027832e-01 -3.771339356899261475e-01
-5.222139999999999560e+00 9.215490000000000848e+00 3.003900000000000148e+01 -7.346110343933105469e-01 2.848296761512756348e-01 6.158074140548706055e-01
-5.191830099999999959e+01 6.453299699999999461e+01 -3.685670100000000105e+01 8.391991257667541504e-01 -2.121407091617584229e-01 -5.007405281066894531e-01
-5.172280099999999692e+01 6.539070100000000707e+01 -3.685670100000000105e+01 8.547226786613464355e-01 -1.680461466312408447e-01 -4.911308288574218750e-01
2.430549999999999855e+01 4.909559999999999746e+01 1.760320099999999854e+01 8.912054300308227539e-01 -3.059515058994293213e-01 3.348829448223114014e-01
-1.088760000000000006e-01 6.612619800000000225e+01 -3.685670100000000105e+01 -6.190346926450729370e-02 8.038778901100158691e-01 -5.915641784667968750e-01
-6.201169999999999760e+01 6.753479799999999500e+01 -3.685670100000000105e+01 -9.577167630195617676e-01 1.959303617477416992e-01 2.106892168521881104e-01
-6.185869999999999891e+01 6.881279800000000080e+01 -3.685670100000000105e+01 -9.639772772789001465e-01 1.973028182983398438e-01 1.783795952796936035e-01
-2.781319999999999837e+01 4.952439900000000250e+01 1.760320099999999854e+01 -9.408808946609497070e-01 -2.826291322708129883e-01 1.867187023162841797e-01
5.949689899999999909e+01 7.010769700000000171e+01 -3.723160200000000231e+01 2.122426629066467285e-01 -8.086326122283935547e-01 -5.486950874328613281e-01
-4.149649800000000255e+01 -2.294590000000000174e+01 1.117099999999999937e+01 -9.920416474342346191e-01 -1.250346451997756958e-01 1.482119504362344742e-02
5.724060099999999807e+01 7.096530199999999411e+01 -3.685670100000000105e+01 -4.930267930030822754e-01 -7.644253969192504883e-01 -4.154256284236907959e-01
5.735279799999999994e+01 7.139409600000000466e+01 -3.718339900000000142e+01 -4.756155312061309814e-01 -8.097350001335144043e-01 -3.436844646930694580e-01
2.892850000000000144e+00 9.655200000000000671e+00 3.003900000000000148e+01 6.085518002510070801e-01 2.613223195075988770e-01 7.492498755455017090e-01
-5.036729799999999813e+01 7.268060300000000495e+01 -3.685670100000000105e+01 9.512411355972290039e-01 -7.636341452598571777e-02 -2.988458275794982910e-01
6.206980099999999823e+01 7.310939799999999877e+01 -3.716220100000000315e+01 8.901559710502624512e-01 -1.946853697299957275e-01 -4.119708836078643799e-01
3.333890199999999737e+01 -2.242729900000000143e+01 1.117099999999999937e+01 9.957916736602783203e-01 4.751252941787242889e-03 -9.152331203222274780e-02
-5.016700000000000159e+01 7.439589700000000505e+01 -3.685670100000000105e+01 9.970924258232116699e-01 -4.640062153339385986e-02 -6.044601649045944214e-02
5.692390100000000075e+01 7.482469899999999541e+01 -3.695009999999999906e+01 -9.725554585456848145e-01 -1.514661610126495361e-01 -1.766180396080017090e-01
5.780339800000000139e+01 7.528040300000000684e+01 -3.710969899999999910e+01 -8.690363764762878418e-01 4.179515242576599121e-01 -2.647496163845062256e-01
-2.142490000000000094e+01 -2.123059999999999903e+01 1.117099999999999937e+01 9.624936580657958984e-01 2.548151612281799316e-01 9.313987940549850464e-02
5.692390100000000075e+01 7.611109899999999584e+01 -3.686069899999999677e+01 -9.104605913162231445e-01 3.842377960681915283e-01 1.530449539422988892e-01
1.949889900000000154e+01 3.623099899999999707e+01 1.031329999999999991e+01 8.978278040885925293e-01 -4.386015832424163818e-01 -3.916523605585098267e-02
2.304729999999999990e+01 -1.051009999999999955e+01 1.961689900000000009e+01 1.596917361021041870e-01 -1.461354941129684448e-01 9.762904047966003418e-01
-5.885699799999999726e+01 7.712750200000000689e+01 -3.685670100000000105e+01 -6.966215968132019043e-01 6.817923188209533691e-01 2.233331054449081421e-01
2.390490000000000137e+01 -1.051009999999999955e+01 1.950060099999999963e+01 2.638376951217651367e-01 -1.496820896863937378e-01 9.528824090957641602e-01
5.865109999999999957e+01 7.782640100000000416e+01 -3.685670100000000105e+01 5.347874760627746582e-01 8.403843641281127930e-01 -8.807149529457092285e-02
1.918790100000000010e+01 -1.008130000000000059e+01 1.960110099999999989e+01 -3.178339898586273193e-01 -2.606812417507171631e-01 9.116067290306091309e-01
-5.328229900000000185e+01 7.837629699999999389e+01 -3.685670100000000105e+01 2.122458219528198242e-01 7.306505441665649414e-01 6.489232778549194336e-01
-5.542639900000000353e+01 7.911280100000000459e+01 -3.701139799999999980e+01 -3.486399054527282715e-01 8.082892298698425293e-01 4.744668900966644287e-01
-2.841090000000000160e+01 1.557590000000000074e+01 7.311609999999999943e+00 -4.279639422893524170e-01 7.931067347526550293e-01 -4.333920776844024658e-01
-4.220000100000000032e+01 -1.951530100000000090e+01 1.117099999999999937e+01 -9.903969764709472656e-01 1.254582256078720093e-01 5.808725953102111816e-02
5.810869999999999891e+01 8.168579900000000293e+01 -3.685670100000000105e+01 6.823544502258300781e-01 7.298303842544555664e-01 -4.171542823314666748e-02
5.692390100000000075e+01 8.231320200000000398e+01 -3.685670100000000105e+01 7.662580013275146484e-01 6.414753198623657227e-01 -3.685165569186210632e-02
5.263579899999999867e+01 8.468750000000000000e+01 -3.708259999999999934e+01 8.902373313903808594e-01 4.512965381145477295e-01 -6.171597167849540710e-02
5.043740100000000126e+01 8.552760299999999916e+01 -3.677429999999999666e+01 -3.504762053489685059e-01 -9.361385107040405273e-01 -2.848054841160774231e-02
2.433379899999999907e+01 -1.008130000000000059e+01 1.957250000000000156e+01 3.252379894256591797e-01 -1.941414028406143188e-01 9.254887700080871582e-01
4.981190099999999887e+01 8.761419700000000432e+01 -3.677579899999999924e+01 -3.867384493350982666e-01 5.956206917762756348e-01 -7.040379047393798828e-01
5.086849999999999739e+01 8.838150000000000261e+01 -3.686629899999999793e+01 -9.256558865308761597e-02 7.441913485527038574e-01 -6.615216135978698730e-01
1.645579899999999895e+01 -1.822890100000000047e+01 1.117099999999999937e+01 -8.912125229835510254e-01 3.375836908817291260e-01 -3.029480874538421631e-01
2.892850000000000144e+00 5.455239900000000119e+01 -3.642779900000000026e+01 3.673930764198303223e-01 -9.185435771942138672e-01 -1.459452956914901733e-01
-4.825879999999999725e+00 5.522969799999999907e+01 -3.642779900000000026e+01 -6.113201975822448730e-01 -7.620784640312194824e-01 -2.133635580539703369e-01
-3.968240000000000212e+00 5.562599900000000019e+01 -3.642779900000000026e+01 -5.847220420837402344e-01 -7.853350043296813965e-01 -2.033446282148361206e-01
5.465760000000000396e+00 5.610070000000000334e+01 -3.642779900000000026e+01 6.640777587890625000e-01 -7.472152113914489746e-01 -2.588545344769954681e-02
-5.839470000000000383e+00 5.767190200000000289e+01 -3.642779900000000026e+01 -8.720127940177917480e-01 -4.727876484394073486e-01 -1.267498135566711426e-01
7.609849999999999781e+00 5.827740099999999757e+01 -3.642779900000000026e+01 9.506939649581909180e-01 -3.096952438354492188e-01 -1.642812602221965790e-02
-5.671289800000000270e+01 5.877180100000000351e+01 -3.642779900000000026e+01 6.022485438734292984e-03 -9.839217066764831543e-01 -1.784990876913070679e-01
-2.197860000000000014e+01 8.563259999999999650e+00 2.575079900000000066e+01 -4.575280472636222839e-02 8.203022927045822144e-02 9.955791234970092773e-01
-6.057220099999999974e+01 5.975379900000000077e+01 -3.642779900000000026e+01 -7.028890848159790039e-01 -6.679568290710449219e-01 2.445008456707000732e-01
-6.100099900000000019e+01 5.990339999999999776e+01 -3.642779900000000026e+01 -7.588993906974792480e-01 -6.049214005470275879e-01 2.411261647939682007e-01
-8.224489999999999412e+00 6.067369800000000168e+01 -3.642779900000000026e+01 -9.816089868545532227e-01 2.489303238689899445e-02 -1.892723292112350464e-01
-5.273640100000000075e+01 6.153130000000000166e+01 -3.642779900000000026e+01 7.577911615371704102e-01 -3.925651311874389648e-01 -5.211959481239318848e-01
-6.228749799999999937e+01 6.238900000000000290e+01 -3.658440000000000225e+01 -9.227734208106994629e-01 -2.693985104560852051e-01 2.755241096019744873e-01
1.961680000000000135e+01 3.645100000000000051e+01 1.031329999999999991e+01 8.927688002586364746e-01 -4.493321776390075684e-01 -3.262692689895629883e-02
6.752209999999999823e+00 6.256119900000000200e+01 -3.642779900000000026e+01 8.673699498176574707e-01 4.549072980880737305e-01 -2.018133550882339478e-01
5.894580000000000375e+00 6.282540099999999939e+01 -3.642779900000000026e+01 6.875963807106018066e-01 6.743628978729248047e-01 -2.691579759120941162e-01
1.177580000000000071e+00 4.695150000000000290e+01 3.510240199999999788e+01 3.332556784152984619e-02 -5.260270833969116211e-01 8.498146533966064453e-01
-4.825879999999999725e+00 6.373160200000000231e+01 -3.642779900000000026e+01 -5.099481940269470215e-01 7.648355364799499512e-01 -3.936743438243865967e-01
-2.678469999999999906e+00 6.453299699999999461e+01 -3.642779900000000026e+01 -2.850066125392913818e-01 8.276942372322082520e-01 -4.834184944629669189e-01
2.569829899999999867e+01 -8.794869999999999521e+00 1.974729900000000171e+01 4.245988130569458008e-01 -2.913133203983306885e-01 8.572353720664978027e-01
-1.395329999999999959e+00 6.578330200000000616e+01 -3.642779900000000026e+01 -1.496387869119644165e-01 8.058699965476989746e-01 -5.728715062141418457e-01
1.831230000000000047e+01 -8.366049999999999542e+00 1.974729900000000171e+01 -3.514459133148193359e-01 -3.917137086391448975e-01 8.503211736679077148e-01
-5.109260199999999941e+01 6.667710099999999329e+01 -3.642779900000000026e+01 8.596766591072082520e-01 -1.030429303646087646e-01 -5.003380179405212402e-01
2.647779999999999845e+01 -8.366049999999999542e+00 1.937630100000000155e+01 4.515603780746459961e-01 -3.077346086502075195e-01 8.374918699264526367e-01
2.421120099999999908e+01 1.650540000000000163e+01 7.311609999999999943e+00 5.621300935745239258e-01 7.601973414421081543e-01 -3.257450163364410400e-01
-2.191540000000000177e+01 3.708869899999999831e+01 1.031329999999999991e+01 -8.803406953811645508e-01 -4.727239906787872314e-01 3.914468735456466675e-02
-2.112099999999999866e+01 8.786670000000000869e+00 2.571299899999999994e+01 8.486279693897813559e-05 8.959486335515975952e-02 9.959782958030700684e-01
-4.397059999999999746e+00 1.393249999999999922e+01 2.988729999999999976e+01 -2.488767206668853760e-01 -1.177249476313591003e-02 9.684635400772094727e-01
-5.044580100000000300e+01 7.139409600000000466e+01 -3.642779900000000026e+01 9.234165549278259277e-01 -6.739777326583862305e-02 -3.778351545333862305e-01
6.233209999999999695e+01 7.182289900000000671e+01 -3.642779900000000026e+01 8.603415489196777344e-01 -3.056787848472595215e-01 -4.078883826732635498e-01
3.230099899999999735e+01 -1.436950000000000038e+01 1.117099999999999937e+01 9.398162961006164551e-01 7.382386177778244019e-02 3.336096107959747314e-01
-5.020080200000000303e+01 7.310939799999999877e+01 -3.642779900000000026e+01 9.693077206611633301e-01 -1.596777513623237610e-02 -2.453315258026123047e-01
2.096719900000000081e+01 6.967880200000000457e+01 2.489320000000000022e+01 8.599619269371032715e-01 2.999072074890136719e-01 4.129420518875122070e-01
1.575740000000000052e+01 -1.405669999999999931e+01 1.117099999999999937e+01 -9.858177304267883301e-01 -1.557897627353668213e-01 -6.239224225282669067e-02
5.561430000000000007e+01 7.525350199999999745e+01 -3.642779900000000026e+01 -9.908532500267028809e-01 -1.311405599117279053e-01 3.180964663624763489e-02
2.519140099999999904e+01 5.102830099999999902e+01 1.760320099999999854e+01 8.300126791000366211e-01 -3.048012256622314453e-01 4.670923054218292236e-01
-2.498030100000000076e+01 -7.508420000000000094e+00 1.950729899999999972e+01 6.789910048246383667e-02 -6.426627635955810547e-01 7.631345391273498535e-01
1.618619899999999845e+01 -7.508420000000000094e+00 1.934690099999999902e+01 -5.231787562370300293e-01 -4.366119801998138428e-01 7.318837642669677734e-01
5.820140099999999705e+01 7.654779800000000023e+01 -3.666780099999999720e+01 1.336840540170669556e-01 9.876065254211425781e-01 -8.223094791173934937e-02
1.747269999999999968e+01 -7.748770000000000380e+00 1.974729900000000171e+01 -4.108134806156158447e-01 -4.241514205932617188e-01 8.070488572120666504e-01
3.199429999999999774e-01 1.393249999999999922e+01 2.991480100000000064e+01 1.287317126989364624e-01 7.137463241815567017e-02 9.891076087951660156e-01
1.104039999999999999e+01 5.081090199999999868e+01 3.593790099999999654e+01 4.350351393222808838e-01 -2.419470846652984619e-01 8.672980666160583496e-01
3.205250199999999694e+01 -1.308309999999999995e+01 1.098259999999999970e+01 9.182050228118896484e-01 -4.654127731919288635e-02 3.933615982532501221e-01
5.906800100000000242e+01 7.825520299999999452e+01 -3.675750000000000028e+01 5.965085029602050781e-01 8.007418513298034668e-01 -5.468143895268440247e-02
-5.542639900000000353e+01 7.848680099999999982e+01 -3.642779900000000026e+01 -3.328500092029571533e-01 7.840206623077392578e-01 5.239487886428833008e-01
5.942589999999999861e+01 7.911280100000000459e+01 -3.642779900000000026e+01 6.296144723892211914e-01 7.766583561897277832e-01 -1.968082226812839508e-02
-2.712439900000000037e+01 -7.224029999999999951e+00 1.974729900000000171e+01 -8.836255967617034912e-02 -5.896276235580444336e-01 8.028270602226257324e-01
5.814590100000000206e+01 8.168579900000000293e+01 -3.642779900000000026e+01 6.800292134284973145e-01 7.319169044494628906e-01 -4.310278967022895813e-02
-3.998899800000000226e+01 -1.222540000000000049e+01 1.094759999999999955e+01 -8.692963719367980957e-01 3.146068155765533447e-01 3.812431693077087402e-01
-3.110599999999999810e+00 1.436129999999999995e+01 2.992550100000000057e+01 -1.465740054845809937e-01 -2.037299983203411102e-02 9.889899492263793945e-01
5.392219899999999910e+01 8.511630200000000457e+01 -3.667079900000000237e+01 8.106843233108520508e-01 5.005689859390258789e-01 -3.036799430847167969e-01
5.392219899999999910e+01 8.640280199999999411e+01 -3.675019799999999748e+01 7.460091710090637207e-01 5.907631516456604004e-01 -3.073583543300628662e-01
-1.824149999999999938e+00 1.424590000000000067e+01 3.003900000000000148e+01 -5.371300876140594482e-02 9.537451900541782379e-03 9.985108375549316406e-01
1.532859999999999978e+01 -1.207019999999999982e+01 1.117099999999999937e+01 -9.184516072273254395e-01 -3.945608139038085938e-01 -2.772278152406215668e-02
-2.326510000000000034e+01 -1.165370000000000061e+01 1.117099999999999937e+01 7.983639836311340332e-01 -5.630677938461303711e-01 2.134700715541839600e-01
3.199429999999999774e-01 1.436129999999999995e+01 2.976139999999999830e+01 1.186383292078971863e-01 -1.152980912593193352e-04 9.929375648498535156e-01
