6.439000000000000279e-02 1.028239999999999987e-01 -6.556000000000000195e-03 -2.757850885391235352e-01 -1.729911118745803833e-01 -9.455245137214660645e-01
-8.615899999999999948e-02 1.712710000000000066e-01 5.555000000000000042e-03 -2.321045249700546265e-01 -9.287816286087036133e-01 -2.889502048492431641e-01
6.831299999999999872e-02 1.328749999999999931e-01 -1.358700000000000012e-02 -8.918710350990295410e-01 -1.183407679200172424e-01 4.365334212779998779e-01
3.412699999999999761e-02 1.031249999999999944e-01 1.981700000000000128e-02 -5.751442909240722656e-01 5.896635055541992188e-01 5.670149922370910645e-01
-5.109699999999999659e-02 1.451780000000000015e-01 3.204999999999999950e-03 -3.868567049503326416e-01 -8.912850618362426758e-01 -2.365434914827346802e-01
-4.917300000000000143e-02 1.675250000000000072e-01 -3.415499999999999786e-02 -5.562297701835632324e-01 5.347839370369911194e-02 -8.293060660362243652e-01
-5.512299999999999839e-02 1.720750000000000057e-01 4.398000000000000000e-03 -4.201413691043853760e-02 -1.661188155412673950e-01 9.852102994918823242e-01
-2.117300000000000085e-02 1.402249999999999885e-01 -2.381499999999999936e-02 6.443874239921569824e-01 1.123889535665512085e-01 -7.563951015472412109e-01
2.564900000000000166e-02 6.485699999999999799e-02 1.321100000000000052e-02 -4.487753212451934814e-01 8.698951005935668945e-01 -2.046536803245544434e-01
4.987699999999999773e-02 7.777599999999999791e-02 6.011999999999999983e-03 4.383817017078399658e-01 -8.723412156105041504e-01 -2.164308428764343262e-01
3.212700000000000278e-02 5.523800000000000238e-02 -4.545000000000000429e-03 3.693942129611968994e-01 -9.244599342346191406e-01 9.445478767156600952e-02
-1.907299999999999968e-02 1.737680000000000058e-01 -6.937999999999999723e-03 -1.692035049200057983e-01 9.035109877586364746e-01 3.937487006187438965e-01
-3.342300000000000132e-02 5.560600000000000265e-02 -7.636999999999999691e-03 -3.843836188316345215e-01 -8.868982195854187012e-01 2.562434673309326172e-01
6.492699999999999860e-02 1.013750000000000068e-01 -6.151000000000000217e-03 -1.830122768878936768e-01 -5.455479621887207031e-01 -8.178532719612121582e-01
-5.232300000000000145e-02 5.891699999999999715e-02 1.406199999999999985e-02 1.910032927989959717e-01 -8.775375485420227051e-01 4.398244619369506836e-01
-4.077299999999999675e-02 1.290250000000000008e-01 -2.801199999999999871e-02 -4.619074612855911255e-02 -2.334942072629928589e-01 -9.712604284286499023e-01
2.577899999999999983e-02 6.497500000000000497e-02 1.546299999999999931e-02 -7.052632570266723633e-01 6.941698789596557617e-01 -1.439857929944992065e-01
-1.050599999999999971e-02 6.847499999999999420e-02 8.113000000000000420e-03 7.525473833084106445e-01 -1.312621533870697021e-01 -6.453236341476440430e-01
-1.332099999999999951e-02 5.412499999999999950e-02 1.406199999999999985e-02 7.252556085586547852e-01 -6.760876178741455078e-01 -1.300375312566757202e-01
5.897700000000000164e-02 5.587500000000000105e-02 -2.450199999999999947e-02 5.805230885744094849e-02 -8.162238001823425293e-01 -5.748117566108703613e-01
9.117699999999999416e-02 1.314750000000000085e-01 -1.232399999999999989e-02 4.034593701362609863e-01 1.160339564085006714e-01 -9.076104164123535156e-01
-8.242299999999999627e-02 6.532499999999999418e-02 -1.842200000000000087e-02 -2.714906632900238037e-01 2.333895117044448853e-01 9.337142109870910645e-01
3.681500000000000050e-02 1.027010000000000006e-01 1.231200000000000003e-02 -6.935100555419921875e-01 -4.732705056667327881e-01 -5.431932210922241211e-01
3.377700000000000147e-02 6.308099999999999818e-02 -4.683799999999999769e-02 -5.598917603492736816e-01 3.032820522785186768e-01 -7.710649967193603516e-01
-1.080399999999999971e-01 1.580749999999999933e-01 1.126199999999999944e-02 -8.615583181381225586e-01 -5.629697814583778381e-02 -5.045273900032043457e-01
-9.747300000000000408e-02 1.556250000000000133e-01 4.741999999999999688e-03 1.420387532562017441e-03 5.846052169799804688e-01 -8.113166093826293945e-01
2.887699999999999989e-02 7.022499999999999576e-02 -4.706799999999999873e-02 -5.043562054634094238e-01 6.554443240165710449e-01 -5.621542334556579590e-01
2.117700000000000138e-02 5.440500000000000197e-02 -7.988000000000000309e-03 -5.739915370941162109e-01 -7.612498998641967773e-01 3.017156422138214111e-01
-4.042300000000000060e-02 6.672500000000000653e-02 2.498600000000000126e-02 -5.749464631080627441e-01 -6.549208164215087891e-01 4.904235899448394775e-01
-4.497299999999999909e-02 1.430250000000000132e-01 -2.586999999999999890e-03 -6.409630775451660156e-01 -4.708168804645538330e-01 6.062159538269042969e-01
-2.222299999999999970e-02 1.601750000000000118e-01 -2.175399999999999903e-02 7.138496041297912598e-01 -5.921668559312820435e-02 6.977908611297607422e-01
3.814200000000000229e-02 5.905400000000000232e-02 -4.473000000000000413e-03 -2.262572497129440308e-01 3.523668050765991211e-01 -9.080998301506042480e-01
6.374100000000000599e-02 1.276249999999999885e-01 -2.093799999999999828e-02 4.768396019935607910e-01 1.112330891191959381e-02 -8.789198994636535645e-01
4.727000000000000299e-03 1.557250000000000023e-01 -2.023700000000000152e-02 -8.049001693725585938e-01 5.694192647933959961e-01 1.670252829790115356e-01
-5.711900000000000310e-02 1.731250000000000011e-01 -2.723700000000000079e-02 -6.922388076782226562e-01 4.505749642848968506e-01 -5.637266635894775391e-01
-2.502300000000000010e-02 1.609130000000000005e-01 -3.088000000000000033e-03 4.391856491565704346e-01 4.277666807174682617e-01 7.900199890136718750e-01
4.664599999999999996e-02 7.449100000000000166e-02 -2.239999999999999966e-04 -5.705382227897644043e-01 8.188247680664062500e-01 -6.334131211042404175e-02
-4.357300000000000062e-02 1.437249999999999917e-01 -3.226099999999999801e-02 -7.898589968681335449e-02 2.059098780155181885e-01 -9.753780364990234375e-01
-1.382300000000000022e-02 6.488099999999999423e-02 2.141200000000000048e-02 3.445627167820930481e-02 8.651448488235473633e-01 5.003369450569152832e-01
-4.637299999999999756e-02 1.360250000000000070e-01 -2.715800000000000158e-02 -1.342463493347167969e-01 -2.860534191131591797e-01 -9.487631320953369141e-01
-1.382300000000000022e-02 6.532499999999999418e-02 -2.239199999999999871e-02 3.649961948394775391e-01 -8.721401095390319824e-01 -3.258056640625000000e-01
3.447700000000000070e-02 5.469899999999999762e-02 1.056200000000000021e-02 -5.643746256828308105e-02 -6.064167618751525879e-01 7.931416034698486328e-01
5.792699999999999932e-02 5.420500000000000318e-02 -5.538000000000000388e-03 -1.306273322552442551e-02 -9.189212918281555176e-01 -3.942245841026306152e-01
5.667000000000000162e-03 1.566750000000000087e-01 -2.128800000000000137e-02 -7.489025592803955078e-01 5.594429969787597656e-01 -3.552020192146301270e-01
4.525900000000000062e-02 1.528249999999999886e-01 -2.478800000000000101e-02 1.634848713874816895e-01 6.944158077239990234e-01 -7.007563114166259766e-01
-3.692299999999999749e-02 1.773250000000000104e-01 -2.553000000000000148e-03 2.702040374279022217e-01 -2.371064275503158569e-01 9.331507682800292969e-01
5.932699999999999779e-02 8.328399999999999692e-02 9.511999999999999622e-03 9.159798622131347656e-01 2.347894161939620972e-01 -3.253533244132995605e-01
-2.840700000000000169e-02 7.057499999999999885e-02 2.071299999999999877e-02 3.864571750164031982e-01 4.213250577449798584e-01 8.204486966133117676e-01
-8.172300000000000397e-02 1.416250000000000009e-01 1.858599999999999836e-02 7.307391762733459473e-01 4.764586389064788818e-01 4.888838827610015869e-01
4.390100000000000252e-02 5.937499999999999722e-02 -2.198699999999999960e-02 1.003080606460571289e-01 -8.474525809288024902e-01 -5.213084816932678223e-01
6.387700000000000322e-02 1.367250000000000132e-01 -1.628999999999999893e-02 3.029052317142486572e-01 -2.337996214628219604e-01 9.238972663879394531e-01
-3.902100000000000013e-02 1.078000000000000069e-01 -1.189400000000000006e-02 9.673255681991577148e-01 -9.222059696912765503e-02 2.361705303192138672e-01
-3.657300000000000134e-02 1.570249999999999979e-01 -3.961200000000000138e-02 -3.476492762565612793e-01 -5.610038340091705322e-02 -9.359448552131652832e-01
-8.767300000000000093e-02 5.797499999999999876e-02 -3.524299999999999655e-02 -6.328081488609313965e-01 -4.244588315486907959e-01 6.476021409034729004e-01
-4.497299999999999909e-02 5.482499999999999873e-02 2.503000000000000017e-03 -7.628820091485977173e-02 -9.642381668090820312e-01 -2.538203299045562744e-01
-1.837300000000000044e-02 1.605250000000000010e-01 -1.187200000000000061e-02 -8.540659397840499878e-02 -3.122179806232452393e-01 -9.461635947227478027e-01
-7.333800000000000041e-02 1.423250000000000071e-01 -1.218699999999999992e-02 4.329597055912017822e-01 -7.745057344436645508e-01 4.611796736717224121e-01
6.279600000000000459e-02 8.793900000000000328e-02 8.352999999999999314e-03 -3.887639641761779785e-01 -6.359051465988159180e-01 -6.666988134384155273e-01
-5.724599999999999828e-02 1.446900000000000130e-01 -1.114200000000000086e-02 -1.195643246173858643e-01 -9.708651304244995117e-01 -2.076660096645355225e-01
3.501200000000000145e-02 1.012620000000000048e-01 1.407599999999999997e-02 -8.176316618919372559e-01 1.701736748218536377e-01 -5.500175356864929199e-01
-7.997300000000000242e-02 1.605250000000000010e-01 -1.861600000000000060e-02 -7.015956640243530273e-01 -3.448837399482727051e-01 -6.235533356666564941e-01
-1.802300000000000083e-02 1.559550000000000103e-01 -9.036999999999999894e-03 5.273894667625427246e-01 7.338182926177978516e-01 4.282184839248657227e-01
-1.837300000000000044e-02 9.122500000000000053e-02 -3.224799999999999889e-02 1.842653155326843262e-01 3.481414914131164551e-01 -9.191538095474243164e-01
-8.872299999999999631e-02 1.704289999999999972e-01 8.462000000000000771e-03 -2.599411606788635254e-01 -7.395253777503967285e-01 -6.209128499031066895e-01
-2.768599999999999881e-02 1.251919999999999977e-01 -1.711199999999999874e-02 6.181240677833557129e-01 -3.751750290393829346e-02 7.851847410202026367e-01
2.887699999999999989e-02 6.252499999999999725e-02 -2.816499999999999906e-02 6.299564242362976074e-02 -3.993985950946807861e-01 -9.146105051040649414e-01
-8.696999999999999870e-03 1.423250000000000071e-01 -1.813700000000000034e-02 7.478351145982742310e-02 3.347518146038055420e-01 9.393341541290283203e-01
-1.662299999999999889e-02 1.290250000000000008e-01 -1.994800000000000045e-02 -2.305459827184677124e-01 8.833044767379760742e-02 -9.690440297126770020e-01
-9.044599999999999862e-02 1.670810000000000073e-01 -3.165999999999999977e-03 2.197985798120498657e-01 -5.572481751441955566e-01 8.007266521453857422e-01
-9.437600000000000156e-02 1.668250000000000011e-01 -2.386999999999999799e-03 -8.053239583969116211e-01 -3.182360529899597168e-01 5.001789331436157227e-01
3.412699999999999761e-02 9.717499999999999749e-02 -3.479800000000000254e-02 1.124202907085418701e-01 9.000664204359054565e-02 -9.895759224891662598e-01
-8.029400000000000426e-02 1.514129999999999920e-01 6.474999999999999853e-03 2.274432480335235596e-01 8.359022140502929688e-01 4.995367527008056641e-01
-1.030729999999999980e-01 1.475750000000000117e-01 8.049999999999999864e-03 -8.700797557830810547e-01 1.186251863837242126e-01 4.784237146377563477e-01
3.524100000000000149e-02 5.766399999999999998e-02 -1.369999999999999907e-03 -9.590694904327392578e-01 2.221400439739227295e-01 1.756118237972259521e-01
-2.680599999999999997e-02 5.972500000000000031e-02 -2.828800000000000064e-02 5.567286014556884766e-01 -8.304778337478637695e-01 1.896677538752555847e-02
-9.954699999999999660e-02 1.521250000000000102e-01 8.113000000000000420e-03 -9.516645669937133789e-01 2.431061118841171265e-01 -1.877069771289825439e-01
-1.084300000000000021e-02 7.442500000000000504e-02 1.301199999999999926e-02 8.050337433815002441e-01 4.056109786033630371e-01 4.328977465629577637e-01
-2.047300000000000161e-02 1.867749999999999966e-01 -2.174799999999999997e-02 -4.701674580574035645e-01 4.115744829177856445e-01 7.807362675666809082e-01
3.623200000000000032e-02 5.458899999999999864e-02 5.127999999999999746e-03 5.042700767517089844e-01 -4.813404381275177002e-01 -7.169539928436279297e-01
-9.397300000000000098e-02 1.452130000000000087e-01 1.581199999999999967e-02 2.820537686347961426e-01 -9.512202739715576172e-01 -1.250022947788238525e-01
-6.387299999999999922e-02 1.778399999999999981e-01 4.130000000000000099e-04 -4.271792247891426086e-02 9.800797700881958008e-01 1.939556896686553955e-01
-8.662300000000000555e-02 1.503750000000000087e-01 1.627100000000000074e-02 4.597297310829162598e-01 5.247542858123779297e-01 7.164366841316223145e-01
5.687400000000000094e-02 7.407500000000000195e-02 -1.688000000000000047e-03 1.946057975292205811e-01 -7.804658412933349609e-01 -5.941393971443176270e-01
-4.637299999999999756e-02 6.085399999999999837e-02 2.386200000000000127e-02 8.985192179679870605e-01 -1.891927868127822876e-01 -3.960672616958618164e-01
2.957699999999999912e-02 1.575640000000000096e-01 -1.743799999999999864e-02 -2.456389814615249634e-01 7.636650204658508301e-01 5.970571637153625488e-01
4.120700000000000057e-02 8.632499999999999896e-02 -5.186999999999999771e-03 8.125526309013366699e-01 7.193245738744735718e-02 5.784323215484619141e-01
-2.607299999999999895e-02 7.231899999999999440e-02 -3.563800000000000301e-02 -2.310101538896560669e-01 5.874266624450683594e-01 -7.756057381629943848e-01
-7.297299999999999620e-02 1.024250000000000022e-01 1.097300000000000011e-02 -4.993411898612976074e-01 8.112287521362304688e-02 8.625992536544799805e-01
-5.088499999999999968e-02 1.464159999999999906e-01 1.345000000000000058e-03 -3.663527667522430420e-01 -6.105349659919738770e-01 -7.021629214286804199e-01
8.417700000000000182e-02 1.419749999999999901e-01 -1.477000000000000014e-02 1.578231155872344971e-01 3.696058392524719238e-01 -9.156874418258666992e-01
-6.002299999999999996e-02 1.455019999999999925e-01 6.299999999999999990e-05 3.016493916511535645e-01 -9.381294250488281250e-01 1.700613498687744141e-01
-3.855599999999999999e-02 1.410919999999999952e-01 -2.020999999999999793e-03 2.133078277111053467e-01 1.111519560217857361e-01 9.706416130065917969e-01
3.762700000000000072e-02 5.647900000000000142e-02 -4.543699999999999822e-02 3.646119534969329834e-01 -7.861772179603576660e-01 4.989826083183288574e-01
4.175500000000000045e-02 7.888100000000000667e-02 1.300100000000000040e-02 8.740255236625671387e-01 -3.979359865188598633e-01 2.787943482398986816e-01
3.818400000000000266e-02 5.618399999999999783e-02 1.981000000000000122e-03 3.317863345146179199e-01 -9.207804799079895020e-01 2.051369249820709229e-01
-7.430900000000000005e-02 1.671749999999999903e-01 -1.323700000000000050e-02 -7.518755197525024414e-01 6.591441035270690918e-01 -1.456923782825469971e-02
-6.772899999999999754e-02 1.533370000000000011e-01 -2.057999999999999934e-03 -2.182048708200454712e-01 9.723460078239440918e-01 -8.324698358774185181e-02
-1.172300000000000078e-02 1.748750000000000027e-01 -8.968999999999999542e-03 2.459352463483810425e-01 7.748305797576904297e-01 5.823687911033630371e-01
-1.942299999999999929e-02 6.392499999999999571e-02 -2.558399999999999910e-02 9.687157273292541504e-01 -2.178676128387451172e-01 -1.188420578837394714e-01
-2.631299999999999958e-02 1.608749999999999902e-01 -3.633700000000000124e-02 6.875509619712829590e-01 1.074034646153450012e-01 7.181491255760192871e-01
-6.387299999999999922e-02 1.745250000000000135e-01 4.441999999999999768e-03 -5.741315484046936035e-01 -4.830794036388397217e-01 6.610653400421142578e-01
-1.697299999999999850e-02 1.658459999999999934e-01 -7.287000000000000074e-03 3.217124938964843750e-01 8.080639243125915527e-01 4.934914410114288330e-01
-9.622999999999999610e-03 1.444249999999999978e-01 -2.079200000000000145e-02 1.944864094257354736e-01 6.457718610763549805e-01 -7.383452057838439941e-01
-1.957700000000000065e-02 7.057499999999999885e-02 1.791200000000000084e-02 -5.741969347000122070e-01 4.377653598785400391e-01 6.918521523475646973e-01
1.555600000000000038e-02 7.036900000000000099e-02 -6.147999999999999819e-03 -9.464400410652160645e-01 1.492605954408645630e-01 2.863086163997650146e-01
4.094799999999999829e-02 8.524700000000000333e-02 1.503600000000000075e-02 -9.375229477882385254e-02 -2.469371110200881958e-01 9.644855856895446777e-01
-2.362300000000000164e-02 1.468929999999999958e-01 -6.237000000000000356e-03 1.870021671056747437e-01 -9.603161811828613281e-01 2.069371640682220459e-01
3.792500000000000038e-02 6.219800000000000328e-02 -5.730000000000000501e-04 -7.738625407218933105e-01 5.635720491409301758e-01 -2.890039086341857910e-01
-7.752299999999999469e-02 9.962500000000000522e-02 9.979999999999999288e-03 -6.145547032356262207e-01 2.266932278871536255e-01 7.556008696556091309e-01
-4.847300000000000220e-02 1.535249999999999948e-01 -3.045499999999999943e-02 -4.480650424957275391e-01 -1.435464024543762207e-01 -8.824013471603393555e-01
-1.137299999999999943e-02 1.636749999999999872e-01 -7.907000000000000833e-03 2.884014844894409180e-01 2.812140583992004395e-01 9.152832031250000000e-01
-5.477300000000000224e-02 1.617540000000000089e-01 -3.073800000000000143e-02 -1.213724464178085327e-01 -2.613649070262908936e-01 -9.575787782669067383e-01
6.527700000000000169e-02 8.987299999999999456e-02 4.130000000000000099e-04 -1.654426753520965576e-01 -6.265542507171630859e-01 -7.616156935691833496e-01
-9.467299999999999327e-02 1.675250000000000072e-01 -3.710000000000000190e-03 -9.830203652381896973e-01 -1.203893274068832397e-01 -1.384821832180023193e-01
-4.148600000000000204e-02 1.027200000000000057e-01 -1.222499999999999976e-02 6.020027399063110352e-01 -6.846050024032592773e-01 -4.109849333763122559e-01
-8.907299999999999940e-02 1.438969999999999971e-01 1.476300000000000008e-02 -2.355394959449768066e-01 -9.680851697921752930e-01 8.562875539064407349e-02
-2.537299999999999972e-02 1.741749999999999965e-01 -3.289999999999999956e-03 5.221716165542602539e-01 8.409710600972175598e-03 8.527988791465759277e-01
3.556900000000000339e-02 1.224859999999999977e-01 7.248000000000000102e-03 -9.196386337280273438e-01 -5.196041986346244812e-02 3.893134593963623047e-01
2.187700000000000061e-02 8.177500000000000047e-02 1.111000000000000008e-02 -6.793717741966247559e-01 -2.573562860488891602e-01 6.871840357780456543e-01
7.892699999999999716e-02 8.667500000000000204e-02 1.875200000000000131e-02 6.646871566772460938e-01 -7.243823409080505371e-01 1.829243153333663940e-01
9.082700000000000495e-02 1.342980000000000007e-01 -9.036999999999999894e-03 5.616427659988403320e-01 -5.365855097770690918e-01 6.297883391380310059e-01
4.132199999999999762e-02 8.108300000000000229e-02 1.326500000000000075e-02 4.881043359637260437e-02 -2.510612607002258301e-01 -9.667398333549499512e-01
-6.036199999999999899e-02 1.395500000000000074e-01 -2.337399999999999894e-02 2.734615206718444824e-01 -9.317333698272705078e-01 -2.389387190341949463e-01
-3.763500000000000179e-02 1.418949999999999934e-01 -1.221999999999999996e-03 2.621594369411468506e-01 -9.593205451965332031e-01 -1.047681793570518494e-01
7.052700000000000635e-02 7.255300000000000638e-02 6.299999999999999990e-05 1.809299886226654053e-01 4.089460670948028564e-01 -8.944425582885742188e-01
3.727699999999999764e-02 1.614180000000000059e-01 -2.058799999999999866e-02 -1.715983152389526367e-01 9.850035309791564941e-01 1.794477365911006927e-02
-3.552299999999999902e-02 7.477499999999999425e-02 2.126799999999999871e-02 -1.659597903490066528e-01 2.961275279521942139e-01 9.406198859214782715e-01
-3.587300000000000211e-02 1.374249999999999916e-01 -2.619999999999999933e-03 5.698094964027404785e-01 5.930352490395307541e-03 8.217553496360778809e-01
-5.302300000000000069e-02 6.952500000000000346e-02 -3.453400000000000220e-02 -5.019862651824951172e-01 4.788342118263244629e-01 -7.202274203300476074e-01
-7.227300000000000391e-02 1.489749999999999963e-01 -9.065999999999999406e-03 -3.347436189651489258e-01 8.600647449493408203e-01 -3.850136101245880127e-01
-1.942299999999999929e-02 1.876279999999999892e-01 -2.268799999999999983e-02 -2.928969562053680420e-01 3.401175141334533691e-01 8.936058878898620605e-01
-7.262299999999999311e-02 1.416379999999999861e-01 -7.287000000000000074e-03 1.551353782415390015e-01 -9.785739779472351074e-01 -1.353734135627746582e-01
-2.146899999999999850e-02 1.236540000000000000e-01 -1.559600000000000049e-02 -3.543220162391662598e-01 5.392217636108398438e-01 7.639998197555541992e-01
4.217699999999999921e-02 5.538900000000000073e-02 1.616199999999999928e-02 1.499351486563682556e-02 -6.947924494743347168e-01 7.190540432929992676e-01
-2.362300000000000164e-02 1.720750000000000057e-01 -1.110200000000000076e-02 -7.662699371576309204e-02 5.427053570747375488e-01 -8.364204764366149902e-01
-2.538599999999999884e-02 5.762500000000000261e-02 -3.703700000000000048e-02 8.122566938400268555e-01 -5.196265578269958496e-01 -2.650045752525329590e-01
-4.402099999999999763e-02 1.010250000000000037e-01 -1.393800000000000074e-02 4.815605878829956055e-01 4.461100101470947266e-01 -7.543773055076599121e-01
6.096900000000000236e-02 1.209749999999999992e-01 -1.043700000000000010e-02 5.792421698570251465e-01 -1.951025873422622681e-01 7.914627790451049805e-01
-8.452300000000000091e-02 1.513720000000000065e-01 1.812999999999999941e-03 -8.368591964244842529e-02 9.641744494438171387e-01 -2.517226040363311768e-01
-2.537299999999999972e-02 1.846750000000000058e-01 -2.737500000000000003e-02 -2.639961540699005127e-01 1.839317977428436279e-01 -9.468237161636352539e-01
-8.662300000000000555e-02 1.605250000000000010e-01 -9.745000000000000190e-03 -4.734440147876739502e-01 -8.336911201477050781e-01 -2.842710018157958984e-01
-2.015300000000000077e-02 6.567499999999999727e-02 2.001199999999999854e-02 2.207618802785873413e-01 6.114609837532043457e-01 7.598550915718078613e-01
-4.392299999999999677e-02 1.304250000000000131e-01 -2.744100000000000011e-02 -2.272521704435348511e-01 -9.436076134443283081e-02 -9.692535400390625000e-01
5.617699999999999777e-02 5.446000000000000146e-02 1.266300000000000064e-02 1.427772343158721924e-01 -9.780188202857971191e-01 1.519662439823150635e-01
7.367700000000000637e-02 1.468089999999999951e-01 -1.323700000000000050e-02 -1.539590656757354736e-01 5.792874693870544434e-01 -8.004515171051025391e-01
-8.312300000000000244e-02 1.419749999999999901e-01 2.048900000000000027e-02 4.145617038011550903e-02 5.966106057167053223e-01 8.014593720436096191e-01
-2.012299999999999853e-02 5.902500000000000108e-02 5.858000000000000360e-03 5.370668768882751465e-01 -7.831421494483947754e-01 -3.134445548057556152e-01
3.867700000000000304e-02 9.682499999999999440e-02 -3.079000000000000140e-03 2.433477491140365601e-01 1.530256718397140503e-01 9.577917456626892090e-01
4.822300000000000197e-02 7.827499999999999736e-02 -7.636999999999999691e-03 7.846614122390747070e-01 3.839469254016876221e-01 -4.867147803306579590e-01
-6.317300000000000693e-02 1.426870000000000083e-01 -1.953699999999999881e-02 5.112824440002441406e-01 -3.878171145915985107e-01 7.669342756271362305e-01
-7.927299999999999625e-02 1.615749999999999964e-01 -1.890400000000000066e-02 -2.067764848470687866e-01 6.249538660049438477e-01 -7.527789473533630371e-01
-1.802300000000000083e-02 1.269250000000000100e-01 -1.989799999999999902e-02 -5.203365087509155273e-01 -1.542672961950302124e-01 -8.399116396903991699e-01
-4.958900000000000113e-02 1.465249999999999886e-01 -2.968700000000000158e-02 -1.146369725465774536e-01 -1.646793261170387268e-02 -9.932709336280822754e-01
2.738700000000000162e-02 5.692500000000000338e-02 -2.478800000000000101e-02 -2.079360038042068481e-01 -4.162772297859191895e-01 -8.851417303085327148e-01
-7.278199999999999947e-02 1.696249999999999980e-01 -1.673799999999999941e-02 -8.460257053375244141e-01 3.905791044235229492e-01 -3.628890812397003174e-01
-3.154900000000000065e-02 1.175029999999999963e-01 -1.570999999999999827e-02 9.476088285446166992e-01 -2.678542435169219971e-01 1.740449070930480957e-01
2.782700000000000104e-02 1.328749999999999931e-01 -5.019000000000000024e-03 -6.441690921783447266e-01 -7.504876852035522461e-01 -1.476974189281463623e-01
-1.259799999999999982e-02 6.112499999999999878e-02 -1.183799999999999956e-02 6.163217425346374512e-01 -4.833087921142578125e-01 6.217396259307861328e-01
-8.767300000000000093e-02 1.713749999999999996e-01 1.152000000000000029e-03 1.942901462316513062e-01 -9.412394165992736816e-01 2.762602865695953369e-01
5.057699999999999696e-02 7.896599999999999453e-02 1.461999999999999975e-03 2.710054814815521240e-01 -9.213936924934387207e-01 -2.785495519638061523e-01
-4.462300000000000294e-02 6.580099999999999838e-02 1.966199999999999892e-02 2.415922135114669800e-01 -9.566006660461425781e-01 -1.629368364810943604e-01
4.952700000000000158e-02 1.563249999999999917e-01 -2.094899999999999887e-02 -1.429154872894287109e-01 7.194217443466186523e-01 -6.797112822532653809e-01
-4.567299999999999832e-02 1.706749999999999934e-01 -3.615000000000000158e-02 -5.088282823562622070e-01 3.408012390136718750e-01 -7.905367016792297363e-01
2.362699999999999870e-02 1.570040000000000047e-01 -2.443800000000000139e-02 -5.448156595230102539e-02 7.808902859687805176e-01 -6.222878694534301758e-01
4.427299999999999985e-02 8.431600000000000206e-02 1.795300000000000021e-02 8.562346100807189941e-01 5.131493806838989258e-01 -5.949748679995536804e-02
-5.932300000000000073e-02 9.367499999999999438e-02 -2.314199999999999938e-02 2.380164265632629395e-01 2.575699985027313232e-01 -9.364858865737915039e-01
3.466799999999999743e-02 5.583400000000000168e-02 3.923000000000000272e-03 7.528856992721557617e-01 -6.417150497436523438e-01 -1.461676508188247681e-01
-2.362300000000000164e-02 7.932500000000000662e-02 -3.632099999999999912e-02 -2.293400317430496216e-01 -2.670437991619110107e-01 -9.359971880912780762e-01
-1.229399999999999937e-02 6.112499999999999878e-02 -1.043700000000000010e-02 7.156376242637634277e-01 -5.073093175888061523e-01 4.801042079925537109e-01
-6.948300000000000309e-02 1.560010000000000008e-01 -1.925599999999999881e-02 -1.699001342058181763e-01 -9.640632867813110352e-01 -2.042446732521057129e-01
2.626999999999999995e-03 1.325250000000000039e-01 -3.434299999999999853e-02 3.947759866714477539e-01 -4.114920794963836670e-01 -8.214780688285827637e-01
-3.387300000000000033e-02 1.468089999999999951e-01 -3.468600000000000155e-02 8.349152207374572754e-01 -5.416069030761718750e-01 -9.786972403526306152e-02
-5.248499999999999693e-02 1.565840000000000010e-01 -1.397000000000000021e-03 -8.677588403224945068e-02 9.927411675453186035e-01 -8.327622711658477783e-02
9.627000000000000141e-03 1.526150000000000007e-01 -2.583699999999999886e-02 -6.447176933288574219e-01 4.742186069488525391e-01 -5.995463132858276367e-01
-9.204700000000000382e-02 1.731250000000000011e-01 4.963000000000000397e-03 -9.432699680328369141e-01 -1.692976355552673340e-01 2.856221795082092285e-01
2.626999999999999995e-03 1.380409999999999970e-01 -3.318800000000000222e-02 3.338976502418518066e-01 -4.016534686088562012e-01 -8.527525663375854492e-01
-4.637299999999999756e-02 1.685750000000000026e-01 -3.586199999999999805e-02 -3.712240159511566162e-01 -1.027914658188819885e-01 -9.228362441062927246e-01
-9.852299999999999947e-02 1.439429999999999876e-01 1.111999999999999924e-03 2.048068642616271973e-01 -9.235275387763977051e-01 3.242700099945068359e-01
-7.872999999999999790e-03 1.927210000000000034e-01 -3.073800000000000143e-02 -4.270335137844085693e-01 7.995061874389648438e-01 -4.224123656749725342e-01
-7.087300000000000544e-02 1.507249999999999979e-01 4.068999999999999700e-03 2.266779541969299316e-01 4.024038612842559814e-01 8.869544863700866699e-01
-3.832300000000000290e-02 9.761100000000000332e-02 -1.113800000000000033e-02 -1.596764028072357178e-01 9.489235281944274902e-01 -2.721169590950012207e-01
-8.063900000000000234e-02 1.640250000000000041e-01 -1.568699999999999956e-02 -1.300259977579116821e-01 7.794454097747802734e-01 -6.128280162811279297e-01
-3.079499999999999946e-02 1.017249999999999960e-01 -1.218699999999999992e-02 -6.774599552154541016e-01 -2.541791796684265137e-01 6.902469992637634277e-01
-3.832300000000000290e-02 7.582500000000000351e-02 2.157200000000000090e-02 1.077491194009780884e-01 3.737472891807556152e-01 9.212508201599121094e-01
1.872700000000000059e-02 6.356399999999999550e-02 3.212000000000000011e-03 -1.029562205076217651e-01 -8.964174389839172363e-01 -4.310868382453918457e-01
3.132700000000000068e-02 5.917499999999999843e-02 -4.788800000000000001e-02 -6.728523373603820801e-01 6.341392993927001953e-01 -3.809686005115509033e-01
1.938799999999999898e-02 5.992200000000000304e-02 7.062999999999999834e-03 1.859439760446548462e-01 -9.044556617736816406e-01 -3.839073181152343750e-01
3.758000000000000229e-02 1.184159999999999935e-01 5.571000000000000431e-03 -1.014424785971641541e-01 3.465798124670982361e-02 -9.942375421524047852e-01
-3.972300000000000136e-02 5.477900000000000130e-02 8.812999999999999653e-03 1.534415930509567261e-01 -8.550484776496887207e-01 4.953259825706481934e-01
-8.923000000000000376e-03 1.447749999999999870e-01 -1.994800000000000045e-02 1.721290796995162964e-01 9.426505565643310547e-01 -2.859745323657989502e-01
1.988399999999999890e-02 7.324999999999999567e-02 -3.480599999999999666e-02 -5.216937065124511719e-01 -3.898623585700988770e-02 8.522415757179260254e-01
1.810799999999999910e-02 6.114499999999999796e-02 5.500999999999999814e-03 8.353208303451538086e-01 1.315129175782203674e-02 -5.496054887771606445e-01
-1.837300000000000044e-02 6.077500000000000263e-02 2.536000000000000060e-02 3.158974274992942810e-02 3.668561577796936035e-01 9.297411441802978516e-01
-4.427299999999999985e-02 1.776169999999999971e-01 -2.338700000000000154e-02 -4.779244065284729004e-01 8.775238990783691406e-01 3.924496471881866455e-02
-3.867299999999999904e-02 1.468750000000000056e-01 1.199999999999999895e-03 1.840372681617736816e-01 -2.266601324081420898e-01 9.564285278320312500e-01
-1.032300000000000058e-02 1.747759999999999869e-01 -9.737000000000000863e-03 5.392051935195922852e-01 6.153942346572875977e-01 5.749326944351196289e-01
-1.315099999999999950e-02 7.232500000000000040e-02 -2.723700000000000079e-02 5.984769463539123535e-01 -4.062130153179168701e-01 -6.905189156532287598e-01
-7.262299999999999311e-02 6.914599999999999913e-02 -2.723700000000000079e-02 1.649100184440612793e-01 9.040286540985107422e-01 3.943815529346466064e-01
-8.047700000000000686e-02 1.483829999999999871e-01 -4.505999999999999589e-03 -2.883309423923492432e-01 7.121829986572265625e-01 -6.400473713874816895e-01
-3.027300000000000130e-02 8.037500000000000200e-02 1.355499999999999934e-02 7.723157405853271484e-01 6.124713420867919922e-01 1.685445606708526611e-01
-4.237900000000000000e-02 1.115249999999999991e-01 -6.237000000000000356e-03 2.249944359064102173e-01 -9.619226455688476562e-01 -1.551853269338607788e-01
-3.928600000000000148e-02 1.061959999999999987e-01 -1.235499999999999966e-02 8.759658336639404297e-01 -4.823422431945800781e-01 5.457882303744554520e-03
-2.225399999999999948e-02 1.467239999999999933e-01 -7.060999999999999568e-03 3.409700989723205566e-01 -8.057704567909240723e-01 4.842245280742645264e-01
-2.439699999999999855e-02 6.077500000000000263e-02 -3.808700000000000280e-02 8.703832626342773438e-01 -3.629728257656097412e-01 -3.326915204524993896e-01
-8.137300000000000089e-02 1.408520000000000050e-01 5.662000000000000366e-03 -6.163622438907623291e-02 -9.789305925369262695e-01 1.946685016155242920e-01
-6.807299999999999462e-02 1.433270000000000099e-01 3.212000000000000011e-03 3.757893145084381104e-01 -9.017131328582763672e-01 2.137659639120101929e-01
-9.313399999999999457e-02 1.640250000000000041e-01 -1.043700000000000010e-02 -6.653801202774047852e-01 -4.833799898624420166e-01 -5.688699483871459961e-01
-5.446200000000000346e-02 1.451149999999999940e-01 -2.057399999999999854e-02 1.218475624918937683e-01 -9.912549853324890137e-01 5.066333338618278503e-02
-8.417299999999999782e-02 1.401959999999999873e-01 -2.386999999999999799e-03 -4.515465721487998962e-02 -9.987350106239318848e-01 2.212241105735301971e-02
-3.692299999999999749e-02 1.591249999999999887e-01 -8.130000000000000291e-04 2.234183698892593384e-01 -7.547251135110855103e-02 9.717963933944702148e-01
-3.622299999999999826e-02 7.162499999999999423e-02 -2.980700000000000016e-02 -7.304488867521286011e-02 5.021598339080810547e-01 -8.616843819618225098e-01
-7.370500000000000662e-02 1.489749999999999963e-01 -7.988000000000000309e-03 -5.620784163475036621e-01 4.416255056858062744e-01 -6.993101239204406738e-01
-5.722300000000000303e-02 1.500249999999999917e-01 7.903999999999999568e-03 -7.872466742992401123e-02 1.565240621566772461e-01 9.845317602157592773e-01
3.146499999999999991e-02 1.237749999999999961e-01 -1.113800000000000033e-02 -8.915667533874511719e-01 -3.956940174102783203e-01 2.203065603971481323e-01
6.362299999999999900e-02 9.122500000000000053e-02 2.863000000000000093e-03 -9.297299385070800781e-01 -2.792360186576843262e-01 2.400614023208618164e-01
-8.612699999999999523e-02 6.287500000000000033e-02 -2.128800000000000137e-02 -7.886335849761962891e-01 4.984102547168731689e-01 -3.600614666938781738e-01
4.812700000000000311e-02 8.160199999999999398e-02 -2.653799999999999909e-02 5.536625161767005920e-02 8.663921952247619629e-01 -4.962852895259857178e-01
-9.082300000000000095e-02 1.762749999999999873e-01 1.541400000000000062e-02 -6.844766139984130859e-01 2.732757329940795898e-01 6.758788228034973145e-01
-9.115600000000000092e-02 1.500420000000000087e-01 -2.781000000000000052e-03 -6.461004018783569336e-01 5.079169869422912598e-01 5.697144269943237305e-01
-7.031700000000000450e-02 7.512499999999999734e-02 -2.513800000000000062e-02 -2.091708481311798096e-01 -8.517553806304931641e-01 -4.803753197193145752e-01
8.802699999999999414e-02 1.304250000000000131e-01 -1.363400000000000029e-02 1.882035881280899048e-01 -4.120478928089141846e-01 -8.915132880210876465e-01
-6.278499999999999359e-02 1.599889999999999923e-01 -1.675899999999999959e-02 1.972550749778747559e-01 -6.901048421859741211e-01 6.963086724281311035e-01
-2.327999999999999861e-02 6.077500000000000263e-02 -3.528699999999999892e-02 8.533757925033569336e-01 -4.570222496986389160e-01 -2.507597208023071289e-01
-2.607299999999999895e-02 1.437249999999999917e-01 -2.641599999999999851e-02 4.267792105674743652e-01 -2.337579149752855301e-03 -9.043528437614440918e-01
6.632699999999999707e-02 1.346249999999999947e-01 -1.592299999999999965e-02 -6.730486154556274414e-01 3.329137265682220459e-01 6.604347229003906250e-01
4.987699999999999773e-02 7.722500000000000198e-02 -5.655999999999999570e-03 7.374032735824584961e-01 5.552911758422851562e-01 -3.845621645450592041e-01
-2.599100000000000021e-02 1.619250000000000134e-01 -1.743799999999999864e-02 8.652999997138977051e-01 3.645802140235900879e-01 3.440018296241760254e-01
-8.977300000000000557e-02 1.625379999999999880e-01 -9.737000000000000863e-03 -4.222352802753448486e-01 -8.489969968795776367e-01 3.176814019680023193e-01
-6.457300000000000539e-02 1.440690000000000026e-01 -1.218699999999999992e-02 1.662259548902511597e-01 -9.707140922546386719e-01 -1.734447181224822998e-01
-6.912300000000000388e-02 1.422009999999999941e-01 -1.337999999999999997e-03 4.245381653308868408e-01 -9.049237966537475586e-01 -2.966982685029506683e-02
2.887699999999999989e-02 7.883199999999999930e-02 1.791200000000000084e-02 -6.764519810676574707e-01 7.939002662897109985e-02 7.321954369544982910e-01
-2.939100000000000046e-02 1.808250000000000135e-01 -5.186999999999999771e-03 8.692123889923095703e-01 -2.409547269344329834e-01 4.317528307437896729e-01
4.170100000000000195e-02 6.484299999999999786e-02 8.946000000000000826e-03 7.343735098838806152e-01 -4.012466371059417725e-01 5.474456548690795898e-01
-7.402300000000000546e-02 1.503750000000000087e-01 5.085000000000000110e-03 3.548004329204559326e-01 2.394182980060577393e-01 9.037674069404602051e-01
-3.867299999999999904e-02 1.332250000000000101e-01 -2.838900000000000104e-02 2.217126786708831787e-01 -7.410341501235961914e-02 -9.722922444343566895e-01
1.242900000000000081e-02 8.032100000000000350e-02 -1.356599999999999993e-02 -5.231074094772338867e-01 4.822940826416015625e-01 -7.026741504669189453e-01
3.839200000000000251e-02 5.512199999999999739e-02 -5.821999999999999918e-03 -3.210295736789703369e-01 -5.617354512214660645e-01 -7.624914646148681641e-01
-8.889099999999999779e-02 1.615749999999999964e-01 -7.636999999999999691e-03 -9.187327027320861816e-01 -3.619172573089599609e-01 -1.579435020685195923e-01
-2.360299999999999898e-02 1.474030000000000062e-01 -8.857000000000000289e-03 -2.591813802719116211e-01 -3.239634037017822266e-01 -9.098750948905944824e-01
7.262699999999999712e-02 1.447749999999999870e-01 -7.525999999999999704e-03 -2.695674300193786621e-01 1.569334119558334351e-01 9.501080513000488281e-01
4.427699999999999692e-02 7.853999999999999870e-02 1.111999999999999924e-03 6.256698966026306152e-01 -4.243176877498626709e-01 6.545927524566650391e-01
-2.642299999999999857e-02 1.026289999999999980e-01 -9.386999999999999511e-03 -7.908175587654113770e-01 5.303528308868408203e-01 3.055050373077392578e-01
4.171500000000000208e-02 6.236400000000000277e-02 9.331000000000000752e-03 6.565935015678405762e-01 5.213106870651245117e-01 -5.450872778892517090e-01
-6.037300000000000305e-02 6.215299999999999991e-02 -2.408700000000000077e-02 -8.310238718986511230e-01 -4.771142005920410156e-01 2.859394550323486328e-01
-2.642200000000000104e-02 1.018249999999999988e-01 -8.200000000000000691e-03 -7.193625569343566895e-01 5.047546625137329102e-01 4.772213399410247803e-01
-6.247300000000000075e-02 1.762749999999999873e-01 -2.358000000000000027e-02 -2.635840773582458496e-01 5.757672190666198730e-01 -7.739610075950622559e-01
-6.757900000000000018e-02 1.759249999999999980e-01 1.461999999999999975e-03 -9.385557770729064941e-01 1.200192123651504517e-01 3.235868811607360840e-01
-2.677300000000000166e-02 1.832749999999999935e-01 -2.707599999999999937e-02 -2.787396013736724854e-01 -2.229510694742202759e-01 -9.341290593147277832e-01
-6.492299999999999460e-02 1.790519999999999889e-01 -1.428699999999999935e-02 -3.771456182003021240e-01 8.405637741088867188e-01 -3.888622820377349854e-01
4.952700000000000158e-02 8.962499999999999634e-02 -1.323700000000000050e-02 5.009803771972656250e-01 -4.183314144611358643e-01 -7.576394081115722656e-01
-8.872299999999999631e-02 1.811520000000000075e-01 -6.369999999999999794e-04 -5.131413936614990234e-01 8.175214529037475586e-01 -2.614279091358184814e-01
-1.016729999999999995e-01 1.566750000000000087e-01 1.315099999999999950e-02 -2.647045254707336426e-01 -2.284206300973892212e-01 9.368861317634582520e-01
-3.377299999999999747e-02 1.741469999999999962e-01 -3.528699999999999892e-02 3.157758712768554688e-01 8.171948790550231934e-01 4.821599125862121582e-01
-9.909600000000000353e-02 1.493250000000000133e-01 1.581199999999999967e-02 -7.819371223449707031e-01 4.772487282752990723e-01 4.010087549686431885e-01
6.544400000000000217e-02 1.095819999999999989e-01 -6.406000000000000236e-03 8.907991647720336914e-02 -2.961256802082061768e-01 9.509860277175903320e-01
5.897700000000000164e-02 7.162499999999999423e-02 -3.285000000000000159e-03 4.982473552227020264e-01 5.329397320747375488e-01 -6.839041709899902344e-01
-7.911700000000000677e-02 1.510650000000000048e-01 8.427999999999999728e-03 3.633117377758026123e-01 6.030126810073852539e-01 -7.101972699165344238e-01
3.786500000000000282e-02 6.392499999999999571e-02 -4.753700000000000286e-02 5.085417628288269043e-01 8.594966530799865723e-01 -5.148449540138244629e-02
-7.542300000000000393e-02 1.519379999999999897e-01 -9.870000000000000301e-04 -1.154778152704238892e-01 9.710563421249389648e-01 -2.090801298618316650e-01
-3.062300000000000091e-02 1.744779999999999942e-01 -3.773699999999999971e-02 2.369080483913421631e-01 9.251675605773925781e-01 2.965461015701293945e-01
-7.748399999999999732e-02 6.917500000000000038e-02 -1.813700000000000034e-02 -5.734468102455139160e-01 3.285532891750335693e-01 -7.504741549491882324e-01
1.795599999999999974e-02 1.201070000000000054e-01 -2.336500000000000035e-02 9.803696870803833008e-01 1.862259954214096069e-01 -6.477088481187820435e-02
3.599299999999999722e-02 1.239650000000000057e-01 5.257000000000000388e-03 -4.753440916538238525e-01 8.071355223655700684e-01 -3.501143753528594971e-01
-6.147400000000000087e-02 1.447930000000000050e-01 -1.400599999999999935e-02 1.683730185031890869e-01 -9.650599360466003418e-01 -2.007730454206466675e-01
-1.417299999999999983e-02 1.843450000000000089e-01 -2.863800000000000026e-02 3.851191997528076172e-01 -8.009408116340637207e-01 -4.584506452083587646e-01
-6.912300000000000388e-02 1.601750000000000118e-01 -2.377500000000000099e-02 -6.419170498847961426e-01 -3.809800371527671814e-02 -7.658269405364990234e-01
4.128500000000000225e-02 1.004189999999999944e-01 1.208399999999999926e-02 1.191238984465599060e-01 -2.440794706344604492e-01 -9.624109268188476562e-01
-4.525900000000000062e-02 6.077500000000000263e-02 2.666299999999999920e-02 6.981495022773742676e-01 -1.777151972055435181e-01 -6.935450434684753418e-01
5.970000000000000306e-02 1.080249999999999960e-01 -1.813700000000000034e-02 2.866904437541961670e-01 -1.739437133073806763e-01 -9.420998692512512207e-01
-1.872300000000000006e-02 6.435299999999999354e-02 2.106299999999999839e-02 9.442678838968276978e-02 9.080777764320373535e-01 4.080176353454589844e-01
6.826999999999999735e-03 5.867499999999999799e-02 2.406999999999999851e-03 -6.342703700065612793e-01 4.462710320949554443e-01 -6.313028335571289062e-01
-3.412300000000000055e-02 5.434100000000000041e-02 -1.638699999999999879e-02 -6.703103333711624146e-02 -9.360857009887695312e-01 3.453264236450195312e-01
-7.787299999999999778e-02 1.519610000000000127e-01 2.863000000000000093e-03 -6.494321674108505249e-02 9.961961507797241211e-01 -5.810074135661125183e-02
2.082699999999999829e-02 1.615749999999999964e-01 -2.016700000000000090e-02 -3.930567502975463867e-01 7.811776995658874512e-01 4.850440621376037598e-01
-1.487300000000000080e-02 6.777500000000000191e-02 2.029699999999999907e-02 2.173964530229568481e-01 -6.523618698120117188e-01 7.260597944259643555e-01
-6.562300000000000078e-02 1.563249999999999917e-01 -2.200300000000000172e-02 -2.333799898624420166e-01 -7.670263051986694336e-01 -5.976658463478088379e-01
-3.485900000000000110e-02 1.753830000000000111e-01 -7.993999999999999370e-03 5.893355011940002441e-01 8.073736429214477539e-01 2.883534319698810577e-02
-6.492299999999999460e-02 8.807500000000000051e-02 1.612399999999999944e-02 -3.305454254150390625e-01 2.101529091596603394e-01 9.200953245162963867e-01
2.362699999999999870e-02 1.566929999999999990e-01 -1.498799999999999959e-02 2.625545859336853027e-02 9.593003988265991211e-01 2.811645567417144775e-01
7.883999999999999342e-02 1.503750000000000087e-01 -8.687000000000000277e-03 -8.401143550872802734e-01 5.333906412124633789e-01 -9.849993884563446045e-02
-2.376199999999999840e-02 1.573749999999999871e-01 -2.548699999999999924e-02 1.518830358982086182e-01 2.619540989398956299e-01 -9.530538320541381836e-01
-8.359800000000000564e-02 1.497070000000000067e-01 1.097000000000000058e-02 2.242708802223205566e-01 8.359822034835815430e-01 -5.008356571197509766e-01
1.007699999999999915e-02 1.542250000000000010e-01 -1.708799999999999902e-02 -8.462595753371715546e-03 9.794533252716064453e-01 -2.014932483434677124e-01
-9.362299999999999789e-02 1.419100000000000084e-01 -2.737999999999999982e-03 -2.895288169384002686e-01 -9.073614478111267090e-01 3.047428727149963379e-01
-1.842900000000000094e-02 8.597499999999999587e-02 1.056200000000000021e-02 2.019399107666686177e-04 8.852639794349670410e-01 4.650889933109283447e-01
-2.187300000000000008e-02 6.602500000000000036e-02 2.045800000000000049e-02 3.806151151657104492e-01 5.950850248336791992e-01 7.078176736831665039e-01
-4.568599999999999745e-02 5.735799999999999926e-02 -2.350000000000000092e-03 -2.613099515438079834e-01 -9.650731086730957031e-01 -1.873629540205001831e-02
-4.777300000000000296e-02 1.496750000000000025e-01 4.912999999999999833e-03 4.289122223854064941e-01 2.807816863059997559e-01 8.586010932922363281e-01
-9.467299999999999327e-02 1.405750000000000055e-01 -6.631999999999999874e-03 -2.487702369689941406e-01 4.368334263563156128e-02 -9.675769209861755371e-01
-7.741000000000000658e-02 1.494179999999999953e-01 6.726000000000000208e-03 3.241417109966278076e-01 5.861660242080688477e-01 7.425237298011779785e-01
-3.237299999999999900e-02 5.517500000000000182e-02 -4.838000000000000286e-03 -1.180968880653381348e-01 -7.973299026489257812e-01 5.918768048286437988e-01
-7.577299999999999314e-02 1.703250000000000042e-01 1.531599999999999975e-02 4.798871278762817383e-01 7.615059018135070801e-01 4.356798231601715088e-01
3.587699999999999917e-02 6.598800000000000499e-02 -3.178700000000000275e-02 -2.422430068254470825e-01 -8.721548914909362793e-01 4.250461757183074951e-01
-3.552299999999999902e-02 6.846900000000000208e-02 -3.773699999999999971e-02 -6.774445176124572754e-01 2.904403805732727051e-01 -6.758056282997131348e-01
4.882700000000000234e-02 7.687499999999999889e-02 -8.467000000000000567e-03 7.157101035118103027e-01 5.763364434242248535e-01 -3.944557905197143555e-01
-2.642299999999999857e-02 1.486979999999999968e-01 -4.053699999999999665e-02 -2.122911512851715088e-01 -9.578927159309387207e-01 -1.933233588933944702e-01
-9.012299999999999478e-02 1.622750000000000026e-01 -4.518000000000000314e-03 4.973558187484741211e-01 -6.646893620491027832e-01 5.575169920921325684e-01
-9.006000000000000116e-02 1.717249999999999888e-01 1.126199999999999944e-02 -7.915648221969604492e-01 -2.828710973262786865e-01 5.416724681854248047e-01
6.553900000000000003e-02 9.717499999999999749e-02 3.912999999999999812e-03 -9.056004881858825684e-01 3.321608006954193115e-01 2.637364566326141357e-01
3.972699999999999843e-02 6.480299999999999949e-02 -3.003700000000000120e-02 -2.583840191364288330e-01 -9.526370167732238770e-01 -1.603758335113525391e-01
6.107699999999999935e-02 5.376700000000000229e-02 -1.337999999999999997e-03 -6.319022774696350098e-01 -7.088074088096618652e-01 -3.135150671005249023e-01
-5.773000000000000353e-03 1.489219999999999988e-01 -2.128800000000000137e-02 -7.085613608360290527e-01 3.751106858253479004e-01 -5.976895093917846680e-01
1.227000000000000009e-03 1.474759999999999960e-01 -2.548699999999999924e-02 -5.740336179733276367e-01 6.722436547279357910e-01 -4.675189852714538574e-01
-4.428800000000000098e-02 5.582199999999999662e-02 -6.892999999999999822e-03 -5.366827920079231262e-02 -8.387874960899353027e-01 5.418074131011962891e-01
-6.805200000000000138e-02 1.594750000000000056e-01 -2.408700000000000077e-02 -2.982384562492370605e-01 -5.608808994293212891e-01 -7.723123431205749512e-01
-3.511399999999999938e-02 5.699699999999999905e-02 -4.079000000000000160e-03 5.628678575158119202e-02 -9.781385064125061035e-01 -2.001918107271194458e-01
-3.482299999999999979e-02 1.671749999999999903e-01 -2.480000000000000108e-04 1.365299224853515625e-01 -3.159974217414855957e-01 9.388850927352905273e-01
4.215399999999999703e-02 6.362500000000000100e-02 7.341999999999999568e-03 5.607550740242004395e-01 -6.339452266693115234e-01 5.326041579246520996e-01
-2.432099999999999887e-02 1.577250000000000041e-01 -1.953699999999999881e-02 9.450765252113342285e-01 1.690596193075180054e-01 2.797304987907409668e-01
3.797699999999999687e-02 1.227250000000000008e-01 8.255999999999999450e-03 -1.306416243314743042e-01 7.696132659912109375e-01 6.250025033950805664e-01
-3.479100000000000248e-02 1.804749999999999965e-01 -2.386999999999999799e-03 6.822780966758728027e-01 -4.184471368789672852e-01 5.994985699653625488e-01
-1.858100000000000029e-02 1.506349999999999911e-01 -1.071300000000000030e-02 -1.431895643472671509e-01 -4.860690236091613770e-01 -8.621099591255187988e-01
-1.490200000000000032e-02 6.007500000000000340e-02 7.762999999999999935e-03 7.826001048088073730e-01 -1.061550229787826538e-01 -6.134070754051208496e-01
