0.61328703 0.59518927 0.65984201 0.00012378 0.00026228 0.00015959
0.62828356 0.55421025 0.49228334 -0.00024351 0.00003218 -0.00003535
0.64272797 0.55870587 0.63601464 0.00022872 -0.00006097 0.00011074
0.33969611 0.56403899 0.42189771 -0.00000322 0.00035784 -0.00002172
0.31810689 0.40251556 0.47939804 -0.00027312 -0.00015622 0.00004880
0.55820966 0.41964284 0.10332702 -0.00014533 -0.00004088 0.00046810
0.50000048 0.54908168 0.37741014 -0.00000004 0.00013224 0.00009851
0.60310996 0.46207899 0.95273745 -0.00001050 -0.00023533 0.00046626
0.38207436 0.56254429 0.70731854 -0.00018443 -0.00007264 0.00006430
0.30171278 0.51060671 0.47164768 -0.00038563 0.00019415 0.00002963
0.38822195 0.56365454 0.82389724 0.00011739 0.00028292 0.00008802
0.30238059 0.48442274 0.86762387 -0.00054613 0.00007082 0.00016515
0.65674698 0.55389547 0.88755924 0.00018656 0.00047790 0.00033950
0.50000018 0.54092109 0.24299194 -0.00000001 0.00009705 -0.00007571
0.51083320 0.54786927 0.45145279 0.00007186 -0.00001699 0.00003460
0.68474388 0.47567937 0.64007252 0.00015892 -0.00004306 -0.00016942
0.29810181 0.47367129 0.46678650 -0.00040036 -0.00009290 -0.00002117
0.32413724 0.39365536 0.49681351 -0.00020900 -0.00025880 0.00004846
0.62815750 0.41241553 0.09288517 -0.00005960 0.00041442 -0.00011035
0.41304412 0.42191795 0.10755728 0.00041604 0.00003475 0.00032440
0.65466267 0.39922938 0.60564756 0.00006998 -0.00024636 0.00017201
0.30663171 0.47042784 0.15517777 -0.00053717 -0.00009396 -0.00021089
0.61984968 0.56224602 0.70268661 0.00019264 -0.00008673 0.00006303
0.31686303 0.54609275 0.44686979 -0.00040207 0.00017165 -0.00005227
0.38530293 0.38787073 0.08254031 -0.00012092 -0.00007746 -0.00008912
0.34806353 0.48999819 0.10834865 -0.00030462 0.00021247 -0.00040992
0.60970038 0.39949268 0.08025479 -0.00001287 0.00033039 0.00006732
0.30765119 0.41132030 0.69329244 -0.00060735 -0.00022638 -0.00002756
0.50000036 0.54902786 0.40530461 -0.00000004 0.00010346 0.00016298
0.35077035 0.52457118 0.14958787 -0.00000835 0.00049114 -0.00025466
0.32289657 0.53170758 0.53107262 -0.00027933 0.00000075 0.00001406
0.66719788 0.56223112 0.85721523 0.00018256 0.00055740 0.00017805
0.69767457 0.47869042 0.69119543 0.00034060 0.00012220 0.00005397
0.52869833 0.54788178 0.45356545 0.00013620 -0.00000107 0.00000032
0.48062423 0.51886052 0.95345271 0.00018788 0.00012772 0.00042825
0.63958287 0.53263211 0.92670071 0.00009243 0.00032853 0.00049792
0.62887967 0.43423149 0.09326253 -0.00006391 -0.00002325 -0.00013394
0.69962716 0.47681963 0.32133707 0.00036659 0.00004565 -0.00006234
0.68932652 0.56730145 0.73937088 0.00024824 0.00040343 -0.00003136
0.67001599 0.42908165 0.63047153 0.00017268 -0.00003256 0.00002868
0.63130552 0.55459297 0.49420428 -0.00025042 0.00002839 -0.00005262
0.35108516 0.55793351 0.61150676 -0.00024072 0.00003303 0.00007090
0.34380925 0.39891303 0.59930700 -0.00007869 -0.00026910 0.00015526
0.50344843 0.56420308 0.81341076 0.00001226 0.00016732 0.00016631
0.47939441 0.48405701 0.04662899 -0.00003582 0.00015804 -0.00042646
0.38262939 0.56449670 0.79738498 0.00004570 0.00024172 0.00004597
0.50000006 0.45855466 0.95031488 -0.00000016 -0.00033345 0.00035034
0.41958582 0.54977143 0.46794456 -0.00007892 0.00006400 -0.00003657
0.31525615 0.47567937 0.64007252 -0.00015893 -0.00004307 -0.00016942
0.30516368 0.48328429 0.15853348 -0.00056374 0.00000694 -0.00024300
0.69136661 0.55390900 0.69680625 0.00019253 0.00029614 -0.00016155
0.50000006 0.46327722 0.95089537 -0.00000016 -0.00030909 0.00036324
0.46067309 0.60069305 0.53049237 0.00000258 0.00025697 -0.00015943
0.44007879 0.48280123 0.05616803 -0.00020667 0.00012539 -0.00037062
0.66470969 0.39700457 0.56108850 0.00013907 -0.00031713 0.00003045
0.59755462 0.56971061 0.74486542 0.00011743 0.00010586 0.00008148
0.68578744 0.55275530 0.39261982 0.00042318 0.00019100 0.00001646
0.56646806 0.42024279 0.10429195 -0.00023735 -0.00002452 0.00044085
0.47949797 0.56457835 0.80860430 -0.00007072 0.00016224 0.00016034
0.61596972 0.55278409 0.48494172 -0.00003814 0.00006779 0.00002715
0.31765234 0.54427856 0.45892912 -0.00036542 0.00017104 -0.00002110
0.30209118 0.51474714 0.71492934 -0.00036031 -0.00011068 0.00021193
0.39848620 0.45020267 0.94816792 0.00004498 -0.00037353 0.00038417
0.57058519 0.42055994 0.10484377 -0.00028151 -0.00001501 0.00042360
0.49999982 0.61296403 0.55508149 -0.00000001 0.00034596 -0.00010924
0.47419900 0.54352313 0.18740484 -0.00009166 0.00023223 -0.00004884
0.64196521 0.55253071 0.70381296 -0.00011716 0.00003014 -0.00001273
0.37686005 0.46164268 0.08915685 -0.00013878 -0.00035884 -0.00018014
0.60950577 0.59087348 0.68023449 0.00013341 0.00020692 0.00014541
0.60563904 0.56436634 0.73468596 0.00012880 0.00002555 0.00007355
0.69913346 0.48352838 0.31790620 0.00036514 0.00008037 -0.00009122
0.50000560 0.54810447 0.45116785 -0.00000007 -0.00001772 0.00003990
0.30495879 0.53173763 0.24468748 -0.00048727 0.00009278 0.00006600
0.33836299 0.55957156 0.51216471 -0.00005456 0.00011344 -0.00007313
0.63554984 0.52643025 0.93364722 0.00002696 0.00025426 0.00053166
0.65872735 0.38834059 0.12757173 0.00010759 -0.00054845 -0.00015758
0.31656501 0.43485248 0.56260526 -0.00040202 0.00007076 -0.00005126
0.40248439 0.47448555 0.95283222 -0.00000271 -0.00015979 0.00044861
0.33828411 0.55991042 0.50811213 -0.00004052 0.00012825 -0.00006726
0.69774461 0.49805242 0.70017308 0.00033820 0.00002890 0.00016049
0.68222749 0.38530338 0.36681563 0.00021767 -0.00033368 0.00008448
0.61235088 0.47019234 0.08247302 0.00021843 -0.00021063 -0.00016792
0.63185769 0.55966103 0.73674607 -0.00000540 0.00005022 -0.00001764
0.53701925 0.56497025 0.80257291 0.00012636 0.00016170 0.00014206
0.50000006 0.55349427 0.89114249 -0.00000012 0.00034054 0.00006409
0.40162107 0.55506665 0.88514984 0.00016139 0.00036868 0.00008355
0.66536415 0.39684358 0.55789089 0.00014297 -0.00031267 0.00003789
0.31368172 0.42583269 0.51441026 -0.00040740 0.00014077 0.00010585
0.54577345 0.41884509 0.10219821 -0.00008883 -0.00006660 0.00048167
0.50000054 0.61288393 0.66862535 -0.00000003 0.00031447 0.00007917
0.39192516 0.56213951 0.84156203 0.00015662 0.00030905 0.00007652
0.39784697 0.52345419 0.93598795 0.00001402 0.00027804 0.00023560
0.66077298 0.53532332 0.65882796 -0.00015536 0.00010473 -0.00003891
0.68977588 0.43734297 0.88369399 0.00062826 -0.00023701 0.00020420
0.62958378 0.56094283 0.74522072 -0.00001157 0.00008246 -0.00001171
0.64022964 0.55580300 0.50016052 -0.00021236 0.00002699 -0.00008438
0.67217088 0.51128459 0.63752264 0.00003116 0.00001087 0.00000014
0.39991564 0.53694916 0.92476773 0.00017881 0.00040525 0.00018537
0.67902374 0.39220372 0.47093856 0.00021590 -0.00027209 0.00003959
0.62632591 0.56249374 0.75807631 -0.00001976 0.00013134 -0.00000432
0.32374150 0.55069560 0.23816295 -0.00008991 0.00054406 -0.00011988
0.50000048 0.54716194 0.31239086 -0.00000003 0.00015459 -0.00000068
0.30575827 0.43546289 0.47008446 -0.00034219 -0.00013137 0.00003410
0.30131757 0.43295294 0.33248138 -0.00041522 -0.00009520 -0.00001146
0.50768077 0.38683483 0.04852932 0.00000100 -0.00024742 -0.00013002
0.60858375 0.58960927 0.68528372 0.00013642 0.00019135 0.00014329
0.66086632 0.41618595 0.63210005 0.00007376 -0.00011989 0.00005876
0.50000018 0.58802497 0.50530261 -0.00000003 0.00016142 -0.00018875
0.50000006 0.51071560 0.95382828 -0.00000098 0.00003057 0.00044366
0.69796962 0.50804466 0.85411346 0.00053591 0.00014474 0.00008369
0.43162242 0.48206475 0.05967364 -0.00023302 0.00011354 -0.00032804
0.69003069 0.40714160 0.40238568 0.00039808 0.00012098 -0.00005032
0.66791576 0.42580730 0.63086659 0.00014844 -0.00005677 0.00004324
0.35520992 0.55024290 0.69586730 0.00016154 0.00004881 0.00000210
0.69503510 0.52537274 0.19994189 0.00046270 0.00032565 -0.00014645
0.35573590 0.38823140 0.10845092 -0.00010494 -0.00029822 -0.00027156
0.34418300 0.54062408 0.66916931 0.00022133 0.00010349 -0.00002150
0.30999103 0.40090284 0.35978675 -0.00042736 -0.00000513 0.00009564
0.47375721 0.60094547 0.52917355 -0.00000198 0.00025805 -0.00015709
0.50000024 0.61878186 0.61766535 -0.00000003 0.00034834 0.00003222
0.30134273 0.52898270 0.83114171 -0.00059043 0.00009891 -0.00001482
0.41295195 0.55021846 0.47066104 -0.00009891 0.00007101 -0.00001519
0.67714423 0.39312053 0.48712000 0.00021213 -0.00026582 0.00004056
0.56157351 0.56551546 0.78970659 0.00009537 0.00016528 0.00010647
0.68311292 0.40534931 0.47832450 0.00028804 -0.00013152 0.00005103
0.33803165 0.56223202 0.47541767 0.00004540 0.00025074 0.00009360
0.68657839 0.42612687 0.15197472 0.00056546 0.00002062 0.00005692
0.31688705 0.40534931 0.47832453 -0.00028805 -0.00013157 0.00005090
0.30891925 0.55964893 0.71018523 -0.00022287 0.00032729 -0.00011842
0.69135100 0.54931283 0.68843365 0.00016997 0.00027083 -0.00018994
0.39720151 0.50078827 0.94629490 -0.00010097 0.00015844 0.00031588
0.39029962 0.39949268 0.08025479 0.00001269 0.00033070 0.00006723
0.68975902 0.52419883 0.66023499 0.00016322 0.00009517 -0.00024063
0.50000030 0.56572479 0.47236586 -0.00000008 0.00005946 -0.00011428
0.68315142 0.46356845 0.63827950 0.00012835 -0.00007184 -0.00017732
0.31277901 0.56985468 0.76016706 -0.00023296 0.00046591 0.00001627
0.32871082 0.54652548 0.21499197 0.00003754 0.00060190 -0.00021187
0.69768238 0.48273450 0.69255716 0.00033811 0.00010434 0.00007535
0.35067543 0.54577243 0.90627950 -0.00020994 0.00043697 0.00039720
0.41325364 0.54491770 0.22627595 -0.00018601 0.00022199 0.00000012
0.66131604 0.56368399 0.44247097 0.00004627 0.00033252 0.00000564
0.55392426 0.38712382 0.05529044 0.00006890 -0.00021061 -0.00010913
0.43612334 0.54357141 0.20786014 -0.00013744 0.00020413 -0.00009357
0.67585844 0.52828377 0.54900354 0.00025858 0.00008048 -0.00002433
0.41140729 0.47881407 0.06927747 -0.00029535 0.00003863 -0.00021500
0.39688379 0.58065188 0.71525794 -0.00014023 0.00011573 0.00014783
0.32550523 0.43324640 0.63497597 -0.00016931 -0.00006166 -0.00007325
0.50000000 0.52381629 0.11411824 -0.00000002 0.00017352 -0.00030325
0.63546175 0.55978554 0.66018647 0.00019289 -0.00010157 0.00014622
0.64932454 0.54577243 0.90627950 0.00021005 0.00043707 0.00039712
0.70025128 0.46269414 0.32663575 0.00037158 -0.00006929 -0.00002254
0.50445086 0.54447222 0.18018590 0.00001851 0.00028795 -0.00002851
0.68558699 0.55215418 0.39864120 0.00042934 0.00017701 0.00002131
0.68163520 0.38454002 0.35702175 0.00021436 -0.00034552 0.00008556
0.50000018 0.54149777 0.24760590 -0.00000002 0.00010341 -0.00010353
0.40570071 0.48681644 0.95199925 -0.00005131 0.00001247 0.00041483
0.68066627 0.39972284 0.48051456 0.00025771 -0.00018311 0.00004496
0.68178988 0.43956369 0.58664703 0.00034549 -0.00000644 0.00001022
0.39233303 0.58827579 0.69031566 -0.00013910 0.00017561 0.00014274
0.69540381 0.45389697 0.87726396 0.00073651 0.00006902 0.00008252
0.69768578 0.44875285 0.68717736 0.00041300 0.00010961 -0.00006526
0.32168868 0.39257449 0.47741485 -0.00021402 -0.00027198 0.00003765
0.30476433 0.52221310 0.27742893 -0.00049024 -0.00015338 -0.00001156
0.56694549 0.54899597 0.46299341 0.00004551 0.00004971 -0.00006354
0.50000060 0.60942274 0.68807614 -0.00000003 0.00030754 0.00010064
0.69755292 0.42546833 0.33285284 0.00044670 -0.00005515 -0.00001752
0.66875863 0.42217153 0.63421434 0.00015539 -0.00009655 0.00000659
0.66108900 0.55869222 0.52635020 0.00011059 0.00007808 -0.00007406
0.56442964 0.56556875 0.78777498 0.00009451 0.00016495 0.00009975
0.64152294 0.55557698 0.31090483 -0.00022480 0.00028684 0.00003669
0.50000060 0.60520613 0.70737499 -0.00000003 0.00030170 0.00011040
0.50000000 0.50442761 0.07412012 -0.00000002 0.00041522 -0.00004217
0.64746273 0.40066019 0.63406712 -0.00000989 -0.00018071 0.00003320
0.37425521 0.48434222 0.09290930 -0.00019967 0.00013832 -0.00026588
0.39727575 0.51418382 0.94115847 -0.00005256 0.00020593 0.00026798
0.53576863 0.54797471 0.45480636 0.00012854 0.00000966 -0.00001945
0.36773381 0.56028545 0.66974962 -0.00019234 -0.00011557 0.00013654
0.49129474 0.60090381 0.52859211 -0.00000254 0.00025389 -0.00014890
0.64338773 0.38022700 0.70700163 -0.00035918 -0.00055617 0.00019421
0.69770128 0.49274305 0.86383551 0.00052874 0.00008617 0.00015707
0.49999997 0.53969508 0.16038290 -0.00000001 0.00027789 -0.00012013
0.67920893 0.38238451 0.33089331 0.00016023 -0.00039939 -0.00016823
0.69868243 0.43295294 0.33248138 0.00041513 -0.00009504 -0.00001155
0.50000054 0.61465359 0.65691054 -0.00000003 0.00032126 0.00006032
0.35842928 0.53552914 0.92294264 -0.00013779 0.00036186 0.00047411
0.47919723 0.41772467 0.10090106 0.00007131 -0.00010688 0.00047391
0.29983595 0.45167518 0.32959324 -0.00037682 -0.00012782 -0.00001380
0.37566161 0.49489820 0.10318302 -0.00005403 0.00036886 -0.00014801
0.56353825 0.54883468 0.46188334 0.00004289 0.00004622 -0.00006560
0.68610054 0.55383843 0.38058600 0.00040881 0.00022022 0.00000596
0.49999997 0.48732543 0.04778945 -0.00000000 0.00023080 -0.00038614
0.70144767 0.46888810 0.46677360 0.00038334 -0.00014627 -0.00001435
0.32062510 0.47589055 0.62833834 -0.00014769 -0.00008887 -0.00002309
0.39436099 0.56436634 0.73468596 -0.00012881 0.00002556 0.00007355
0.65567255 0.53150380 0.16507834 -0.00000061 0.00053587 -0.00024042
0.53086650 0.38693395 0.05063542 0.00002346 -0.00023870 -0.00012803
0.68349802 0.55587792 0.29099897 0.00029509 0.00037914 -0.00005724
0.32024169 0.53829014 0.49506447 -0.00020420 0.00010938 0.00011099
0.32202545 0.53394991 0.51908904 -0.00025111 0.00000862 0.00005166
0.34305590 0.39875489 0.59613347 -0.00008257 -0.00028351 0.00013393
0.32862550 0.39520204 0.52581710 -0.00018002 -0.00027194 0.00007950
0.29946125 0.50169683 0.46961129 -0.00040506 0.00017794 0.00001035
0.50000000 0.50217676 0.07026460 -0.00000001 0.00041016 -0.00006549
0.64336109 0.55141222 0.69982398 -0.00013974 0.00003917 -0.00000512
0.50000030 0.54876310 0.42390063 -0.00000012 0.00006863 0.00015503
0.67885906 0.44512588 0.63607782 0.00012684 -0.00008800 -0.00014357
0.60474813 0.38773748 0.07620493 0.00010205 -0.00006918 -0.00007094
0.61766809 0.46670935 0.08570413 0.00018502 -0.00028494 -0.00017190
0.34246713 0.53902268 0.66553777 0.00020095 0.00010546 -0.00003188
0.30263653 0.46689826 0.87309551 -0.00065606 0.00010505 0.00010057
0.50000030 0.54401886 0.27070567 -0.00000002 0.00012686 -0.00014966
0.51043826 0.51923734 0.95340365 -0.00013149 0.00014488 0.00042198
0.33891100 0.55869222 0.52635020 -0.00011059 0.00007807 -0.00007405
0.69503564 0.52803665 0.20706637 0.00045422 0.00031201 -0.00012173
0.58507925 0.56579947 0.76929891 0.00010523 0.00014088 0.00005645
0.34011790 0.39812148 0.58341819 -0.00010374 -0.00032690 0.00003660
0.53928596 0.54803973 0.45550868 0.00011338 0.00001578 -0.00002993
0.68274879 0.54519862 0.45289987 0.00038498 0.00017417 -0.00004123
0.59429938 0.48681644 0.95199925 0.00005147 0.00001237 0.00041484
0.67679548 0.44258690 0.62908345 0.00016149 -0.00006766 -0.00004185
0.50000006 0.48221469 0.95271629 0.00000001 -0.00036892 0.00041456
0.68405372 0.46967983 0.63913941 0.00014214 -0.00005677 -0.00017644
0.38567790 0.48709205 0.95399630 -0.00018980 0.00012127 0.00058309
0.69937682 0.54088765 0.79321313 0.00057450 -0.00008203 -0.00000241
0.68138421 0.40396553 0.14771661 0.00053877 -0.00028148 0.00009049
0.38027626 0.59897035 0.62888765 -0.00014265 0.00031297 0.00013648
0.30233306 0.47039312 0.68908787 -0.00034996 0.00015298 0.00001297
0.50000024 0.57954198 0.49182901 -0.00000007 0.00011481 -0.00018318
0.31578907 0.43254668 0.55057043 -0.00041815 0.00011993 -0.00001640
0.34145153 0.55559993 0.88264400 -0.00018219 0.00049104 0.00031734
0.41968253 0.56577957 0.77445185 -0.00009936 0.00015139 0.00006501
0.68343502 0.43485248 0.56260520 0.00040202 0.00007081 -0.00005121
0.69574755 0.51649022 0.28725910 0.00045921 -0.00014694 -0.00005878
0.68140012 0.38428032 0.35375649 0.00021052 -0.00035106 0.00006664
0.69766676 0.46615374 0.68833202 0.00035750 0.00016164 -0.00000642
0.68275851 0.38628548 0.37986881 0.00023016 -0.00029558 -0.00001660
0.32202944 0.42236948 0.88862920 -0.00021718 -0.00060408 0.00029654
0.42292863 0.54956532 0.46665341 -0.00006845 0.00006037 -0.00004580
0.57654411 0.51075852 0.95317405 0.00038629 0.00009557 0.00035860
0.30495608 0.52986622 0.25597855 -0.00049836 -0.00000148 0.00006697
0.50000006 0.54571390 0.91951632 0.00000015 0.00052244 0.00001104
0.50000012 0.59205121 0.51217377 -0.00000002 0.00018832 -0.00018010
0.39938119 0.46818218 0.95086598 0.00001716 -0.00019314 0.00041244
0.69676948 0.50712788 0.29917103 0.00040572 -0.00003411 -0.00011357
0.68056589 0.39125130 0.45472783 0.00022335 -0.00025883 0.00006156
0.30496565 0.51802671 0.18651582 -0.00049957 0.00032103 -0.00018212
0.62424290 0.56328094 0.76672882 -0.00002449 0.00016220 0.00000067
0.32777780 0.51235855 0.63169515 -0.00005976 0.00001375 0.00002918
0.50000048 0.54899544 0.36811382 -0.00000003 0.00013825 0.00007088
0.37519965 0.55050820 0.27437034 -0.00000044 0.00026473 0.00011094
0.69732064 0.42670411 0.68951362 0.00054343 -0.00008445 -0.00006350
0.67296708 0.51791579 0.60238278 0.00018069 0.00004489 0.00017194
0.33124140 0.42217153 0.63421440 -0.00015539 -0.00009657 0.00000657
0.30993134 0.40176499 0.36587948 -0.00041961 0.00002118 0.00007090
0.48682752 0.54400784 0.18281263 -0.00004852 0.00026321 -0.00002668
0.50000006 0.54763365 0.91275263 -0.00000002 0.00047229 -0.00000643
0.31599745 0.55612594 0.29692084 -0.00029941 0.00037164 -0.00005057
0.63604641 0.38814193 0.09989947 0.00013894 -0.00019898 -0.00020511
0.30085588 0.45449239 0.46747980 -0.00033049 -0.00025778 0.00001592
0.30880612 0.42615035 0.47206348 -0.00036808 -0.00002046 0.00004535
0.54278988 0.48350894 0.05038339 0.00016612 0.00013332 -0.00043022
0.61142856 0.38782704 0.08035520 0.00011546 -0.00007147 -0.00007981
0.50000024 0.56329262 0.46921733 -0.00000009 0.00005190 -0.00009350
0.69483626 0.48328429 0.15853348 0.00056377 0.00000715 -0.00024298
0.59361088 0.55070275 0.47352570 0.00011098 0.00007710 0.00000733
0.63350546 0.52312398 0.93681264 0.00000898 0.00021747 0.00054098
0.60763866 0.47252023 0.95430517 0.00006704 -0.00012361 0.00052580
0.68620992 0.55431783 0.37457430 0.00040088 0.00023479 0.00000251
0.52958339 0.48378605 0.04773301 0.00007992 0.00014836 -0.00043088
0.69503963 0.53224039 0.23707314 0.00047753 0.00015395 0.00003737
0.65358627 0.52929729 0.15984337 0.00000994 0.00051698 -0.00024695
0.32998401 0.42908165 0.63047153 -0.00017268 -0.00003259 0.00002866
0.59837550 0.54609054 0.23807529 0.00016337 0.00023464 0.00004065
0.61270231 0.56391460 0.81947500 -0.00010486 0.00027693 0.00008369
0.62028229 0.44347915 0.93717825 0.00016165 -0.00051938 0.00028001
0.47130489 0.54793453 0.45372704 -0.00013618 -0.00000119 -0.00000047
0.56011593 0.54868519 0.46082163 0.00004345 0.00004272 -0.00006563
0.34833360 0.57673264 0.53859937 -0.00020425 0.00013438 -0.00011488
0.30496600 0.50791067 0.17453974 -0.00053987 0.00025668 -0.00021963
0.30495504 0.52895045 0.25968102 -0.00050016 -0.00003125 0.00005879
0.68955934 0.44834074 0.15328807 0.00049598 -0.00005432 -0.00009446
0.69103217 0.54119819 0.67680067 0.00015832 0.00021917 -0.00022609
0.30223110 0.50163269 0.70264435 -0.00034033 0.00000701 0.00017813
0.61432213 0.48709205 0.95399630 0.00018967 0.00012138 0.00058314
0.68785965 0.41705051 0.47447219 0.00034118 -0.00005121 0.00005431
0.40443230 0.54577255 0.23504619 -0.00017198 0.00023148 0.00003179
0.68803596 0.41943136 0.47816616 0.00034337 -0.00003116 0.00007822
0.30078176 0.54039758 0.77472585 -0.00053639 -0.00017747 0.00000308
0.46212149 0.54327995 0.19274242 -0.00010764 0.00021120 -0.00008874
0.61614746 0.54872674 0.26059896 0.00007322 0.00025503 0.00009326
0.66727161 0.39635766 0.54828703 0.00015389 -0.00029923 0.00005990
0.68056393 0.56979817 0.80344713 0.00017228 0.00057676 0.00010496
0.32051107 0.56937164 0.80891210 -0.00016744 0.00058640 0.00010788
0.65001756 0.55782300 0.60656929 0.00024021 0.00005044 0.00007553
0.60239768 0.49017376 0.94886929 0.00009433 0.00010450 0.00036848
0.31389356 0.55623871 0.33860078 -0.00034300 0.00031757 -0.00000204
0.59605974 0.47687623 0.07321224 0.00028618 -0.00001990 -0.00018828
0.43646312 0.54885775 0.46195403 -0.00004286 0.00004618 -0.00006574
0.30114031 0.48677695 0.31598836 -0.00036554 0.00008780 -0.00010528
0.38859129 0.54790574 0.25394341 -0.00010346 0.00024944 0.00007942
0.69648814 0.50964075 0.29633346 0.00041705 -0.00006337 -0.00010210
0.40551043 0.55048370 0.90335274 0.00011039 0.00037232 0.00015990
0.66077816 0.55846667 0.53141493 0.00013359 0.00007133 -0.00006248
0.69504601 0.52789110 0.26334184 0.00050074 -0.00006002 0.00004703
0.62618941 0.59887952 0.60339344 0.00018761 0.00031484 0.00008940
0.50000006 0.59593552 0.51912767 -0.00000002 0.00021679 -0.00016612
0.33371696 0.38745666 0.70306206 -0.00008377 -0.00057691 0.00016962
0.31859994 0.38428032 0.35375649 -0.00021055 -0.00035148 0.00006501
0.52624285 0.60094547 0.52917355 0.00000192 0.00025806 -0.00015709
0.30496615 0.49122605 0.16225351 -0.00056320 0.00009067 -0.00024633
0.68345821 0.57055163 0.78707260 0.00019258 0.00054107 0.00008521
0.68823028 0.43981725 0.15297973 0.00050919 0.00000639 -0.00003100
0.67398351 0.39435264 0.50971878 0.00019870 -0.00025895 0.00006535
0.69503397 0.50791067 0.17453974 0.00053993 0.00025698 -0.00021959
0.30966866 0.40792415 0.69437432 -0.00060889 -0.00026363 -0.00001418
0.68530852 0.42915121 0.53250080 0.00042432 0.00016378 0.00005213
0.50688750 0.56427461 0.81253457 0.00002415 0.00016573 0.00016535
0.61355507 0.44619107 0.94149864 0.00007386 -0.00045749 0.00031839
0.63669115 0.55649829 0.72006798 -0.00002813 0.00000982 -0.00002956
0.32113373 0.47969365 0.62866378 -0.00014514 -0.00008239 -0.00001665
0.39990205 0.55124891 0.47660980 -0.00010689 0.00008085 0.00002640
0.65753287 0.53902268 0.66553777 -0.00020097 0.00010548 -0.00003188
0.39557880 0.44932437 0.94666815 0.00002133 -0.00039082 0.00036851
0.70016456 0.46629816 0.32546368 0.00037066 -0.00003852 -0.00002970
0.32487482 0.54976743 0.23235036 -0.00005461 0.00056206 -0.00014547
0.60777289 0.56406206 0.73017728 0.00013583 0.00000935 0.00007500
0.65193641 0.48999819 0.10834865 0.00030459 0.00021250 -0.00040998
0.30230692 0.48669967 0.69413078 -0.00033677 0.00008608 0.00009717
0.31734985 0.57041359 0.79192472 -0.00018604 0.00055227 0.00009283
0.64928752 0.54642862 0.68420190 -0.00022104 0.00007815 0.00001214
0.31029019 0.39837554 0.34149420 -0.00041428 -0.00012762 -0.00000644
0.45838174 0.41861075 0.10189933 0.00008124 -0.00007464 0.00048225
0.61635625 0.59754139 0.64437395 0.00012723 0.00029324 0.00015694
0.61000174 0.44748074 0.94359767 0.00003295 -0.00042707 0.00033854
0.65714455 0.55757517 0.56670779 0.00025189 0.00004467 0.00018089
0.67002439 0.51765704 0.64105803 -0.00000676 0.00003972 -0.00000442
0.33799782 0.39764461 0.57386005 -0.00012086 -0.00033034 0.00001422
0.62161714 0.49139714 0.09904280 0.00007629 0.00030005 -0.00015062
0.68714565 0.43078497 0.15241031 0.00054712 0.00003743 0.00003194
0.50000048 0.54904556 0.37276179 -0.00000003 0.00013543 0.00008538
0.37472373 0.56291193 0.76239508 0.00002248 0.00014716 -0.00000199
0.59730315 0.54555589 0.91336650 -0.00013880 0.00037816 0.00019289
0.64157075 0.53552914 0.92294264 0.00013788 0.00036201 0.00047402
0.31022415 0.43734297 0.88369399 -0.00062819 -0.00023699 0.00020424
0.67931122 0.53722650 0.50107682 0.00020478 0.00008300 0.00010993
0.41045851 0.56578922 0.76376152 -0.00011031 0.00012701 0.00005296
0.33664805 0.53926659 0.18668045 0.00008310 0.00061868 -0.00022471
0.40162444 0.54609054 0.23807529 -0.00016343 0.00023459 0.00004065
0.50000006 0.55138165 0.89913565 -0.00000011 0.00037829 0.00003653
0.30341598 0.42259118 0.69035113 -0.00056640 -0.00012051 -0.00005662
0.66849482 0.39603087 0.54187548 0.00016100 -0.00029061 0.00007147
0.64561427 0.58460420 0.55140609 0.00025816 0.00018308 -0.00004477
0.31489408 0.55083954 0.41069099 -0.00044062 0.00015200 0.00002274
0.38603029 0.56314808 0.71652353 -0.00016418 -0.00004039 0.00007052
0.68956888 0.39755297 0.33539191 0.00039935 -0.00017097 -0.00008142
0.67297369 0.39469513 0.51616275 0.00019089 -0.00026359 0.00007588
0.50000024 0.55831629 0.46300760 -0.00000010 0.00003271 -0.00005059
0.50000042 0.54562533 0.28921753 -0.00000002 0.00014724 -0.00005380
0.30046245 0.50618726 0.47055873 -0.00039371 0.00019163 0.00002082
0.45821932 0.54325014 0.19468002 -0.00010242 0.00020731 -0.00010199
0.32206476 0.39275783 0.48065117 -0.00021327 -0.00027073 0.00003803
0.68020368 0.53933728 0.48904851 0.00021653 0.00012911 0.00010715
0.33802041 0.56198424 0.47952506 0.00004002 0.00024080 0.00006275
0.30203298 0.51767921 0.71852481 -0.00036943 -0.00014718 0.00020902
0.35651162 0.58684516 0.55577791 -0.00027084 0.00018635 -0.00003120
0.59087038 0.38755378 0.06878093 0.00007773 -0.00010297 -0.00007585
0.69815898 0.42920479 0.33272609 0.00042777 -0.00008269 -0.00001295
0.46938348 0.60087425 0.52950567 -0.00000092 0.00025772 -0.00015913
0.70217264 0.47843453 0.46692687 0.00041411 -0.00003764 -0.00002477
0.66130376 0.39780381 0.57704806 0.00011542 -0.00033109 0.00001727
0.66200215 0.39764461 0.57386005 0.00012083 -0.00033035 0.00001425
0.69218558 0.52473134 0.47632545 0.00037832 0.00015089 0.00005220
0.63404816 0.55295265 0.29231969 -0.00011253 0.00027448 0.00009401
0.60165596 0.47925144 0.95038259 0.00004498 -0.00007841 0.00040323
0.62345964 0.59932113 0.61351448 0.00016783 0.00031950 0.00010694
0.32742214 0.51566082 0.61414123 -0.00013820 0.00003246 0.00011129
0.34400895 0.56298059 0.37713993 0.00016685 0.00037131 -0.00006565
0.50000054 0.59888816 0.73020834 -0.00000003 0.00026854 0.00017434
0.31861576 0.40396553 0.14771661 -0.00053898 -0.00028291 0.00009234
0.31176969 0.43981725 0.15297973 -0.00050895 0.00000613 -0.00003073
0.57355320 0.59933501 0.53838712 0.00014751 0.00025666 -0.00009577
0.68482858 0.55012864 0.41671866 0.00044453 0.00014254 0.00001760
0.31425560 0.55648303 0.32665545 -0.00032294 0.00034112 -0.00001011
0.50000024 0.57623690 0.78927642 -0.00000002 0.00023892 0.00014596
0.62913495 0.59784400 0.59341979 0.00021036 0.00029794 0.00005100
0.55228752 0.60031223 0.53274250 0.00002515 0.00025678 -0.00014391
0.69844311 0.52389765 0.83839577 0.00057563 0.00012990 0.00000016
0.44179031 0.41964284 0.10332702 0.00014541 -0.00004081 0.00046818
0.65483201 0.55752587 0.58172518 0.00025016 0.00005670 0.00017467
0.64939338 0.48895878 0.10607129 0.00030762 0.00020838 -0.00039275
0.34157154 0.39843839 0.58978003 -0.00009190 -0.00031220 0.00007614
0.63805342 0.48571032 0.09803960 0.00028662 0.00017311 -0.00033690
0.63984150 0.51389015 0.12999739 -0.00004772 0.00048703 -0.00022303
0.35106736 0.55710441 0.50639135 0.00012814 0.00004552 -0.00009667
0.51031482 0.56434822 0.81161797 0.00003583 0.00016440 0.00016456
0.55047154 0.51581115 0.95360404 0.00019062 0.00012103 0.00041381
0.30496532 0.52204007 0.19307406 -0.00047848 0.00032899 -0.00016561
0.68839556 0.41788101 0.46909192 0.00033987 -0.00004578 0.00002271
0.68303484 0.43601793 0.56861913 0.00039281 0.00005062 -0.00005562
0.31725121 0.54519862 0.45289990 -0.00038499 0.00017414 -0.00004123
0.30060956 0.48020780 0.31969047 -0.00036558 0.00006570 -0.00007654
0.34116328 0.38425416 0.70478666 0.00007855 -0.00058441 0.00019012
0.50000048 0.54893100 0.36346632 -0.00000003 0.00014074 0.00005629
0.30187812 0.52307600 0.72615373 -0.00039353 -0.00022168 0.00018895
0.60258573 0.51735783 0.93956238 0.00003348 0.00022296 0.00025905
0.63767344 0.59227639 0.56914830 0.00027954 0.00020728 0.00000140
0.63400286 0.59507680 0.57882094 0.00025029 0.00025379 0.00001874
0.37063792 0.51609772 0.94247031 -0.00000856 0.00015669 0.00054676
0.60257143 0.49375409 0.94813055 0.00010309 0.00011472 0.00035055
0.68313700 0.54609275 0.44686976 0.00040207 0.00017169 -0.00005227
0.40436906 0.56571084 0.75469702 -0.00011444 0.00010063 0.00005556
0.43489781 0.59978205 0.53585947 -0.00010555 0.00025585 -0.00011263
0.68767875 0.43536967 0.15274061 0.00052627 0.00002948 0.00000143
0.40060136 0.55598301 0.88085043 0.00016699 0.00036825 0.00006308
0.64426404 0.38823140 0.10845092 0.00010357 -0.00029823 -0.00027455
0.31708393 0.38676184 0.38639262 -0.00023497 -0.00027898 -0.00005433
0.36611590 0.56003129 0.66497594 -0.00019153 -0.00010908 0.00014360
0.33922184 0.55846667 0.53141493 -0.00013359 0.00007133 -0.00006247
0.53473032 0.38696018 0.05123356 0.00003141 -0.00023572 -0.00012613
0.50000006 0.55229461 0.89571422 -0.00000012 0.00036014 0.00005057
0.68992954 0.40005052 0.35369164 0.00043320 -0.00003458 0.00010073
0.56997329 0.56566119 0.78367281 0.00009424 0.00016304 0.00008667
0.45007566 0.41909593 0.10253451 0.00010051 -0.00005812 0.00047965
0.48253500 0.60103977 0.52882880 -0.00000338 0.00025738 -0.00015254
0.65144515 0.56075478 0.34932920 -0.00025138 0.00034023 -0.00005036
0.30232731 0.45752814 0.68739092 -0.00037990 0.00015413 -0.00004098
0.66193479 0.56116432 0.49181703 -0.00001117 0.00019655 -0.00001346
0.67831129 0.39257449 0.47741485 0.00021398 -0.00027200 0.00003779
0.60281312 0.51093394 0.94262856 0.00007126 0.00019385 0.00027681
0.36595184 0.55295265 0.29231969 0.00011246 0.00027444 0.00009403
0.65834206 0.56380206 0.39736313 -0.00009129 0.00037704 -0.00005200
0.34709606 0.56152695 0.35720465 0.00022958 0.00035020 -0.00006016
0.57272273 0.38732794 0.06113474 0.00008051 -0.00016414 -0.00008811
0.43276960 0.56561744 0.78576446 -0.00009432 0.00016422 0.00009303
0.34780881 0.56115496 0.35325924 0.00024145 0.00034537 -0.00005524
0.42593372 0.54402983 0.21537979 -0.00016990 0.00021022 -0.00005423
0.38143623 0.59860617 0.63404363 -0.00013630 0.00030774 0.00014479
0.40761772 0.47789419 0.07124975 -0.00029264 0.00001136 -0.00020051
0.68804562 0.40471080 0.69548619 0.00060115 -0.00030300 0.00000173
0.69597369 0.51432633 0.29037338 0.00044378 -0.00012042 -0.00007430
0.67374742 0.52135175 0.58466882 0.00019878 0.00013445 0.00004076
0.33805698 0.56246614 0.47130638 0.00004705 0.00025901 0.00012259
0.69845814 0.45129779 0.46778461 0.00032484 -0.00025770 0.00002086
0.62679017 0.55097955 0.27790004 -0.00002057 0.00026690 0.00011171
0.40021425 0.46080053 0.95063132 0.00004816 -0.00025365 0.00041099
0.33014017 0.54528743 0.20923406 0.00005913 0.00061133 -0.00022343
0.56084824 0.59997672 0.53472817 0.00007751 0.00025614 -0.00012361
0.32974601 0.39553580 0.53224546 -0.00017223 -0.00027868 0.00008021
0.30217090 0.50844586 0.70830274 -0.00034760 -0.00004521 0.00020343
0.59439927 0.38759992 0.07052764 0.00008144 -0.00009155 -0.00007371
0.31541404 0.43140641 0.54454952 -0.00042316 0.00014143 0.00000718
0.62641543 0.42662656 0.09168778 -0.00009699 0.00031697 -0.00009266
0.41492078 0.56579947 0.76929891 -0.00010529 0.00014087 0.00005645
0.40244535 0.56971061 0.74486542 -0.00011745 0.00010585 0.00008148
0.50000006 0.53328413 0.94490224 -0.00000067 0.00038657 0.00030573
0.31703159 0.38699651 0.38965380 -0.00023679 -0.00027183 -0.00006569
0.68631828 0.42583269 0.51441026 0.00040741 0.00014082 0.00010584
0.50000006 0.56593180 0.81071472 -0.00000003 0.00018103 0.00016520
0.35008228 0.40018106 0.62461507 -0.00002589 -0.00020027 0.00011169
0.67397755 0.50493497 0.63454390 0.00006527 -0.00001538 0.00000307
0.34081218 0.53725725 0.66208720 0.00017860 0.00010550 -0.00003841
0.58053660 0.54443604 0.22070877 0.00018315 0.00021586 -0.00002575
0.30696106 0.44549420 0.88038611 -0.00073462 -0.00003752 0.00012255
0.60402638 0.58229631 0.71029460 0.00014132 0.00012414 0.00014823
0.55269653 0.56533217 0.79504883 0.00010322 0.00016472 0.00012405
0.69953758 0.50618726 0.47055870 0.00039370 0.00019173 0.00002084
0.30601668 0.47480184 0.15603966 -0.00054835 -0.00006860 -0.00022509
0.30185515 0.51487792 0.84826851 -0.00055043 0.00015239 0.00004296
0.68277317 0.38879353 0.41572094 0.00023717 -0.00024928 0.00001589
0.65258950 0.40405431 0.63387543 0.00003469 -0.00015999 0.00003008
0.63502026 0.48516983 0.09642369 0.00026817 0.00016122 -0.00032443
0.43473282 0.38724262 0.05858158 -0.00007938 -0.00018550 -0.00009610
0.68300515 0.38791239 0.40269256 0.00023983 -0.00025364 -0.00005368
0.34126905 0.56389582 0.40143526 0.00007522 0.00037559 -0.00004775
0.42358747 0.38737196 0.06251933 -0.00008001 -0.00015202 -0.00008453
0.69769460 0.44432634 0.68733102 0.00043368 0.00007582 -0.00007197
0.34695208 0.55759108 0.59169263 -0.00024088 0.00007652 0.00012020
0.30123308 0.53121901 0.82732981 -0.00059662 0.00007972 -0.00001824
0.31195435 0.40471080 0.69548619 -0.00060112 -0.00030299 0.00000172
0.30218014 0.50064170 0.85931730 -0.00052722 0.00011848 0.00012611
0.37782910 0.55347782 0.48854819 0.00017128 0.00004625 -0.00000063
0.69887722 0.53323895 0.82340181 0.00060198 0.00005845 -0.00001948
0.69833994 0.52106744 0.84182662 0.00056732 0.00014113 0.00001176
0.31806481 0.54333407 0.46495706 -0.00034288 0.00016320 0.00000513
0.39058837 0.47175339 0.08073293 -0.00023377 -0.00017250 -0.00016849
0.31059331 0.39674041 0.32928720 -0.00038695 -0.00020366 -0.00016213
0.34821728 0.55755812 0.50852567 0.00009223 0.00005487 -0.00009730
0.34933481 0.56032586 0.34541520 0.00026173 0.00033497 -0.00004386
0.51539630 0.38685578 0.04894966 0.00000408 -0.00024590 -0.00013030
0.34348696 0.38832986 0.12419729 -0.00009142 -0.00051693 -0.00020662
0.31777251 0.38530338 0.36681569 -0.00021786 -0.00033375 0.00008541
0.34847516 0.39986309 0.61830175 -0.00004424 -0.00021355 0.00014635
0.61428124 0.59606636 0.65469611 0.00012355 0.00027372 0.00016101
0.63885325 0.38817394 0.10267550 0.00013141 -0.00022657 -0.00022746
0.39806181 0.48291650 0.94999421 -0.00006203 -0.00001933 0.00039596
0.36929023 0.56032681 0.74097311 0.00000801 0.00006586 -0.00001403
0.65748495 0.56354541 0.38924444 -0.00012361 0.00037754 -0.00005828
0.38789070 0.48237923 0.95443863 -0.00015040 0.00003289 0.00057287
0.66389441 0.38835254 0.13633750 0.00015867 -0.00060403 -0.00000613
0.62782794 0.43051493 0.09260146 -0.00008288 0.00014006 -0.00011605
0.63849401 0.55932194 0.65056121 0.00020519 -0.00008958 0.00014094
0.50231278 0.48527732 0.04545457 0.00000154 0.00018822 -0.00043838
0.34603614 0.55754912 0.58671355 -0.00024418 0.00007133 0.00014528
0.50596559 0.51934105 0.95338672 -0.00008133 0.00015036 0.00042021
0.39891058 0.53188020 0.92965305 0.00010806 0.00038884 0.00018457
0.30990714 0.56528676 0.72933215 -0.00024629 0.00037496 -0.00005896
0.59751564 0.47448555 0.95283222 0.00000264 -0.00015977 0.00044862
0.51937580 0.51886052 0.95345271 -0.00018840 0.00012781 0.00042824
0.54654580 0.56519395 0.79825473 0.00011413 0.00016356 0.00013232
0.60493523 0.58388329 0.70531982 0.00014203 0.00013459 0.00014675
0.39696902 0.47453207 0.07706156 -0.00026477 -0.00009258 -0.00017225
0.48849049 0.48451921 0.04591078 -0.00001207 0.00016829 -0.00042911
0.36203456 0.55558211 0.71596164 0.00004910 0.00001157 -0.00002855
0.68633056 0.55549103 0.35656455 0.00037368 0.00027738 0.00000156
0.37913334 0.50037158 0.95077091 -0.00015084 0.00013683 0.00055185
0.58041501 0.54975778 0.46790248 0.00007882 0.00006406 -0.00003645
0.30243653 0.47131926 0.87185764 -0.00062185 0.00009789 0.00012062
0.68887275 0.56811935 0.74448806 0.00024676 0.00041828 -0.00001987
0.69984007 0.47336832 0.32284185 0.00036794 0.00002068 -0.00004955
0.33487746 0.52858067 0.65016061 0.00008724 0.00008621 -0.00002496
0.35466453 0.55835551 0.62624896 -0.00023694 -0.00002584 0.00008435
0.56733733 0.54370344 0.21030147 0.00014885 0.00020580 -0.00008177
0.50000000 0.51670510 0.09782942 -0.00000002 0.00017348 -0.00033537
0.68238759 0.38555264 0.37007958 0.00022127 -0.00032372 0.00005944
0.38671303 0.59518927 0.65984201 -0.00012381 0.00026227 0.00015959
0.35485682 0.55721039 0.32228047 0.00027244 0.00030007 0.00000421
0.43842655 0.56551546 0.78970659 -0.00009547 0.00016526 0.00010648
0.35273248 0.38093296 0.70663327 0.00029144 -0.00056584 0.00019667
0.38357309 0.56447637 0.80179626 0.00005560 0.00024981 0.00005432
0.68028539 0.39144486 0.45797217 0.00022173 -0.00026220 0.00005588
0.57707232 0.54955000 0.46660638 0.00006835 0.00006043 -0.00004568
0.37184241 0.41241553 0.09288517 0.00006033 0.00041533 -0.00011118
0.36599717 0.59507680 0.57882094 -0.00025030 0.00025377 0.00001875
0.58287942 0.42156720 0.10679921 -0.00038881 0.00002046 0.00035494
0.31696516 0.43601793 0.56861913 -0.00039281 0.00005058 -0.00005566
0.47616139 0.51858836 0.95348138 0.00018931 0.00011606 0.00043323
0.50000006 0.52667165 0.95048761 -0.00000090 0.00027417 0.00036544
0.51800972 0.54783630 0.45212445 0.00010875 -0.00001278 0.00002372
0.69131333 0.55597287 0.70116186 0.00020343 0.00030690 -0.00014753
0.41632581 0.54466772 0.22346334 -0.00018594 0.00021886 -0.00001237
0.32267818 0.55154967 0.24398819 -0.00012555 0.00052337 -0.00009801
0.60220349 0.57895231 0.72021109 0.00013742 0.00011032 0.00014432
0.65581697 0.54062408 0.66916931 -0.00022135 0.00010350 -0.00002149
0.31554708 0.55631328 0.30285156 -0.00030134 0.00036850 -0.00004013
0.38364381 0.59754139 0.64437395 -0.00012725 0.00029322 0.00015695
0.58734900 0.56579828 0.76657933 0.00010754 0.00013406 0.00005542
0.51712453 0.56450051 0.80965501 0.00005902 0.00016265 0.00016229
0.53842539 0.48360151 0.04934672 0.00014882 0.00013597 -0.00043424
0.68574446 0.55648303 0.32665545 0.00032293 0.00034116 -0.00001010
0.65432531 0.49111074 0.11068465 0.00030759 0.00022082 -0.00042293
0.63024026 0.38807210 0.09457010 0.00014338 -0.00015266 -0.00016362
0.50000000 0.56413412 0.81424862 -0.00000003 0.00016912 0.00016774
0.64315575 0.55622673 0.50220788 -0.00018791 0.00003107 -0.00008983
0.37580892 0.38799554 0.08953686 -0.00013672 -0.00011478 -0.00012927
0.30232152 0.45315579 0.68719566 -0.00039510 0.00013626 -0.00005476
0.56035203 0.54346097 0.20548612 0.00012639 0.00020302 -0.00010321
0.56416398 0.48246974 0.05788527 0.00021899 0.00012043 -0.00035005
0.32757270 0.51454800 0.62000412 -0.00011279 0.00002549 0.00008122
0.60331309 0.55152911 0.47818321 0.00009557 0.00008147 0.00003334
0.60270560 0.49729422 0.94727290 0.00010471 0.00013870 0.00033263
0.39525190 0.38773748 0.07620493 -0.00010243 -0.00006894 -0.00007077
0.68937427 0.39666289 0.32926461 0.00038643 -0.00020398 -0.00016188
0.31708685 0.40803486 0.14889312 -0.00056259 -0.00020862 0.00009635
0.66512257 0.52858067 0.65016061 -0.00008725 0.00008622 -0.00002496
0.30496100 0.53226388 0.23325975 -0.00047193 0.00018297 0.00001827
0.30232543 0.47869042 0.69119543 -0.00034060 0.00012218 0.00005396
0.69336826 0.47042784 0.15517777 0.00053708 -0.00009458 -0.00021097
0.49999997 0.38682756 0.04838936 0.00000003 -0.00024791 -0.00012987
0.69768512 0.43099269 0.68876833 0.00051596 -0.00004589 -0.00006928
0.35864085 0.55889976 0.64087749 -0.00022173 -0.00007336 0.00012316
0.59563094 0.56571084 0.75469702 0.00011441 0.00010064 0.00005556
0.38129887 0.49608755 0.95215094 -0.00018018 0.00013572 0.00056162
0.58470279 0.47963932 0.06730696 0.00028797 0.00006112 -0.00023569
0.31285429 0.43078497 0.15241031 -0.00054653 0.00003639 0.00003223
0.50000024 0.57508308 0.48523659 -0.00000011 0.00009049 -0.00017446
0.65107423 0.55772865 0.60162085 0.00023961 0.00006452 0.00008520
0.32118046 0.39561516 0.48226866 -0.00023185 -0.00023091 0.00004111
0.50000048 0.61618388 0.64516628 -0.00000003 0.00032829 0.00004862
0.33150518 0.39603087 0.54187548 -0.00016104 -0.00029059 0.00007140
0.31973368 0.38321400 0.34069291 -0.00018242 -0.00038129 -0.00007411
0.32782915 0.51128459 0.63752264 -0.00003117 0.00001085 0.00000014
0.60272431 0.51418382 0.94115847 0.00005274 0.00020599 0.00026790
0.65152484 0.39986309 0.61830175 0.00004421 -0.00021355 0.00014639
0.30864894 0.54931283 0.68843365 -0.00016997 0.00027081 -0.00018993
0.54023159 0.56504649 0.80119610 0.00012924 0.00016187 0.00013823
0.55657637 0.60015321 0.53368837 0.00004961 0.00025650 -0.00013439
0.67408347 0.41912121 0.88924778 0.00009306 -0.00067935 0.00029717
0.31771737 0.38964221 0.42873737 -0.00023210 -0.00025113 0.00006914
0.61744213 0.59812796 0.63920730 0.00013112 0.00030116 0.00015168
0.30293790 0.50450754 0.30190805 -0.00039572 -0.00000542 -0.00012283
0.65619075 0.39891303 0.59930700 0.00007866 -0.00026910 0.00015527
0.32505301 0.39400616 0.50326902 -0.00020472 -0.00025742 0.00005636
0.32049510 0.40020517 0.14634907 -0.00050460 -0.00035795 0.00008355
0.50000000 0.49748793 0.06264392 -0.00000001 0.00037480 -0.00014257
0.45422649 0.41884509 0.10219818 0.00008891 -0.00006657 0.00048172
0.50000042 0.58993596 0.75638306 -0.00000003 0.00023415 0.00022214
0.55139536 0.48325756 0.05299323 0.00018496 0.00013098 -0.00040739
0.59102005 0.42227435 0.10837161 -0.00044871 0.00005181 0.00029463
0.69517958 0.43860427 0.46952307 0.00033289 -0.00017172 0.00003138
0.65891153 0.56426024 0.52216166 0.00009064 0.00011399 -0.00009755
0.54628307 0.54820657 0.45707330 0.00007871 0.00002679 -0.00004761
0.29983544 0.46629816 0.32546368 -0.00037066 -0.00003884 -0.00002969
0.68973297 0.56635833 0.73431712 0.00024809 0.00038897 -0.00004465
0.37826297 0.56195098 0.69803542 -0.00019814 -0.00009924 0.00006676
0.38806131 0.56345224 0.72109568 -0.00015399 -0.00002439 0.00007439
0.65412414 0.54215252 0.67286819 -0.00023730 0.00010012 -0.00001010
0.38348052 0.49166128 0.95322990 -0.00019246 0.00012723 0.00057243
0.30673724 0.43233868 0.47069544 -0.00035467 -0.00008279 0.00003714
0.38571873 0.59606636 0.65469611 -0.00012358 0.00027370 0.00016101
0.68519747 0.55651146 0.31473801 0.00030759 0.00035881 -0.00002098
0.31448746 0.40168169 0.69661552 -0.00058034 -0.00034516 0.00002074
0.69190508 0.46155310 0.15404534 0.00051387 -0.00011071 -0.00017335
0.67948890 0.56937164 0.80891210 0.00016744 0.00058643 0.00010785
0.30989110 0.40263692 0.37196979 -0.00041088 0.00003909 0.00003650
0.67886627 0.47969365 0.62866378 0.00014513 -0.00008238 -0.00001665
0.30225539 0.49805242 0.70017308 -0.00033820 0.00002889 0.00016049
0.69608110 0.41805267 0.33274069 0.00050610 0.00004085 -0.00002861
0.30495957 0.53206444 0.24088462 -0.00048224 0.00012444 0.00005493
0.69503468 0.52204007 0.19307406 0.00047852 0.00032897 -0.00016570
0.59448957 0.55048370 0.90335274 -0.00011039 0.00037243 0.00015981
0.57733393 0.54422325 0.21801373 0.00017774 0.00021296 -0.00003982
0.29855236 0.46888810 0.46677360 -0.00038334 -0.00014634 -0.00001437
0.30863336 0.55390900 0.69680625 -0.00019253 0.00029612 -0.00016153
0.30213454 0.51166487 0.71149987 -0.00035315 -0.00007636 0.00020998
0.37112030 0.43423149 0.09326253 0.00006407 -0.00002316 -0.00013418
0.69796705 0.51767921 0.71852481 0.00036943 -0.00014718 0.00020902
0.33940297 0.39796275 0.58023411 -0.00010970 -0.00033007 0.00002454
0.34127262 0.38834059 0.12757173 -0.00010814 -0.00054905 -0.00015552
0.33090854 0.39586654 0.53866720 -0.00016473 -0.00028638 0.00007555
0.30496314 0.53080422 0.21811870 -0.00045503 0.00027166 -0.00007167
0.60900384 0.56258923 0.83715183 -0.00014911 0.00030189 0.00008403
0.61737061 0.56449670 0.79738498 -0.00004572 0.00024174 0.00004590
0.59431005 0.59784454 0.54614049 0.00010477 0.00027861 -0.00011278
0.63796544 0.55558211 0.71596164 -0.00004911 0.00001156 -0.00002855
0.37975025 0.56426758 0.78418952 0.00002939 0.00021315 0.00002094
0.36994064 0.59355581 0.56445694 -0.00016970 0.00026246 -0.00004606
0.68858069 0.51176858 0.65222228 0.00018607 0.00003253 -0.00019650
0.48199421 0.54790121 0.45232370 -0.00010876 -0.00001288 0.00002265
0.50000000 0.53836024 0.22455792 -0.00000001 0.00005130 0.00011953
0.55311239 0.54330677 0.20094626 0.00010849 0.00020244 -0.00011408
0.39049429 0.59087348 0.68023449 -0.00013344 0.00020691 0.00014541
0.66041440 0.55826694 0.53647476 0.00015781 0.00006726 -0.00004522
0.52580100 0.54352313 0.18740484 0.00009165 0.00023224 -0.00004883
0.68003911 0.44440526 0.61065203 0.00023815 -0.00007971 0.00006930
0.66788816 0.39619455 0.54508209 0.00015742 -0.00029489 0.00006616
0.65781653 0.55763334 0.56168598 0.00024620 0.00004973 0.00015451
0.39506483 0.58388329 0.70531982 -0.00014205 0.00013457 0.00014676
0.31162894 0.56881523 0.74966329 -0.00024372 0.00043363 -0.00000917
0.50000036 0.61783910 0.62946665 -0.00000003 0.00033845 0.00004380
0.32283065 0.56827527 0.81982034 -0.00016285 0.00059920 0.00011023
0.50000054 0.54837978 0.34023762 -0.00000003 0.00014932 0.00000838
0.40265605 0.55410439 0.88943172 0.00015292 0.00036879 0.00010352
0.50000018 0.57289737 0.79646683 -0.00000002 0.00022008 0.00015721
0.66909146 0.39586654 0.53866720 0.00016469 -0.00028641 0.00007562
0.69781989 0.50064170 0.85931730 0.00052728 0.00011846 0.00012608
0.64985067 0.55986774 0.34151787 -0.00026911 0.00032938 -0.00003755
0.66335189 0.53926659 0.18668045 -0.00008309 0.00061872 -0.00022473
0.62739295 0.56202614 0.75377351 -0.00001752 0.00011537 -0.00000721
0.30104116 0.53789449 0.76082778 -0.00050169 -0.00024391 0.00002070
0.65178275 0.55755806 0.50852555 -0.00009225 0.00005488 -0.00009732
0.40089080 0.42299986 0.11017664 0.00052264 0.00008813 0.00023647
0.59550011 0.54899848 0.90683222 -0.00011832 0.00037402 0.00017323
0.59943640 0.57354665 0.73502135 0.00012336 0.00010730 0.00011118
0.39415595 0.58541042 0.70033252 -0.00014200 0.00014676 0.00014491
0.60099453 0.47187835 0.95081741 0.00000120 -0.00016345 0.00041107
0.36041719 0.53263211 0.92670071 -0.00009235 0.00032838 0.00049800
0.44771251 0.60031223 0.53274250 -0.00002523 0.00025677 -0.00014390
0.36569592 0.55498666 0.49615991 0.00024575 0.00002587 -0.00006681
0.29773936 0.48317060 0.46719673 -0.00042331 0.00001436 -0.00002484
0.64405352 0.55852419 0.63113827 0.00023373 -0.00004486 0.00009703
0.34892574 0.55772865 0.60162085 -0.00023962 0.00006451 0.00008521
0.31017008 0.39920807 0.34759414 -0.00043172 -0.00007252 0.00007003
0.31012431 0.40901035 0.41453537 -0.00039956 0.00014965 -0.00001029
0.32552883 0.39417994 0.50649464 -0.00020213 -0.00025745 0.00006028
0.49999982 0.61157763 0.55135399 -0.00000001 0.00033537 -0.00011653
0.50000018 0.54834497 0.44249174 -0.00000011 0.00001423 0.00008210
0.67958146 0.38266391 0.33415997 0.00016776 -0.00039363 -0.00013537
0.46950385 0.56481451 0.80514956 -0.00010587 0.00016184 0.00015088
0.36424419 0.59380776 0.57407057 -0.00026544 0.00023241 0.00001052
0.69326276 0.43233868 0.47069541 0.00035467 -0.00008272 0.00003722
0.50000000 0.52708107 0.12238582 -0.00000002 0.00020704 -0.00023143
0.69736350 0.46689826 0.87309551 0.00065612 0.00010504 0.00010053
0.40631512 0.56574589 0.75782251 -0.00011326 0.00010990 0.00005412
0.66381824 0.55994022 0.86751783 0.00018013 0.00053313 0.00023358
0.40477633 0.55204207 0.89793849 0.00012658 0.00037004 0.00013915
0.50000018 0.55318964 0.45691860 -0.00000011 0.00000889 -0.00000621
0.49999997 0.48996741 0.05145246 -0.00000001 0.00027666 -0.00031219
0.40051204 0.53930116 0.92212290 0.00018561 0.00040043 0.00018977
0.37536964 0.42256293 0.09050997 0.00010519 0.00039913 -0.00006662
0.31214038 0.41705051 0.47447222 -0.00034118 -0.00005130 0.00005419
0.62463033 0.42256293 0.09050997 -0.00010494 0.00039887 -0.00006621
0.33945134 0.56400591 0.42600608 -0.00001617 0.00035310 -0.00001643
0.50000006 0.53604275 0.94146889 -0.00000052 0.00042921 0.00028121
0.66017461 0.55897826 0.51509076 0.00004285 0.00009323 -0.00008160
0.35803476 0.55253071 0.70381296 0.00011714 0.00003014 -0.00001273
0.31007048 0.40005052 0.35369164 -0.00043367 -0.00003419 0.00010157
0.35071248 0.54642862 0.68420190 0.00022102 0.00007814 0.00001214
0.68420815 0.54860663 0.42877769 0.00044309 0.00013556 -0.00000238
0.37871492 0.56410545 0.77967072 0.00002817 0.00020173 0.00001364
0.66163695 0.55957156 0.51216471 0.00005455 0.00011345 -0.00007314
0.34689310 0.39954597 0.61197919 -0.00005871 -0.00022864 0.00016698
0.36577618 0.55817974 0.72835875 0.00000372 0.00002160 -0.00002537
0.50000054 0.54852182 0.34488195 -0.00000003 0.00014797 0.00001400
0.58007419 0.38741672 0.06397613 0.00007899 -0.00013948 -0.00008156
0.69424319 0.41075033 0.33212116 0.00050010 -0.00000133 -0.00005170
0.60193825 0.48291650 0.94999421 0.00006198 -0.00001930 0.00039596
0.57265586 0.56569964 0.78149778 0.00009453 0.00016123 0.00008092
0.63575578 0.59380776 0.57407057 0.00026543 0.00023243 0.00001051
0.54366195 0.60058141 0.53114218 -0.00000272 0.00025694 -0.00015665
0.49999982 0.61722147 0.57038510 -0.00000002 0.00036902 -0.00008282
0.61870110 0.49608755 0.95215094 0.00018003 0.00013583 0.00056167
0.62523854 0.55383784 0.49039587 -0.00022303 0.00003691 -0.00001826
0.66003668 0.56405216 0.41779375 -0.00001022 0.00036195 -0.00002795
